60.2325 -125.851 -5.56168
62.656 -113.714 -8.9795
60.1362 -133.421 -7.01964
60.2657 -139.272 -8.48706
61.9984 -131.749 -11.7492
57.655 -135.125 -2.35377
55.8055 -94.6889 7.46048
56.8316 -87.7455 8.01467
52.5998 -95.211 12.8518
55.1316 -104.356 6.35996
58.9917 -94.6516 1.84246
65.4605 -95.0286 -12.6058
64.9183 -102.579 -12.8634
66.5602 -94.5577 -18.2895
66.0432 -89.2861 -12.7152
63.6174 -94.8701 -7.95724
69.8886 -58.7558 17.7961
71.8335 -54.7825 18.5087
68.4228 -59.9323 26.1081
67.8211 -62.6184 16.4244
71.1049 -58.2205 9.54514
78.8092 42.9274 -7.38192
80.307 49.4216 -13.8047
73.6206 48.7588 2.35725
77.9454 36.4329 -2.42851
83.5323 38.0921 -18.3903
87.7593 38.4899 -61.2454
87.0289 32.827 -69.6528
85.9594 44.1917 -68.0018
87.9204 43.1353 -51.5246
88.8351 32.3851 -54.6931
10.7186 -110.335 49.0652
7.39235 -110.562 50.0815
10.7129 -119.602 45.5908
14.7196 -109.691 47.446
10.7456 -102.833 52.8134
10.6577 -130.952 39.6565
10.6288 -141.18 34.012
14.6551 -130.012 38.173
7.05285 -131.186 40.8873
3.1799 -149.106 32.5191
6.89931 -148.751 31.8108
3.26034 -141.817 35.8429
-0.454213 -149.113 32.8428
3.29682 -154.56 30.7357
73.8726 -56.3378 -37.7421
76.8772 -50.1907 -37.0919
73.5786 -61.5641 -31.448
70.7969 -62.453 -38.5975
74.5213 -49.5483 -43.3488
75.2716 -44.5972 -47.5252
71.1229 -50.6853 -49.078
76.4112 -40.3876 -51.1775
78.9161 -39.6491 -46.0708
63.2371 -125.074 -28.533
62.8084 -131.996 -29.8046
61.6605 -122.392 -35.4215
63.7685 -128.081 -21.9163
3.63843 -131.538 41.652
4.00892 -120.291 47.5165
0.30699 -131.555 42.0198
76.1942 -39.4804 17.3424
77.097 -34.0809 16.2874
74.3172 -38.2414 25.659
75.0611 -44.959 17.9929
72.632 -58.2095 1.70815
70.4383 -62.1815 1.58468
73.3968 -59.2953 -5.93285
74.7057 -54.3701 1.49423
12.5813 -58.2959 93.9691
8.41928 -57.9733 95.0296
12.6423 -64.6843 93.8131
17.3943 -59.6135 91.1049
12.4635 -54.2543 91.9054
22.0874 -60.71 87.1834
22.6414 -65.4741 86.8728
27.5302 -62.0811 82.1051
22.1562 -57.5688 86.0199
4.26191 -51.845 91.1261
7.91121 -52.0375 90.5516
4.04382 -51.9191 89.1906
0.693233 -52.2358 91.2139
4.40049 -53.2969 93.5833
12.4195 -70.2613 91.5085
12.6697 -75.2753 86.9359
17.5212 -70.1556 88.8464
8.01544 -70.6623 92.6613
13.361 -79.1896 80.5562
8.61292 -79.7227 81.8589
13.8849 -82.2952 74.3886
15.5218 25.5307 55.416
16.6692 22.1974 58.5176
17.9511 23.7864 54.5837
14.7131 28.228 52.7746
12.9286 27.5563 56.6015
49.9454 -6.69577 59.8014
56.6333 -8.88589 54.379
49.0099 1.18556 58.6506
43.4785 -4.459 63.0331
50.2142 -13.7842 60.3582
61.3281 4.10722 46.6208
66.9116 2.83524 39.1939
59.6212 10.5879 45.8417
54.48 6.63678 52.5216
62.442 -2.96026 47.1051
72.429 19.5891 20.4215
76.1862 17.2692 14.7047
72.2171 26.7628 16.5457
68.8031 21.9725 24.1144
50.4987 -19.5634 60.4494
50.5676 -24.6745 60.6224
56.7706 -21.7271 55.1971
44.0194 -17.1969 64.0589
2.16486 29.3758 70.4344
1.40481 32.3473 65.7146
-0.0180059 29.6068 70.4103
2.68104 26.4246 75.2004
4.47131 28.642 70.0583
31.3203 90.6801 24.6402
26.0052 92.4041 26.7705
29.5227 85.2227 29.5631
37.2638 88.1393 21.9342
33.3341 95.9627 19.3969
4.78886 -87.05 71.131
4.50287 -91.6742 65.9475
8.8664 -86.8237 70.3061
4.70991 -83.3657 76.2319
0.756163 -87.0926 71.3988
71.5245 -36.5941 33.9257
67.9361 -34.7707 41.3581
70.5733 -42.9717 35.0466
72.0904 -31.0432 32.879
4.15493 -71.2874 92.9266
4.3655 -65.1544 95.2745
0.450163 -71.9555 92.5264
4.11067 -76.4429 88.2647
4.46074 -80.0258 82.3442
0.425192 -80.1932 82.3207
44.5846 -65.7312 61.3752
38.7318 -66.8723 67.7893
43.391 -69.5753 59.4855
50.2128 -64.6952 55.6157
44.8302 -62.2053 63.4599
49.5669 -78.5583 37.4984
47.1556 -82.5725 35.6425
53.8015 -77.3108 30.5121
51.8102 -74.8555 39.6525
43.8985 -80.0518 44.5999
4.24621 -97.4699 60.1847
7.81461 -97.4202 59.5064
0.77542 -97.5588 60.3948
3.77386 -103.285 54.4258
7.85201 21.5628 77.2614
8.03813 19.0279 80.0469
10.8046 19.8119 75.1993
7.59628 24.3125 73.4875
5.19712 22.8741 78.6715
27.9934 4.22677 62.4035
31.7308 1.18466 63.2956
26.2552 9.38616 60.8548
24.4325 7.77862 62.9537
27.7766 -37.6029 71.0373
26.9317 -37.6063 70.4939
27.478 -38.683 71.1674
29.4163 -38.0135 71.2116
12.8696 0.167988 73.5017
15.1526 1.56005 73.6239
11.8239 -0.878151 73.054
15.0418 -0.344396 72.2596
11.0236 -4.80026 72.1729
11.799 -6.47326 72.7355
13.7462 -5.25393 70.8095
10.9269 -3.47369 72.0223
9.08469 -4.09594 73.1046
1.2757 -0.0855079 79.4188
1.40702 1.03402 80.9608
-0.40979 -0.266156 79.7797
1.23506 -1.19267 78.1581
2.9484 0.151168 78.4385
16.813 -4.79399 69.1612
19.9437 -3.55229 67.1666
16.7117 -3.48683 69.3624
17.2163 -6.74515 69.6601
8.51237 10.2503 84.0712
5.7123 9.9607 86.2731
8.15912 8.05164 83.7704
11.5111 10.1003 81.4211
8.58918 12.2789 83.9884
28.7445 -52.4265 77.3974
32.0178 -50.622 74.0592
27.3745 -50.9418 77.5658
24.5218 -53.6834 81.2937
30.0007 -54.1107 77.2531
27.5838 -29.9564 72.7406
27.0385 -24.5166 73.7145
25.9167 -29.3367 73.1768
29.6095 -30.9276 72.3148
1.73608 -5.58457 77.4348
1.95178 -7.31528 78.0396
3.76613 -5.46889 77.0255
1.40244 -3.84519 77.1497
-0.637701 -5.52658 77.5214
6.8823 27.1474 69.1203
9.70387 25.282 67.7073
6.21078 30.1258 64.6277
21.5661 7.62705 68.7281
20.4599 9.83274 70.0736
20.7677 8.76315 70.2875
21.6901 5.9221 68.5144
21.844 8.03007 67.5834
4.45888 -2.52201 75.8438
4.83961 -4.08351 75.9355
5.92513 -3.04597 74.8875
4.30853 -1.18437 76.2628
2.96534 -2.2913 76.7071
4.35021 -0.0121819 77.2625
4.58981 1.2253 78.7095
19.7392 10.0244 71.7227
19.3119 10.9382 71.6797
20.2912 8.12982 71.3574
21.05 2.777 68.3073
20.5705 4.52631 70.0408
19.4774 0.0809507 68.8562
2.35895 -14.8281 82.735
2.7518 -16.4973 84.4701
6.02812 -14.3828 82.4542
2.20834 -12.1984 80.4126
-1.77454 -15.4639 82.7528
23.791 -10.3164 68.452
21.3014 -10.1506 69.6721
24.9177 -15.8396 71.1748
26.1396 -10.8803 67.6549
23.0483 -5.19152 66.1869
9.70055 -51.7133 87.2569
9.30549 -50.7095 87.1042
6.21364 -50.8508 87.9483
10.2248 -52.4441 87.6113
14.1112 -51.9895 85.9273
24.6341 -33.6148 73.6912
24.6809 -33.9846 73.6312
25.9 -35.6416 71.3706
24.4654 -32.214 73.8393
19.022 11.5277 71.374
19.0287 12.1203 70.0692
17.1451 13.0264 73.311
18.8955 -51.886 83.6625
19.2899 -53.1456 84.0602
23.071 -50.9563 80.9414
18.1101 -50.3822 83.3976
2.94867 -50.8389 88.0094
-0.120878 -50.9254 87.9199
3.3175 -51.7281 88.3512
2.46543 -49.9377 87.8906
63.1867 47.5982 24.3573
62.001 46.7452 26.4513
65.2881 41.4262 21.8347
64.0953 48.3339 22.2661
38.2568 75.8932 28.5752
32.5255 78.5874 32.0843
35.0861 71.8447 33.3606
44.4184 72.016 25.4409
41.5553 79.8892 23.6288
52.4452 67.042 21.7933
50.3365 63.4046 25.6708
61.372 61.632 16.4609
56.382 71.5172 15.883
38.2377 62.5185 38.8184
36.1036 65.5088 37.2294
32.3538 64.5838 41.2454
40.0871 60.2039 39.939
65.5336 48.8892 18.9722
66.862 51.1389 15.536
59.1371 55.5061 24.3184
69.1806 41.9409 15.5525
22.2788 57.565 44.4588
23.7429 54.844 44.2173
27.3111 56.8495 44.2215
21.4848 60.2264 45.0981
18.4456 56.9778 44.5895
5.03153 37.334 54.6557
7.73155 35.1757 53.6575
4.7959 38.9991 53.3547
2.12481 39.281 55.8959
5.14456 35.5446 56.9626
30.5931 20.241 53.4412
32.4397 16.5802 55.8782
37.6601 19.1105 53.492
29.1654 22.8829 51.7088
24.328 21.2039 53.4657
59.6779 26.5844 30.7532
62.2313 24.8511 29.5735
60.296 30.5392 27.1439
57.2256 28.6017 31.481
57.7712 24.1913 36.3952
5.67793 33.0154 60.2625
8.21856 31.2669 59.3305
3.17336 34.5528 60.9509
41.8826 57.8597 40.2369
47.9142 55.7202 37.7511
35.6 59.1299 42.3348
43.2539 55.4419 40.3105
53.0062 53.5815 34.9029
52.6213 51.0426 36.1747
57.2196 49.4658 31.9406
56.2133 35.8546 30.663
55.8062 39.8293 32.297
55.0785 36.323 32.1017
56.2789 32.5668 30.2408
58.0064 35.732 28.9448
45.5392 44.2363 40.9744
47.2614 42.3286 39.2057
46.107 44.3144 40.8981
43.6413 45.6576 42.5874
45.0516 44.0869 40.7428
41.4318 47.0632 43.8982
41.6383 47.3755 43.9468
38.5388 48.3866 44.8681
41.0167 46.9278 43.6425
41.8067 47.5155 43.9269
38.6472 48.8517 44.5335
44.5802 46.0148 42.588
35.3576 49.1132 44.7803
35.3318 49.4565 44.5447
32.3287 48.9393 44.2571
35.5691 48.8357 44.6582
35.1454 49.6705 44.2908
31.722 49.506 43.5702
35.0589 49.9699 44.2149
29.0401 47.7076 44.0187
28.6731 48.1611 43.6268
26.2058 46.0414 43.9589
29.5679 47.4594 44.0746
23.0101 43.4282 43.6009
22.07 43.8295 43.1312
19.946 40.489 43.1768
21.1307 44.1573 42.64
20.531 44.6842 42.4127
18.2241 41.1857 42.3584
24.7685 47.074 43.062
17.8746 38.2424 42.9993
16.9905 38.2842 42.857
19.8897 44.9546 42.6115
23.6097 47.8046 43.0944
19.2198 45.0974 42.9733
34.8486 50.576 44.3346
34.687 51.2952 44.5367
31.1677 50.4082 43.7079
51.4493 36.5034 34.951
52.5101 35.0587 34.3093
51.9653 36.9776 34.7114
50.3865 36.2613 36.2797
49.7439 38.0489 35.443
49.3345 38.7733 35.8539
50.5671 37.8844 34.3991
48.9607 37.7396 36.5644
32.216 56.267 43.6192
37.8718 55.3226 42.4616
31.478 57.9327 43.5469
32.8558 54.9111 44.0085
50.004 47.3914 39.4144
49.0774 46.4457 40.346
50.925 48.3075 38.3024
46.6817 49.4299 41.1785
39.5057 31.3222 47.4026
45.4649 31.8957 44.6005
38.8852 33.104 47.3336
32.0646 31.1048 48.4478
39.7719 29.3421 47.5897
25.6904 31.1464 47.6072
26.0166 32.6719 47.2113
21.1274 31.9035 46.3109
25.813 29.5393 48.0754
16.7974 34.8264 44.7039
17.3159 34.9952 44.1491
16.1686 35.5498 44.2723
16.0328 34.6376 45.4177
17.6879 34.0602 45.0179
38.4996 34.23 47.0552
44.2041 35.1978 44.4522
38.1799 35.0619 46.7553
31.9378 33.6029 47.8328
19.2639 34.718 44.4055
19.1727 33.8828 44.805
21.3137 34.114 45.2488
19.2869 35.4028 44.0893
18.1523 35.2077 44.1483
17.4687 35.3401 43.9364
16.8387 35.4765 43.6703
17.5306 35.6547 43.6703
12.3137 43.0504 44.1363
11.5678 46.3047 44.6241
13.1523 40.3914 43.8207
14.1696 45.4156 43.5585
15.2227 36.1733 43.9672
15.8058 36.0752 43.6113
14.4747 36.4614 44.3563
27.4172 49.3704 43.4218
26.9198 49.868 43.8795
27.8162 48.8956 43.1418
13.898 39.4246 43.4239
13.4734 37.7846 44.0589
15.3734 41.8433 43.1476
37.9628 35.8757 46.5688
31.7909 35.2079 47.1255
37.9281 36.121 46.0828
19.3462 35.8085 43.8056
19.5495 35.9218 43.0904
18.3448 35.9193 43.5675
21.5257 35.6376 44.4842
38.3258 35.2842 44.793
43.3481 36.1275 42.957
38.0943 33.9221 43.2986
46.8816 37.0574 39.8452
47.6362 36.1613 37.8514
20.2694 35.6366 41.6376
20.6439 35.1461 40.1943
17.6243 35.7882 43.3715
48.8909 40.1605 37.3974
49.3887 40.2452 37.227
48.2202 40.402 37.5806
0.824166 56.1485 50.4397
-1.60555 55.4692 50.5604
0.303606 52.1529 50.8911
3.00079 56.2098 50.0315
1.52361 60.2299 49.9034
18.3477 27.7246 50.0401
18.1009 29.2674 48.8195
16.2737 28.9517 50.333
19.2348 25.4062 51.8249
22.1007 26.0831 50.2454
14.4154 29.977 51.0617
12.3362 31.2983 51.7054
14.7727 34.0172 46.7068
13.1646 34.2028 47.6821
14.51 35.4211 45.4283
8.48012 42.3312 47.2895
9.32486 45.3966 46.2704
7.56532 43.7351 47.9264
18.8207 32.8205 45.574
18.3284 31.8825 46.5053
18.1303 30.6641 47.6263
21.166 29.1116 47.9925
18.9938 -33.2252 76.1534
18.4378 -33.1688 74.7172
21.9495 -34.0888 74.4425
16.044 -32.5287 77.3907
23.7976 -35.6952 72.3371
23.4596 -35.8991 71.3592
3.82138 -19.5351 85.3266
8.13537 -19.5385 84.6665
3.41699 -18.5103 85.2328
-1.84561 -19.8425 85.6661
3.77553 -20.7317 85.3795
10.8901 -23.3937 83.9897
10.9265 -21.6982 83.9905
8.36994 -22.6585 84.6498
10.6233 -25.3012 83.7314
12.3647 -24.7035 83.2924
14.3526 -26.4077 82.3434
14.246 -24.7028 82.4254
14.3248 -28.0991 81.9336
16.7828 -28.3847 80.8186
10.5812 -20.305 84.0365
12.2971 -21.769 83.325
10.3478 -19.2902 83.9166
14.0688 -21.7605 82.1929
14.1779 -22.6476 82.3261
13.6968 -20.6592 81.8855
12.0468 -19.9257 82.9755
19.6435 -30.5671 78.709
19.5851 -29.8518 78.821
10.1336 -27.1543 82.94
7.60925 -26.1743 83.7137
9.52739 -28.426 81.9489
11.8857 -28.237 82.133
14.1776 -29.5949 81.0737
13.7807 -30.8034 79.8961
26.1241 -37.0845 70.4129
26.3749 -37.3807 70.2806
26.2608 -36.9383 70.3998
25.6427 -36.2723 71.2869
20.5186 -41.2696 73.7501
20.3067 -41.2103 73.4338
17.1162 -41.9399 76.1287
20.6332 -41.4955 74.1326
21.1995 -42.5619 75.3478
21.0388 -42.2031 74.9534
18.2072 -43.1483 78.4152
14.7831 -43.072 81.5498
14.385 -42.6339 80.7724
11.1526 -43.2482 83.9679
15.2064 -43.5317 82.1392
6.70297 -41.6759 83.9114
7.02834 -42.536 85.0096
10.251 -41.9601 82.0513
6.3716 -40.8567 82.8002
3.42598 -41.5389 85.2646
1.17292 -43.2307 87.8412
1.35426 -44.0413 88.5525
3.87629 -43.243 87.3121
1.04333 -42.4175 86.877
-1.03106 -43.1902 87.8939
25.3777 -39.8492 68.8242
24.5127 -39.1916 69.9115
26.3851 -41.1767 68.3276
23.1443 -41.0082 70.2046
0.889233 -42.6273 79.5325
0.890943 -41.0614 80.5218
3.09582 -42.7097 79.1789
0.912222 -44.5855 78.9667
-1.07665 -42.6158 79.6131
1.4423 -44.9267 88.8447
-0.999638 -44.8772 88.9053
1.60184 -45.8815 88.8636
4.27927 -44.9718 88.3447
2.05408 -48.9592 88.2682
5.19275 -49.2964 88.0339
1.96995 -47.974 88.7531
-0.68572 -48.8547 88.1341
9.83505 -18.2273 83.8387
9.30205 -17.1432 83.3352
7.16882 -17.3299 84.5174
0.941832 -41.6105 85.8999
-1.17154 -41.6088 85.9518
0.752312 -40.794 84.6987
0.715629 -40.3697 83.5002
3.19003 -40.2621 83.098
0.86372 -40.2532 82.3826
-1.28391 -40.4853 83.5863
6.11763 -40.4196 82.0371
9.64671 -40.9958 80.4474
6.26551 -40.3833 81.1822
0.948824 -40.3709 81.4356
3.29032 -40.348 81.1152
-1.18123 -40.4604 81.4825
13.2652 -41.7231 78.3398
13.1174 -41.7003 77.8662
13.473 -41.8889 78.9545
15.8571 -45.7428 83.2174
16.3881 -46.8554 83.2837
15.6563 -44.9604 82.8717
12.2695 -46.5053 85.8515
8.10504 -47.2039 87.5565
8.44129 -48.5063 87.4507
7.98621 -46.0977 87.2843
4.62381 -47.1821 88.5674
1.91002 -46.9779 88.8734
-0.919713 -46.7361 88.8466
13.2889 -31.4737 78.6305
10.9905 -30.3984 79.5762
12.8517 -31.4462 76.8552
26.571 -37.579 70.3001
26.3353 -38.1829 70.5311
26.5378 -37.2573 70.2862
25.9991 -37.5175 70.4425
25.6947 -37.9332 70.6528
26.0417 -38.0883 70.5546
25.0135 -39.1601 71.1952
23.606 -40.4909 72.4027
5.90297 -42.8789 78.5309
6.04648 -41.4028 79.4551
9.20099 -43.0548 77.4021
6.09205 -44.7238 77.8472
6.18559 -40.6276 80.3457
9.45079 -41.1798 79.0356
8.87145 -49.8238 87.0831
12.9696 -49.3653 85.6388
15.3355 -44.1997 82.6625
11.8703 -44.6321 85.2297
17.3118 -48.6134 83.1774
20.9921 -47.3809 80.4509
12.4567 -30.276 74.8091
10.0158 -29.5464 75.9409
12.0046 -28.0224 72.8942
14.9472 -31.1954 73.8005
7.6232 -28.7649 77.1836
5.01359 -28.0361 78.2288
7.10858 -26.9328 75.2476
8.21606 -29.523 79.0759
11.8188 -24.7147 71.3595
9.22 -24.3157 72.34
11.8618 -20.9261 70.0187
14.7549 -26.0081 70.3788
28.2249 -43.535 68.41
30.3048 -46.4366 68.9096
25.7205 -44.6827 70.1761
1.07518 -46.3776 79.3359
3.41363 -46.4299 78.7309
1.40583 -47.7971 80.1245
-0.925994 -46.3302 79.5095
6.76611 -23.9293 73.3421
4.30793 -23.3582 73.9591
6.58396 -19.8318 71.1502
6.54884 -46.4792 77.8728
7.10187 -47.914 78.3426
10.16 -46.2825 76.7637
32.1916 -37.4971 62.614
34.5077 -37.5279 60.6619
10.9135 35.32 48.6263
10.4138 34.2033 50.6072
88.7439 -14.6903 -60.5147
87.8262 -18.6678 -58.5802
87.3068 -14.9923 -63.9595
89.4871 -10.3633 -61.7878
90.2064 -14.6644 -58.4427
88.2607 12.4329 -31.2749
88.8148 14.2012 -35.9735
87.5877 15.876 -27.0151
89.0624 14.9318 -41.5002
89.2753 20.0329 -44.1199
88.8041 9.57237 -41.2478
89.2271 12.6116 -48.0403
81.7224 -36.2035 -44.8434
84.4722 -33.4723 -43.9812
80.6535 -39.979 -41.2568
83.1819 -32.6843 -47.7146
84.2094 -29.4931 -50.7167
81.6462 -32.1085 -52.7713
85.5316 -26.0279 -53.5819
86.6225 -27.7258 -49.2055
92.2335 -14.3891 -57.353
94.4187 -14.0007 -57.3855
91.5503 -18.1187 -55.6041
92.6548 -9.93234 -58.567
94.9911 -31.2143 -44.4463
96.2767 -27.5084 -47.4794
96.1797 -31.3298 -43
93.551 -34.9931 -40.9881
100.137 -21.0027 -46.9688
99.9386 -20.2292 -46.4412
86.5119 -41.6186 -30.2453
87.4856 -42.0309 -29.3546
86.2494 -41.4639 -27.895
86.0615 -40.2102 -32.3172
88.5365 -30.7669 -20.9491
88.0889 -31.4228 -20.7524
87.4532 -32.4126 -20.7799
99.8375 -19.7595 -46.1653
99.2264 -20.0916 -45.1038
103.152 -6.37206 -53.8435
102.782 -6.06806 -55.3879
103.554 -7.29603 -51.9601
103.311 4.23775 -54.4118
103.606 5.55051 -54.906
103.588 7.86985 -54.5496
103.339 8.20972 -52.3392
103.737 8.27804 -55.1244
103.209 10.6909 -52.2047
92.6376 -7.76128 -27.9315
94.021 -2.3527 -29.794
91.8673 -6.61473 -26.8581
91.4894 -11.718 -26.4175
86.1131 -22.2269 -17.3157
85.1045 -21.9857 -14.6184
85.438 -26.1283 -16.6682
86.7247 -17.7252 -18.0802
90.8755 -19.4763 -27.1252
91.1791 -21.4802 -26.9669
91.119 -17.6584 -27.8605
88.9759 7.73425 -41.2252
89.73 8.2329 -44.8062
89.5819 8.02038 -40.8089
98.675 17.7567 -43.1408
100.387 18.7533 -46.8918
97.2772 17.8598 -44.5048
96.7829 15.103 -39.4475
99.9622 17.132 -41.9241
98.988 18.182 -52.7885
97.675 18.6593 -49.3191
100.303 18.2603 -52.0179
99.9506 15.6156 -56.2988
97.5732 16.12 -53.6795
101.056 -1.95783 -62.1771
99.4998 -2.43894 -62.2866
101.139 4.9402 -61.5411
102.545 -1.64431 -61.4395
95.0815 2.22805 -31.3652
95.3714 0.69198 -31.9068
103.896 -1.91924 -57.9735
104.452 3.64364 -57.3416
103.234 -4.6703 -57.6558
104.278 -2.11484 -58.1018
102.476 12.6176 -48.7087
101.359 13.1517 -44.7876
102.573 11.0445 -48.9714
102.568 13.8294 -48.4102
96.4339 2.16947 -34.6066
95.8946 0.528915 -33.5895
96.9881 4.3331 -35.913
103.068 -0.553263 -55.7717
102.942 -2.99708 -56.9543
100.016 4.9229 -45.7781
99.775 3.77955 -44.5953
101.711 3.37643 -49.4868
93.8921 -4.82685 -34.1134
94.0006 -4.69443 -34.8774
94.8364 -3.04379 -33.4757
99.3631 -7.47079 -47.4237
101.982 -5.34377 -49.6958
98.9233 -6.85431 -47.0278
99.2524 -8.59559 -47.2409
87.2684 -13.7069 -19.153
87.8792 -9.31205 -21.1734
86.295 -13.2809 -16.6575
92.8837 -4.72882 -58.8882
91.1495 -5.41584 -60.1691
92.8278 -0.00904007 -58.1905
94.9014 -2.2212 -58.5194
97.0747 3.6251 -58.9901
96.6313 8.20741 -57.0894
99.029 9.07868 -59.4899
97.4335 -1.03112 -60.3704
98.0917 -3.41744 -61.431
97.1427 -9.08471 -60.2663
96.6533 -13.8594 -58.4946
88.9654 -26.9181 -48.5411
87.7128 -29.5425 -45.8945
90.0244 -24.2453 -51.0933
90.8339 -21.3555 -53.4903
88.559 -21.7127 -54.3622
98.3508 -19.869 -44.3291
86.4632 -32.1106 -43.4826
85.2587 -35.1266 -40.2689
88.22 -31.8587 -43.168
85.8382 -38.1965 -35.0618
85.0424 -38.2752 -35.2948
84.9394 -40.4326 -30.1017
86.2373 -40.1333 -25.6247
85.8804 -39.7471 -25.7679
84.8872 -39.9996 -25.2497
99.6392 -9.44062 -47.3704
102.253 -8.60417 -49.4791
90.8944 -5.69682 -26.1115
89.7152 -5.06739 -25.2874
88.2933 -19.0666 -21.2471
88.7185 -19.4165 -21.807
91.8537 -25.0385 -25.4131
92.8199 -27.4241 -26.1918
92.3584 -23.9731 -26.5658
90.644 -14.6051 -25.2352
91.5486 -15.384 -27.2603
96.0505 10.9077 -54.6945
94.3688 5.87323 -55.3962
95.1209 12.3129 -51.5591
92.6023 3.44446 -56.2653
91.23 3.18222 -57.5356
92.1089 6.08879 -53.0481
90.1211 -15.8891 -29.9131
91.0223 -15.9 -29.398
102.593 1.84318 -51.3799
102.541 0.444705 -50.6049
94.5426 -4.36625 -36.4206
93.5534 -6.85811 -36.8857
95.8233 -3.86266 -39.2036
98.8594 -5.86067 -46.7879
101.227 -2.66015 -48.6946
98.1685 -5.44653 -45.5137
8.2094 108.061 16.4638
7.74695 101.841 23.8642
16.0787 106.791 16.2499
8.76768 113.794 7.42584
0.14153 108.619 16.5257
6.98992 95.2617 30.0913
-0.193623 95.3985 30.3442
6.30245 88.302 35.6081
14.0828 94.598 29.3938
28.0506 80.686 34.3383
26.9053 75.9305 38.8885
23.2396 81.3254 36.9327
1.4799 2.1806 82.8161
1.84359 3.52557 84.4125
-0.355139 2.07786 83.3315
3.49816 2.34181 81.4719
2.5732 14.0121 86.7957
5.60011 14.2012 85.6915
2.61169 16.2817 85.6054
-0.268818 13.9951 87.0878
2.74815 11.8719 87.6003
2.8123 9.55149 87.6981
-0.256156 9.49808 88.3017
2.68432 7.31264 87.1094
1.27811 -2.43134 77.3831
-0.566855 -2.60314 77.6671
2.02344 -9.77661 78.9795
4.90369 -9.38655 78.8737
-1.11972 -10.0809 78.9469
2.35506 5.24779 85.8604
4.86668 5.59644 84.5988
-0.355575 5.25111 86.4806
2.56007 18.4641 84.2107
5.36397 18.0275 83.5
2.63061 20.8382 82.325
-0.202356 18.7073 84.3917
3.79173 72.9912 46.2239
-1.04996 73.0839 46.3438
3.48714 69.4575 47.608
9.35319 72.7921 45.4975
4.27342 76.7397 44.1204
-0.0884217 40.2025 56.4601
0.259525 38.2835 58.2343
-0.328494 41.893 55.2197
-2.02015 40.4572 56.5341
-0.398669 43.7209 53.8051
1.78999 42.8201 53.3636
-0.30844 46.0492 52.4659
-2.27275 43.9489 53.8304
2.03517 -27.6305 78.5732
-1.11873 -27.4379 78.3065
1.7463 -26.106 76.3534
2.35022 -28.0163 80.3794
2.87448 -27.7853 81.904
-1.35607 -27.7175 81.838
6.31385 -28.3604 81.5516
3.09693 -27.0272 83.0404
3.75001 -22.3866 85.2323
3.67608 -24.1331 84.8036
-1.77505 -22.607 85.4798
3.37967 -25.7093 84.1233
-1.57297 -25.9542 84.1366
3.32155 -17.552 85.0935
-1.81493 -18.1131 85.3535
1.62879 -22.9849 74.2382
1.57431 -18.8688 72.1359
-1.17682 -22.8375 74.2589
22.722 105.243 15.7217
21.6858 99.6709 22.4091
28.9651 103.152 14.8841
23.8515 110.487 7.27984
15.913 73.2108 44.2268
16.5042 70.8266 45.0986
22.3127 73.329 42.4678
16.3023 76.538 42.3923
18.0185 68.8191 45.7765
18.9963 66.4295 46.4113
23.5198 68.0993 44.5463
20.0896 63.3838 45.9912
15.3928 63.5723 46.487
25.1904 61.9428 45.234
26.3841 50.3924 44.2966
25.7841 51.235 44.4627
22.3968 48.5026 43.784
30.4876 51.6681 44.3967
29.6021 47.5083 43.3766
32.6428 48.6945 43.4616
29.4236 47.6482 42.1879
28.1446 48.4996 43.2544
24.7001 52.5964 44.4016
29.1246 53.5327 44.4637
20.6345 50.8422 44.0476
50.0134 101.534 -7.31898
51.8021 104.469 -18.3279
43.8442 106.015 -5.78371
48.9513 97.6116 1.20725
34.7884 100.818 13.4156
36.2256 105.327 5.6908
40.9585 97.6962 11.2126
26.9108 72.3612 40.7961
27.1069 69.6281 41.7967
30.521 70.773 38.7964
30.1016 60.3228 43.9661
28.4098 63.4032 44.1915
27.5974 66.5997 43.1588
33.4036 53.7905 44.3858
34.1553 52.7236 44.677
38.1132 52.9316 43.8287
47.65 93.7526 8.08559
54.4572 89.3957 3.91077
46.0506 89.5418 13.8871
34.6472 68.6821 35.8081
40.9263 65.1816 32.1873
42.3691 49.5662 43.5973
42.5501 50.3262 43.3743
38.4515 51.1126 44.4814
45.6496 47.7137 42.298
35.7735 48.8682 43.6902
35.5683 49.0103 42.1432
38.4875 48.3241 43.4761
43.405 53.7711 40.884
42.9671 52.4083 41.7859
48.2068 51.696 39.1201
42.7139 51.3279 42.7595
44.1196 84.7818 18.8882
51.5126 80.7934 15.1556
60.9311 85.2142 -1.69155
59.8452 81.0485 4.59454
66.8315 81.1689 -8.54721
46.5996 44.3073 40.8219
48.3384 42.3834 38.8091
46.8803 44.4821 40.8772
48.3693 45.6534 40.6091
47.6307 45.209 40.7691
50.2234 43.584 38.7706
47.1236 44.8563 40.9203
45.0485 44.2448 39.863
46.7973 42.5235 38.3753
43.133 45.7066 41.3044
45.365 44.4559 38.5589
51.9916 49.4506 37.1771
54.4791 46.3915 35.4086
15.3191 55.0334 44.4989
12.6925 52.3677 44.6676
16.272 51.6835 43.9178
13.7878 58.5618 45.4342
11.8867 61.9656 46.7143
9.56194 58.9924 46.8957
16.9649 48.2246 43.682
17.7493 46.1448 43.6047
2.80735 65.3483 48.7764
-1.12623 65.0194 49.0993
73.2221 -61.8521 -12.7149
75.2792 -56.6825 -12.5811
72.888 -63.5644 -18.5256
88.9869 17.4895 -64.1866
88.8019 12.2287 -68.4629
87.6194 21.7819 -70.2742
89.2288 21.8605 -57.0997
89.6384 13.1825 -57.7313
85.2154 -16.0572 -69.4608
84.0208 -21.3938 -66.34
83.0394 -17.4324 -74.5472
86.3042 -10.5063 -71.1372
87.0389 -4.48038 -72.6058
85.0954 -4.28896 -79.0699
87.7141 1.25919 -72.5478
88.8114 -5.02022 -66.2404
77.8438 -36.368 -55.3509
74.2802 -40.1807 -57.8473
80.0788 -31.4257 -59.3845
5.38603 82.4742 40.2538
-0.671702 82.3673 40.4649
11.1627 81.994 39.8965
17.0708 81.6698 38.9603
18.7938 87.5237 33.8504
24.9513 -84.007 62.6926
23.5038 -89.2691 58.1364
31.6477 -82.5991 57.353
18.5558 -85.3463 66.648
53.789 -71.4436 42.6107
47.8417 -72.5877 50.1326
58.5376 -70.132 35.3285
55.1449 -67.8529 45.9805
58.7474 76.2622 10.2277
65.0897 71.5808 4.48957
20.3343 93.7439 28.2626
72.6149 76.5979 -16.8699
77.5496 72.1598 -25.8045
72.1499 71.5921 -9.52163
24.7395 115.925 -4.1254
31.4326 113.193 -4.13566
25.4185 120.499 -17.3661
17.4106 117.938 -4.05561
68.33 55.1399 10.0855
69.7217 60.6789 3.86903
51.1379 41.817 37.4159
48.2834 40.4758 36.903
48.6831 40.4706 35.9032
60.2794 45.4745 28.7209
60.8695 40.8633 27.3986
57.5908 44.2394 31.7829
55.8116 43.3661 33.5648
4.08022 -110.857 50.7845
0.883109 -110.804 51.0844
65.4429 -61.2603 34.675
66.9115 -56.5661 36.1733
61.1915 -62.7846 42.136
63.8379 -65.346 31.7149
8.56615 -15.4702 82.1663
10.5659 -16.9143 81.54
7.58146 -12.7318 80.2946
23.838 -28.3855 74.6241
22.7972 -22.3909 75.6738
21.1389 -25.7532 77.0741
10.4993 -12.5803 78.4641
8.59889 -11.2946 78.5943
11.3844 -15.4046 79.8533
12.5301 -13.8562 78.1875
9.58862 -9.7996 77.0214
32.2496 -31.8479 71.2816
32.5267 -36.4379 70.7896
35.6151 -32.0803 70.0182
31.4621 -26.1728 71.9406
66.0467 34.8327 21.1989
63.4535 35.1754 23.8438
65.8488 28.6551 22.9023
68.524 34.7602 18.3378
71.2626 34.5599 14.6747
74.4948 33.042 9.43122
54.0528 36.7094 33.179
52.7985 37.4029 34.3249
54.0365 34.6349 32.8297
60.7033 35.5565 26.4042
90.5421 3.91933 -60.0838
90.3371 -0.467823 -61.9022
89.8135 4.99908 -64.5959
90.4348 7.26787 -57.174
86.648 -22.5676 -56.3225
84.9462 -23.9105 -59.1761
77.6825 -51.5426 -23.9393
79.734 -46.6901 -22.9458
77.2805 -52.0699 -17.7125
75.4098 -57.411 -24.8247
78.4297 -49.4746 -30.2603
90.003 -5.38285 -62.3581
84.1403 -22.0441 -11.38
83.3461 -26.453 -10.7034
84.8157 -17.487 -12.2706
83.0717 -21.7565 -7.02659
79.861 13.3785 6.56763
79.2797 21.2058 3.53851
79.6626 5.7286 9.62339
82.5347 8.80132 -1.92906
55.798 29.9587 31.9064
54.5936 31.2624 32.5959
54.0807 28.3417 35.6821
53.6363 32.7805 33.3815
52.1534 32.3574 35.6742
81.8821 -20.4486 -0.946967
80.7634 -18.6691 5.78768
81.2695 -25.6706 -0.400005
82.5333 -15.0697 -2.12401
24.4926 13.8789 58.892
28.4334 12.8909 58.4975
22.5015 18.4782 56.2169
21.053 16.0408 59.9258
34.5081 11.3874 59.0707
40.6954 9.98675 58.8879
36.1245 5.18245 62.1102
17.9115 18.3477 61.8179
14.8911 20.8858 63.8473
18.7171 15.3859 64.6548
22.4682 8.97243 65.3142
21.1333 11.0773 66.0537
18.9277 7.81703 73.89
17.323 8.88353 75.9133
18.3921 5.68487 73.8727
19.719 6.80044 72.4531
20.2128 5.75609 71.2198
19.1986 3.20918 71.2934
37.7009 -14.6512 65.8684
32.5871 -12.7603 66.635
38.1767 -20.117 66.7056
37.6713 -8.76359 65.0738
37.3889 -2.00492 63.9113
5.50876 -5.75716 76.5076
6.28315 -7.67756 77.4682
7.12336 -6.37457 75.9582
63.2514 -33.2461 48.4052
63.0723 -28.0165 48.2356
57.2486 -31.3956 55.3995
62.5812 -38.7533 49.5385
26.1228 -20.2712 73.0947
24.001 -19.348 73.9925
28.1908 -21.1172 72.2751
38.9076 -24.6135 67.4685
39.3902 -28.5088 68.1601
44.6856 -26.8113 64.5593
33.8322 -23.0027 69.7931
6.91972 -9.96015 78.6434
61.2421 -46.1055 50.7202
65.0678 -49.1183 44.0912
56.4339 -41.5159 57.1092
58.4762 -51.3707 53.3053
62.6626 -10.5402 47.5925
62.7646 -17.7358 47.8248
68.2488 -12.0933 39.6259
32.9163 -67.8074 74.6328
33.2815 -64.6165 76.0431
27.5141 -69.0512 80.4411
44.5742 -58.6528 65.3415
49.4215 -56.4794 61.2562
42.8378 -55.5387 67.7926
38.8759 -60.6605 70.6364
58.284 15.5413 44.3344
56.2439 19.794 42.9198
51.6241 16.403 49.6653
49.6328 32.2095 40.0072
50.3566 29.6733 40.1062
48.9639 34.5554 40.0512
54.5106 22.8763 41.7711
49.3476 22.6718 46.5428
52.6902 25.6065 41.0115
48.3751 35.9245 39.9492
4.45543 -58.1687 95.4202
0.806771 -58.8411 95.3407
51.0017 -38.3226 62.0518
49.4912 -42.2537 63.8822
51.1965 -33.5178 61.1119
44.947 -35.0284 65.9533
40.4843 -51.8925 69.7115
44.0035 -48.2876 67.7197
37.2407 -49.2607 71.4041
36.1298 -55.5734 72.7828
44.6477 17.5966 52.6358
45.7812 13.77 54.5514
43.68 20.6921 50.7057
51.0017 -29.252 60.6815
47.209 8.31365 56.8557
12.0378 -52.6419 89.6299
11.3137 -53.1708 87.9542
16.5411 -53.7548 87.7755
21.827 -55.7644 84.9429
26.6047 -56.7115 81.3778
20.7399 -54.5597 84.4546
42.9967 23.0461 49.2903
41.7792 25.3442 48.4886
35.4142 24.0369 50.6238
51.246 27.6283 40.6114
46.9983 27.2863 44.9738
40.6989 27.4451 47.9568
33.1553 27.6228 49.2992
12.2825 23.1424 66.0263
13.1079 20.2558 69.5924
11.332 26.4232 61.9879
14.2364 14.6048 76.3764
14.0627 15.784 74.913
11.2676 15.9829 79.3025
14.6003 13.6581 77.01
10.0976 33.2748 52.8178
10.0802 31.7836 55.1129
20.4672 22.2725 54.0953
0.94401 35.4258 61.3623
-0.998371 35.6929 61.3782
65.1462 23.245 27.5969
10.4777 29.3818 58.2368
68.4861 -50.32 36.7515
71.762 -50.154 27.6577
72.1212 2.48545 29.8091
72.6867 -5.27589 30.3357
76.031 1.09097 20.7195
72.5261 -26.1647 32.0416
72.8103 -20.5271 31.2356
68.4351 -24.4668 40.11
75.5104 -27.6901 23.6474
72.9361 -13.0347 30.6536
76.1436 -14.9242 22.0635
22.2647 -69.767 85.3967
10.7001 -52.9095 87.564
7.05878 -52.4194 88.2911
15.1253 -53.477 86.2277
20.0695 -53.6858 84.1315
26.4209 35.494 45.9868
26.3431 34.6683 46.3595
28.0753 24.7712 50.5897
27.2968 26.322 49.6497
26.5084 27.8373 48.8054
3.62783 -52.5999 88.625
0.398375 -52.2317 88.6284
3.54014 47.8164 50.5853
5.0197 46.8227 49.7397
4.05326 51.9369 49.8362
1.84896 48.6904 51.1986
3.60117 44.4874 51.4437
16.1125 36.0758 43.4442
15.7916 37.1651 43.1675
13.7441 36.5255 44.7445
6.42718 45.3647 48.8065
6.99592 49.14 48.02
-0.0508552 48.9429 51.5039
-2.15092 48.9036 51.571
5.25096 2.46493 80.1931
6.05455 3.81221 81.4194
8.45068 14.0235 83.6081
8.39203 15.5605 82.7007
11.6104 13.4893 80.8121
17.0127 -1.82636 69.8319
17.1406 -0.327195 70.7348
13.8644 -2.77926 71.2151
8.10917 17.1585 81.8013
4.51317 40.8609 52.333
4.97581 56.823 49.2755
6.36767 56.4981 48.5049
16.2928 38.6706 42.6278
8.03112 55.0216 47.3743
9.59746 51.5547 46.1887
10.7543 49.2421 45.2752
18.7473 -10.0604 71.0083
15.6341 -9.58054 72.4756
20.2248 -14.221 73.2244
21.6124 -18.0866 75.0316
18.5672 -16.7422 76.2154
23.5135 -36.0283 70.009
24.0929 -34.8373 68.2701
20.9261 -34.5222 71.8661
24.5919 -34.3274 73.6404
22.6687 -32.0007 76.3537
24.6693 -31.0396 66.0159
21.2682 -30.0321 67.8997
25.3544 -26.2379 63.5366
13.026 -8.93525 73.8023
10.5402 -8.19516 75.0193
14.2124 -11.9417 75.5556
15.5074 -15.3217 77.333
16.6081 -19.0079 78.6361
17.7941 -32.5449 72.8112
17.6582 -31.4954 71.0897
18.1327 -28.4782 69.2198
18.204 -23.1263 67.5371
8.71958 -7.34258 75.5699
7.91972 -5.20399 74.5547
12.8167 -18.6009 81.1321
14.9929 -20.5299 80.4104
19.0741 13.4222 67.2191
16.4817 15.7112 69.9349
2.68258 23.5133 79.3686
0.193509 23.7411 79.3938
13.5869 17.8005 72.7941
7.22665 5.84008 82.8933
9.72941 5.72356 80.4888
12.8759 5.44258 77.9739
14.0862 7.54989 78.5297
15.7862 4.72258 75.5423
17.0855 3.56423 73.7915
17.3953 2.15791 72.516
17.346 0.882625 71.5326
14.7436 12.7428 77.7586
14.7677 11.473 78.4166
14.6424 9.69017 78.715
39.5268 -142.462 16.6059
34.7889 -143.764 19.6677
40.1764 -148.48 15.2784
43.8308 -141.024 13.4667
38.9564 -134.62 18.5281
38.7752 -123.179 21.3718
42.997 -121.482 17.5777
39.5477 -110.946 24.4635
34.2838 -124.76 25.151
45.5712 -86.401 33.4732
49.9323 -84.4616 27.8333
40.9641 -88.6946 38.4734
44.0883 -91.851 30.058
41.3252 -100.524 27.0887
36.7736 -102.735 31.5843
45.3743 -98.4693 22.635
47.427 -45.4736 65.5962
51.4399 -49.6846 61.655
42.7201 -42.0938 68.4598
54.8895 -54.5917 56.4382
55.9856 -59.5528 52.4204
56.0634 -63.9836 48.9335
39.1333 -40.4853 69.6885
39.6677 -37.3575 68.8964
35.6054 -40.0825 70.3633
37.2553 -43.5761 70.9574
32.6681 -39.0994 70.7877
31.7829 -40.85 71.3343
53.0415 -83.0842 22.0916
54.933 -79.6091 23.2013
51.0843 -88.3927 19.8816
55.5454 -82.6964 15.3445
57.135 -76.0673 24.2254
59.6925 -75.2634 17.4232
59.6304 -72.4585 25.5425
61.9684 -69.0147 28.3427
64.337 -67.5497 21.5378
47.0106 -119.598 13.721
47.0483 -131.569 11.6209
50.7596 -118.179 9.58712
47.6812 -107.095 15.9573
47.6808 -139.622 10.1348
48.3988 -145.849 8.8477
51.1604 -138.253 6.40334
49.1158 -96.551 17.9656
78.5909 -16.8032 14.0012
78.3524 -23.43 14.3485
78.8755 -9.60577 12.8086
65.9738 -66.8685 14.2038
64.0074 -71.4404 11.9962
67.3433 -66.7972 7.32099
78.2614 29.4972 0.828209
82.3902 24.0961 -9.33694
73.5587 -50.2956 18.8481
74.8226 -50.1048 9.63088
77.9317 -28.9806 14.9502
79.516 -29.834 7.33863
79.1941 -1.59319 11.8117
81.7076 -5.67867 3.45404
80.4845 -30.7836 0.427297
81.5271 -31.0566 -5.83729
63.1108 -83.6365 -3.3275
62.1259 -88.5481 -3.15977
64.9432 -83.6891 -7.98623
63.973 -79.576 -2.65584
60.666 -83.7071 2.39891
61.4841 -94.6785 -3.10858
65.2454 -75.356 -1.76197
63.6315 -76.017 3.90895
66.809 -74.5834 -7.09135
66.8015 -70.9534 -0.600709
84.532 5.04541 -10.2531
84.9671 12.3249 -14.6273
84.0003 -2.40468 -6.08805
85.6135 19.825 -19.513
86.2793 26.9171 -24.0059
86.7178 33.911 -29.197
88.676 30.0511 -39.3808
87.153 40.7078 -34.9163
76.3179 -50.2915 1.41726
77.0931 -50.8693 -6.12812
83.2678 -8.94115 -3.47351
84.4903 -11.4409 -9.41361
54.4959 -116.746 5.07677
54.2727 -128.751 3.5607
61.7835 -75.6814 10.6433
59.7147 -79.6002 9.53225
54.5371 -136.774 2.22823
55.1493 -142.747 0.897282
64.2747 -112.9 -13.5397
63.7304 -122.943 -14.9501
66.725 -84.0513 -12.7623
68.0243 -83.3979 -18.3156
67.534 -79.2375 -12.7415
68.4777 -74.5254 -12.5101
63.2697 -130.168 -16.5218
63.0127 -135.882 -18.1468
77.0836 -52.0023 -12.5021
82.5155 -30.7786 -10.2381
83.6907 -29.7774 -13.6975
81.792 -34.8727 -10.4651
85.363 -12.6998 -13.3712
66.3919 -92.5119 -25.7672
65.0024 -89.5647 -33.0977
67.2814 -86.0965 -25.2661
68.5783 -80.1784 -25.186
68.3348 -75.3273 -32.2777
73.2388 -63.6709 -25.0609
81.0242 -43.9583 -22.6772
82.1482 -42.4341 -29.3308
58.7531 -119.823 -43.0338
58.2906 -127.222 -44.6643
55.4074 -117.481 -50.0796
59.3687 -112.008 -41.6725
79.3703 -45.3807 -35.9793
81.6863 -41.1839 -35.5232
83.5501 -39.056 -35.4025
30.0255 -144.848 22.6542
29.5619 -137.192 25.1042
25.1374 -145.91 25.2555
30.6736 -150.799 20.8935
31.5862 -105.07 36.3664
25.6422 -107.427 40.9495
30.003 -114.581 33.2476
33.7686 -97.5437 39.69
37.8664 -81.0904 51.5869
36.4168 -85.832 47.8826
39.9709 -77.2421 54.373
35.3958 -91.4113 44.0065
29.018 -93.8604 49.0643
29.39 -125.984 29.0974
24.326 -127.535 32.7006
34.841 -47.6818 72.1866
32.6732 -45.736 72.3992
41.8708 -73.487 56.899
30.6984 -43.3901 72.3685
28.8189 -46.2763 74.3352
28.4731 -41.6842 72.295
26.9109 -40.9135 71.9867
25.9931 -40.2069 71.4449
25.8077 -43.152 73.7171
31.728 -56.672 76.7701
32.6227 -59.4625 76.7487
33.097 -62.0317 76.6627
20.7288 -41.8718 74.6028
17.5674 -42.3978 77.2681
19.9137 -41.3471 73.1624
22.8925 -39.939 71.4036
19.9401 -41.5586 72.5019
16.6102 -42.0911 75.1033
20.0984 -42.1 71.73
20.7054 -43.3267 71.4223
16.4004 -42.888 73.627
22.4705 -45.4442 71.8665
23.9111 -47.473 72.8943
18.1206 -45.6498 73.5963
19.7674 -108.859 44.7759
21.0606 -101.418 48.2736
19.3266 -117.795 41.1749
20.1241 -146.98 27.4979
19.616 -139.498 30.5958
15.1615 -147.802 29.3952
20.5878 -152.706 25.6854
19.2757 -128.846 35.8178
11.3337 -97.1006 58.608
15.8523 -96.6455 56.623
12.2765 -91.3711 64.0136
10.8331 -148.38 30.7945
11.2605 -153.971 29.0335
13.4868 -86.1562 69.2855
12.9247 -41.8504 77.2205
12.7446 -42.2911 76.4664
12.5214 -43.0802 75.8192
13.1204 -44.3248 75.123
14.1671 -45.9467 75.2003
15.0162 -47.7445 75.9327
81.597 55.7144 -20.599
85.4166 51.262 -30.8111
82.2301 61.8871 -27.8539
76.6632 60.6912 -11.086
89.3246 26.1389 -48.6877
82.055 -26.6238 -63.2561
79.1396 -29.3116 -67.1226
53.6976 -98.6906 -52.965
54.9118 -89.3987 -52.355
56.5007 -100.807 -47.4083
52.938 -107.72 -54.0352
50.8161 -97.3195 -58.0288
52.4739 -115.629 -55.3688
52.3062 -123.359 -56.911
49.3465 -114.337 -60.131
62.2478 -85.4512 -40.6305
60.9503 -94.593 -40.3671
59.2189 -82.2937 -47.0905
64.3424 -77.1868 -40.4853
25.6332 123.704 -32.3735
33.0913 120.429 -31.7763
25.7917 124.882 -48.3321
17.7769 126.057 -32.7259
25.6536 86.8238 -126.486
26.3121 99.8129 -113.501
33.7893 85.1452 -124.019
24.9129 72.2655 -136.404
17.1564 87.8591 -128.186
24.3586 57.4864 -141.968
32.2388 56.2619 -139.522
23.9855 42.5106 -144.504
16.3338 57.8553 -143.579
26.3572 110.208 -98.5668
34.4949 107.972 -96.2394
17.8876 111.793 -100.111
26.2325 117.928 -82.1552
9.18521 126.05 -66.9018
0.390765 126.443 -67.1822
9.19028 128.313 -49.6103
17.7534 124.876 -66.2279
9.17143 120.818 -84.2492
23.711 28.6522 -145.07
31.0153 27.7134 -142.618
23.3539 14.9498 -143.963
16.2828 29.1479 -146.699
22.815 1.13757 -141.474
29.9226 0.636979 -138.996
22.2521 -11.8725 -137.628
15.6238 1.77643 -143.248
19.4067 -43.8887 -116.034
25.9104 -44.2313 -113.835
18.6894 -52.9389 -105.745
13.1635 -43.8769 -117.03
20.6542 -34.0977 -125.387
7.54416 -23.0182 -135.66
0.265996 -22.987 -136.068
7.74805 -11.2276 -140.492
14.6306 -23.2136 -134.422
7.1338 -33.7419 -128.466
15.5722 -94.1468 -81.496
16.1249 -86.1665 -82.7882
21.0358 -94.6095 -80.0281
15.1251 -101.614 -81.1677
10.2572 -93.851 -82.1651
4.8146 -108.209 -81.2961
9.80485 -108.58 -81.3055
4.86023 -115.754 -81.266
0.021543 -108.015 -81.2709
4.99462 -100.727 -81.4537
18.5566 -60.3443 -97.2619
24.3509 -60.88 -95.8414
17.9055 -67.6164 -90.8021
12.3722 -59.7029 -98.0105
16.9037 -76.7227 -85.9774
22.7915 -77.4955 -84.0168
11.3032 -76.0111 -86.9559
5.72778 -75.4706 -86.7777
6.08909 -66.3357 -91.6756
5.33426 -85.2726 -83.3483
0.11958 -75.4183 -86.3243
53.097 106.611 -31.2183
59.3557 100.568 -30.9084
54.4561 107.187 -45.263
46.6982 111.788 -31.1913
53.4695 51.4454 -127.196
59.5508 49.3412 -122.163
53.0653 37.8261 -130.029
46.9915 53.2128 -131.793
53.8693 64.774 -121.556
53.9673 77.3998 -112.5
47.654 80.33 -116.714
54.5176 88.1309 -100.87
60.2028 73.8293 -107.811
55.3066 96.4037 -88.0169
61.7851 91.0771 -84.7562
48.7745 100.829 -90.8959
56.1016 101.924 -74.2211
55.4933 105.594 -59.8217
48.7587 110.898 -61.1361
61.9498 99.589 -58.2804
52.3859 24.7831 -131.033
51.6294 11.9303 -130.334
45.8167 25.7811 -135.394
58.4167 23.5602 -126.253
50.6737 -0.622245 -128.346
56.6916 -1.0913 -123.785
49.6162 -12.7334 -124.733
44.2474 -0.328388 -132.249
48.0358 -23.7102 -119.686
46.3154 -34.2945 -112.55
42.0076 -24.0295 -123.187
53.4831 -23.563 -115.358
44.8921 -44.1629 -103.309
50.2284 -43.2024 -99.6419
43.6667 -52.8628 -94.2774
38.9348 -44.3214 -107.258
42.4545 -61.0212 -86.5069
41.1025 -69.6065 -79.7417
36.6724 -61.4384 -90.0513
47.5711 -60.4823 -82.3982
37.5071 -95.1685 -72.1624
36.4179 -103.346 -73.5222
32.0613 -95.2211 -75.3954
38.5554 -86.8252 -72.0525
42.4928 -95.4848 -68.262
25.0646 -109.682 -78.8024
24.7191 -116.531 -78.8268
19.8547 -109.21 -80.1025
25.7364 -102.566 -78.571
30.4007 -110.275 -76.8448
39.7425 -78.3579 -74.7295
44.7901 -77.9555 -70.402
34.4586 -78.3103 -78.3201
40.891 47.1458 42.618
41.1779 47.3525 40.9813
75.6829 60.5599 -90.29
76.5798 67.38 -80.3732
79.9156 55.1956 -82.8507
75.1575 51.7495 -98.681
71.0364 65.2901 -96.9964
77.7281 72.6847 -70.2304
81.7764 66.1256 -63.1502
72.9773 79.077 -76.2004
78.2488 76.6919 -59.737
76.9411 80.1969 -49.4786
79.8929 73.9086 -42.8394
72.8038 86.6786 -53.5962
63.7558 22.3816 -121.335
64.5048 34.5457 -119.979
68.621 20.8814 -116.052
62.9694 10.2305 -120.821
64.9966 47.1724 -116.96
65.5145 59.0482 -111.393
70.0772 44.464 -111.144
58.4191 -23.0733 -110.074
60.6598 -12.6437 -115.002
62.9918 -22.582 -104.302
56.1776 -32.9084 -103.546
61.9897 -1.64058 -118.678
66.8296 -1.84027 -113.335
54.715 -41.8437 -95.5971
58.8678 -40.6951 -90.5358
53.6653 -50.7199 -86.336
52.095 -59.0797 -78.4225
56.0724 -56.7221 -74.8788
49.6309 -77.5288 -64.8545
53.7844 -78.8354 -58.3505
48.336 -86.9516 -63.0777
86.119 26.3532 -76.7466
85.4716 18.6765 -82.1238
84.2078 30.2883 -83.5903
64.7485 94.0322 -29.8637
66.3143 94.7985 -43.3588
87.3581 47.2089 -41.1333
86.7859 53.5612 -48.1774
74.7506 -20.2779 -89.2983
71.2678 -21.3638 -94.0626
76.8782 -12.0379 -93.5337
77.892 -19.4568 -84.0493
72.1624 -28.3401 -83.6792
77.9244 -3.21858 -97.0555
74.7349 -2.7835 -102.769
78.7787 5.74292 -98.4735
80.8378 -3.80644 -90.7054
79.6966 15.3423 -98.1968
76.5492 17.3808 -104.588
80.7537 24.8148 -95.5281
82.4133 13.0361 -91.4488
64.3624 -48.9888 -65.8867
61.5821 -51.745 -68.6877
66.8415 -42.4968 -71.6327
67.3315 -46.3682 -62.9383
62.2261 -55.9641 -60.4341
75.8868 -31.5289 -70.8064
73.3062 -37.5847 -65.5603
72.7042 -33.569 -74.0426
78.4507 -25.2809 -75.2684
56.7267 -80.3274 -52.5829
58.6929 -71.568 -53.9536
83.8748 -35.0967 -17.5714
84.5903 -31.0525 -16.8375
82.121 -37.626 -14.6281
84.6943 -28.9765 -15.9864
88.5296 -3.55987 -24.4575
89.3134 1.05096 -27.8214
103.785 -1.60311 -60.4515
103.943 4.87666 -59.9564
104.531 -1.86818 -59.4215
91.6593 -38.6663 -36.6323
90.3027 -41.0583 -32.403
103.497 10.6248 -57.9151
102.162 10.9909 -58.8331
102.712 15.0242 -54.7223
104.495 9.93307 -56.929
94.9848 11.2649 -35.9777
93.5256 11.055 -36.8974
101.707 17.8117 -50.7942
102.896 16.9772 -49.7848
97.7624 -23.7121 -50.9959
93.9112 -37.3377 -28.7969
93.0044 -36.4172 -26.2403
92.0886 -40.2025 -28.5505
90.2116 3.38127 -29.8131
96.0813 17.3308 -45.7589
94.2958 14.5924 -42.3581
95.0066 15.6465 -47.2409
92.2292 10.6296 -38.443
91.2051 10.2553 -40.3242
100.725 10.9721 -59.4169
90.7029 9.73996 -41.4452
92.0261 11.107 -44.4561
93.7141 12.1048 -48.3445
92.224 8.85197 -48.4576
97.1274 -30.3451 -41.5733
97.3391 -30.0631 -33.9415
89.6149 -41.6711 -28.7463
91.8462 -34.8163 -24.5578
92.8667 -31.714 -25.7298
94.1457 -29.4754 -27.2141
94.9892 -27.989 -28.5447
104.597 -2.06911 -58.6256
105.127 4.04614 -58.147
100.901 16.2657 -41.3754
101.265 15.2166 -41.064
102.575 17.07 -44.9963
101.011 14.385 -40.9995
102.383 15.2727 -44.3723
100.368 13.3338 -41.0421
104.863 9.31638 -56.1707
104.237 13.3078 -53.0452
104.753 8.6993 -55.6805
103.58 16.03 -49.0284
103.709 15.0897 -48.6467
103.173 14.5531 -48.2956
103.692 12.1905 -52.3532
104.255 8.46313 -55.4125
102.823 -6.01515 -56.6501
99.8037 11.9493 -41.3036
96.9862 5.29155 -37.1517
102.557 9.36635 -49.1223
103.431 -7.8888 -50.8017
103.349 -5.9244 -51.0587
103.137 -3.94481 -51.0575
102.765 -2.26903 -50.6481
102.261 -0.776652 -49.8477
101.225 0.665203 -47.7247
92.3401 -23.9265 -27.9544
93.6422 -25.9119 -28.9125
95.3908 -0.736199 -32.6349
91.5959 -15.7679 -28.5708
94.884 -27.3255 -29.4196
34.4714 51.9759 44.6562
37.5873 110.05 -4.83393
39.0476 113.845 -17.2834
9.09831 119.482 -4.2281
9.27749 124.289 -17.8701
0.383407 120.206 -4.41351
39.9745 116.51 -31.5611
40.7995 117.411 -46.6952
9.24923 127.475 -33.0361
0.444359 128.023 -33.3681
25.9059 122.781 -65.1903
33.9325 119.682 -63.8901
41.4426 115.724 -62.6435
41.9718 111.631 -78.3867
71.2301 66.0905 -2.81985
81.6957 67.8381 -35.6123
84.288 63.7566 -45.5018
67.6091 93.3952 -56.5963
68.4247 89.9899 -69.0118
9.14372 112.764 -100.94
9.04404 101.985 -116.112
0.337038 113.125 -101.198
41.7421 104.985 -93.496
41.4748 95.1721 -107.971
84.869 59.7997 -55.6648
84.2696 55.3758 -65.6621
67.4923 85.4455 -81.0668
66.4484 78.7398 -92.2208
83.3723 49.8856 -75.2742
82.3871 42.8243 -83.9069
81.5377 34.4924 -90.7334
78.3296 38.0785 -97.8251
47.077 -96.442 -63.2749
45.9562 -104.984 -64.529
45.4001 -112.851 -65.4852
45.0627 -120.379 -66.4337
40.7206 -111.564 -70.5374
8.68487 88.5506 -128.901
8.3813 73.2842 -138.738
0.299565 88.5922 -129.214
8.33 58.0194 -144.268
8.37715 43.2437 -146.767
0.254343 58.0583 -144.385
8.4441 29.4443 -147.497
8.32357 16.023 -146.61
0.250556 29.6361 -147.683
8.01777 2.27647 -144.241
0.276002 2.31431 -144.493
21.5762 -23.462 -132.456
28.4553 -23.8324 -129.794
6.55996 -43.7379 -117.75
6.37058 -52.6688 -106.307
0.221264 -43.7907 -117.805
6.26822 -59.4623 -97.9001
0.1638 -59.4271 -97.6254
5.16509 -93.3614 -81.8623
0.0701443 -93.0919 -81.4641
39.7696 54.8345 -136.058
40.4435 69.2078 -130.4
39.1832 40.4553 -138.669
40.8945 82.8691 -120.838
38.5052 26.8301 -139.343
37.8511 13.4466 -138.312
37.1332 0.228345 -135.916
36.4068 -12.5674 -131.981
35.3602 -24.0127 -126.656
34.0606 -34.537 -119.668
32.504 -44.3288 -110.877
31.1865 -53.3226 -101.586
30.5458 -61.2678 -93.3415
29.8764 -69.2271 -86.4617
28.659 -77.9465 -81.509
27.5208 -86.8435 -78.5211
26.6732 -94.9016 -77.951
35.7392 -110.818 -74.1458
35.1439 -117.844 -74.5812
65.7312 70.0125 -102.759
74.4737 41.8027 -104.639
73.731 30.365 -108.592
72.8215 19.4364 -110.616
71.9465 8.36119 -110.39
70.955 -2.19385 -108.25
69.6513 -12.4425 -104.192
67.2482 -22.158 -99.0408
64.7246 -30.9801 -92.9833
62.5896 -39.0353 -86.3619
66.1309 -37.5899 -81.7629
60.8034 -47.0314 -78.6718
58.9936 -54.2535 -71.8435
60.6585 -63.6523 -56.0009
63.2256 -61.6832 -53.2206
84.5415 11.2435 -85.3381
83.7532 3.39905 -85.9436
86.4947 9.01507 -78.5804
80.5261 -18.535 -79.4822
82.2094 -11.3977 -82.6242
69.4037 -35.6779 -77.8596
83.0792 -3.93099 -85.1227
70.5562 -43.6612 -60.2612
68.3385 -50.0382 -55.3161
22.2423 -95.1868 53.5367
68.5378 -66.2485 1.18882
58.0437 -83.1098 8.82784
14.1604 -23.4933 82.4396
16.5883 -25.9777 81.0969
19.5602 -29.2146 78.9008
7.28854 -43.3058 85.9803
7.64927 -44.0659 86.6609
7.93125 -45.0207 87.0152
26.4204 -48.8746 77.4309
25.3162 -46.9865 77.415
23.8002 -45.5558 77.1895
18.228 -23.4132 78.9173
39.487 -32.6399 68.5765
28.9481 -11.6748 67.1605
29.6642 -17.3307 69.5619
30.5282 -21.806 71.282
62.9057 -23.1021 48.0733
18.4834 45.3644 43.3411
88.2589 6.97824 -71.5262
89.8248 10.2588 -53.2199
90.1059 8.26964 -50.4137
80.7617 -39.6943 -10.7386
26.1102 33.7557 46.7954
49.8562 61.0272 28.2443
52.179 37.5955 34.7715
7.41329 -3.42089 74.0258
49.6294 40.3686 37.2068
11.0707 -1.96376 72.5253
90.9928 7.6526 -49.1071
59.9767 -103.539 -40.892
67.3662 -68.9706 -40.1124
66.519 -63.4303 -46.2021
66.4065 -58.1337 -50.7839
23.2201 -0.852629 64.6964
26.4217 -36.6683 70.4672
13.7696 -42.1861 79.9592
24.46 -38.7399 70.4739
8.85324 -29.3495 80.6057
-79.2662 -40.1734 0.949938
-80.4225 -35.1743 0.648879
-79.9229 -39.9866 -5.79742
-77.9706 -44.869 1.0427
-78.4358 -39.7488 8.72586
-60.7695 -113.881 -4.64002
-61.1995 -101.944 -3.88062
-62.9562 -112.832 -9.37027
-60.6927 -125.191 -5.99045
-58.0716 -114.747 -0.0334879
-60.7735 -132.938 -7.47649
-58.3094 -134.644 -2.78801
-62.5907 -131.282 -12.2242
-61.0096 -138.9 -8.97649
-55.6233 -92.9231 7.21838
-58.9832 -93.0977 1.53341
-55.0271 -102.927 6.07574
-52.2184 -93.2591 12.6225
-56.6245 -85.8419 7.75716
-65.6656 -93.8531 -12.9576
-63.7796 -93.589 -8.30162
-66.2394 -88.0427 -13.0639
-66.7069 -93.497 -18.6265
-65.1573 -101.538 -13.2317
-72.0734 -56.0561 16.8118
-72.8217 -56.1024 8.88371
-69.7093 -59.9634 15.3594
-70.6388 -56.8374 24.864
-74.0009 -52.407 17.5945
-78.0889 43.6939 -8.54132
-82.7924 38.9322 -19.8953
-77.3796 37.0772 -4.08133
-72.9708 49.5191 1.34562
-79.6239 50.238 -14.789
-87.2941 39.5391 -61.7733
-88.3554 33.3497 -55.2471
-87.4011 44.1244 -52.1575
-85.4056 45.3051 -68.4913
-86.5651 33.9318 -70.0868
-8.86676 -109.949 49.017
-9.04687 -102.414 52.7088
-12.8246 -109.141 47.3846
-9.30164 -119.31 45.5453
-5.57364 -110.309 50.0471
-10.129 -130.751 39.5947
-11.0317 -141.05 33.928
-6.50174 -131.054 40.8465
-14.1367 -129.72 38.0854
-4.10387 -149.08 32.4902
-4.45409 -154.536 30.7044
-3.63678 -141.776 35.8174
-7.83231 -148.696 31.7522
-73.7606 -55.5494 -37.9279
-74.4704 -48.8072 -43.5363
-70.5644 -61.6471 -38.7985
-73.4669 -60.6683 -31.6777
-76.9003 -49.4068 -37.2952
-75.2338 -43.8712 -47.7202
-78.8928 -38.9062 -46.2782
-76.3563 -39.6479 -51.3716
-71.0891 -49.9727 -49.261
-63.6812 -124.622 -28.998
-64.2756 -127.632 -22.3994
-62.0154 -121.958 -35.8736
-63.3354 -131.609 -30.3138
-3.05966 -131.474 41.6324
-2.54159 -120.199 47.5021
-76.9668 -38.7101 17.9104
-75.8674 -43.7247 18.5489
-74.9932 -36.9251 26.6818
-77.9007 -33.4861 16.8819
-73.2444 -56.5783 1.38883
-75.1839 -52.8645 1.27415
-73.2045 -57.9146 -6.00202
-71.1245 -60.5077 1.1239
-10.9509 -61.234 92.4263
-11.2289 -56.289 90.9969
-16.0351 -61.6931 89.5116
-11.3022 -67.1041 91.8858
-6.70196 -60.6812 93.8212
-21.2579 -61.8049 85.3589
-21.3803 -57.5572 84.4964
-26.7639 -60.8995 80.3609
-21.2399 -66.1805 85.4199
-3.10935 -52.2923 90.9718
-3.01343 -54.6914 93.2448
-2.91993 -51.9466 89.0747
-6.91575 -52.7965 90.1093
-11.3068 -72.0493 89.4588
-7.08179 -72.4624 90.8078
-16.1353 -71.1374 87.0788
-11.7064 -75.9764 85.3458
-12.4568 -79.1358 79.7458
-12.8437 -81.9706 73.9189
-7.69476 -79.9547 81.097
-16.462 25.4403 56.0285
-13.8773 27.5938 56.8309
-15.8297 28.1614 53.2035
-19.0763 24.1039 55.162
-17.0194 22.9405 58.897
-50.7806 -2.30957 59.6104
-51.7462 -9.09107 59.8026
-45.0018 -0.487085 62.6311
-49.7478 5.07046 58.5119
-56.6496 -3.96408 54.9215
-60.2107 8.59713 47.4183
-61.8491 1.73485 47.9825
-54.0491 10.2774 52.8352
-58.9514 14.5107 45.6369
-66.9626 6.74259 38.9247
-72.8398 20.7509 19.3487
-69.1872 22.8016 23.1965
-72.2642 27.5425 15.6618
-76.2794 18.0899 13.6116
-52.2796 -14.8008 59.7128
-45.7902 -12.8244 63.4534
-58.1568 -17.1935 54.4788
-52.1803 -20.1877 59.951
-2.28602 29.4768 70.2924
-4.55473 28.8073 69.7033
-2.13372 26.5745 75.125
-2.67953 32.3733 65.5523
-30.0516 92.1195 23.8435
-32.3663 97.6542 18.3399
-35.7939 89.8388 21.2995
-27.8657 86.211 29.2168
-24.9066 93.5211 25.797
-3.30841 -86.8739 71.057
-3.49177 -83.3138 76.1295
-7.6208 -86.5329 70.2569
-2.94226 -91.3708 65.839
-72.4044 -34.907 34.6011
-73.0095 -29.4183 33.4733
-71.2248 -41.0076 35.8553
-68.9 -32.7586 41.7995
-3.28472 -72.4556 91.7609
