85.6794 -5.84867 -52.3821
82.5614 -20.4304 -40.5459
73.0472 -23.6749 -17.7376
74.1885 -18.3513 -19.4765
73.2887 -14.2184 -18.1035
74.0957 -7.18358 -20.3901
74.5368 -13.037 -20.4934
75.3129 -7.3723 -22.6087
74.2863 -12.1047 -29.3934
85.6992 3.83825 -52.2831
84.6816 6.39338 -48.3294
85.5414 2.57818 -50.8463
85.5849 0.792728 -49.0519
86.1093 -3.05448 -49.9301
85.4836 8.26935 -49.586
84.2854 4.03718 -45.9946
79.8451 1.16531 -35.6385
32.3169 -78.813 63.4901
43.7916 41.7808 40.1428
42.7594 44.1793 42.4446
68.1871 -44.0165 -16.096
69.3819 -38.2648 -15.3234
67.0424 -41.7414 -5.93172
21.5442 38.6194 41.8061
17.2396 39.2608 41.4765
5.87479 50.8387 48.8445
16.4826 -24.7453 71.7776
17.06 -23.3463 74.2701
62.8315 -61.4176 -5.68308
60.9447 -69.4697 -6.25287
63.9529 -68.3413 -17.3332
70.7389 -1.81645 -9.56657
72.1685 -4.9583 -16.6188
63.1091 -78.1272 -18.1386
63.6262 -67.9229 -30.152
63.8856 -121.103 -20.854
61.4653 -114.682 -34.5561
23.3936 -31.2586 65.827
25.0469 -30.5347 63.7977
23.2122 -30.4425 65.3281
26.5001 -30.5227 63.2866
18.6895 -30.5185 72.7047
19.1052 -31.204 72.9073
36.4244 -70.1035 66.2933
42.2015 -68.576 -73.8138
49.1183 -61.9772 -67.6627
50.2583 -69.3808 -59.0085
58.9758 83.116 -10.5462
51.7088 94.3746 -12.9517
50.7725 88.8642 3.26252
86.5258 -6.31026 -56.0307
85.1792 -6.54269 -58.0424
85.1127 -15.9398 -49.7504
84.0643 -17.1436 -51.6602
82.0627 -24.9086 -44.3511
82.9687 -22.6606 -41.895
77.3072 0.95848 -26.4819
75.734 -17.9584 -22.0224
81.8359 -16.8337 -53.7214
77.5739 -22.117 -48.7478
81.3405 -30.3074 -30.3297
79.0179 -36.5191 -30.8159
80.5912 -31.6569 -38.4631
82.2354 -27.2886 -36.2781
79.6618 -29.629 -25.7757
81.1568 -25.7885 -28.8218
71.4117 -38.0831 -27.945
77.9224 -35.6538 -24.6899
74.5495 -38.0265 -25.3927
82.068 14.5714 -34.5646
79.055 9.60936 -30.1383
84.9688 -13.3956 -48.733
85.8509 -0.139715 -55.1471
86.3221 5.759 -54.3173
81.9424 13.2934 -35.5258
80.6632 8.70284 -33.3885
85.4475 11.6602 -48.4986
85.5186 13.2814 -49.4217
84.8566 -8.1333 -46.7219
80.1942 4.83995 -35.7208
81.9104 9.10462 -40.8238
81.2841 7.68402 -38.1299
83.2557 0.963075 -44.1332
82.793 -12.7877 -44.5629
78.7337 -22.579 -25.9202
75.5707 -14.2637 -26.7346
75.7653 -18.1408 -26.1195
76.8376 -9.17706 -25.9815
76.3922 -10.1846 -28.0635
78.1034 -2.34325 -30.2633
78.2913 0.0251023 -28.1903
78.7272 -22.5398 -28.9876
52.7777 -57.0558 -62.2678
26.1628 -1.63139 61.0939
30.2757 -1.608 58.2764
26.4328 6.7108 59.2746
21.8882 2.00473 64.944
23.7895 8.45747 64.0357
46.8156 34.9037 35.2902
48.5446 41.3553 36.7316
29.0738 30.6207 46.7447
46.7975 59.7126 41.3665
54.7282 52.3199 34.1385
10.2187 5.22127 76.2924
6.37094 3.98656 77.1875
10.7748 2.29744 73.4891
8.43958 7.7487 82.0815
14.881 7.10883 75.908
17.4136 14.7798 77.5795
20.4135 12.9606 73.036
17.7893 16.1754 75.1054
61.1756 85.4746 -36.0576
65.6608 75.5154 -27.6368
28.8601 -33.7485 58.9279
28.4719 -30.0988 58.5318
-18.1818 -73.8554 82.3239
-27.4112 -72.448 76.816
-19.8356 -80.1412 74.3818
-58.0631 17.1095 25.9725
-62.9235 9.98636 19.5027
-56.6938 9.62197 32.4583
-51.579 20.2972 33.2232
-12.1201 58.0541 50.364
-18.5976 62.2284 51.3267
-43.7425 40.5844 39.4143
-42.8297 39.0315 39.7216
-26.6584 45.5683 41.7549
-22.1938 42.8797 38.4714
-22.979 42.448 41.8121
-27.2361 44.6523 43.4532
-40.2584 30.1958 43.2066
-8.47879 43.8824 50.327
-8.38733 47.7973 47.7743
-9.52871 44.9394 46.7738
-13.8809 43.6025 42.266
-13.4911 40.6993 44.2497
-42.091 39.6864 39.9004
-18.1 36.6822 44.2132
-17.1063 33.6564 47.1528
-13.1828 37.803 47.7062
-20.3968 39.5613 40.0556
-20.7282 40.8417 40.2195
-22.3679 37.3558 37.6803
-26.0955 -30.0259 63.526
-25.9637 -30.5409 62.1775
-23.8079 -28.0789 66.2747
-26.2624 -29.1666 63.7287
-23.9577 -26.0395 68.1644
-26.9466 -30.0344 63.1168
-27.015 -27.0866 64.2926
-30.6503 -29.3034 62.4119
-27.9241 -29.6403 62.8459
-26.4916 -31.1456 62.2556
-20.7777 -32.3432 72.8387
-25.2737 -32.3486 65.0871
-18.404 -16.262 76.3414
-23.2061 -21.8718 71.2033
-24.2191 -30.3249 65.0055
-24.2183 -30.4715 64.687
-39.0374 36.5513 41.7209
-73.356 -23.7208 -18.8634
-74.0214 -33.4706 -22.3336
-72.0631 -34.6758 -20.8586
-79.3124 -21.1563 -35.2054
-82.094 -23.7938 -36.2296
-80.4078 -18.135 -40.391
-77.6477 -30.6446 -22.1262
-75.377 -23.9907 -21.0052
-75.9072 8.66491 -30.9904
-83.8122 13.3762 -43.5103
-84.1256 15.9797 -42.5994
-74.422 -12.2254 -30.4599
-74.3754 -17.5357 -30.3783
-79.1179 0.563532 -32.9595
-80.1156 4.88489 -34.4437
-79.8572 1.0237 -36.7385
-78.8143 -3.54764 -37.6949
-84.8234 -13.521 -49.8999
-73.8181 -31.8955 -39.5432
-74.0053 -36.1988 -34.0976
-85.9492 -8.02503 -50.1538
-85.4879 -5.97924 -53.5456
-82.5394 -20.5468 -41.7048
-74.4427 -18.4306 -20.5892
-73.5581 -14.3182 -19.1833
-74.3321 -7.31398 -21.4454
-75.5046 -7.50143 -23.6806
-74.7892 -13.1493 -21.5745
-78.8572 -22.6278 -30.1472
-77.0962 -4.50489 -33.3694
-85.5121 3.70175 -53.4417
-85.3688 2.44299 -52.006
-85.9604 -3.18971 -51.0969
-85.4366 0.65678 -50.2121
-81.8533 8.95902 -41.9366
-84.5227 6.25609 -49.4812
-85.3277 8.1303 -50.7409
-84.1712 3.89778 -47.1391
-33.3612 -78.8768 63.1976
-43.4939 44.038 41.9999
-68.5369 -43.8788 -17.3533
-67.5941 -41.617 -7.21216
-69.7646 -38.1821 -16.5375
-6.91725 50.8326 48.7338
-17.5199 -24.7524 71.4885
-18.1414 -23.421 74.0393
-63.2552 -61.0827 -7.19819
-64.2251 -68.1279 -18.6065
-61.2756 -69.1493 -7.74022
-71.0819 -1.95356 -10.5612
-72.4484 -5.09287 -17.646
-63.2328 -77.9536 -19.3536
-63.2832 -67.894 -31.2021
-63.8451 -121.216 -21.6267
-61.2785 -114.789 -35.3108
-24.4372 -31.2894 65.6482
-24.2573 -30.5013 65.1525
-26.0543 -30.6005 63.5817
-27.545 -30.6353 63.0026
-20.3188 -31.2015 72.6483
-19.8524 -30.4767 72.4553
-37.4676 -70.0946 65.6758
-41.6762 -68.6586 -74.37
-49.924 -69.4536 -59.7128
-48.6959 -62.0659 -68.3266
-59.3255 82.8414 -11.4764
-51.3242 88.6154 2.45174
-52.0826 94.1177 -13.8014
-86.292 -6.43607 -57.2037
-84.8987 -6.66186 -59.2011
-84.9533 -16.065 -50.9176
-83.9042 -17.2683 -52.8081
-82.0024 -25.0216 -45.5011
-82.922 -22.7711 -43.0638
-77.432 0.816081 -27.5526
-75.9616 -18.0489 -23.1451
-81.6463 -16.956 -54.8424
-73.6499 9.71004 -35.3824
-73.1506 6.40512 -26.7461
-77.4562 -22.2333 -49.8294
-79.1475 -36.5648 -32.0205
-81.4607 -30.3765 -31.5401
-82.2928 -27.3877 -37.4576
-80.6187 -31.7514 -39.6239
-79.9076 -29.6823 -26.979
-81.2922 -25.8715 -30.0166
-71.6112 -38.107 -29.0825
-78.3699 -35.651 -25.908
-74.7909 -38.0098 -26.5858
-78.9059 -22.6624 -27.0865
-77.4096 -25.4866 -24.2172
-82.0722 14.4146 -35.6726
-79.1379 9.45509 -31.2062
-86.1064 5.62567 -55.4842
-85.6279 -0.270569 -56.308
-81.9383 13.1408 -36.6347
-80.9239 10.3856 -37.1034
-80.7092 8.55092 -34.4812
-85.3649 13.1406 -50.5748
-85.3042 11.5194 -49.6527
-84.7331 -8.26429 -47.8852
-81.2754 7.53526 -39.2337
-83.1814 0.823123 -45.2648
-82.6982 -12.9147 -45.7094
-75.7271 -14.3746 -27.8318
-75.9371 -18.2407 -27.233
-76.5301 -10.3113 -29.1489
-77.0103 -9.30671 -27.0678
-78.4118 -0.120007 -29.267
-78.1941 -2.48396 -31.3467
-80.2025 4.6945 -36.817
-52.4468 -57.145 -63.0001
-27.3982 -1.85601 60.8662
-27.3727 6.79184 59.0687
-31.1552 -2.20086 58.6518
-23.1646 2.04682 64.457
-24.751 8.65611 63.9841
-47.6259 35.1221 34.9351
-49.3118 41.0281 36.0479
-30.1646 30.6247 46.3785
-55.4399 52.2523 33.6541
-47.0967 59.7684 41.2686
-7.31895 5.80684 79.9838
-11.4706 5.27085 76.0295
-7.98165 3.9992 76.8863
-9.82887 7.74522 82.0241
-18.706 14.7595 77.2012
-18.9914 16.1451 74.7709
-21.5201 12.9559 72.7117
-61.2785 85.242 -36.9914
-65.8341 75.2713 -28.6146
-29.8526 -33.9574 60.7981
-27.6332 -30.2985 59.8667
-16.1631 7.14114 75.6999
5.7246 5.70921 80.2732
-11.9339 2.30801 73.3319
-23.3188 38.6729 41.3997
73.8967 -36.1463 -32.9667
73.7946 -31.8147 -38.4528
66.5233 -29.7708 9.37627
65.1396 -40.4249 9.41299
68.5755 -31.0863 -4.50166
60.9021 -103.887 -8.44025
56.7319 -105.981 1.24445
58.7168 -140.938 -4.56881
62.577 -137.402 -14.1548
61.9467 -124.779 -10.7708
57.3477 -128.268 -1.34375
56.6019 -90.2915 1.88343
52.4116 -92.6072 13.6686
50.3655 -109.517 11.8711
63.3014 -102.251 -18.5931
62.8763 -88.6648 -18.3434
60.2875 -89.736 -8.09213
63.71 -50.4277 8.746
58.7592 -50.4843 24.3872
57.8495 -59.9682 22.0658
61.4568 -60.1535 7.65757
71.1808 45.0486 -20.2097
64.5769 54.2145 0.329454
61.4679 42.4424 12.7467
68.8299 32.374 -9.66584
73.4288 27.7248 -59.8116
70.9209 37.2603 -73.2084
72.4391 48.7261 -54.4025
73.7441 37.1712 -41.5267
5.78135 -108.314 60.9706
6.35648 -125.695 51.4912
13.5895 -124.487 48.4758
13.3164 -107.543 58.2678
6.81391 -143.482 35.5944
14.8413 -142.406 33.0446
7.55337 -154.724 29.0882
-0.192767 -143.939 36.7279
-0.204043 -155.135 30.2504
66.9662 -41.6664 -40.9486
66.5291 -52.7441 -30.3834
62.0525 -54.0108 -43.6257
62.4998 -43.3951 -51.7994
68.3816 -33.4939 -47.7127
64.2157 -134.015 -23.8367
62.176 -129.487 -37.4226
-0.1802 -126.157 52.5996
61.0667 -28.5231 22.9593
59.9738 -39.91 24.1332
64.9778 -51.8483 -5.61207
7.68702 -57.2437 88.92
8.45136 -65.8231 88.9507
17.5803 -66.9992 86.3846
16.2789 -57.3369 86.175
27.0735 -64.794 81.0262
25.3408 -55.9367 79.8791
5.92467 -48.2877 86.094
-0.674154 -48.1893 86.7781
-0.507357 -57.2931 89.5046
8.11932 -73.7676 83.8824
7.49903 -81.5997 76.8723
14.2683 27.5282 59.7632
20.7603 20.8242 55.3496
16.5362 29.5852 50.9118
12.3742 34.1683 52.701
48.7252 -7.01537 45.0014
48.7799 2.82753 43.3335
38.0149 5.85853 52.828
39.2973 -2.9021 55.0357
56.8802 -2.49526 32.3789
46.7233 11.537 42.5266
62.8118 25.2566 14.1218
58.2819 27.6018 21.6782
39.9877 -15.8935 56.4237
48.8967 -20.9743 47.1906
3.48333 40.2893 66.1135
-0.642002 41.9636 66.2334
-0.633559 33.105 77.7656
3.94711 31.6933 77.082
27.7385 90.6961 24.93
26.2479 79.9544 34.1959
36.3471 77.9978 31.1887
38.4897 87.5853 21.7707
-0.622345 -93.7606 70.5098
6.39695 -94.0206 69.9142
-0.468494 -81.2462 77.2837
56.0875 -26.2555 34.9313
55.1425 -37.8802 37.5094
-0.429307 -65.6094 89.565
-0.737173 -73.3936 84.4314
37.0985 -61.2258 68.9836
45.3404 -68.3075 52.9583
45.0261 -58.2713 56.4857
41.3447 -89.4667 43.6813
50.1754 -84.6894 29.6806
51.6953 -71.8 33.3244
44.2451 -77.6598 48.9867
-0.546203 -108.489 61.8871
4.3906 24.4821 85.7825
10.4603 21.7582 80.8819
9.44275 27.6494 73.2772
30.1047 9.0065 55.8264
24.2127 13.5271 58.7732
28.2422 -32.1976 62.8954
17.8603 5.17167 71.8115
16.8211 2.75389 70.5904
11.4804 -0.70568 74.2359
17.2023 -2.24761 69.9629
16.5614 0.185378 69.531
2.7822 5.80438 83.3708
-0.710096 5.16647 85.3534
-0.704586 3.59467 81.6484
2.71677 4.09446 80.2128
22.3337 -1.94038 65.346
5.04883 14.9846 92.0631
4.84813 10.48 91.2666
10.9026 11.7774 85.0716
11.2935 15.586 85.5221
30.9176 -44.1692 68.3602
27.7671 -36.9234 66.4203
21.2176 -39.0721 74.4048
22.1999 -46.7995 77.2628
30.1658 -21.3138 63.7436
26.5322 -17.9269 67.9767
-0.703142 -1.63601 79.6345
4.0119 -1.4109 79.0918
3.07138 1.65775 79.0162
-0.697676 1.43764 79.8799
8.60188 34.5163 64.2279
21.8442 13.53 67.5745
21.0921 13.5965 70.3895
22.2816 10.7146 68.7124
6.12976 0.982832 77.3617
21.1077 5.65806 68.485
-0.752986 -14.506 82.8876
6.329 -12.979 81.7529
5.53272 -7.76765 80.33
-0.589643 -9.61 80.6195
23.8511 -8.92846 67.4352
27.5961 -11.1512 63.4108
13.1547 -37.6356 79.7889
5.64241 -38.7474 82.5951
5.58007 -42.0963 82.9004
13.1797 -41.7038 80.425
22.4592 -23.94 70.0274
25.3139 -28.1635 64.3285
16.9592 17.7609 73.142
20.346 -35.1081 73.503
-0.282227 -38.3112 82.6844
-0.323066 -41.8507 83.2092
56.4579 41.3031 28.0919
58.4032 41.4241 22.838
54.9537 54.5303 31.198
34.84 70.5882 40.8996
45.8582 66.1055 35.4522
47.7521 73.1027 25.7217
55.1616 57.5044 26.2895
56.8089 65.3214 15.905
45.8637 62.9745 39.2484
35.0381 67.1269 44.8289
20.8454 54.5641 48.2325
27.8591 55.1744 48.5793
27.3551 59.3123 49.9872
19.7801 58.4782 50.6574
8.01231 40.2357 55.5904
2.97223 50.0242 51.5934
3.16402 45.9953 56.8642
26.6747 16.7746 53.0187
35.1724 13.2144 49.5112
32.4657 21.103 47.6502
21.7561 25.1329 50.1483
53.9231 28.6098 27.0709
49.8399 31.3323 31.4967
46.8995 26.3295 35.8709
46.6422 55.8483 42.4811
36.4692 62.7561 47.0404
36.8809 58.5554 47.3581
53.1266 49.6898 36.7583
53.2872 41.2104 32.5183
38.4716 46.4949 44.7561
34.5563 47.7043 45.3273
34.4754 47.0057 45.3187
38.0578 45.8505 44.8398
29.1191 47.9626 44.5922
29.3535 47.2447 44.7751
24.6249 45.7639 43.2914
23.6733 46.4402 42.9355
17.2889 44.1406 41.3237
18.5809 43.7787 41.6379
16.2016 41.2788 41.2722
14.2434 41.7408 41.9177
15.7751 44.8797 41.7422
44.1718 38.5373 38.6865
42.5321 40.7205 40.1441
42.7739 36.4239 39.8646
29.7433 45.5586 45.1024
37.436 44.3308 44.6978
40.0639 42.4004 42.5586
41.1576 40.7186 40.4894
42.0114 40.5614 39.06
41.9794 40.0945 39.0791
36.0649 54.2216 47.2194
44.8714 44.7309 42.3372
40.7042 48.2952 45.5073
28.6861 34.1939 46.3417
38.058 34.3255 44.1619
20.9105 36.3612 44.1212
18.5922 37.7781 42.6418
17.0629 38.9708 41.9267
14.5484 51.7212 46.0735
10.1815 48.322 44.9441
15.5585 41.292 41.2894
28.6657 48.8388 45.4032
22.5542 47.2497 43.7313
14.771 46.667 42.5492
37.1138 37.5931 43.7665
37.3876 36.8484 44.058
28.7479 36.584 45.5404
28.8542 37.3069 44.6285
21.2785 38.087 43.029
18.6235 38.6456 41.7256
18.8522 39.0649 40.9543
18.3113 40.2602 39.6213
19.0595 38.345 39.6946
18.3207 39.1943 39.5209
39.8308 43.1847 41.0316
-0.596987 60.5233 50.5181
-0.74116 57.4171 49.6195
4.13757 56.3591 49.6473
6.73037 60.0406 50.8128
20.0363 30.5174 47.4617
15.5799 39.0206 42.9842
9.3664 51.689 46.7719
20.0233 33.673 45.563
16.2649 -25.2456 70.1875
22.7594 -28.7335 65.0472
6.9297 -18.2736 81.7629
6.74065 -15.1311 82.0816
-0.738389 -16.6779 83.4967
-0.695597 -19.2059 83.544
11.788 -18.6576 79.6257
6.29775 -20.3781 80.4045
11.2007 -20.9932 78.0113
17.6286 -21.0953 75.7837
11.8223 -15.381 80.723
17.2913 -18.34 76.8633
4.68759 -21.2995 78.0276
10.2053 -22.537 75.4892
25.9244 -29.3263 63.4099
17.7261 -29.4714 71.1273
17.8401 -29.3558 71.5343
17.9598 -29.4071 71.8439
11.1272 -29.3968 78.7401
12.2708 -31.5784 79.4119
4.20797 -29.3146 83.2605
10.996 -28.9096 78.3482
4.28386 -28.5041 82.4205
-0.505177 -31.7138 84.5727
4.99934 -32.4491 83.9144
-0.631445 -28.8826 83.9876
22.8012 -30.5723 64.29
-0.596643 -28.9213 78.8842
4.23368 -28.7852 78.115
-0.448695 -33.5442 84.0225
5.36246 -34.4091 83.4885
5.62117 -36.0568 82.6489
-0.359788 -35.4542 82.8951
10.9921 -13.8691 80.2967
-0.646327 -28.5953 83.2228
4.36504 -28.7294 80.974
-0.626653 -29.0506 81.6345
11.0825 -28.9162 77.4041
13.0877 -34.7449 79.5791
12.7747 -33.0917 79.5511
10.2069 -23.0899 73.3092
10.9765 -29.1867 75.2471
10.5294 -21.5811 72.3516
16.3024 -23.8161 69.3789
23.4718 -33.6229 62.3214
4.06634 -31.2882 74.9558
-0.571239 -31.2146 75.8292
4.43737 -21.5961 75.4424
5.4848 -20.098 73.9927
10.8168 -31.7384 72.567
27.2994 -22.986 56.5973
31.3621 -25.7967 52.9228
10.0614 -14.3482 68.513
16.1276 -15.5666 66.4289
29.5883 -41.3166 61.2996
26.3758 -42.6618 65.1206
5.21372 -13.4813 70.0769
11.0218 -40.9457 71.4691
3.73444 -40.1367 74.5124
32.2328 -39.9222 57.8484
75.0083 -16.3258 -54.4931
72.7807 -17.7141 -59.669
73.7539 -8.81829 -63.0711
75.9036 -8.66205 -57.4138
73.0172 6.55479 -25.7401
73.6009 9.86323 -34.3771
73.6397 23.5684 -30.7667
71.5333 11.2872 -18.7156
73.9833 17.8229 -48.7073
73.8934 11.177 -42.9354
72.3748 -28.0273 -44.7862
70.8421 -34.0263 -39.125
70.534 -26.0215 -54.2651
73.8792 -22.461 -49.9401
79.306 -6.50152 -56.4227
78.6887 -15.9595 -53.3622
77.9056 -31.3318 -40.6962
80.0635 -24.173 -47.0567
75.4316 -37.8739 -31.8541
73.2461 -37.5962 -28.0421
75.8845 -30.6407 -20.8938
84.1579 -13.9199 -46.028
85.6296 -1.59986 -53.4698
79.233 -21.0509 -34.0641
71.7442 -13.6101 -13.4606
71.1202 -21.9792 -12.3473
76.126 -13.9035 -24.573
76.5117 -17.7784 -24.0288
75.0676 10.63 -41.3468
82.6275 -7.16408 -59.0764
84.2197 19.5594 -42.6426
81.9495 20.3733 -45.1144
79.9147 18.0867 -47.3815
87.1671 5.34883 -55.0104
80.9046 10.5383 -36.0105
79.8197 6.09122 -30.6646
84.9957 -4.7116 -47.3426
84.4629 -1.7685 -46.9193
75.9505 0.889248 -56.97
78.7215 4.13679 -54.8154
75.7262 -27.0807 -43.6326
79.4784 -8.35601 -41.3725
77.6381 9.57304 -49.454
75.4691 7.61914 -51.5971
83.6833 10.6389 -42.7146
-0.450288 92.4959 26.42
15.595 92.1901 26.1111
16.1501 103.434 12.1024
-0.410352 104.667 11.8178
-0.501739 78.8726 36.177
14.8766 79.5706 35.6434
24.9479 72.0697 44.1253
3.6327 7.15399 87.4781
-0.718442 6.74419 89.9156
4.86399 19.214 90.0936
-0.77639 19.3373 91.4756
-0.736385 14.6548 93.5466
-0.715078 9.85758 93.2884
-0.809024 25.2757 86.7397
-0.668172 70.3188 45.4699
-0.625513 65.7808 49.2005
12.9958 66.5173 50.026
13.5914 71.1992 45.9373
-0.673975 47.6749 56.8441
-0.629482 51.6122 51.7246
3.08679 53.3555 49.6387
-0.637195 54.583 49.6817
-0.619422 -21.5345 75.8919
-0.337772 -19.8799 74.2472
-0.694542 -21.3655 78.6238
-0.749259 -20.8948 81.9014
-0.554091 -12.5326 71.713
29.0182 100.508 11.8607
24.998 68.637 48.034
26.4026 63.7527 50.4136
29.7099 46.5971 43.6208
28.1975 50.4897 46.3926
21.5195 49.3652 44.7544
41.2674 103.464 -11.5447
39.998 95.8011 9.38944
34.4021 45.3495 45.3366
34.8382 49.9491 46.8644
49.5371 81.7124 15.3984
34.6323 48.4534 46.0667
39.2332 47.1144 45.1791
34.3923 46.503 44.3553
44.6634 51.894 43.9385
58.8668 74.3587 3.77506
41.1779 43.3924 42.4339
41.7092 43.8056 42.263
37.5135 45.0718 43.3238
50.0025 46.9649 39.3542
13.7368 55.0733 48.6022
65.7502 -55.1523 -17.9293
74.7215 10.3619 -58.9411
72.6263 15.6841 -72.5727
68.7987 -22.2711 -69.0326
70.7897 -10.17 -74.9156
71.6903 2.7941 -77.0032
74.4788 1.33507 -63.4513
65.4713 -33.1112 -60.9763
15.2026 -93.9197 66.9193
28.9377 -91.7588 57.1858
52.7854 -62.5889 38.3265
66.6526 65.2669 -13.2107
29.7649 110.201 -11.0983
16.1208 114.34 -11.6195
52.0869 -52.091 42.7664
9.43504 -8.69158 79.5077
21.5422 -13.3053 73.3425
7.4143 -2.22101 78.0608
15.5274 -9.85225 77.6716
13.1449 -4.41883 75.9605
32.968 -30.5247 61.4154
33.648 -23.4358 60.9006
69.2096 -41.8536 -28.3931
69.5838 -21.8625 -4.73439
70.2372 -12.6796 -6.00159
68.3225 18.5714 -2.34594
68.2604 4.4593 4.09105
44.6159 31.3925 38.0967
68.083 -8.31991 6.7977
67.6694 -19.1612 8.18052
16.1228 20.9964 66.781
17.3464 11.0409 77.297
20.3816 8.49623 72.0605
32.1241 -13.3956 60.1023
48.898 -32.1234 49.5827
40.6941 -26.6662 57.9379
47.3111 -41.6777 54.3115
56.5135 -13.7647 33.1306
42.7445 -48.0813 61.4225
34.8554 -52.5606 69.7254
43.1444 19.3372 41.8702
40.9221 25.3479 42.6636
39.7821 -34.7061 60.3733
36.5411 -40.3021 63.6604
13.6755 -48.142 83.2632
30.5305 26.727 47.2965
11.0537 18.5858 83.9807
62.674 -5.07913 20.4962
62.1466 -17.1422 21.4936
7.52473 54.4942 48.4706
18.9359 -6.61345 72.0386
22.5104 -27.0083 63.5932
21.653 -19.1847 61.9094
34.3487 -138.004 22.1343
35.8962 -149.918 17.3543
45.2145 -147.295 11.2705
43.1216 -134.923 15.3033
47.2721 -97.9346 25.7123
38.4999 -102.678 37.4657
34.2489 -118.41 31.3953
42.9994 -114.225 21.74
30.5034 -34.5859 62.6482
54.6562 -79.8815 15.496
56.7688 -69.1088 18.4559
50.5772 -131.651 7.71303
52.341 -144.509 4.55325
59.1278 -68.8965 5.59315
60.1249 -78.981 -7.62827
57.2116 -78.7306 2.99957
61.0562 -97.5265 -33.1992
70.4672 -29.0308 -12.7675
61.0884 -81.3502 -32.4777
55.1913 -124.319 -53.5117
54.7585 -109.244 -48.9345
24.6036 -140.387 28.5913
26.2088 -152.077 22.4394
25.6521 -105.818 50.4139
23.6061 -121.977 41.4864
25.9754 -34.4103 65.8378
17.1331 -29.9555 69.7288
17.0733 -32.9553 67.719
15.7241 -153.873 26.8803
18.3316 -41.5342 68.3766
72.0082 56.8932 -33.4988
48.9224 -87.3115 -57.4187
54.1571 -91.0419 -46.5979
48.6131 -105.903 -59.3099
50.2168 -121.657 -61.8877
55.9864 -70.4596 -47.7304
29.5587 115.091 -41.3648
15.5198 120.073 -42.9224
15.5053 95.6614 -110.992
29.7832 92.799 -106.721
28.5477 66.4549 -130.617
14.5408 68.0324 -134.789
27.1815 37.6878 -139.441
14.2795 38.777 -143.578
29.8092 109.666 -75.027
15.4916 113.559 -78.1325
0.18525 114.773 -79.1658
-0.0677142 121.082 -43.7369
26.177 10.9473 -139.368
14.0729 12.0076 -143.602
25.2716 -14.7566 -133.312
13.2729 -14.3215 -137.803
23.8598 -36.0293 -121.411
22.095 -53.8203 -103.226
11.3859 -53.5745 -105.327
12.4369 -35.8491 -125.878
0.606888 -35.8709 -127.639
0.679486 -14.2198 -139.171
10.29 -85.6941 -83.6223
20.8163 -86.4448 -80.8668
20.2459 -101.799 -80.5837
10.121 -101.052 -82.06
10.1344 -115.518 -81.743
0.402514 -115.328 -82.4315
0.371949 -100.297 -81.6789
21.7746 -68.5929 -88.3603
11.1016 -66.9776 -91.1196
0.370734 -66.5791 -90.7542
0.349457 -85.0904 -82.8084
52.8393 96.9597 -38.7874
41.9822 107.198 -39.9415
51.0774 58.7972 -113.242
50.1234 33.498 -122.329
39.6731 35.8493 -131.89
40.6571 63.2102 -122.762
41.3706 87.4904 -100.268
51.8736 80.0745 -92.5625
53.6724 92.2718 -66.7907
42.5463 102.211 -71.1045
48.8741 8.91914 -123.417
38.4109 9.91448 -132.269
47.2462 -14.2414 -118.381
37.0734 -14.8065 -126.615
44.4674 -34.5172 -106.96
35.1192 -35.7007 -114.675
43.204 -51.8975 -89.1361
33.2516 -53.5437 -97.0213
32.5802 -69.4221 -82.6201
40.5352 -103.439 -70.0697
30.7057 -102.729 -76.8348
31.4057 -86.666 -75.3941
41.0246 -86.2339 -67.7476
30.3861 -116.565 -78.1843
19.8664 -115.707 -81.0546
60.808 70.4543 -82.6811
67.9686 59.7215 -69.1267
66.4438 45.7926 -87.9214
59.7537 53.033 -102.078
69.1727 68.3647 -48.3191
62.7497 80.5382 -60.2425
58.6026 30.4436 -111.652
57.2376 7.76646 -113.256
55.5307 -13.3968 -107.365
51.9796 -32.1661 -96.348
50.2957 -48.4862 -81.0202
69.7456 21.1462 -85.7511
58.6617 -29.4609 -86.381
62.1634 -12.6587 -96.8885
67.2975 -11.5021 -85.6327
64.0433 -25.9668 -77.4241
63.6461 6.14996 -102.222
68.3517 4.12927 -89.4513
65.1078 26.3144 -99.3847
55.2638 -43.9998 -73.5895
60.215 -38.7239 -66.8585
56.9109 -51.859 -56.6192
87.1127 6.02171 -56.3405
85.2735 6.48994 -58.2694
84.0422 16.833 -52.7449
86.0041 15.5926 -50.8468
79.004 16.8606 -37.7272
81.1552 16.5658 -35.4146
77.169 15.0621 -40.7985
82.6703 4.77173 -58.866
81.6014 14.9152 -53.8037
86.0129 -5.77783 -54.7989
85.1642 17.7058 -41.6246
86.37 14.075 -49.7603
-0.278573 115.949 -12.1337
0.434859 96.4495 -112.162
40.7124 -118.301 -72.5447
0.617345 68.1954 -135.778
0.665255 38.9103 -144.422
0.703715 12.3933 -144.901
0.457176 -53.5832 -105.205
-67.1352 -30.8669 8.41884
-69.0806 -31.14 -5.60336
-66.0774 -41.179 8.22353
-61.1486 -103.88 -9.42105
-57.0478 -105.948 0.244891
-58.7496 -141.045 -5.23907
-57.4952 -128.346 -2.08414
-62.0096 -124.876 -11.5424
-62.5065 -137.517 -14.8684
-56.8919 -90.0726 0.633982
-50.7678 -109.494 10.9107
-52.7154 -92.492 12.408
-60.5381 -89.5675 -9.28222
-62.9692 -88.5899 -19.4337
-63.4064 -102.273 -19.541
-64.6225 -50.6997 7.13631
-62.1963 -60.3656 5.9239
-59.0593 -59.6683 19.5466
-60.1525 -49.7716 22.0692
-71.3761 44.859 -21.1736
-69.1441 32.194 -10.5521
-62.1254 42.2002 12.0517
-65.0095 54.0371 -0.510143
-73.1577 27.5963 -60.8176
-73.7158 37.0033 -42.5394
-72.2187 48.5698 -55.4079
-70.4701 37.1539 -74.174
-6.70034 -108.319 60.8746
-14.2606 -107.552 58.1453
-14.0252 -124.549 48.3477
-6.76043 -125.729 51.4379
-15.2132 -142.428 32.8439
-7.20721 -143.498 35.5108
-7.94846 -154.738 28.9998
-66.9565 -41.7308 -41.9587
-61.9164 -54.0531 -44.5706
-66.5878 -52.7033 -31.5075
-68.2797 -33.5874 -48.6975
-62.334 -43.4795 -52.7018
-64.0408 -134.132 -24.5685
-61.8545 -129.601 -38.1301
-60.729 -40.8601 23.2952
-61.7036 -29.805 22.2025
-65.526 -51.6063 -7.04512
-8.78348 -57.3675 88.8316
-17.3091 -57.4441 86.1415
-18.51 -67.2144 86.2334
-9.41399 -65.9244 88.8738
-26.5655 -56.0178 79.5088
-28.0582 -65.1036 80.7272
-7.27901 -48.2959 85.9912
-9.42135 -73.7654 83.7806
-8.61272 -81.4775 76.6645
-15.3819 27.2208 59.6537
-13.3632 34.0667 52.7665
-17.7541 29.3138 50.8433
-21.7801 20.8452 55.0801
-48.869 -8.03058 45.4542
-39.857 -3.56295 54.9822
-38.7533 5.28695 52.8416
-48.0457 1.62367 44.6391
-57.4204 -3.39566 32.1156
-46.4786 10.6412 43.2014
-58.6263 27.4459 21.1026
-63.3662 25.1117 13.4072
-41.0223 -16.0868 55.9228
-49.7527 -21.206 46.5266
-4.72697 40.2053 66.0553
-5.06004 31.8572 77.0096
-28.6085 90.584 24.5212
-39.2926 87.4451 21.2124
-37.3461 77.788 30.601
-27.242 79.7879 33.8073
-7.62257 -93.824 69.472
-56.7387 -26.6744 34.3064
-55.8396 -38.0523 36.751
-38.3061 -61.3281 68.2438
-46.2102 -58.3466 56.0728
-46.2753 -68.4769 52.4375
-42.1886 -89.7638 43.4172
-44.8934 -77.5304 48.285
-52.864 -72.4933 32.8389
-50.6127 -85.1048 29.0114
-5.92367 24.4177 85.6664
-10.5627 27.6134 73.1852
-11.7922 21.6031 80.7132
-25.0911 13.641 58.5299
-30.7857 8.56256 55.7639
-29.1825 -32.2752 62.6381
-18.8188 5.22802 71.8275
-17.9113 2.79063 70.3741
-12.7213 -0.944201 74.1057
-17.7334 0.240066 69.2807
-18.3875 -2.24687 69.7092
-4.30004 5.92294 83.2032
-4.27952 4.12033 80.041
-23.5717 -2.06415 64.6902
-6.46821 14.8513 92.0059
-12.7098 15.7303 85.2057
-12.2996 11.8368 84.8539
-6.26084 10.4944 91.2137
-32.0654 -44.3847 67.8406
-23.3926 -46.9002 76.8017
-22.397 -39.2558 73.9673
-28.5918 -37.0566 66.1583
-31.4271 -21.4109 63.556
-27.6367 -18.0306 67.626
-4.65826 1.69891 78.8506
-5.73289 -1.65349 78.938
-9.73551 34.3425 64.1752
-22.872 13.4588 67.1946
-23.281 10.7343 68.5782
-22.2337 13.5778 70.0055
-7.95247 1.0767 76.9401
-22.2024 5.73573 68.2657
-7.08385 -8.11095 80.3275
-7.74862 -13.2085 81.7405
-28.8658 -11.2787 63.1568
-24.9372 -9.12922 66.9154
-14.1361 -38.0325 79.7184
-14.2798 -41.8078 80.2266
-6.63882 -42.0525 82.8267
-6.58811 -38.5569 82.4888
-23.6622 -24.5553 69.6663
-26.3846 -28.3042 64.0485
-18.1553 17.6684 72.8753
-21.495 -35.2779 73.2415
-55.6332 54.4403 30.827
-58.9353 41.3258 22.2485
-56.8533 41.1326 27.5413
-48.4693 73.0896 25.1385
-46.3032 66.1531 35.1235
-35.7461 70.4896 40.443
-57.3671 65.2136 15.1876
-55.9807 57.2657 25.6452
-35.9023 67.111 44.293
-45.9535 63.1313 39.3254
-21.8936 54.4466 47.8046
-20.9068 58.3919 50.3179
-28.747 59.1581 49.6892
-28.9761 55.132 48.0859
-9.08036 40.0265 55.4913
-4.44227 45.8225 56.9066
-4.18117 49.9291 51.5564
-27.5824 16.695 52.7268
-23.0691 25.0122 49.7427
-33.5934 21.0387 47.3072
-36.2331 13.0574 49.1327
-47.5278 26.4374 35.5735
-50.3745 31.3797 31.2461
-54.5975 28.5633 26.5733
-47.2224 55.8953 42.1868
-36.9576 58.3877 47.2899
-36.7166 62.7448 46.874
-53.9422 49.5765 36.2865
-54.021 40.9818 31.8821
-39.7436 46.4354 44.1192
-39.3157 45.7942 44.2215
-35.4887 46.9638 44.809
-35.5535 47.6787 44.7958
-30.1381 47.9662 44.1523
-30.4097 47.2655 44.2835
-25.907 46.076 42.8318
-24.9811 46.7064 42.4414
-21.1137 43.6412 41.3139
-19.9349 44.1474 40.7454
-16.3433 42.0747 41.1528
-18.2571 45.0217 41.0156
-45.2424 38.3423 37.9836
-43.9653 36.2799 39.1292
-31.057 45.6642 44.4788
-38.5434 44.3434 44.2665
-41.1486 42.6571 41.7714
-43.1601 39.8966 38.3189
-43.1825 40.3503 38.3005
-42.4021 40.6985 39.6975
-36.3483 54.0728 46.965
-45.3971 44.7171 41.849
-41.9662 48.2791 44.9636
-29.7151 34.1322 45.9947
-39.1995 34.2308 43.5398
-22.4651 36.4274 43.7169
-20.3715 37.8814 42.1992
-18.9229 39.1507 41.3833
-19.7548 39.4438 40.6199
-11.1677 48.3237 44.7969
-15.4946 51.9722 45.5385
-17.9811 41.5307 40.5077
-23.8718 47.4376 43.2575
-29.7367 48.8173 45.0168
-16.4781 46.8889 42.0733
-29.8027 36.4924 45.2002
-38.5156 36.827 43.5362
-38.1985 37.5923 43.309
-21.0284 38.7864 41.0339
-23.1428 38.175 42.4754
-21.2784 39.1452 40.2941
-29.8379 37.1636 44.3379
-29.3624 35.9226 42.8756
-20.754 40.5028 38.6767
-21.1726 38.5825 38.8232
-20.5906 39.4411 38.6096
-40.8405 43.309 40.222
-7.93312 60.0023 50.7103
-5.67708 56.3278 49.621
-21.3414 30.3646 47.2407
-16.9243 39.1885 42.6155
-10.3752 51.7953 46.5207
-21.4154 33.5773 45.2673
-17.1779 -25.3686 69.9366
-23.5396 -29.0438 64.2266
-8.12163 -18.3997 81.6202
-8.02816 -15.5265 82.0052
-12.8944 -18.7453 79.3231
-12.4366 -21.0165 77.7233
-7.48386 -20.2683 80.1737
-18.7808 -21.3107 75.4317
-12.2255 -15.8476 80.353
-18.6122 -18.8577 75.9185
-11.4145 -22.5769 75.2074
-5.90029 -21.3407 77.9527
-27.1104 -29.4704 63.0765
-18.9854 -29.2452 71.2667
-18.9024 -29.547 70.8497
-19.1065 -29.2608 71.5596
-13.523 -31.6399 79.2648
-12.2567 -29.4436 78.6276
-5.02863 -29.1322 83.2642
-5.26371 -28.6901 82.634
-12.1007 -28.9503 78.2364
-5.58242 -32.1393 83.9443
-24.4505 -31.7972 63.2001
-5.31822 -28.8535 78.1524
-6.08182 -34.1452 83.478
-6.36261 -35.76 82.5636
-11.901 -13.8719 80.2619
-5.36824 -28.759 81.0103
-12.2082 -28.9015 77.2184
-14.253 -34.8027 79.4304
-14.1085 -33.1494 79.4175
-10.9854 -23.0915 73.3457
-12.1662 -29.3011 75.1303
-17.1086 -23.6726 69.4544
-11.7701 -21.5806 72.2633
-25.3643 -34.4972 61.9475
-5.24123 -31.4731 75.0494
-5.57435 -21.6634 75.4495
-6.67309 -20.2469 73.9356
-11.9412 -31.9141 72.5784
-29.0401 -23.6309 55.6765
-32.3066 -25.8707 52.507
-17.1696 -15.7684 66.1402
-11.4902 -14.5663 68.1782
-30.5369 -41.5717 60.8713
-27.424 -42.8912 64.7847
-5.54953 -40.3139 74.2343
-0.489819 -39.7076 76.3053
-6.97162 -13.7483 69.7362
-11.0965 -41.0137 71.9577
-33.2476 -40.1203 57.3752
-74.8264 -16.4488 -55.5249
-75.6451 -8.78202 -58.458
-73.4234 -8.92918 -64.083
-72.5175 -17.829 -60.6704
-71.7488 11.1255 -19.6805
-73.7227 23.3997 -31.7646
-73.8686 17.6781 -49.7185
-73.8488 11.0306 -43.9463
-72.3024 -28.1257 -45.8278
-70.8693 -34.1032 -40.1804
-73.7277 -22.5703 -50.9801
-70.3511 -26.1318 -55.2499
-79.0911 -6.62764 -57.504
-78.4865 -16.0807 -54.4512
-77.9081 -31.4295 -41.8159
-79.9734 -24.2914 -48.1722
-75.56 -37.9132 -33.0176
-73.4272 -37.6148 -29.2032
-84.0761 -14.0496 -47.1824
-85.4232 -1.72918 -54.6332
-72.0675 -13.7048 -14.5182
-71.4955 -22.0172 -13.4367
-76.3042 -14.0123 -25.6802
-76.7116 -17.8745 -25.1559
-75.0132 10.4852 -42.3774
-82.3425 -7.28323 -60.2021
-81.8352 20.2251 -46.2255
-84.1325 19.4078 -43.777
-79.7719 17.9445 -48.4688
-79.8786 5.94406 -31.7553
-86.9201 5.21888 -56.1914
-84.8536 -4.84488 -48.5051
-84.3395 -1.90564 -48.0683
-78.5175 4.00575 -55.8864
-75.7023 0.765922 -58.0104
-75.6825 -27.185 -44.714
-75.1671 2.21911 -26.3424
-77.4775 9.43819 -50.516
-75.2848 7.48867 -52.633
-83.6207 10.4906 -43.8422
-79.454 -8.49043 -42.4714
-16.9496 103.35 11.8304
-16.5209 92.0837 25.8547
-15.9603 79.6168 35.4958
-26.01 71.9249 43.6191
-5.07032 7.07607 87.4424
-6.36886 19.2702 89.9737
-14.7892 71.1998 45.7866
-14.1844 66.1998 49.7672
-4.2735 53.5204 49.396
-29.7712 100.361 11.3915
-26.2299 68.4254 47.6445
-28.0194 63.5104 49.968
-30.8503 46.726 42.9734
-29.1933 50.4086 45.9752
-22.6783 49.364 44.2725
-40.6903 95.5897 8.75447
-41.7271 103.244 -12.2419
-35.4317 45.3056 44.9308
-35.8458 49.8637 46.5459
-50.2583 81.4876 14.6878
-40.3865 47.0539 44.671
-35.6406 48.4108 45.5847
-35.3893 46.4704 43.791
-45.4629 52.0575 43.3788
-59.3509 74.0819 2.88144
-42.6042 43.7445 41.6029
-42.173 43.42 41.6887
-38.652 45.074 42.7038
-50.6245 46.8708 38.9877
-14.7416 55.1368 48.2595
-66.0531 -54.959 -19.2098
-74.4707 10.2353 -59.9595
-72.1925 15.5815 -73.5578
-70.32 -10.2674 -75.8741
-68.4029 -22.3741 -69.9725
-74.1776 1.21738 -64.4658
-71.1847 2.6998 -77.9744
-65.1767 -33.2095 -61.8902
-16.1858 -94.156 67.1267
-30.0637 -92.1525 57.1744
-53.6554 -62.4154 37.0267
-66.9446 65.0344 -14.1619
-16.6672 114.251 -11.9059
-30.2824 110.031 -11.6123
-44.8709 41.6081 39.5405
-53.3046 -51.5049 41.9414
-10.7499 -8.42736 79.5401
-22.644 -13.4523 73.1064
-9.17586 -2.30307 77.7908
-14.4806 -4.49821 75.714
-16.6872 -10.1065 77.2754
-34.8138 -23.5684 60.5456
-34.0007 -30.6483 61.147
-69.3912 -41.8556 -29.5234
-70.032 -21.9825 -5.76021
-70.6798 -12.7962 -7.00794
-68.6599 18.4097 -3.2102
-68.6855 4.29452 3.2652
-45.5235 31.4797 37.6387
-68.6757 -8.61853 5.9591
-68.2562 -20.1847 7.3155
-17.2565 20.7979 66.5268
-21.432 8.53752 71.9526
-18.651 11.0641 76.938
-33.191 -13.5563 59.8419
-50.0122 -32.2821 49.1625
-41.666 -26.757 57.373
-48.303 -41.63 53.7643
-57.242 -14.8847 32.6828
-35.9069 -52.6973 69.1837
-43.6999 -48.2759 60.7749
-43.4823 19.6065 41.9002
-41.4298 25.4101 42.3771
-40.7421 -34.8971 59.7348
-37.4858 -40.5128 63.0818
-14.9933 -48.1541 83.0396
-31.6273 26.4823 46.7978
-12.4492 18.4696 83.7855
-63.2315 -6.00708 19.7247
-62.6997 -18.3863 21.0035
-8.87868 54.4192 48.4963
-19.1222 41.417 40.3982
-20.3499 -6.58295 71.7784
-22.6909 -27.1884 63.4304
-24.1445 -20.3155 60.5609
-34.6642 -138.064 21.705
-43.3965 -134.987 14.7499
-45.4172 -147.378 10.7534
-36.1642 -149.984 16.9431
-47.9504 -97.8776 24.5488
-39.125 -102.716 36.7775
-43.4667 -114.211 20.881
-34.7267 -118.481 30.8351
-31.4512 -34.6535 62.4326
-54.7746 -80.2007 14.2885
-57.4934 -69.5159 16.8747
-50.8054 -131.726 7.05928
-52.4717 -144.605 3.9552
-59.4373 -69.1033 3.93764
-57.4166 -78.5047 1.58814
-60.4266 -78.7109 -8.95493
-60.9049 -97.5736 -34.072
-70.8522 -29.0062 -13.9071
-60.6667 -81.3474 -33.438
-54.4113 -109.348 -49.6056
-54.6962 -124.42 -54.1386
-26.5316 -152.125 22.1385
-24.96 -140.421 28.2638
-26.2262 -105.906 50.3624
-24.0777 -122.055 41.1784
-26.8436 -34.354 65.6154
-18.3771 -30.3441 69.3662
-18.307 -33.2236 67.5278
-16.0949 -153.902 26.6988
-20.1638 -41.7132 67.8675
-72.0906 56.6939 -34.5105
-48.5583 -87.3972 -58.0705
-48.1389 -105.995 -59.9147
-53.9119 -91.1163 -47.3448
-49.6313 -121.749 -62.4573
-55.7719 -70.5149 -48.5538
-15.6409 119.994 -43.1829
-29.6855 114.945 -41.8545
-14.6216 95.6367 -111.188
-13.3558 68.0234 -134.945
-27.378 66.4439 -130.96
-28.9509 92.7478 -107.106
-13.1982 38.7816 -143.658
-25.8845 37.688 -139.756
-29.4549 109.565 -75.464
-15.1028 113.505 -78.3587
-12.7052 12.0114 -143.758
-24.8305 10.9469 -139.695
-11.9103 -14.3203 -137.968
-23.9672 -14.7564 -133.636
-22.7228 -36.0428 -121.719
-11.2395 -35.856 -126.035
-10.4471 -53.5904 -105.468
-21.1992 -53.8519 -103.509
-9.57787 -85.7162 -83.7456
-9.36814 -101.075 -82.1744
-19.5102 -101.844 -80.8168
-20.1347 -86.4906 -81.1206
-9.33631 -115.536 -81.8542
-19.0751 -115.742 -81.2769
-10.3394 -66.9979 -91.257
-21.0521 -68.6359 -88.6364
-42.0901 107.001 -40.6186
-52.9384 96.7398 -39.6203
-50.1207 58.7529 -113.892
-39.5771 63.1809 -123.267
-38.431 35.8436 -132.383
-49.0202 33.4812 -122.966
-51.2599 79.9788 -93.2605
-40.6225 87.4172 -100.813
-53.4193 92.1128 -67.5708
-42.2586 102.074 -71.7258
-47.7289 8.90968 -124.05
-37.1599 9.9152 -132.761
-35.8597 -14.8126 -127.096
-46.171 -14.2598 -119
-43.5207 -34.5553 -107.547
-34.0637 -35.7263 -115.135
-32.435 -53.5938 -97.4531
-42.5109 -51.9696 -89.7028
-31.9323 -69.4882 -83.0383
-39.9385 -103.535 -70.5515
-40.5203 -86.317 -68.2779
-30.7943 -86.7329 -75.786
-30.0044 -102.79 -77.1849
-29.6251 -116.62 -78.5267
-60.2795 70.3386 -83.5108
-58.9337 52.9679 -102.858
-65.7784 45.7065 -88.8127
-67.3807 59.5808 -70.0625
-69.0398 68.1748 -49.3108
-62.5358 80.3646 -61.147
-56.2451 7.74152 -114.007
-57.656 30.4084 -112.41
-51.2016 -32.2272 -97.0376
-54.5919 -13.4313 -108.099
-49.72 -48.5713 -81.6881
-69.1527 21.0672 -86.6878
-58.0172 -29.5381 -87.167
-63.5353 -26.0586 -78.29
-66.664 -11.5772 -86.5396
-61.3785 -12.7143 -97.7174
-67.687 4.05996 -90.3675
-62.811 6.10625 -103.065
-64.3256 26.2602 -100.245
-56.6565 -51.9385 -57.4324
-59.8367 -38.819 -67.6889
-54.7972 -44.0919 -74.336
-86.851 5.89453 -57.5209
-84.9978 6.3657 -59.4256
-85.8324 15.4528 -52.0085
-83.8471 16.6946 -53.8828
-81.1708 16.4088 -36.5081
-78.9994 16.7039 -38.7962
-77.1171 14.9134 -41.8526
-82.3839 4.65062 -59.991
-81.396 14.7817 -54.9128
-85.7963 -5.90795 -55.964
-85.0999 17.5524 -42.7691
-86.2019 13.9346 -50.926
-40.012 -118.375 -73.0052
20.3393 -75.4463 78.9781
17.0144 -76.5615 79.2905
22.8641 -76.1903 75.9877
21.4821 -72.8799 81.0308
58.9895 11.8503 27.0044
57.2873 13.4527 29.5096
59.4576 8.49932 26.8767
60.0224 14.7485 23.6515
55.5232 15.3666 31.1705
55.0489 18.7025 29.2866
53.6069 14.8684 34.0236
12.1201 62.4965 51.0558
13.9734 60.5138 51.1757
15.9164 64.534 51.1586
9.28891 63.2377 50.781
9.26047 59.3191 50.82
23.163 43.4034 42.1608
20.7614 42.4707 41.2164
22.7979 43.8465 41.0396
25.9044 44.5461 43.1441
23.3288 43.4081 42.9794
7.68796 45.299 48.5575
8.26691 43.8932 48.4361
7.99894 46.6261 47.3987
7.31573 46.0228 48.998
10.3868 43.9904 44.6152
12.3002 41.7864 43.4887
11.0301 45.6209 43.823
9.18826 46.5454 45.6581
10.1323 42.5519 45.8627
39.8956 38.7343 42.0288
39.6635 38.8917 41.965
37.2317 37.4239 44.0034
40.2031 38.1622 42.0445
41.0954 39.6095 40.733
15.0007 36.3003 46.3029
14.6302 37.2687 45.7681
14.4761 35.5372 47.5209
16.4896 35.289 45.7993
17.923 39.8413 40.3592
18.0571 39.3505 40.3099
18.3085 39.7339 39.5762
18.1868 40.6042 40.4266
17.5309 40.0148 40.8741
25.0882 -30.3444 62.9602
24.8774 -30.1429 63.1927
25.6421 -30.7673 61.9453
24.9543 -30.3401 63.2047
24.2022 -28.1927 65.5654
24.3574 -29.1562 64.651
25.1133 -29.3818 64.002
24.2744 -27.6967 65.7889
22.8877 -26.9293 67.4782
25.5803 -29.8403 63.4439
25.6986 -29.6851 63.354
25.6035 -29.9662 63.495
27.7946 -29.0224 63.1929
26.41 -28.6853 63.511
28.0623 -29.5399 63.0085
27.9872 -27.7203 63.5386
27.3935 -31.4256 60.1384
26.7883 -30.6914 60.5333
29.2338 -32.1367 58.264
26.9421 -31.811 60.4916
22.0343 -31.6189 68.869
22.3454 -32.3307 68.9899
23.6805 -31.7998 65.6958
21.8203 -31.2963 68.9584
19.3 -31.6514 73.0106
20.0247 -20.6304 73.8203
19.8548 -18.9848 74.2164
17.2809 -17.458 76.8274
20.0322 -21.3589 73.6655
22.3338 -23.208 70.622
24.3836 -30.1042 64.0557
24.4239 -30.1583 64.0506
24.3978 -30.1452 63.9084
23.1615 -30.1587 65.158
72.7802 -29.6441 -18.8532
72.1896 -29.8816 -17.9657
72.6575 -33.8405 -20.6303
73.3094 -28.6728 -19.117
80.6441 -23.5006 -31.9164
81.0723 -22.4355 -34.8757
78.9522 -22.1049 -31.4853
80.1594 -24.0714 -29.373
81.7007 -24.8882 -32.046
75.9107 -27.1726 -21.0557
75.7674 -24.4121 -21.2607
75.3875 -27.2841 -20.2109
76.7283 -28.8926 -22.0607
74.1646 -16.1013 -26.9265
73.6803 -15.1901 -28.8333
74.5317 -13.9318 -27.503
75.3228 -16.1019 -26.0958
74.5941 -18.4095 -27.1882
79.6923 2.64019 -33.2299
79.1931 0.57185 -33.4838
79.8509 3.28432 -33.9539
79.7432 3.4077 -32.4771
82.6746 11.8391 -39.6818
82.4795 12.72 -38.9462
82.408 10.9064 -39.3975
83.9701 12.0437 -42.8462
77.0138 -15.9195 -35.0037
75.8963 -14.0553 -34.1346
76.4241 -19.2187 -31.6284
79.5636 -19.5426 -36.5381
79.2314 -14.3975 -39.2518
81.5594 2.19714 -39.607
81.8949 3.18866 -40.1997
80.1586 2.82699 -35.9781
81.5331 0.659937 -40.2887
85.37 -11.1406 -48.1755
85.2528 -10.7734 -47.6427
84.5415 -13.9091 -46.9986
85.6357 -10.2942 -49.378
85.6444 -9.13795 -51.3058
85.8341 -6.87057 -50.8753
85.611 -10.0653 -52.1122
85.6387 -6.59619 -53.1923
81.2823 -21.4853 -37.1863
81.5325 -19.8555 -39.5144
82.1648 -22.5486 -37.538
82.6163 -9.5746 -44.6728
81.3844 -11.1809 -43.3271
84.1009 -10.2865 -46.102
82.664 -8.22406 -44.6711
73.926 -21.3043 -18.8694
74.0724 -23.6759 -18.8749
74.4781 -21.109 -19.7608
73.553 -20.2947 -18.5302
73.3385 -18.5045 -18.261
73.629 -16.4988 -18.7544
72.9543 -18.4081 -17.3748
74.5429 -9.79956 -20.7432
74.2339 -10.2292 -20.2286
74.9944 -10.3744 -21.4852
74.9166 -6.76847 -21.6717
73.9132 -10.8727 -19.6048
73.5069 -10.4935 -18.746
73.865 -13.2724 -19.2955
76.6856 -20.4984 -29.6957
77.1003 -20.4705 -27.637
76.2401 -7.27615 -29.8694
75.3137 -10.8347 -28.5398
75.712 -8.03478 -31.3097
77.3227 -3.77016 -31.0989
77.2263 -6.15633 -29.1677
85.2924 4.75622 -50.2185
85.3742 5.38317 -50.6566
85.2038 4.51101 -49.5776
85.576 3.17979 -51.5541
85.8055 -0.468791 -51.3985
85.9046 -1.09825 -49.7554
85.8784 -2.28137 -51.8251
85.6494 0.543317 -52.4901
85.5858 1.73579 -50.0244
82.0885 10.3272 -39.4673
82.8488 9.75932 -42.0458
81.2349 9.92532 -38.2737
83.8088 8.73676 -45.1608
83.172 7.93334 -44.3345
85.0078 7.34178 -48.9341
84.6976 9.61539 -46.186
36.8131 47.6966 45.6212
36.6213 47.3706 45.3186
38.7768 46.7841 44.943
37.0474 48.0785 45.9938
34.5833 48.0485 45.6457
26.5639 -77.0325 71.4277
25.4714 -80.2691 68.8644
29.2022 -75.2276 70.71
42.5515 42.6089 41.2391
43.0924 42.9803 41.3534
42.1509 43.9711 42.3179
42.1815 42.3887 41.2334
43.0149 41.24 40.2014
47.0714 43.8413 39.432
50.0891 44.3203 37.6254
47.4324 45.6755 40.9899
44.7801 43.283 40.9432
46.0318 41.6912 38.6517
68.064 -41.4974 -11.2165
68.8265 -41.0514 -15.7441
68.2355 -39.4628 -10.3277
67.4902 -43.8948 -11.052
24.9711 37.5441 42.1527
25.0519 38.0751 43.4188
28.8052 36.8116 43.6398
24.8786 36.5284 40.8937
21.5695 37.9825 40.6457
16.8559 40.1599 41.2582
17.4185 39.4018 41.2481
16.893 41.0903 41.2643
16.4978 40.1008 41.393
19.0817 41.5433 40.7046
18.6214 41.812 41.2798
19.1115 41.3821 39.5762
15.0923 42.9712 41.2217
15.6834 42.7895 40.9963
16.5545 44.4101 41.507
14.4138 43.2971 41.5224
14.9979 41.4434 41.5565
6.74478 47.5766 49.0952
6.21096 47.9627 49.6062
6.74668 49.4896 48.3316
19.631 -25.7681 70.2307
19.8904 -26.594 69.0115
20.1219 -25.4951 70.5072
16.6685 -24.0382 73.1268
62.6165 -66.5506 -10.6385
61.7461 -65.2833 -5.61337
62.3074 -69.8131 -11.8196
63.4722 -64.0836 -11.7229
71.793 2.40749 -17.946
71.4568 -3.72336 -13.6826
72.5483 0.851155 -20.5115
72.4489 8.72307 -23.11
71.0028 4.64324 -13.7476
63.7415 -72.247 -22.7897
63.4916 -74.8362 -24.1231
64.1401 -67.9305 -24.0215
63.3213 -73.7026 -17.7612
63.1896 -109.417 -25.753
63.2648 -117.999 -27.2844
61.2477 -106.297 -33.5727
62.8498 -100.218 -25.6465
63.6585 -111.82 -19.313
24.3643 -30.64 64.1922
24.4982 -30.8783 64.2135
24.4338 -30.4376 64.0696
23.2673 -30.7688 65.5588
24.497 -31.2969 64.3216
24.8019 -31.3101 64.1544
21.6105 -31.0598 69.0796
21.4797 -30.8722 68.943
18.8962 -30.9248 72.9212
31.2395 -73.4272 70.1535
35.2155 -74.0118 64.1846
31.5554 -70.1634 72.7256
46.8532 -67.4073 -66.4404
46.0022 -64.4675 -71.1949
49.4061 -65.7756 -63.1332
46.1457 -70.5838 -65.7594
54.3122 88.7677 -5.4048
55.6728 89.1865 -12.6894
50.9305 92.1835 -3.66204
55.046 85.5617 -1.49157
83.6464 -20.7675 -46.5262
84.743 -16.7412 -50.5832
83.9652 -19.5849 -45.6956
82.6445 -24.0724 -42.9749
83.0842 -21.2977 -47.8265
76.9704 5.40513 -27.7833
76.261 1.53701 -25.8241
78.0799 5.18649 -28.1751
77.5655 9.2538 -29.9668
75.5954 5.6292 -27.3908
75.8425 -14.9795 -22.5727
75.2957 -15.3773 -21.3893
76.2622 -17.8098 -23.0249
76.0818 -15.6451 -24.0372
75.4329 -13.3063 -22.6976
75.5279 -21.3818 -21.3115
74.9806 -18.2901 -20.8719
76.4079 -21.442 -22.6149
85.5246 -11.918 -54.3821
84.7616 -12.2328 -55.3248
86.0516 -6.36319 -57.0483
85.9291 -11.5896 -53.3908
83.7333 -12.4476 -56.2784
83.1038 -17.1655 -52.8349
82.3606 -12.3546 -56.8692
84.0019 -6.87648 -58.8998
73.7622 8.09844 -30.0544
74.7506 9.46124 -32.2727
73.1745 9.59476 -29.6337
74.238 7.48762 -28.2113
79.8846 -20.0082 -50.8772
78.2553 -19.2682 -51.1846
80.4273 -16.3029 -53.7025
81.0586 -20.6968 -50.3508
78.9882 -23.1769 -47.9685
82.5563 -23.9155 -38.0054
82.9276 -21.5727 -41.0365
82.4054 -25.3124 -35.4897
82.485 -25.2874 -38.9131
80.9118 -32.5508 -33.8609
80.4003 -33.7063 -30.5825
79.7234 -34.7025 -34.6532
81.5634 -29.8901 -37.2805
81.8381 -29.1756 -33.2416
81.0021 -28.6019 -27.9536
80.5684 -30.5642 -27.7844
81.6375 -27.875 -29.8425
80.4263 -27.4556 -26.8718
70.7259 -37.9449 -21.5435
70.2008 -38.9878 -21.6872
71.5668 -37.2175 -23.3936
70.7046 -35.8806 -17.8945
75.6079 -35.4473 -22.6943
76.1894 -37.3486 -24.7797
77.035 -33.7187 -22.7105
74.8611 -32.282 -20.8508
74.2168 -36.1251 -23.1031
80.603 10.7598 -31.9012
80.5894 12.2954 -32.1435
79.5178 7.73233 -30.112
80.915 10.5344 -32.428
80.4829 13.3534 -32.4373
81.8801 15.9857 -35.0618
79.8025 13.385 -32.4647
85.8364 -11.117 -52.6484
85.0647 -14.864 -49.1653
86.4238 -6.18362 -55.2458
85.9865 2.81272 -54.5179
85.7955 1.90086 -53.9495
86.1706 1.95526 -55.2993
85.9879 4.60379 -53.3846
81.1089 11.087 -34.5199
81.17 10.9467 -33.9549
80.6855 9.5313 -34.4119
81.5528 12.3342 -35.8383
81.0123 10.329 -32.9164
80.3483 7.34822 -32.1207
82.1972 13.9005 -35.1483
84.9431 -10.5725 -47.0674
85.8431 -7.91825 -47.9447
83.6397 -13.6505 -45.3213
80.3368 7.59498 -35.57
80.7176 9.00417 -36.4022
80.2322 7.62034 -35.0455
80.7954 6.24853 -37.0152
80.9632 9.45276 -37.7529
81.5279 8.47043 -39.5537
80.687 -13.9188 -41.6497
81.5498 -15.8708 -42.0487
77.6704 -5.09483 -28.2032
78.398 -0.865208 -29.2244
77.5225 -4.72328 -27.017
76.9178 -9.65479 -27.2425
79.8398 3.59431 -34.3552
80.0333 5.42058 -34.1677
50.8514 -63.3959 -61.6538
51.148 -59.2698 -65.0408
52.0169 -63.08 -58.9793
27.989 1.83333 59.0362
28.1102 -2.2089 59.7269
28.9027 3.64652 58.2517
26.7111 2.67633 59.9697
24.1265 5.31011 62.14
24.441 4.0556 61.6463
24.7555 8.29087 61.46
23.2016 5.23727 64.0979
50.99 58.0849 36.8077
51.2795 56.3668 37.8881
54.9346 53.4352 32.7373
50.8712 59.2409 35.4756
46.2367 61.4382 40.5114
8.90461 3.92684 75.3365
8.08827 4.6216 76.6597
8.57446 3.05907 75.1176
10.6907 3.64843 74.2704
11.2128 6.92239 78.2727
9.23885 6.61303 79.2266
12.9426 5.98007 75.7991
12.008 7.93847 79.1052
41.7481 40.1825 40.1313
41.298 40.2347 40.1557
42.3144 39.7431 39.853
41.6665 40.7698 40.4807
18.4028 39.0421 40.3325
19.0203 38.7264 40.3307
18.6993 38.7742 39.6007
18.1987 39.1911 40.8768
18.9589 14.7871 74.9298
19.2652 13.7658 75.0213
19.4953 14.556 73.6836
17.3402 15.8173 76.8485
78.0522 -26.4951 -44.8772
77.0626 -28.5458 -42.7652
76.7264 -24.8011 -46.0856
79.1869 -27.7296 -43.9687
62.1745 81.8034 -23.6468
59.9944 85.2337 -23.4117
62.8292 78.6307 -18.0206
63.9723 80.3898 -33.3505
30.2344 -37.6934 59.0122
30.6826 -35.9291 57.8114
30.927 -40.6543 59.5703
29.0483 -37.3455 59.9599
29.2716 -26.7646 56.0907
27.7449 -26.5406 57.8126
29.325 -24.4189 54.7359
30.2027 -29.1711 55.9139
-21.5284 -75.4599 78.7585
-22.5076 -73.0281 80.7896
-24.076 -76.0863 75.708
-18.0993 -76.7464 79.3215
-59.62 11.7015 26.1721
-60.6496 14.5932 22.8986
-60.0669 8.26695 26.3295
-57.7776 13.3833 29.0413
-55.6976 15.499 31.0553
-53.6541 14.9779 34.1716
-55.2423 18.8215 29.252
-12.9628 62.4508 50.9761
-14.6815 60.3885 51.1399
-10.2864 59.3105 50.6042
-10.3478 63.2037 50.6655
-16.8196 64.5171 50.8874
-24.8764 43.5996 41.7246
-24.4854 44.203 40.2216
-22.9832 42.6097 40.5992
-25.0204 43.4873 42.7681
-27.1807 44.7362 42.7359
-8.66359 45.2183 48.4121
-8.29669 45.9117 48.8889
-8.90975 46.5871 47.2917
-9.23595 43.748 48.3006
-11.3654 44.1543 44.4153
-13.6648 42.0721 43.0563
-11.0876 42.6469 45.695
-10.1198 46.5214 45.5076
-12.1573 45.8753 43.537
-41.0324 38.6434 41.6103
-41.3598 38.059 41.5131
-38.3411 37.4119 43.5398
-40.7891 38.8128 41.5635
-42.3794 39.544 39.9127
-15.8846 36.2397 46.2077
-17.4856 35.0754 45.7254
-15.3515 35.4186 47.5172
-15.5831 37.3272 45.6103
-20.5786 39.9876 39.5004
-20.686 39.9755 38.6422
-20.5592 39.5163 39.4675
-20.3609 40.0972 40.0434
-20.9269 40.7021 39.6385
-25.9967 37.5939 41.8071
-23.2744 38.1276 40.0751
-25.9884 36.6854 40.361
-29.776 36.7541 43.2822
-26.0992 38.0704 43.108
-26.0898 -30.4188 62.7404
-25.8505 -30.2118 62.9483
-25.9563 -30.5372 62.9178
-26.5566 -30.9149 62.082
-25.3122 -28.2435 65.3291
-26.1438 -29.4418 63.775
-25.3523 -29.2106 64.3779
-23.9916 -26.9792 67.2682
-25.4274 -27.7899 65.5295
-26.6011 -29.9036 63.2274
-26.6229 -30.0293 63.2777
-26.7361 -29.7516 63.1274
-28.7749 -29.1917 62.8655
-28.9932 -27.8068 63.2612
-29.1995 -29.838 62.5969
-27.6069 -28.9817 63.1258
-28.1049 -31.7767 61.3249
-28.0462 -32.0911 61.5524
-29.3375 -32.2511 59.9447
-26.5827 -30.8482 61.425
-23.1069 -31.7219 68.6954
-23.3908 -32.4325 68.8461
-20.511 -31.5734 72.6991
-22.8972 -31.4313 68.7897
-24.7169 -31.818 65.5104
-21.2911 -21.0745 73.2689
-20.9504 -19.1786 73.8667
-23.4434 -23.6551 70.3353
-21.3364 -21.9049 73.0279
-18.6011 -17.8849 76.0459
-25.3888 -30.2114 63.8136
-24.1951 -30.2975 64.9616
-25.3976 -30.3767 63.6064
-25.4251 -30.2433 63.8122
-73.0816 -29.659 -20.0084
-73.7835 -28.7976 -20.4737
-72.9326 -33.8305 -21.8127
-72.4921 -29.8827 -19.1296
-80.742 -23.5949 -33.0893
-81.1197 -22.5373 -36.0419
-81.8045 -24.9816 -33.2304
-80.3111 -24.1621 -30.5454
-79.0552 -22.201 -32.6367
-77.0027 -27.2135 -22.2215
-77.8869 -28.9057 -23.2752
-76.6753 -27.3186 -21.4072
-76.2327 -24.4723 -22.4099
-74.3178 -16.2041 -28.0156
-73.8012 -15.2961 -29.913
-74.769 -18.5094 -28.2851
-75.5016 -16.2104 -27.192
-74.6997 -14.0504 -28.5769
-79.7333 2.49541 -34.3242
-79.7896 3.2613 -33.5696
-79.8765 3.14103 -35.051
-79.2524 0.427862 -34.5712
-82.638 11.6877 -40.7976
-82.4447 12.5691 -40.0621
-83.8949 11.8966 -43.9785
-82.3656 10.7564 -40.5131
-76.7511 -8.05514 -35.6394
-79.0162 -5.29944 -39.5836
-76.1751 -10.5309 -35.5714
-75.7895 -8.16119 -32.3835
-77.7887 -4.24933 -35.5554
-82.1921 4.44812 -41.8843
-81.8546 3.04522 -41.3174
-80.8031 6.09962 -38.1119
-82.6496 5.76443 -43.0511
-83.904 2.64475 -46.3112
-75.9268 -29.665 -42.498
-77.0177 -28.6486 -43.8668
-74.6842 -29.189 -42.617
-75.8594 -31.7666 -40.6241
-85.2252 -11.2702 -49.3457
-85.4817 -10.4241 -50.5489
-84.4342 -14.0383 -48.1592
-85.1128 -10.9037 -48.811
-85.4642 -9.26601 -52.4756
-85.6649 -7.0013 -52.0451
-85.4342 -6.72378 -54.3586
-85.4187 -10.1941 -53.2786
-81.302 -21.5928 -38.3451
-81.5283 -19.9703 -40.6651
-82.1995 -22.6609 -38.6977
