1831
-11.3348	22.9049		84.169
-21.5991	8.57197		72.6286
-19.6295	-52.3885		81.9136
-26.0732	-52.5012		76.6179
-8.80336	-48.868		93.9871
-8.69362	-46.1708		94.7561
-13.9504	-48.3801		91.9573
-13.7493	-50.5748		90.3804
-8.48607	-50.9921		92.6411
-19.6173	-48.8536		87.875
-13.6416	-46.0574		92.9216
-19.4909	-46.7848		89.0173
-13.2719	-52.0719		88.2611
-7.19547	-52.3689		90.9894
-20.278	-54.1366		83.5345
-19.9495	-53.7125		82.8234
-20.8942	-55.3489		84.2113
-15.392	-58.3157		89.8546
-14.504	-56.4101		89.7283
-7.45745	-57.1946		92.9685
-7.12897	-54.7305		91.7793
-13.6731	-54.3596		88.9043
-7.77928	-59.4835		93.4474
-26.559	-53.5477		76.4693
-6.86645	-54.0162		89.18
-8.06661	-61.7542		93.2966
-8.22393	-64.1092		92.467
-12.1111	-44.0189		93.6827
-7.0536	-53.921		90.8746
-13.3287	-53.6896		88.1472
-16.5483	-62.5758		88.8289
-16.0518	-60.3636		89.5765
-13.0698	-52.0605		86.7231
-13.0971	-53.856		86.5603
-18.0625	-50.8125		81.8523
-12.8724	-50.338		84.8898
-26.5977	-55.5902		75.6658
-6.85658	-55.9822		86.8087
-6.97067	-52.2796		89.2035
-7.80794	-50.1436		86.518
-13.4107	-55.6806		84.4327
-27.7792	-45.9174		72.7042
-31.1801	-50.6621		69.6059
-16.8534	-44.26		80.709
-11.9376	-43.8123		83.1426
-29.8248	-63.1495		71.8972
-25.7434	-63.7751		75.5372
-7.2467	-63.3507		84.9016
-2.34352	-63.5347		85.7345
-7.12565	-43.5494		84.4214
-13.2551	-63.2131		82.7012
-31.8226	-58.681		69.348
-80.8438	-8.41095		-41.8509
-81.6498	0.332401		-42.3526
-78.1801	1.77507		-47.2255
-77.1536	-8.08894		-46.7457
-78.4046	7.25028		2.01523
-78.5745	22.7122		-6.24156
-79.208	22.9716		-24.7998
-80.4867	15.069		-21.08
-78.5632	-22.6792		-35.8628
-77.1171	-29.7529		-31.9828
-79.8668	-15.8861		-39.272
-75.3101	-17.9155		-44.2207
-84.3574	2.25307		-41.0165
-84.1997	-8.18769		-40.359
-84.0264	-25.7532		-31.3184
-85.8864	-17.4892		-35.6491
-81.8458	-33.6833		-24.6868
-79.7092	-35.64		-21.4496
-90.3916	-8.15027		-31.9215
-91.9174	6.04704		-35.5179
-78.8187	-17.5067		0.835318
-78.316	-25.497		-0.475989
-82.6281	-14.5006		-10.2808
-83.1012	-18.386		-10.9498
-80.4819	14.3438		-19.7429
-88.2684	2.24981		-41.4057
-88.0738	22.9948		-21.2286
-89.885	21.9128		-19.2039
-86.7405	22.0931		-23.473
-86.0631	6.23798		-11.121
-92.6548	13.3837		-35.0302
-91.1486	1.12768		-30.4881
-90.7975	3.78168		-29.0358
-83.8285	12.3419		-35.4735
-81.8409	9.87314		-38.6544
-81.6572	-21.9321		-34.3944
-81.9898	0.921568		-6.43353
-82.4972	16.0593		-28.2881
-81.5969	15.1366		-30.8434
-89.8317	14.4499		-21.3684
-87.1223	-4.55288		-24.7505
-13.5988	87.6199		64.1185
-13.3575	72.5729		76.2498
-12.8518	57.743		84.731
-22.8176	46.515		87.9546
-4.53947	-23.4746		105.787
-5.33449	-12.428		112.045
-11.9295	44.4457		90.5086
-11.3029	36.7696		91.1287
-3.93274	22.6363		90.3275
-26.2348	84.8171		61.8762
-22.8681	39.4709		88.9206
-24.6983	32.7328		87.1773
-29.7552	26.0048		78.1477
-22.4288	24.3654		77.3979
-37.6235	80.8447		56.9336
-38.8396	94.4044		38.0407
-37.8818	26.3617		77.3431
-48.7272	64.862		57.6228
-46.4602	27.2643		75.2511
-59.8534	60.9888		42.6981
-52.3243	23.7777		68.5693
-14.2455	26.0123		85.6627
-71.8322	-54.6894		-16.1709
-79.1354	19.0735		-36.8771
-75.4176	28.5554		-48.0724
-73.2849	4.09339		-59.112
-71.5697	-9.83402		-57.3479
-78.7246	11.8068		-44.1804
-74.2234	17.4853		-56.7366
-68.9075	-23.1833		-53.2502
-18.3413	-111.879		52.3845
-30.2227	-106.825		43.0341
-59.1448	-79.6574		35.3923
-68.8116	57.4315		22.8258
-12.8873	104.77		42.5171
-26.6235	100.703		41.0985
-51.2538	17.9805		63.4188
-59.5342	-71.8769		43.2854
-10.5496	-39.6238		93.8575
-22.3204	-41.6338		86.5492
-8.83533	-34.553		94.2162
-13.365	-35.3237		91.3621
-16.058	-40.2236		90.8856
-37.3488	-46.5281		75.9224
-37.2278	-53.3657		73.8925
-75.7314	-39.5265		-23.2344
-76.5661	-27.5314		7.13783
-77.069	-18.7761		8.33583
-74.8283	9.08536		19.019
-74.5905	-5.92952		21.6818
-51.5427	8.97045		60.3402
-74.3721	-18.4018		21.7735
-74.1046	-28.8621		20.7606
-15.3297	-7.50413		90.3283
-16.7288	-20.327		91.2875
-14.753	-18.6656		96.0364
-35.551	-37.8179		77.9231
-55.143	-53.2486		58.8327
-45.3136	-49.4947		69.8614
-52.3144	-65.1555		58.1496
-64.8546	-31.849		49.087
-38.0051	-82.7241		67.9509
-46.1489	-75.1779		61.2686
-48.0435	-3.86263		65.2818
-45.7438	1.62548		65.8474
-44.0096	-58.1913		68.8204
-40.3337	-65.5218		69.8768
-18.1614	-80.8433		86.0434
-33.2968	1.93179		71.2814
-10.7407	-12.3568		105.442
-70.3846	-19.1948		36.3368
-70.5498	-30.4595		34.8372
-9.16382	24.6549		87.7334
-18.8967	-35.3712		87.2629
-23.8344	-51.1193		77.5455
-22.4002	-44.7635		76.9796
-37.7565	-139.597		14.3237
-46.2435	-135.305		6.95951
-49.0211	-148.98		3.97935
-40.2977	-152.584		10.5538
-45.678	-102.1		14.065
-37.281	-107.991		23.7219
-43.9344	-114.587		10.9405
-35.4298	-119.274		20.1731
-35.1062	-58.3231		73.8319
-56.742	-87.4158		9.61471
-62.0274	-79.257		16.2176
-53.5295	-131.183		-0.793766
-56.2778	-144.938		-3.5984
-65.0876	-74.6032		3.47606
-61.6725	-82.9069		-1.96815
-64.9143	-80.4834		-12.1918
-62.9554	-93.9274		-38.7437
-77.7815	-31.8239		-3.06755
-64.1403	-77.5631		-36.4146
-56.4337	-104.483		-54.9736
-57.1406	-121.281		-57.9393
-30.6146	-155.663		16.2683
-28.1383	-143.205		21.2658
-26.9226	-113.203		35.1323
-25.299	-123.512		30.1734
-29.2874	-58.5019		76.7314
-19.7934	-53.9206		81.6983
-20.0853	-55.5542		80.4086
-20.876	-158.01		20.8097
-19.8415	-63.4381		79.3758
-74.0421	55.5006		0.861753
-50.2223	-78.4437		-61.9689
-49.4534	-99.5228		-64.8876
-56.7511	-84.6594		-51.9511
-49.8186	-117.141		-68.3182
-59.0734	-63.2655		-49.8981
-11.2569	118.087		13.0165
-25.7607	113.42		12.59
-9.37372	114.676		-58.1181
-8.07119	95.9569		-88.1137
-22.4599	93.4091		-84.9935
-24.2617	111.07		-55.4734
-8.36087	71.4048		-105.749
-21.6172	69.4863		-102.668
-25.1315	117.742		-20.9946
-10.273	122.167		-22.2432
-8.37337	45.4793		-115.012
-21.1581	43.6022		-111.877
-8.13545	17.5059		-118.277
-20.8463	16.0838		-114.76
-20.1186	-10.0402		-110.651
-8.11977	-8.72255		-114.285
-8.49272	-34.1662		-101.415
-19.6312	-34.3724		-99.2373
-8.71782	-71.7537		-86.6497
-8.94747	-90.9905		-85.8946
-19.2206	-91.9359		-84.4433
-19.7155	-72.9252		-84.5712
-9.44388	-109.875		-86.1992
-19.6131	-110.171		-85.1762
-9.02082	-51.3552		-91.867
-20.3516	-53.042		-89.3478
-39.1368	105.778		11.2006
-51.2417	95.6491		8.81787
-47.4154	81.839		-72.4542
-35.7184	88.6699		-79.5397
-35.1091	65.8086		-96.7248
-46.8739	60.9329		-88.9547
-48.8124	95.7259		-46.9579
-37.0404	104.91		-51.6234
-51.1816	99.311		-19.2271
-38.9017	109.981		-19.9686
-45.9541	37.4377		-98.0894
-34.3858	40.8326		-105.862
-33.4866	14.3808		-108.743
-44.4553	12.789		-100.977
-42.2616	-12.1901		-97.2975
-32.2089	-11.4349		-104.637
-31.5483	-35.5712		-93.7054
-42.3133	-35.7459		-85.9536
-31.8588	-54.8083		-83.9077
-39.9166	-95.2752		-74.4285
-41.4247	-75.1383		-72.0438
-31.1054	-74.1214		-79.7136
-29.8314	-93.5071		-80.8202
-30.1672	-111.297		-82.3468
-59.3714	83.7776		-40.8854
-57.3681	73.0598		-64.097
-66.1193	62.0481		-53.3016
-68.4338	69.4743		-31.5729
-69.714	71.0241		-9.43507
-61.5957	86.2164		-16.8152
-55.5349	33.4134		-89.082
-56.5556	54.8555		-80.014
-51.6731	-12.8763		-87.3895
-54.3841	10.5337		-91.0185
-50.5534	-34.3731		-77.6256
-70.9047	38.0037		-58.7009
-59.5538	-12.6946		-76.9732
-66.0801	-11.4431		-67.0698
-68.4401	6.06476		-69.8428
-62.037	8.29023		-80.8609
-69.4615	22.675		-68.1212
-63.1034	28.5483		-79.3149
-64.5077	47.1949		-69.8655
-60.486	-43.3213		-54.994
-63.102	-27.7654		-61.2107
-57.0248	-31.6634		-69.4591
-92.2421	14.1194		-35.6202
-90.3753	14.7802		-36.7588
-91.2321	21.2836		-27.5897
-89.263	22.3933		-28.6264
-87.707	17.0606		-13.4769
-85.8617	17.9724		-15.3325
-83.6841	17.4518		-18.2576
-88.671	13.2131		-37.7012
-88.0717	21.0346		-29.9333
-91.9295	2.46062		-38.223
-90.7207	20.7313		-18.5142
-91.9129	20.0579		-27.2158
-40.6424	-113.684		-76.66
17.1332	-108.042		74.8734
14.0238	-109.278		75.1565
19.7691	-107.357		71.4463
17.8632	-106.407		77.2672
65.6795	-10.8822		48.937
63.5581	-10.4094		51.9262
65.9374	-14.1113		48.3206
67.4386	-6.48607		45.7124
61.6148	-9.1138		54.0775
62.0009	-4.86789		52.9492
58.6773	-10.8402		57.291
12.3189	29.4767		92.0566
15.1566	27.7735		91.3085
15.917	31.1041		91.9451
9.34119	31.3104		92.6186
10.1772	27.2966		91.1374
9.02387	15.7866		84.1309
9.55162	14.8115		82.9496
9.49981	17.1125		83.4647
8.61552	16.2298		85.1974
11.6085	16.1758		78.2804
12.6448	14.9675		75.5034
12.3508	17.5979		77.9271
10.7247	17.5351		81.2077
11.1843	14.7679		78.8406
43.6758	10.6643		68.5566
39.9059	9.19457		71.028
45.9016	11.9729		66.7599
14.0828	8.94777		75.795
13.7068	10.0015		75.6565
13.8904	8.03531		76.7865
15.4668	8.10744		74.8854
26.6259	-54.3972		76.1209
26.5056	-54.2674		76.359
26.7481	-54.5277		75.6921
26.5179	-54.3322		76.4189
25.2844	-53.2565		78.5448
25.7173	-53.7789		77.2579
26.4524	-53.6211		77.5105
25.2776	-52.8406		79.1631
23.3357	-53.0279		80.2242
29.4707	-54.5018		76.5914
29.4075	-52.2111		77.915
27.072	-54.8012		74.9109
26.6164	-53.9537		75.5095
27.7095	-54.9842		73.6333
26.8749	-55.1061		75.2269
21.6181	-58.8165		82.1785
22.0427	-59.6613		81.9466
24.6663	-56.5792		78.6692
21.469	-58.0637		82.1223
18.3624	-60.5888		85.975
18.2757	-48.3268		87.9249
17.7662	-46.9683		88.6266
14.9614	-46.7455		90.6085
18.5745	-49.1275		87.4862
21.1025	-49.9029		85.089
25.7265	-54.4107		77.1565
25.8166	-54.4465		77.1498
25.8673	-54.4032		77.0472
23.9965	-54.5676		78.1882
81.0834	-36.172		-6.0663
80.4897	-36.5813		-5.26117
80.7684	-39.6434		-9.24211
81.6394	-35.2145		-5.93934
89.464	-27.0915		-17.1327
90.0623	-25.22		-19.6997
88.321	-25.4563		-15.9332
88.9	-28.2698		-14.7414
89.9586	-28.4332		-17.8217
84.1947	-33.1669		-7.63205
84.2926	-30.5564		-6.85744
83.5296	-33.4363		-6.92746
84.926	-34.4416		-9.26779
84.4052	-20.7491		-10.4538
84.3697	-19.7142		-11.2787
84.3824	-18.9918		-10.1643
84.6321	-21.2911		-9.13347
84.8463	-22.2881		-10.8987
89.7984	-1.50375		-10.5431
89.2928	-3.41492		-11.3811
90.0966	-0.7132		-11.0624
89.8286	-0.988436		-9.61617
93.3759	9.22181		-14.0908
93.3831	9.77263		-13.09
92.9737	8.30356		-14.1114
94.649	10.3996		-17.0443
87.0552	-18.5502		-17.204
86.0773	-17.1046		-15.7735
86.5079	-22.3296		-14.756
89.3412	-21.651		-20.0005
89.4455	-16.103		-20.9245
91.7966	-0.0434761		-16.8157
92.1923	1.07995		-17.111
90.4996	-0.554499		-13.1036
91.7624	-1.30839		-17.9111
95.2758	-10.4449		-29.0776
95.1595	-10.2452		-28.4999
94.4139	-13.5156		-28.8102
95.6545	-9.30757		-29.9682
95.9964	-7.62277		-31.5401
96.1684	-5.54764		-30.3975
95.9261	-8.28157		-32.6175
96.3113	-4.55863		-32.6443
90.5651	-23.5647		-21.5787
91.0545	-21.3053		-23.2888
91.0089	-24.6051		-22.4126
92.8377	-9.98855		-25.0233
91.8002	-11.9518		-24.0032
94.156	-10.2477		-26.8375
92.8565	-8.65951		-24.6964
82.3781	-28.2318		-3.51864
82.4628	-30.48		-4.3037
83.0239	-27.8231		-4.36972
82.11	-27.3943		-2.83881
81.9682	-25.7836		-2.03556
82.2907	-23.7586		-1.939
81.5543	-25.9363		-1.16433
83.4248	-16.8708		-2.03609
83.1475	-17.4143		-1.62749
83.799	-17.2021		-2.92835
83.8973	-13.7279		-2.12224
82.8159	-18.1895		-1.18563
82.4295	-18.0535		-0.262954
82.6454	-20.554		-1.55432
86.5055	-23.9161		-13.5508
86.2716	-24.981		-11.78
86.2636	-12.0607		-10.2757
85.1711	-15.7962		-10.1688
86.206	-12.5314		-11.7823
87.4025	-8.32697		-10.3776
86.6217	-11.0103		-9.00985
96.1528	5.56275		-26.185
96.293	6.30169		-26.4045
95.9823	5.12591		-25.6431
96.4121	4.44498		-27.9622
96.3321	0.837845		-28.9283
96.1096	-0.300924		-27.5631
96.3681	-0.796021		-29.8912
96.4669	2.18094		-29.6948
96.1067	2.55554		-26.9417
92.7796	7.69671		-14.3105
93.693	7.86133		-16.8839
92.1313	6.81712		-13.2471
94.7508	7.82289		-20.1255
94.3016	6.76415		-19.4849
95.9612	7.64082		-24.1386
95.3531	9.10365		-20.9255
39.6493	20.7549		76.3601
42.2015	19.5983		74.8862
36.604	21.5498		77.2233
23.8453	-106.235		66.3243
22.9066	-107.175		62.7968
26.2811	-104.605		65.9941
47.2569	15.0068		68.266
46.1403	16.693		70.6965
48.1027	13.5929		66.5349
51.939	16.0071		67.5068
54.3045	16.7773		66.7451
50.7622	17.8414		70.4537
49.6166	15.7005		68.3308
52.2593	14.0309		65.1392
75.0331	-49.0687		-2.34056
75.9912	-47.3424		-6.8527
75.4039	-47.4534		-0.810634
74.3414	-51.3499		-2.87739
15.5209	13.9669		72.078
15.909	13.2415		71.8343
15.6163	14.9077		72.2559
14.765	16.4792		73.5356
16.287	18.0413		74.0212
14.374	15.1548		73.2633
8.14348	17.4266		86.3517
7.65343	17.5675		87.3115
8.41712	19.2151		86.464
19.0956	-53.4118		82.7575
20.0642	-53.7987		81.0811
19.4821	-53.0445		83.1639
15.6249	-52.9194		85.8751
67.3802	-72.7684		-9.12549
66.6227	-73.0224		-3.72662
66.6876	-75.5295		-11.1906
68.3108	-70.0644		-9.51856
81.6577	-5.91555		3.81346
80.5884	-12.9594		6.2388
82.5902	-6.6478		1.19063
82.6955	1.6611		0.586424
80.4609	-4.93493		8.16849
67.6613	-75.1302		-22.484
67.0318	-77.333		-24.2761
68.4683	-70.5855		-22.6395
66.9624	-77.7257		-17.9973
63.2166	-110.94		-29.5631
62.9796	-119.36		-31.2848
61.9206	-106.849		-36.9856
63.5478	-101.902		-29.0904
63.1985	-113.877		-23.6874
26.0717	-54.8281		77.2017
26.2252	-54.9718		77.1644
24.2564	-55.513		78.6235
26.4714	-55.2176		77.1384
21.0802	-57.6233		82.3869
21.2213	-57.0079		81.98
17.8662	-58.8689		86.1926
28.1355	-103.057		65.7577
32.3771	-100.641		59.7806
27.9692	-101.492		68.9302
51.3565	-59.5471		-66.0901
50.1567	-55.4594		-69.9288
54.0398	-58.7846		-62.2832
50.3316	-62.6793		-66.0481
58.909	74.7868		41.707
60.9519	77.3499		34.6703
55.0398	77.7914		44.5233
59.6224	70.4134		44.5347
92.5161	-19.9674		-30.3877
93.935	-14.9292		-32.9773
93.0223	-19.2067		-29.3311
91.2837	-24.1574		-28.0297
91.9253	-19.968		-31.638
86.8795	-0.447687		-5.00259
85.9598	-4.65308		-4.03893
87.8788	-0.547512		-5.6433
87.7899	3.76663		-6.41584
85.6004	-0.256754		-4.30006
84.3013	-21.3201		-5.30479
83.8201	-21.9886		-4.27854
84.7474	-23.9084		-6.65098
84.6971	-21.5611		-6.86955
84.2901	-19.6693		-4.9141
84.1435	-27.6895		-5.96393
83.6556	-24.8872		-4.60148
85.0022	-27.4091		-7.29706
95.0572	-9.18897		-35.1113
94.3036	-9.1445		-35.9378
95.8099	-3.07302		-35.8668
95.5053	-9.23319		-34.2468
93.3064	-8.96903		-36.617
92.4082	-14.4997		-34.9472
92.2741	-8.69267		-37.0082
93.8702	-2.99679		-37.2078
84.5241	3.7398		-5.44295
84.8735	5.96084		-7.07697
84.3122	4.75084		-5.10964
84.4978	2.08605		-4.34446
89.2919	-17.9766		-34.5499
87.6295	-17.3459		-35.3359
90.0733	-13.5847		-36.1335
90.325	-18.6327		-33.8557
88.1547	-21.8804		-32.8683
91.186	-25.6601		-23.2414
91.8338	-22.5436		-25.5258
90.7345	-27.6696		-21.1984
91.0723	-26.5738		-24.4921
88.4523	-34.2681		-21.7227
87.7789	-36.1311		-18.9872
87.0987	-35.6138		-22.8729
89.4965	-31.0546		-24.2363
89.8271	-31.6378		-20.1372
89.0532	-32.6361		-14.9827
88.5168	-34.3323		-15.4098
89.6077	-31.5295		-16.5091
88.6092	-31.9582		-13.6408
78.4505	-42.9414		-11.728
77.9228	-43.8886		-12.2823
79.5582	-42.0179		-13.3448
78.433	-42.0344		-7.34751
83.2863	-39.4811		-12.532
83.6677	-40.2428		-14.9548
84.5005	-38.134		-12.0124
82.7564	-37.6831		-9.40694
82.2267	-40.3238		-12.8318
90.7428	5.88487		-7.43322
90.8039	7.35583		-7.47246
89.2996	2.49506		-6.79895
91.0517	5.84569		-7.78431
90.8014	8.26459		-7.66046
92.2293	11.4846		-9.36785
90.4531	8.26363		-7.67958
95.7199	-9.08832		-33.4983
94.7031	-13.7575		-31.2415
96.4256	-3.47218		-34.5918
97.0329	4.92107		-30.8668
96.8003	3.91685		-30.652
97.1608	4.2973		-31.7593
96.9913	6.39457		-29.2879
91.7939	6.8996		-9.43362
91.6414	6.65838		-8.91007
91.3243	5.38583		-9.76933
92.3403	8.46782		-10.3108
91.244	5.79914		-8.15326
90.3679	2.72141		-8.24416
92.4131	9.94517		-9.36146
94.8824	-10.2272		-27.9263
95.5754	-7.33508		-28.0703
93.5365	-13.7387		-27.0852
91.0086	3.89083		-11.3597
91.4685	5.46583		-11.7916
90.9075	3.73152		-10.9046
91.304	3.03839		-13.1372
91.8857	6.27088		-12.9056
92.3895	5.91492		-14.8493
90.8873	-15.0041		-23.2081
91.5118	-16.7621		-24.3407
86.7778	-10.2201		-7.82323
87.9532	-5.94574		-7.7056
86.591	-10.2135		-6.7388
85.6237	-14.8002		-8.05734
90.243	-0.299898		-11.3457
90.5079	1.38932		-10.677
55.7917	-56.9219		-60.2665
56.1663	-52.1889		-62.6112
57.208	-57.2846		-57.5658
23.1929	-25.0622		81.2662
24.927	-29.1249		81.2801
23.6163	-23.5511		80.9543
21.2682	-24.5164		82.0682
18.2807	-22.7462		84.1636
18.7634	-23.7494		83.61
18.7366	-19.9494		84.3498
17.1839	-23.2512		85.4808
53.48	29.6909		72.5957
53.3181	27.3976		73.1624
58.3276	26.4593		66.8917
53.8004	31.7234		71.5882
48.4478	31.6626		76.9103
6.99139	-27.4181		94.6203
6.45893	-26.8708		95.8069
6.76697	-28.1172		94.3702
7.95839	-27.4322		93.6635
8.62368	-24.3217		97.4967
7.34786	-24.7226		98.3506
9.57796	-25.0162		95.1835
9.22577	-23.285		98.3521
46.7581	12.6696		66.4732
46.4321	13.3958		66.8925
14.6893	-16.2074		96.1775
14.7402	-17.0948		95.8979
15.0919	-16.1636		95.1912
13.7298	-15.5201		98.1993
86.9989	-25.9086		-30.9496
85.8353	-28.4541		-29.678
85.7215	-24.2441		-32.3228
87.9893	-27.0941		-29.8739
68.9953	73.1628		21.6148
66.6408	76.5893		22.9591
69.5094	68.3137		25.9791
71.2359	74.388		11.9075
28.1022	-61.3785		72.8012
28.6719	-59.288		72.0477
28.1469	-63.0528		72.6238
27.0939	-60.7258		73.9267
27.5044	-50.0383		72.5457
26.308	-49.9652		73.8691
27.2143	-49.1759		72.4451
28.3279	-51.9441		71.98
-22.8278	-107.216		71.7171
-23.3722	-105.578		74.2612
-25.2264	-106.482		67.7666
-19.8873	-108.617		72.3658
-66.2083	-6.6841		46.4127
-67.3965	-2.77248		43.2691
-66.6571	-9.78521		45.7206
-64.1294	-6.06666		49.7313
-61.986	-4.66559		52.313
-59.3224	-6.14687		55.6655
-62.0956	-0.620857		51.1488
-11.3766	31.6884		90.2744
-13.1962	29.5706		89.0439
-9.7641	29.0625		89.7899
-8.8109	33.2028		91.1567
-13.9808	33.3425		90.097
-9.58146	16.9265		83.5487
-9.07505	17.2887		84.6261
-10.0826	18.4088		82.8274
-10.3579	16.0768		82.2683
-13.076	18.151		77.47
-14.8284	17.2597		74.5743
-12.5777	16.6219		78.1015
-11.6841	19.1666		80.3474
-13.8678	19.6707		77.1411
-45.7678	14.4598		66.1854
-42.214	12.6921		69.1594
-47.7965	15.7433		64.1398
-15.962	10.6485		75.0964
-17.5416	9.69913		74.1239
-15.6416	9.57189		76.1667
-15.6912	11.8312		74.8578
-29.0464	-53.0517		74.7225
-28.9311	-52.9264		74.9797
-28.9476	-52.9927		75.0325
-29.1539	-53.1687		74.2892
-27.8477	-51.9208		77.2779
-28.99	-52.2718		76.1066
-26.1533	-51.7489		78.9893
-27.9241	-51.4831		77.8947
-32.0081	-50.6709		76.4919
-29.4758	-53.4026		73.4649
-29.2825	-53.7292		73.8034
-30.1336	-53.503		72.1133
-29.0064	-52.5888		74.1439
-24.7392	-57.2454		80.7801
-25.2432	-58.082		80.4103
-22.2317	-59.1488		84.2754
-24.5373	-56.5154		80.7855
-27.3215	-55.1219		77.3281
-22.1376	-47.4185		86.748
-21.6969	-46.0586		87.4737
-24.4656	-48.8817		83.9781
-22.4036	-48.2251		86.2881
-19.1696	-45.9659		89.4725
-28.1908	-53.0921		75.8382
-26.561	-53.257		76.9591
-28.3202	-53.0846		75.7224
-28.2857	-53.1216		75.8176
-80.236	-30.9165		-9.228
-80.8474	-29.9596		-9.14531
-79.9168	-34.295		-12.4725
-79.7036	-31.2521		-8.40488
-87.2702	-21.4938		-20.8559
-87.6167	-19.6268		-23.4657
-87.8094	-22.7918		-21.5739
-86.9096	-22.6689		-18.4255
-86.094	-19.9401		-19.5929
-83.6778	-27.7229		-11.0853
-84.4566	-28.8413		-12.8126
-83.2246	-27.9677		-10.4464
-83.2288	-25.1278		-10.2056
-82.1824	-15.5277		-13.8627
-82.0421	-14.5148		-14.701
-82.6878	-17.0007		-14.3366
-82.5122	-16.0568		-12.5586
-82.0618	-13.8187		-13.5753
-86.342	3.67428		-14.2646
-86.3844	4.17597		-13.3344
-86.5653	4.47591		-14.8049
-85.9118	1.76934		-15.0789
-89.0966	14.5164		-18.0466
-89.1177	15.0537		-17.0437
-90.1538	15.7814		-21.0848
-88.7494	13.5833		-18.0434
-84.0027	-6.21492		-18.297
-86.1187	-2.33014		-21.3733
-83.5329	-8.56073		-18.7696
-83.3826	-7.377		-15.3064
-84.8162	-2.55967		-17.2378
-88.562	7.92596		-21.1682
-88.2552	6.41391		-21.0031
-87.4442	8.26745		-16.9654
-89.0168	9.53502		-21.9216
-90.1108	7.6428		-26.0606
-81.9426	-24.6225		-32.5744
-83.0808	-23.1056		-33.281
-80.7261	-24.488		-33.035
-81.9372	-26.9544		-31.0781
-91.4234	-4.76423		-33.1769
-91.6852	-3.61861		-34.0932
-90.7627	-7.854		-32.8584
-91.3257	-4.57441		-32.59
-91.8425	-1.93342		-35.6917
-91.9474	0.131687		-34.5555
-91.9156	1.1202		-36.8209
-91.7555	-2.58981		-36.7699
-87.9183	-17.9709		-25.3836
-88.1798	-15.7224		-27.1288
-88.3789	-18.9784		-26.243
-86.6692	-16.1445		-23.7354
-89.1751	-4.45569		-28.976
-88.3158	-6.45353		-27.8966
-89.1286	-3.14255		-28.6503
-90.4102	-4.63664		-30.8651
-87.6358	-9.51619		-27.0459
-88.3039	-11.2163		-28.2132
-86.3901	-10.6786		-24.6728
-81.0445	-22.969		-6.7632
-80.7049	-22.182		-6.09049
-81.6124	-22.5448		-7.64909
-81.4108	-25.171		-7.63347
-80.4893	-20.6189		-5.27235
-80.1236	-20.7904		-4.37886
-80.6682	-18.6304		-5.19182
-81.3377	-11.8482		-5.34394
-81.5962	-8.7519		-5.45914
-81.6952	-12.143		-6.26102
-81.114	-12.398		-4.9183
-80.8545	-13.1781		-4.45548
-80.8259	-15.4913		-4.81895
-80.4969	-13.0758		-3.50595
-84.3099	-18.5093		-17.1098
-84.1572	-16.9557		-18.3237
-84.2331	-19.5703		-15.3115
-83.4831	-6.92102		-13.7897
-82.6366	-10.649		-13.6208
-83.8346	-5.8716		-12.5431
-84.3821	-3.18585		-13.9586
-82.2894	-12.4597		-13.182
-82.5456	-12.4368		-12.3082
-91.4856	11.1279		-30.3391
-91.7202	10.0413		-32.1361
-91.3707	10.6827		-29.7845
-91.5708	11.8698		-30.5688
-91.8068	6.46386		-33.0966
-91.724	5.31967		-31.7108
-91.5823	8.14724		-31.0907
-91.8215	7.80569		-33.8759
-91.89	4.84973		-34.0638
-88.5837	12.972		-18.2329
-88.0414	12.0524		-17.1286
-89.3604	13.2079		-20.8687
-90.2583	13.2541		-24.1828
-89.9063	12.1751		-23.513
-90.7422	14.5653		-25.0193
-91.2757	13.1686		-28.2779
-89.4266	10.9025		-22.653
-90.6678	10.5929		-26.8701
-88.2753	11.1894		-18.7513
-41.1499	24.4364		74.3934
-38.0053	25.1189		75.5525
-43.7774	23.4515		72.7385
-28.8277	-105.418		61.975
-31.0967	-103.85		61.1404
-27.6959	-106.483		58.5804
-48.6147	19.043		65.8511
-49.4688	17.5876		63.9967
-47.469	20.778		68.3832
-52.267	20.6822		65.4985
-50.8499	22.756		68.7844
-54.1384	21.3242		64.5564
-52.5435	18.1806		62.7818
-50.6027	20.0356		65.9496
-75.2271	-43.6377		-5.35402
-74.6595	-45.9223		-5.87763
-75.5686	-42.0384		-3.81811
-75.7977	-41.9832		-9.91036
-19.3575	16.4594		70.5302
-19.6481	15.7359		70.343
-19.5746	17.372		70.7233
-18.016	18.986		72.2479
-19.2525	20.4376		72.8989
-17.5387	17.6286		71.9936
-8.40926	18.4092		85.8262
-8.56287	20.3137		85.9942
-7.8058	18.4889		86.8807
-22.3144	-52.3023		81.5324
-19.4179	-51.9228		84.5937
-22.7107	-51.9481		81.9606
-22.9463	-52.6363		79.9616
-68.5076	-67.7299		-11.9925
-69.2807	-64.9357		-12.4061
-67.7728	-70.6183		-14.023
-68.1541	-67.9087		-6.61845
-79.1168	-1.31628		0.634757
-78.5809	-8.30421		3.15194
-78.0387	-0.505224		5.08568
-79.577	6.2359		-2.69531
-79.9842	-1.93451		-2.06141
-67.8521	-70.4477		-25.2613
-67.6165	-72.9811		-20.7826
-68.4368	-65.84		-25.4553
-67.1972	-72.762		-27.0354
-64.8393	-106.914		-32.2867
-64.9724	-115.42		-34.0525
-65.2417	-109.807		-26.45
-64.7232	-97.7813		-31.7825
-62.9863	-102.949		-39.6152
-28.5576	-53.5001		75.8457
-26.8948	-54.1182		77.3274
-28.3972	-53.3543		75.8834
-28.6961	-53.6365		75.8064
-30.2591	-53.07		75.1965
-29.5103	-54.4369		75.6654
-24.1933	-56.1065		81.0433
-21.7072	-57.4634		84.5235
-24.2475	-55.5106		80.6841
-32.8904	-102.347		60.542
-33.0293	-100.723		63.5846
-36.5501	-100.096		54.3493
-48.4688	-56.4645		-68.2384
-47.6218	-59.6569		-68.1549
-51.3091	-55.5091		-64.5332
-46.8389	-52.4805		-72.0444
-53.7283	78.1897		38.8107
-54.8503	73.9183		41.5976
-49.8335	80.9938		41.8085
-55.2591	80.7583		31.7167
-89.1784	-14.3435		-34.3441
-90.1519	-9.28521		-37.0239
-88.524	-14.3798		-35.5726
-88.3313	-18.5447		-31.9097
-89.6931	-13.5595		-33.3064
-83.6234	4.47632		-8.53782
-83.0015	0.278078		-7.51245
-82.3716	4.58475		-7.76985
-84.2142	8.69259		-10.013
-84.592	4.44256		-9.23162
-82.3665	-16.1229		-8.67961
-81.9756	-16.8055		-7.62337
-82.266	-14.5121		-8.28492
-82.7069	-16.3304		-10.2813
-82.916	-18.623		-10.0585
-82.6635	-22.3493		-9.29815
-81.9982	-19.6425		-7.94239
-83.4191	-22.0313		-10.6911
-90.8142	-3.53848		-39.2319
-91.3089	-3.55718		-38.3858
-91.1599	2.56488		-40.0377
-90.0176	-3.53764		-40.0245
-88.9781	-3.41983		-40.6555
-88.5012	-8.94745		-38.9263
-89.1545	2.52903		-41.2849
-87.9181	-3.20495		-40.9934
-81.0185	8.493		-8.87735
-81.139	6.83936		-7.76449
-80.7634	9.46434		-8.52181
-81.1583	10.7276		-10.5496
-85.6311	-12.5714		-38.3578
-83.8979	-12.0517		-39.0574
-84.823	-16.4938		-36.6076
-86.7336	-13.1559		-37.7172
-86.0634	-8.1829		-39.9925
-88.5756	-20.0117		-27.0886
-88.9121	-16.9111		-29.4157
-88.4527	-20.9246		-28.342
-88.3565	-22.0084		-25.0125
-86.4737	-28.6347		-25.4357
-87.7595	-25.9581		-23.9056
-87.1726	-25.4268		-28.0106
-85.1455	-30.0395		-26.5327
-86.0941	-30.4921		-22.648
-87.3651	-26.961		-18.663
-86.973	-26.3211		-17.2501
-87.7371	-25.8377		-20.2456
-86.9477	-28.6892		-19.0424
-77.6583	-37.6107		-14.8976
-77.8514	-36.6746		-10.4936
-78.6047	-36.665		-16.5735
-77.1661	-38.5755		-15.4332
-82.6625	-33.619		-15.6985
-82.6363	-34.646		-18.3187
-81.2673	-34.8001		-16.12
-82.4975	-31.9629		-12.9502
-84.0034	-32.2909		-15.4229
-86.9814	10.9878		-11.1989
-87.2776	10.975		-11.571
-85.7725	7.54214		-10.4759
-86.9535	12.4388		-11.2443
-86.8894	13.333		-11.434
-86.5417	13.3101		-11.4347
-88.0433	16.628		-13.2363
-92.1613	10.5586		-35.0895
-92.1126	12.0135		-33.5027
-92.2806	9.94897		-35.9917
-92.0007	9.54921		-34.8589
-87.8783	12.0781		-13.273
-88.2875	13.6731		-14.1892
-87.486	10.5564		-13.5815
-87.7655	11.8269		-12.7389
-87.4563	10.9469		-11.9546
-88.3182	15.1304		-13.2417
-86.7649	7.85558		-11.9914
-91.0761	-4.57385		-31.9977
-89.9919	-8.12157		-31.0779
-91.5844	-1.66969		-32.1818
-87.845	11.4938		-16.7695
-87.5292	10.664		-15.6243
-87.1864	9.07576		-15.1617
-87.1165	8.90701		-14.6981
-83.9963	-5.09405		-11.3593
-84.9068	-0.830933		-11.3046
-83.1266	-9.65072		-11.5324
-83.8575	-5.10901		-10.2533
-86.6737	4.89491		-15.0984
-86.8674	6.57172		-14.444
-86.8573	4.67383		-16.882
-53.0648	-53.5244		-62.5829
-54.6454	-53.7746		-59.9317
-53.0501	-48.7946		-64.9566
-26.3812	-23.2587		79.8293
-24.0924	-22.6941		80.8137
-26.7855	-21.6817		79.4607
-28.3727	-27.4046		79.7518
-20.8552	-21.0205		83.0617
-19.7212	-21.6241		84.4939
-21.2731	-18.0483		83.0178
-21.39	-22.0245		82.5213
-51.8271	34.7443		71.4522
-51.9357	32.7732		71.893
-46.6085	36.5017		75.8248
-52.0474	36.5503		70.3452
-57.07	31.3496		65.3327
-8.08466	-25.7033		96.52
-8.26786	-25.1314		97.082
-8.79588	-26.0988		95.2868
-7.01252	-26.0895		97.4229
-8.45587	-24.3834		98.1164
-9.40197	-23.8543		97.6655
-7.34895	-24.2723		100.008
-48.4905	16.5088		63.8238
-48.1337	17.3215		64.3349
-16.2062	-14.8561		94.9907
-15.1256	-14.2102		97.067
-16.6529	-14.8207		93.9555
-16.3074	-15.7568		94.7509
-62.8663	76.8836		18.3947
-64.5413	78.1958		8.62649
-63.8778	72.078		22.7434
-60.3879	80.1962		19.8189
-30.7928	-59.9046		70.901
-29.7452	-59.2562		72.1749
-31.111	-61.6003		70.3787
-31.2685	-57.783		70.2268
-29.9549	-48.443		71.0875
-30.7766	-50.3312		70.4184
-29.8037	-47.6369		70.8898
-28.7266	-48.5147		72.5474
-10.7048	-23.3599		96.769
-11.2198	-22.2142		97.5854
-11.8212	-24.0454		94.472
6.39557	-25.1815		98.7226
5.46069	-24.9806		100.484
6.12006	-25.89		97.6531
5.87387	-26.4348		97.0341
4.86904	-26.7372		97.8507
-9.41936	-26.6637		94.1073
-10.4567	-26.6568		93.1002
-9.25643	-27.3908		93.8902
83.7476	-35.5037		-25.1148
82.0198	-36.0322		-24.9616
84.3377	-32.2805		-27.5611
84.8956	-35.9143		-24.4748
82.6193	-38.8397		-21.9105
73.7036	-47.7653		12.7201
72.233	-49.0996		20.5322
72.8293	-52.6488		11.2163
74.9449	-46.0903		5.91998
74.4182	-42.7672		14.2246
58.8289	-118.802		-10.2536
59.0504	-108.603		-9.49782
56.0966	-120.235		-5.96726
59.0476	-128.967		-11.5742
60.9845	-117.174		-14.6312
59.4723	-136.267		-12.9536
59.8552	-142.003		-14.2521
61.3567	-134.15		-17.5434
56.9034	-138.438		-8.3857
53.3073	-104.052		0.663068
54.3058	-98.2386		1.96991
49.6632	-106.041		5.26385
52.8335	-111.552		-0.515676
56.7711	-102.485		-4.24079
63.0616	-99.3544		-17.1633
62.6401	-106.334		-17.9265
64.0167	-97.663		-22.1307
63.5749	-93.8693		-16.5447
61.5547	-100.282		-12.9282
66.2047	-70.5849		21.7939
67.5735	-66.3663		23.8312
63.791	-73.1744		29.596
64.5607	-74.5433		19.245
67.827	-68.1884		14.1679
75.18	29.5255		28.3548
76.2324	37.1488		24.5071
70.8127	31.7967		39.404
74.4642	22.314		30.73
78.889	28.337		16.6453
82.4416	40.9678		-23.513
82.0337	38.3207		-33.3068
81.0821	48.1375		-28.2996
82.6151	42.3311		-12.8501
83.3708	33.5113		-19.1031
3.90526	-121.889		43.2069
0.492109	-122.026		43.9846
5.00015	-128.241		39.8107
8.27664	-121.434		41.8087
4.26437	-118.161		46.1048
6.36359	-138.158		34.2417
7.33003	-148.15		28.8185
10.361	-137.223		32.734
2.77069	-138.376		35.3868
0.0186577	-155.512		26.898
3.89213	-155.291		26.4477
-0.223158	-148.667		30.2868
-3.69537	-155.398		27.0247
0.365376	-160.143		24.7419
70.4351	-53.8711		-32.1116
72.9938	-47.8712		-29.51
69.8907	-60.5088		-27.26
67.7464	-59.8962		-34.7543
71.2626	-46.0882		-35.8888
72.1835	-40.5367		-38.637
68.4811	-46.1761		-42.3267
73.1129	-35.7327		-40.808
75.3223	-36.0585		-35.2172
62.7701	-126.191		-33.4097
62.4274	-132.693		-35.8609
61.4113	-122.969		-40.0164
63.0961	-129.672		-27.1699
-0.565146	-138.608		35.9268
-1.31838	-128.709		41.4113
-3.71815	-138.5		36.0858
70.1676	-51.482		28.2048
70.8147	-45.4976		28.9814
67.8071	-53.0157		35.3358
69.5006	-56.9646		26.8748
68.9405	-66.1372		6.61878
67.2414	-70.3402		4.64846
69.6048	-65.053		-1.23188
70.4904	-61.689		8.22631
9.31402	-98.0795		89.0715
5.10392	-98.3481		90.3928
9.48436	-102.258		87.0692
13.8012	-97.7394		86.9164
8.86017	-93.4972		90.0935
18.33	-96.6236		84.1774
18.4943	-100.722		82.3174
23.202	-94.6371		80.3798
18.1453	-91.6585		85.1378
0.253139	-88.7967		91.974
4.1082	-88.5793		91.4022
-0.0189371	-83.2368		91.1964
-3.44746	-88.8234		92.0217
0.62302	-94.0653		91.9849
9.31152	-105.895		84.0943
9.23254	-108.583		80.3263
13.8645	-105.317		82.2213
5.11833	-106.089		85.3698
9.46644	-110.372		75.6995
4.8172	-111.06		76.4171
9.54084	-111.424		70.1359
14.726	0.553776		81.9337
15.2615	-3.24507		84.0535
17.1047	-1.35535		79.7069
14.1171	4.1192		79.8389
12.5536	2.86311		84.5232
45.6153	-32.1652		72.0167
51.9001	-33.0583		66.499
44.7626	-27.3525		72.2506
39.1374	-30.0639		76.1166
46.2196	-36.5041		71.6797
56.9662	-23.0784		60.4395
61.7846	-21.777		54.2197
55.7475	-17.5622		61.1968
50.5246	-22.7707		66.9376
57.4243	-28.3132		60.1952
68.5891	-0.64386		43.5502
70.9081	-0.914331		38.9743
68.8245	7.32584		43.3881
66.0911	0.414526		47.4332
46.8319	-40.7211		70.7662
47.3329	-45.0616		69.7902
52.6118	-41.8492		65.0524
41.0524	-38.969		75.2576
2.1418	3.08289		101.996
1.87958	8.0492		98.3952
0.481872	3.48172		102.086
2.3234	-1.17545		105.304
3.93591	2.41194		101.333
32.5689	61.3681		76.5035
27.3051	62.3914		78.6399
31.3283	54.6515		80.4473
38.2316	59.7759		73.61
33.9384	67.7892		72.4153
0.402365	-113.564		64.3306
-0.0495377	-114.321		57.3107
4.43325	-113.198		63.9509
0.567587	-112.688		71.0891
-3.40318	-113.626		64.3558
65.0165	-53.6335		42.2991
61.6395	-53.4929		49.261
63.9609	-60.2842		41.6399
65.6472	-47.2757		43.1018
0.945426	-106.308		85.9292
1.12053	-102.828		88.9276
-3.05655	-106.407		85.9345
0.673046	-109.384		81.5712
0.678584	-111.406		76.6592
-3.26956	-111.486		76.527
39.6511	-92.0194		59.3711
33.7785	-95.6524		65.4319
38.8797	-94.8643		56.7715
45.2249	-88.0097		54.3197
39.7718	-88.525		62.4223
45.2675	-95.6446		33.9879
42.2634	-99.6778		28.9395
49.7504	-92.3897		28.4894
47.7494	-92.2875		38.4967
39.794	-99.201		39.7058
-1.31702	-115.629		51.0319
1.9953	-115.702		50.4896
-4.46989	-115.535		51.0308
-2.82862	-118.031		47.0888
6.57547	-6.40526		105.917
6.87278	-9.33078		108.137
9.16549	-7.58864		102.721
6.34632	-2.80147		102.987
4.24738	-5.58583		107.695
23.5253	-20.7839		80.9724
27.0756	-23.6228		79.8733
22.1738	-15.7865		81.0631
20.2581	-17.7087		82.7607
28.8553	-55.4832		76.5668
30.8723	-55.2888		76.3637
10.396	-25.8999		93.045
11.8742	-24.4934		93.1757
9.74795	-26.8813		92.515
11.8875	-26.0528		91.1495
9.87856	-30.0828		90.6559
10.3726	-31.5518		90.3494
11.9242	-30.1076		88.729
9.69918	-29.1126		90.9599
8.18065	-29.6896		92.382
0.695793	-27.2032		101.025
0.722449	-26.2383		102.887
-0.859447	-27.2312		101.219
0.760993	-28.187		99.5728
2.37692	-27.0343		100.196
14.3153	-29.336		86.9103
16.7818	-27.8439		85.1724
13.8858	-28.33		87.3913
14.9232	-30.7823		86.6715
6.97229	-17.7573		109.436
4.44726	-17.9681		111.937
6.58308	-19.6801		108.149
9.37066	-17.6041		105.78
7.17588	-16.0396		110.119
25.6004	-71.6125		80.0319
29.2101	-68.7908		77.6187
24.55	-67.6046		80.7209
21.3127	-73.7558		82.9163
26.5762	-76.1704		79.2452
28.8061	-49.516		79.8113
27.5211	-45.8389		81.7695
26.2553	-48.7626		81.539
31.0993	-50.2227		78.5171
0.947971	-32.3603		96.7516
0.925636	-34.5465		96.1139
2.58986	-32.0904		96.3746
0.877604	-30.4797		97.6152
-1.09397	-32.4296		96.8807
6.03521	1.29994		99.8383
8.4913	-0.448454		97.2162
5.85046	5.67193		96.5164
16.635	-18.4859		89.0782
16.04	-16.5998		91.4957
16.1605	-17.6148		91.3225
16.6866	-20.0363		88.09
17.0241	-18.0913		87.6975
3.83172	-28.6749		97.0653
3.67194	-30.2036		96.388
5.09462	-28.9142		95.7494
3.87147	-27.7246		97.7798
2.47399	-28.8952		97.9336
3.75734	-26.9126		98.9666
3.77332	-26.0082		100.614
15.5013	-16.5734		93.6603
15.3062	-15.7022		94.0986
15.8109	-18.2478		92.4427
16.3465	-22.6664		87.2169
15.8705	-21.3041		89.5053
15.3266	-25.0634		87.3114
0.476767	-42.766		95.3771
0.70016	-44.8741		95.4882
3.21325	-42.0395		95.1956
0.626299	-39.7964		95.3743
-2.38159	-43.3242		95.367
21.8793	-32.9854		83.3051
19.2061	-32.9872		84.7075
24.0856	-37.3596		83.3759
24.2541	-33.228		82.3302
19.9311	-28.9168		83.3532
7.85618	-70.4648		89.6663
8.01775	-67.9718		90.3178
3.79121	-70.8875		90.4148
7.63278	-73.5742		89.259
12.1184	-69.6586		88.3334
24.131	-51.185		81.6563
24.6554	-51.8202		80.7955
27.0598	-52.318		78.5986
23.7129	-49.6431		82.9819
15.1148	-15.0828		94.0589
15.2079	-14.3842		92.7068
13.8424	-13.9478		97.0151
16.2801	-68.4996		86.4218
16.4481	-71.4076		85.9473
20.0517	-67.0579		84.0758
16.0574	-66.2951		86.9889
0.265476	-71.0531		90.6653
-2.98692	-71.014		90.616
0.100381	-73.8005		90.2672
0.362206	-68.8007		91.3522
61.7023	22.6829		60.7557
60.5691	21.2901		62.4242
63.4701	18.4965		55.4935
62.6345	24.4437		58.8885
42.1371	45.9192		76.6831
35.9953	47.4427		80.9962
41.8692	40.8585		79.1612
48.4416	43.9644		71.79
43.2273	51.3944		73.3903
54.7688	41.5112		65.8263
54.2408	36.8467		68.6673
60.5544	38.5182		58.7622
55.9149	47.1382		62.0512
42.7936	32.8589		81.0381
42.3216	35.4406		80.7961
36.5546	33.8269		85.8116
43.3113	30.3781		80.8188
64.0366	26.5465		55.7878
64.9549	29.8292		53.1249
59.3953	30.4854		64.0273
66.8546	21.6232		49.1753
23.3393	24.2907		85.8993
23.8701	23.6988		84.0054
27.3993	24.568		85.0671
23.1337	25.5032		88.2887
19.9934	24.0949		86.0751
6.3792	14.8353		89.9964
8.50312	12.4804		86.9244
6.63848	16.484		89.1182
3.9407	16.5458		91.9887
6.11154	12.5991		91.3931
27.6082	-7.09042		75.3755
29.1181	-11.7045		76.3872
34.1911	-9.65353		73.6057
26.0514	-3.14395		74.6758
22.2759	-4.86279		77.1718
57.7117	2.06496		56.3431
60.1209	0.94392		54.2173
59.2809	6.52579		55.4273
55.3559	3.77755		58.3446
54.7967	-1.57575		59.2182
5.90815	9.54807		93.5569
8.28699	7.3602		90.9569
3.60543	11.145		95.1284
43.7867	28.2384		80.4868
48.5587	27.1823		77.3575
37.9929	28.2006		83.7261
43.6686	26.3895		80.1285
52.8799	25.3262		73.5652
52.1179	23.3933		73.8312
56.813	22.7318		68.6648
55.9763	11.3717		60.3363
56.352	14.8055		62.8547
53.8096	11.5959		62.0747
55.0504	8.09044		59.3607
57.8358	11.362		58.6948
43.0187	17.3971		72.1817
44.7109	15.9922		70.2207
41.1754	18.5702		73.792
39.0841	19.6746		75.0454
36.7377	20.4743		75.798
39.2636	20.2265		75.6671
36.5574	20.9906		76.4052
41.6181	19.1106		74.3232
33.7819	20.9843		76.0901
30.6856	20.9619		75.947
33.455	21.4729		76.6678
30.1282	21.3884		76.4283
27.4187	20.4274		75.3261
24.3947	19.5279		74.4808
21.2642	18.4197		73.6542
18.4433	17.3131		72.9987
20.0796	18.9625		74.1366
17.4231	17.8035		73.4893
23.2091	19.9806		74.8969
16.4749	16.1629		72.5609
18.9606	19.2993		74.6911
22.2799	20.4692		75.5964
33.225	22.024		77.5222
29.6351	21.8929		77.2138
48.2852	11.2316		65.2486
48.82	12.1898		65.307
46.9539	10.4292		65.9137
32.3146	25.0003		83.8275
38.0136	25.1648		81.9224
32.2126	26.0044		85.1104
32.3525	24.2307		82.4595
48.5361	19.7104		73.6073
46.6943	19.0463		73.5615
50.0028	20.6416		73.7796
45.2384	21.37		76.4362
35.5557	4.10625		71.7895
41.4097	4.25678		69.285
28.6314	4.9541		73.2755
35.9512	2.25765		71.4073
23.0525	6.54549		73.3515
19.1653	8.08325		73.2824
23.191	5.0813		73.5048
15.2878	11.3917		73.2328
14.7518	12.3679		73.1222
16.1827	10.4433		73.1941
34.8315	7.41878		72.4949
40.2072	7.75918		70.5715
28.7062	7.83903		73.4338
17.8036	11.2942		72.2306
19.6783	10.374		72.529
16.9048	11.8468		72.0787
16.2448	12.3176		72.059
15.6245	12.9164		72.1544
13.5743	19.3127		78.5627
13.2576	20.8603		81.5535
13.6687	17.6452		75.6023
15.2698	20.6592		79.0713
14.3278	13.7592		73.2343
25.8189	21.3407		76.458
14.0379	16.9491		74.4752
13.4695	15.6205		74.345
15.2542	18.4074		74.9457
34.7753	8.8215		72.7533
28.6848	9.12022		73.4849
17.7743	12.1098		71.7686
16.9602	12.3867		71.7306
19.65	11.5121		72.1386
16.3462	12.8156		71.7166
45.821	14.6269		68.2532
3.44472	27.6921		91.8468
0.0496769	28.1421		91.8012
2.95989	26.2281		91.476
6.2449	26.6261		91.3006
4.10782	29.599		92.3782
17.3335	3.62763		75.8955
17.0076	5.41326		75.1315
15.55	4.94767		76.8301
18.175	0.943174		76.9576
20.1591	2.01427		75.0546
13.8076	6.44813		78.2697
12.0873	8.29844		80.3628
13.4564	11.1884		75.3667
12.2371	12.0609		77.1675
13.4768	12.7372		74.5554
10.2729	18.9021		83.2463
11.3976	20.4619		83.1935
9.83475	19.8968		84.8044
17.252	9.3109		73.2632
16.9468	8.23519		73.8697
16.8786	6.9235		74.4311
19.2868	5.46613		74.0121
20.3155	-53.8519		80.455
20.2408	-53.7504		80.1951
23.8957	-53.7941		77.7639
16.375	-53.5245		83.65
25.8056	-53.9083		76.6831
25.4902	-53.805		76.644
0.902987	-48.4318		95.244
4.01602	-47.9166		94.906
0.889914	-47.1305		95.4748
-2.57608	-48.8285		95.2766
0.807457	-49.6464		94.8537
6.69732	-50.2377		93.1194
6.69613	-49.1239		93.7743
3.93369	-50.382		93.8312
6.46514	-51.2402		92.3261
9.37373	-50.1968		92.104
12.2406	-50.2787		90.5964
12.2851	-49.1386		91.3192
12.3001	-51.4173		89.5516
15.5669	-50.9448		88.1612
6.61938	-47.8545		94.2938
9.31438	-47.798		93.345
6.55264	-46.539		94.6404
11.1858	-45.9243		92.8473
11.9743	-46.8311		92.3456
10.7683	-44.8416		93.0644
8.352	-45.7631		94.151
19.5381	-52.2361		84.1288
19.1429	-51.1224		85.6879
5.93883	-52.1238		91.3722
3.02498	-52.1218		92.2588
5.56336	-52.5397		90.5858
9.20633	-52.1286		90.1315
12.6972	-52.4818		88.0112
12.7495	-52.9898		86.9933
26.4623	-52.8888		78.3332
20.5126	-54.9075		80.9464
20.4871	-54.8108		80.6661
16.488	-54.9585		84.5687
20.5316	-55.164		81.3092
21.0674	-56.5055		81.8837
20.8327	-56.0432		81.8216
17.4566	-57.3183		85.9296
14.1857	-57.8253		88.7638
13.9156	-56.9631		88.5193
10.7098	-58.1413		90.956
14.6624	-58.6619		88.7237
5.99323	-56.0153		91.9347
6.38618	-57.2925		92.4179
9.81718	-56.0273		90.4059
5.68116	-54.8863		91.3367
2.60629	-56.037		92.8043
0.174212	-58.7095		94.063
0.294805	-59.8668		94.2149
3.15225	-58.5477		93.635
0.0396204	-57.4727		93.7261
-2.4206	-58.6995		94.1185
26.1249	-55.3855		75.9971
25.9514	-54.7727		76.5763
26.0876	-56.9118		75.4312
24.1199	-55.3614		77.4056
-0.127544	-54.8285		88.6608
-0.209836	-54.2052		89.8822
2.34675	-54.8971		88.3677
-0.0999508	-56.1298		87.4585
-2.32756	-54.7659		88.6763
0.396916	-61.0833		94.2079
-2.41702	-61.0905		94.2596
0.4935	-62.2331		94.0385
3.64717	-60.9176		93.7743
0.465749	-66.6189		92.2669
4.05917	-66.2377		91.9951
0.55931	-64.7171		93.1498
-2.62041	-66.7335		92.2281
6.25853	-45.6024		94.8016
5.53699	-44.2319		94.9588
3.84165	-45.4963		95.2906
-0.0969658	-56.1157		93.1689
-2.44527	-56.1736		93.2351
-0.213867	-54.976		92.5219
-0.273923	-54.46		92.0683
2.29395	-54.3536		91.7091
-0.212028	-54.2015		91.63
-2.45415	-54.4517		92.0384
5.53219	-54.3665		90.8929
9.15623	-54.4788		89.4744
5.45571	-54.1333		90.4799
-0.157782	-54.0684		90.9045
2.2674	-54.0235		90.5869
-2.44386	-54.0299		90.8438
12.8594	-54.6871		87.3164
12.7547	-54.4902		86.9067
13.1411	-55.1418		87.6923
15.3985	-61.6274		88.4219
15.6416	-62.8052		88.0503
15.182	-60.6137		88.6298
11.9307	-62.3035		90.5511
7.89244	-62.7187		92.304
8.05461	-63.9759		91.8186
7.72268	-61.6753		92.5852
4.03043	-63.1294		93.2951
0.52573	-63.3725		93.7066
-2.45441	-63.4519		93.7234
12.6952	-53.1078		86.3177
9.0301	-52.7464		88.4228
12.5797	-52.9792		85.7191
28.8119	-54.3165		76.6994
27.7656	-54.5113		76.6678
25.8841	-54.5321		77.1801
24.0238	-54.904		78.5107
5.51452	-54.9782		87.6786
5.36022	-54.2917		88.8177
9.11219	-55.0409		86.4858
5.74286	-56.2439		86.5919
5.35352	-54.0667		89.8048
8.93633	-54.1901		88.4181
8.07906	-65.7366		91.1183
12.2836	-65.1324		89.5167
14.9099	-59.6252		88.7484
11.4482	-60.2276		90.969
15.8505	-64.428		87.5485
19.0958	-63.1791		85.1645
12.2722	-52.5796		85.3195
8.99852	-52.1224		86.8177
11.6978	-51.2295		84.6114
15.6148	-52.9728		83.209
5.63899	-51.948		87.922
2.92645	-51.7662		88.3161
6.1956	-50.591		86.5325
5.42707	-52.4655		88.9106
11.0906	-48.3296		83.6415
8.56899	-48.0179		84.5792
10.8607	-44.5808		82.8565
13.7974	-48.681		82.3547
25.7488	-60.5874		75.1768
24.8105	-65.1139		75.7729
23.6801	-60.4506		76.7608
-0.178298	-59.1712		86.2368
2.32058	-59.1903		86.0541
0.0400934	-63.5887		85.7076
-2.24235	-59.1508		86.2142
6.14747	-47.8022		85.2262
3.63432	-47.6094		85.6481
5.85515	-43.9928		84.405
5.60742	-59.2232		85.4532
5.69086	-63.7514		84.7299
9.25378	-59.35		84.3599
29.1335	-55.654		71.1616
29.1554	-56.2545		71.05
10.7508	13.3832		80.1318
10.4042	12.0119		81.8524
84.212	-8.77527		-40.5703
83.433	-13.1635		-40.0525
82.4214	-8.04197		-43.9097
84.8935	-4.21431		-40.3306
85.6754	-9.34604		-38.8463
83.1844	8.6984		-2.7856
83.7521	11.5963		-6.80928
82.0726	10.6982		2.11627
84.0205	13.7833		-11.8453
83.8519	19.1899		-12.8369
84.4194	8.89669		-13.1575
84.7684	13.5355		-18.8143
77.9416	-33.1634		-32.6969
80.377	-30.9613		-30.895
76.8823	-37.4143		-30.3659
79.1543	-29.2337		-34.2853
80.1985	-25.5381		-36.1369
77.6089	-27.4127		-39.137
81.3766	-21.5457		-37.7239
82.4523	-24.4352		-34.1686
87.145	-9.35987		-37.9172
88.6725	-8.91995		-37.4937
86.5005	-13.519		-37.2237
87.5808	-4.38114		-37.8552
88.7352	-27.9529		-28.8606
89.9075	-23.8934		-30.7043
89.425	-28.4461		-27.6499
87.4902	-31.9778		-26.582
93.2961	-18.2845		-28.386
93.2754	-17.7333		-27.5903
82.2397	-40.5435		-19.0022
82.6893	-40.8015		-18.3046
81.7787	-41.2303		-17.032
81.373	-39.6178		-21.0296
82.9444	-33.2289		-6.12858
82.6271	-33.8478		-6.12066
82.2113	-34.845		-6.38671
93.2146	-17.3643		-27.1677
92.6852	-17.9594		-26.2604
96.3183	-2.83805		-30.2314
96.4331	-2.14281		-31.7121
96.1411	-4.20002		-28.6494
96.6752	7.2296		-27.3114
96.9709	8.56861		-27.3507
97.1054	10.6099		-26.2279
96.474	10.3677		-24.0486
97.3044	11.0733		-26.5966
96.7167	12.5768		-23.0706
86.0497	-10.5411		-5.43359
87.3686	-5.17641		-5.72848
85.4941	-9.79521		-4.0852
85.0891	-14.5243		-5.0638
80.7406	-26.2917		0.696376
79.754	-26.6718		3.3888
80.2713	-30.0259		0.0230441
81.2003	-22.0151		1.40356
84.7556	-21.5558		-7.94973
85.0983	-23.5797		-8.53987
84.7451	-19.6166		-7.99329
84.4059	8.39701		-13.2262
84.8959	9.72595		-16.5998
84.4329	8.38783		-13.0135
92.7205	15.5981		-13.1202
93.8037	17.3111		-16.0983
91.9099	16.0524		-14.2786
91.1547	12.527		-10.3932
93.4531	14.8582		-12.1601
93.4689	18.1166		-21.0854
92.6072	17.8186		-18.1287
93.7664	18.234		-20.5746
94.0248	16.9528		-24.7982
92.6697	17.1485		-22.532
94.3658	3.25086		-36.0358
93.5659	2.81891		-36.2564
94.7317	9.10243		-32.9124
95.4242	3.44893		-35.4622
88.3654	-0.643112		-6.0737
88.6648	-1.88179		-6.78597
97.1187	2.50532		-32.9445
97.6035	7.52325		-30.4688
96.765	-0.268217		-33.2657
97.175	2.41353		-33.3109
96.1028	13.3635		-19.0983
95.0458	12.7429		-15.1842
95.8841	12.0448		-19.8969
96.2008	14.3172		-18.439
89.9287	0.117226		-8.77501
89.3401	-1.62009		-8.29964
90.535	2.40768		-9.36423
96.6157	3.12752		-30.2297
96.7204	1.1416		-32.1688
93.7068	5.51882		-18.6644
93.1821	4.17394		-17.9668
95.1318	5.09857		-22.7867
88.0093	-6.48545		-10.3532
88.1844	-6.20686		-11.0372
88.5048	-4.92763		-9.17875
93.1251	-5.54767		-24.0951
95.201	-2.94794		-25.832
92.8544	-5.10829		-23.4596
93.0016	-6.62928		-24.3047
81.6709	-18.1134		1.57391
82.3968	-13.6288		0.976513
80.7648	-18.2923		4.07611
87.8567	0.783804		-36.1439
86.7201	0.270325		-37.3377
87.7561	5.35182		-33.8152
88.8639	3.21364		-35.0674
91.2328	7.98858		-32.1069
90.9806	11.6489		-28.7345
93.5971	12.4731		-29.9267
91.3584	4.0226		-35.1846
92.5019	1.8942		-36.2982
91.2814	-3.54604		-37.3763
90.7984	-8.53272		-37.2452
84.2168	-23.8689		-33.2346
83.1943	-27.0113		-31.6016
85.0998	-20.6234		-34.7333
85.8341	-17.2166		-36.1325
84.1716	-17.3706		-37.2114
92.1002	-17.898		-25.2607
82.1617	-29.9529		-30.0672
81.0166	-33.6146		-27.9489
83.3842	-29.706		-29.5658
81.0596	-37.5547		-23.5506
80.6252	-37.5379		-23.9188
80.3325	-41.0441		-19.1381
81.52	-40.917		-14.1764
81.0096	-41.1676		-14.0052
80.4736	-41.3568		-13.7426
93.2157	-7.36692		-24.8092
95.2064	-6.0096		-26.8771
84.8549	-9.18182		-2.97288
84.0802	-8.76783		-1.74316
82.591	-22.5256		-2.12477
82.9306	-22.7061		-2.79212
85.6478	-27.0807		-8.43979
86.6302	-29.1093		-10.0945
85.844	-26.0038		-9.20693
84.4859	-17.4774		-4.72491
84.9784	-17.6493		-6.91307
90.6287	13.3653		-25.4658
88.2865	9.86992		-28.5102
89.6039	13.9202		-22.1357
87.3866	8.40771		-30.3973
86.968	8.16081		-31.5145
86.6824	10.423		-26.0949
84.6819	-17.6181		-9.75365
84.895	-17.6102		-8.86809
95.7829	4.17768		-25.1636
95.573	2.67662		-24.9001
88.6548	-5.5053		-12.4264
88.0301	-7.74986		-13.5966
89.7287	-4.27939		-14.9942
92.8168	-4.28346		-22.9206
94.6287	-0.733946		-23.9052
92.2155	-4.2386		-21.5573
9.87285	79.7828		72.1636
9.32911	71.9133		77.6012
17.4889	78.6422		71.8264
10.5986	87.8426		65.1163
2.01413	80.294		72.1941
8.57966	64.1968		82.0614
1.26721	64.3744		82.2911
7.92661	55.9662		86.1918
15.7246	63.6956		81.3467
29.9456	48.2504		84.3444
30.1065	43.215		86.8458
25.469	48.8357		86.0273
0.775787	-25.1054		105.292
1.16342	-23.7384		107.629
-0.698556	-25.0139		105.727
2.67169	-25.1161		103.912
2.00481	-14.514		113.97
4.59129	-14.5561		112.721
2.08474	-12.6462		113.526
-0.406353	-14.4525		114.304
1.97564	-16.2523		113.905
1.92709	-18.0665		113.298
-0.446396	-18.0049		113.713
1.82526	-19.8783		112.13
0.83995	-29.205		98.5153
-0.932277	-29.3048		98.6849
0.839478	-37.1358		95.6163
2.91656	-36.5739		95.4398
-1.64368	-37.4351		95.6148
1.60019	-21.8164		110.176
3.76109	-21.8945		108.615
-0.498088	-21.7262		110.684
2.09047	-10.7704		112.661
4.5508	-10.9355		111.522
2.14325	-8.34675		111.031
-0.252359	-10.6068		112.913
6.68772	39.4684		92.679
0.315107	40.2005		93.4615
6.10937	36.5171		93.1099
12.6507	38.6072		91.9533
6.95226	43.1814		91.6742
2.04021	17.4343		92.6804
1.8157	15.06		93.9281
2.27808	19.4554		91.8445
0.382198	17.7672		92.8403
2.49453	21.276		91.3421
4.49018	20.2648		90.6518
2.63483	22.9817		91.1455
0.589058	21.6096		91.5423
0.302286	-51.6047		88.4002
-2.28314	-51.5939		88.4386
0.713705	-50.1818		87.1597
-0.108343	-52.5041		89.8869
-0.182909	-52.7659		90.9881
-2.40513	-52.7861		90.9343
2.24943	-52.6786		90.6352
-0.112038	-52.6719		91.7337
0.738483	-50.6218		94.3334
0.562652	-51.4765		93.6339
-2.59225	-50.7685		94.4291
0.241182	-52.1647		92.7854
-2.51405	-52.2486		92.7505
0.904219	-46.1007		95.5278
-2.50684	-46.6948		95.5411
0.842992	-47.4393		85.8555
0.753191	-43.6224		84.9051
-2.07721	-47.3085		85.8416
23.8038	77.3784		71.0193
22.8793	70.293		75.9855
29.659	75.7164		69.7763
24.9273	84.8239		64.3874
18.9446	38.817		91.1274
18.7847	35.6418		91.6136
24.4497	39.1473		90.3714
18.5581	42.881		90.1023
20.1212	31.9468		91.4518
21.4663	28.4863		90.6891
25.1899	32.3276		90.62
22.9038	26.5585		89.4888
19.3695	26.5819		90.3197
26.7886	27.2579		88.8973
25.0225	21.706		77.2926
24.7489	22.3135		78.9444
21.36	20.9261		76.5259
29.2147	22.244		77.9964
26.5967	20.8448		75.7397
24.2516	22.9585		81.2425
28.2532	23.2768		81.1562
20.8728	22.5488		80.8944
49.2951	81.4637		48.1605
50.8737	87.6078		38.1766
43.5662	85.0197		50.8845
48.282	75.1262		55.3658
35.0669	74.0485		67.8202
36.4127	80.6355		61.6808
40.8438	71.9042		64.9723
