1835
40.6701	33.1775		80.6457
40.8529	34.9696		81.1732
40.8016	38.7417		81.6506
40.3603	24.7945		75.5497
40.6597	23.135		74.645
44.8486	23.9413		74.5088
58.6509	71.5194		53.3255
64.3221	67.7552		48.0569
57.528	66.6872		57.9098
51.5754	41.3121		73.2575
56.9922	38.6004		69.0064
47.5993	19.9693		72.6222
48.0189	21.2948		72.9389
44.5257	21.0828		73.5581
50.1816	18.6251		71.2653
50.7825	27.6319		73.6181
49.8624	25.3448		73.4363
55.311	26.1283		71.0262
48.7605	22.9923		73.1889
56.2152	61.6244		61.8996
61.9124	57.8359		56.8181
69.4961	64.5187		41.3354
68.473	59.3159		46.2707
73.8995	61.5699		33.4027
50.55	15.5495		69.5474
52.2383	13.9847		67.885
52.513	16.9912		69.4589
54.259	15.2226		67.6679
51.2651	16.2308		69.6436
59.1356	23.9571		67.9747
61.8224	20.5284		64.6244
24.5182	26.7907		80.0022
21.196	25.195		79.4807
24.5254	25.0748		78.2903
24.1629	28.0987		81.3583
23.3179	29.5834		82.8419
20.1086	28.0261		82.3466
24.3535	22.4673		76.1258
24.4145	20.4929		74.5611
13.7129	37.5527		86.5978
8.12919	39.0803		86.7499
58.3897	-72.7164		-8.51892
60.7257	-67.9819		-6.68084
58.6938	-72.8046		-15.0328
84.6302	13.8187		-37.2162
83.778	9.98193		-42.8522
84.1605	19.6051		-41.8703
85.4423	16.0379		-29.1653
85.1323	7.9401		-32.1531
77.0484	-16.5527		-52.4648
75.2717	-22.4379		-50.9816
74.8086	-16.3932		-58.012
78.7773	-10.846		-52.479
80.2089	-4.72394		-52.0879
78.4295	-2.68694		-58.4838
81.5248	0.709354		-50.2304
82.0062	-7.0898		-45.9225
68.1814	-39.225		-44.9485
64.6408	-42.1393		-48.8015
70.6722	-33.658		-47.342
19.1179	57.6157		82.7393
11.211	58.1756		83.6018
26.4481	56.4625		81.7065
32.4903	55.8267		80.3574
34.0073	63.4099		77.021
12.1145	-99.316		57.3965
9.88116	-99.3656		49.7375
18.0918	-98.0177		51.4291
6.56825	-99.8731		61.1709
38.8875	-89.7405		44.4817
33.5591	-92.5388		49.5719
43.2243	-87.1812		39.5863
40.3741	-87.7828		48.3854
67.3663	53.7544		50.4955
72.0824	49.7323		43.2369
34.8531	70.2249		73.2921
78.097	58.6388		23.8986
81.4358	56.1091		14.0172
77.4314	52.1796		29.4318
37.8648	96.1727		47.5567
43.9752	93.1467		46.7901
38.4519	103.157		35.8729
31.0212	98.6364		48.2003
73.6347	31.9682		43.2607
75.0312	38.7892		39.0282
54.9924	13.3237		66.1454
66.5765	19.2535		58.7512
66.945	13.8976		55.7002
64.9806	18.0788		60.2672
63.3389	16.9771		61.5353
-7.2421	-106.104		41.6798
-9.41911	-105.805		41.7364
50.1194	-79.9141		40.0897
51.7246	-76.3569		42.4075
46.2139	-81.905		47.0164
48.3906	-83.0037		36.7584
3.63102	-43.082		98.1549
5.51829	-43.5351		97.614
3.4634	-41.0983		98.0414
21.7766	-49.2279		86.7171
21.2468	-45.4205		87.659
18.7293	-47.3595		89.7584
7.47936	-40.3761		96.2858
4.92013	-39.994		97.4656
7.89934	-42.0681		96.35
10.4535	-40.7367		94.6002
7.08727	-38.6696		96.2187
30.3721	-53.2413		79.9436
29.5881	-56.4949		79.0117
32.3473	-54.5846		78.5267
30.4923	-49.6319		81.0541
70.74	8.44415		47.9499
68.902	8.42136		51.0259
70.7306	2.01558		47.3998
72.3266	8.8046		44.7165
73.8873	9.40889		40.9651
75.723	9.23437		35.5844
58.826	9.47062		61.7931
58.6183	7.34962		61.3225
67.0704	8.42215		53.6362
85.1441	-0.23662		-37.2118
84.4779	-3.96008		-40.3805
83.9537	2.00003		-41.2014
85.6256	2.25275		-33.2863
78.1559	-26.6644		-41.5238
76.028	-26.9054		-44.6526
64.7249	-60.2374		-17.1582
67.1247	-56.2533		-14.8422
63.7334	-62.3972		-10.9211
61.9473	-65.408		-19.684
65.9063	-56.7702		-23.0403
83.5491	-8.58898		-42.3767
73.4895	-36.7377		4.26825
72.0552	-40.9151		3.80204
74.9435	-32.3456		4.52514
72.2431	-37.4995		8.51159
76.2912	-9.16634		28.1134
77.4128	-0.777352		27.0877
74.791	-16.9865		29.1319
77.5965	-10.7106		19.5401
61.3095	2.91636		58.7901
59.5365	4.41696		60.3038
58.9927	0.630569		61.0809
57.8182	5.67774		61.6995
56.0658	4.38933		63.1262
70.9892	-37.7868		14.5575
69.9433	-37.8464		21.0815
69.4072	-42.6594		14.0796
72.7924	-32.5258		14.4966
25.0226	-15.5846		81.4373
28.7247	-17.5376		79.8645
24.1971	-10.9644		80.213
22.1856	-13.1895		83.1755
34.7964	-19.69		77.9097
42.3917	-21.3267		75.2508
35.4071	-24.3934		78.7342
19.1455	-10.6532		85.9992
16.3293	-7.79786		89.5037
19.1712	-14.2456		88.0283
21.4205	-21.4022		86.6258
20.242	-19.1085		88.0616
17.1868	-23.1768		96.6757
15.8578	-22.4544		99.4086
16.701	-24.9503		95.9575
17.9124	-23.7996		94.7589
18.3235	-24.4414		93.1213
17.5734	-26.6142		92.4277
37.1657	-38.3974		78.9313
31.9219	-37.2046		81.3396
37.2225	-43.1936		78.5352
36.8185	-33.9185		79.1996
35.8601	-29.0343		79.1827
2.96205	-37.0265		98.4526
3.08494	-38.5585		98.1829
4.52339	-37.0026		97.6365
53.6986	-56.4742		57.0084
56.0871	-50.2349		57.2846
50.1423	-54.1545		63.7424
51.0445	-62.8812		56.9976
25.7069	-43.5409		84.5211
23.1454	-42.8129		86.1359
28.0503	-44.3455		83.2566
36.8064	-48.0566		77.8067
36.0035	-52.744		77.0993
41.2811	-49.9391		74.3476
32.9818	-46.4836		80.3659
3.27882	-39.8882		98.0719
48.2826	-68.9645		57.2003
50.8168	-71.3185		50.5827
45.2868	-65.1357		63.9559
44.9931	-73.6257		58.8457
61.3415	-34.2453		58.5226
59.7695	-39.3029		58.3302
64.7808	-34.9514		51.3275
20.5214	-95.1264		73.7016
21.5599	-92.317		76.0356
15.6864	-95.8786		79.2269
32.5798	-84.3804		67.7463
36.9303	-81.1816		64.4752
31.8782	-79.8017		71.4892
27.5895	-86.8589		72.424
62.456	-14.1003		60.2677
60.8026	-9.25944		61.3139
56.2151	-13.7459		66.0704
53.2708	2.69567		65.5384
54.3064	0.708291		64.9951
59.13	-5.88529		62.2039
53.3916	-6.59699		66.9187
57.1463	-3.31209		63.4396
51.3733	6.02368		66.6747
-4.2433	-89.9959		97.1847
-7.52998	-89.7511		97.2812
41.904	-61.8471		69.379
39.5378	-65.8746		69.9464
43.8936	-57.2014		69.3962
38.1753	-59.1098		73.6261
30.8198	-75.4712		74.3277
34.0104	-72.6004		72.3733
29.1578	-71.0887		76.8598
26.81	-77.8023		77.5152
48.3301	-13.0373		70.7614
49.5739	-17.6357		70.986
46.9305	-9.1335		70.8061
46.0555	-51.9208		69.4749
50.4639	-22.4236		70.973
4.14753	-81.7453		95.6697
4.65757	-76.9346		94.742
8.72258	-81.4866		93.1728
13.4128	-81.2815		89.8521
17.9861	-80.7707		85.8195
13.5378	-76.7384		89.7429
45.7919	-6.29812		70.8048
44.5895	-4.10512		71.0522
37.2323	-5.56769		73.4255
55.6607	-1.26852		64.2257
50.7933	-2.31917		67.9204
43.6884	-2.28633		71.2205
35.701	-1.70998		73.2099
13.776	-5.25351		93.1183
13.9419	-9.21635		96.1355
13.7448	-0.914755		89.7017
14.3009	-16.7625		102.659
14.257	-15.2053		101.317
11.8701	-15.6524		107.186
14.4495	-17.927		103.05
14.3574	8.78598		81.3063
14.1534	6.46779		83.2313
23.2086	-6.61459		78.74
5.56879	11.1145		92.4795
4.01238	11.626		92.5788
69.9971	-4.00428		49.0856
13.9762	3.13335		86.0688
53.5033	-72.115		43.6585
56.6044	-70.8725		35.2322
70.385	-23.7839		44.4872
68.7602	-30.0304		43.9536
71.9501	-23.7145		37.0474
63.1773	-47.0262		43.3387
65.1696	-41.3029		43.3742
61.1373	-45.8878		50.5167
64.5718	-47.9037		36.0604
67.0807	-35.6409		43.501
68.3185	-36.5326		35.9131
11.4013	-96.3737		83.7231
5.24969	-72.7605		93.9334
1.17833	-72.6348		95.0488
9.51081	-72.7805		92.0787
13.5445	-72.8481		89.6969
30.5832	7.0997		72.0908
29.8947	-3.9224		74.5839
29.3421	-1.80847		74.1499
29.0005	-0.152257		73.7717
-2.46087	-72.4484		95.6066
-5.68728	-72.066		95.6867
11.308	23.7708		84.2569
12.6845	22.6453		83.1567
12.4821	26.1065		84.1785
9.65965	24.452		85.092
10.7457	21.1044		84.4197
20.948	11.3765		71.4793
20.7959	12.6695		71.6509
18.626	11.914		73.3288
13.6876	21.2003		81.8515
15.1002	23.5857		81.7481
7.78445	25.0778		85.6288
5.68992	25.5457		85.8288
4.33864	-29.7108		105.231
5.41873	-28.1413		107.004
8.89928	-18.2632		112.739
9.09902	-16.6776		112.097
11.8116	-18.4537		108.416
16.3797	-30.9393		89.7143
16.1656	-29.8018		90.9223
13.8611	-32.226		91.1933
8.98198	-14.9493		111.215
10.85	17.8658		84.4574
14.3683	28.5271		84.3665
16.0139	27.3915		83.2928
21.5065	14.1719		71.7927
17.2772	26.0261		81.9487
17.9243	24.5541		80.536
18.3165	23.0526		79.2207
17.9437	-36.8137		88.174
15.0655	-37.0143		90.1875
18.9898	-39.1788		88.1531
20.3101	-42.1693		87.8933
16.9847	-41.385		90.1905
22.0275	-55.56		80.2903
21.8701	-54.4875		79.7966
20.1188	-55.3797		82.0149
22.5876	-54.2869		83.6191
20.4076	-53.1711		86.5711
21.6384	-51.6477		78.9282
18.3731	-51.1822		81.6592
21.0101	-48.3594		78.5583
12.3135	-37.1961		92.275
9.49658	-37.065		94.3424
12.8739	-39.1648		92.475
13.8345	-41.1861		92.4216
14.5747	-43.2505		92.4718
17.3778	-54.9345		84.3264
15.9423	-53.4726		84.664
15.1702	-50.6653		83.9815
15.2076	-47.1867		82.8227
6.77779	-36.971		96.2586
6.62274	-35.3696		96.378
8.72654	-44.1782		96.2801
12.2006	-44.6961		94.418
18.741	-16.7446		90.4812
16.4893	-14.7001		94.6196
4.32824	-7.69096		108.957
2.31783	-7.24817		109.147
14.0241	-12.5759		99.1773
6.78148	-25.772		109.355
9.33489	-25.6792		105.74
12.0001	-25.7367		101.734
13.1119	-23.6752		102.681
14.3898	-26.1831		97.8476
15.6854	-26.7811		95.3912
16.1428	-27.762		93.5137
16.213	-28.77		92.05
14.3284	-18.9885		103.536
14.0707	-20.2578		103.777
13.7625	-21.8603		103.381
23.5438	-144.721		13.4592
19.0541	-145.484		16.6798
24.3051	-151.103		12.5448
27.6411	-143.767		10.1679
22.638	-135.953		14.7578
21.8447	-123.742		16.4812
25.8029	-123.056		12.7132
21.6652	-113.038		18.0087
17.6912	-124.312		20.2562
25.4118	-98.3929		24.8281
29.1412	-97.4632		19.9055
21.6127	-99.2305		29.3862
23.8802	-101.752		21.1024
22.6242	-106.038		19.2771
18.7448	-106.429		23.8402
26.302	-105.447		15.1108
37.129	-69.5132		70.7129
39.4707	-73.3924		66.4204
34.3292	-65.7944		74.2724
41.495	-77.5992		60.9704
41.9768	-81.581		56.2926
41.637	-84.9653		52.0965
32.0619	-62.7665		76.4677
33.5776	-59.9707		76.3063
30.084	-60.2468		77.8882
29.9758	-65.0423		77.2444
28.6833	-58.8136		78.6736
27.4549	-60.3878		78.9395
32.9047	-96.32		15.4286
35.6023	-93.1273		18.8719
31.3318	-99.8938		12.7074
36.8973	-95.0498		10.4735
39.3659	-90.3547		23.8148
41.9784	-89.0096		17.0804
43.2266	-87.7548		28.5743
46.234	-85.4231		33.0748
48.2721	-84.0516		25.3694
29.6496	-122.195		8.88902
30.4435	-134.118		7.74695
33.4224	-121.674		4.91007
29.4496	-111.855		9.84927
31.376	-142.825		6.7553
32.4065	-149.339		5.80426
34.9186	-141.875		3.0448
30.1138	-104.698		11.0083
69.1453	-37.277		28.4377
67.3305	-42.8853		28.4978
71.0711	-31.2537		28.6803
49.9105	-82.6739		17.9467
47.2733	-85.0464		14.3979
51.3562	-81.1689		10.69
78.1562	8.16391		26.8815
80.4188	5.6847		16.284
58.6819	-69.3463		27.0042
60.0741	-67.6576		18.254
65.6132	-48.4034		28.5747
66.6426	-48.2768		20.7562
73.0609	-24.1614		29.3893
73.8765	-25.5387		21.4202
67.824	-47.5465		13.7579
69.2753	-46.2689		7.43368
46.454	-93.4635		-4.95108
45.4624	-97.9884		-6.30316
48.7392	-93.3245		-9.69726
47.611	-89.5371		-3.26981
43.7552	-93.6928		-0.0991524
44.6306	-103.196		-7.09535
49.1156	-86.0114		-0.885477
46.9445	-86.7419		4.66853
51.0681	-85.4143		-6.5184
50.8024	-82.8138		1.39592
78.8035	-11.9635		11.2197
80.5546	-4.07047		8.75116
76.7069	-19.8858		13.4525
82.1836	4.26056		5.8876
83.5369	12.1341		3.40364
84.7875	20.121		0.291922
85.7099	19.0628		-10.1975
85.8998	28.0261		-3.30104
61.2434	-65.7623		9.95671
62.2427	-64.3048		1.99774
74.7111	-26.553		14.467
75.5773	-27.4423		8.51999
37.2272	-121.085		0.567792
37.6724	-132.498		-0.267029
44.671	-87.8347		10.891
42.3062	-90.7936		7.63365
38.3272	-140.803		-1.13095
39.2034	-146.944		-2.22742
47.4905	-118.714		-16.9083
47.2899	-128.104		-18.1633
50.6628	-93.0129		-14.4322
52.2274	-91.4571		-19.4488
51.7542	-88.7331		-13.382
53.0858	-84.5618		-12.0174
47.2868	-135.162		-19.5894
47.3376	-140.695		-21.4555
62.912	-63.6456		-5.13474
70.6314	-44.9609		3.10017
72.106	-43.251		-0.0625053
69.3827	-48.6442		1.75035
76.3934	-27.6842		4.57595
50.8594	-98.6783		-27.4625
50.4194	-94.3683		-34.1709
52.1064	-92.6693		-26.2889
53.6961	-87.0831		-25.2572
54.3262	-80.7223		-31.2125
59.2685	-71.2614		-21.5522
68.7165	-53.8859		-13.6029
70.5581	-51.2505		-20.1183
44.7612	-124.059		-45.2278
44.2452	-131.671		-46.559
42.0518	-121.023		-52.1682
45.4365	-115.949		-43.771
67.7272	-51.8189		-27.7738
70.6058	-48.49		-26.1193
72.5162	-47.0059		-25.4502
14.4278	-146.035		19.6891
13.7893	-137.249		21.4564
9.78172	-146.509		22.3734
15.182	-152.314		18.3241
14.3436	-106.666		28.8246
9.79318	-106.752		33.296
13.1684	-113.582		26.7596
15.9357	-102.688		30.9044
23.3418	-96.7202		45.7705
20.1095	-97.8308		39.9093
26.2076	-95.8115		50.8773
17.4719	-99.9679		34.4903
12.8488	-100.396		39.4334
13.2296	-124.519		24.1783
8.64251	-125.198		27.7478
27.7117	-67.4507		78.4436
26.5689	-64.2163		79.366
28.2494	-94.9337		54.9975
25.874	-62.0705		79.7546
23.5132	-63.7493		81.567
25.1753	-60.4557		80.0674
24.4984	-59.0691		80.313
22.6656	-60.3933		81.9377
22.5583	-79.7265		81.4048
22.729	-84.1425		79.975
22.4883	-88.672		77.928
18.2276	-57.0666		85.8837
14.8098	-56.7771		89.4578
18.1414	-56.4175		84.502
21.3959	-56.6583		81.5929
18.2535	-56.6314		83.979
14.3418	-55.8245		87.6581
18.2439	-57.0631		83.5973
18.0896	-58.3795		83.0212
14.393	-56.4992		86.4191
17.3275	-61.429		82.6246
16.0042	-65.0048		82.8525
13.7879	-60.4743		85.0105
5.19493	-106.763		36.8782
6.64965	-103.102		39.3402
4.15941	-114.007		34.4259
5.07006	-147.05		24.762
4.60379	-138.427		27.099
0.436599	-147.334		26.7746
5.70933	-152.998		23.1126
4.1962	-125.764		30.8622
-0.306457	-100.153		47.5884
3.11207	-100.527		45.9657
1.02985	-99.633		55.0256
-3.61986	-147.449		28.2125
-3.14731	-153.154		26.495
2.33774	-100.133		63.4906
10.7977	-55.011		90.2746
10.6724	-55.2545		89.4831
10.5859	-55.7842		88.7719
10.8115	-56.9524		87.7805
10.3923	-59.592		86.8972
9.71856	-63.3554		86.3146
83.0824	38.9465		14.101
85.3466	37.0492		3.28758
83.8808	46.4951		9.02289
80.0757	41.7298		24.6098
85.7733	17.8283		-19.9501
72.9306	-28.1667		-49.6097
69.9457	-29.6528		-54.4457
41.4591	-99.6133		-54.8731
43.2268	-89.7058		-53.7486
43.8469	-103.002		-49.4617
40.2422	-109.64		-56.0383
38.8001	-97.0115		-59.714
39.4894	-118.473		-57.3441
39.0686	-126.922		-58.5076
36.6528	-116.45		-61.9819
49.2494	-88.6103		-41.3472
47.4639	-97.8463		-41.9448
47.435	-83.8826		-47.615
51.5673	-80.5563		-39.9039
38.6477	109.416		22.1329
45.2635	105.82		21.8719
38.8122	113.951		6.96008
31.6188	112.217		22.4114
36.2381	98.5617		-78.0492
37.8879	107.141		-62.2421
43.0787	95.7638		-76.1658
34.2265	87.8557		-91.1393
28.9861	100.8		-79.4676
32.4158	76.0847		-100.613
39.0461	73.6865		-98.6255
30.6431	63.0459		-107.748
25.58	77.6252		-102.209
38.7103	112.994		-45.2127
45.6131	109.715		-43.6024
31.4247	115.635		-46.2701
39.0572	116.027		-27.4151
24.2819	121.274		-10.5
16.3593	122.595		-10.6323
24.1224	119.005		6.74478
31.8469	119.175		-10.2057
24.1827	120.862		-28.6152
28.9117	50.2004		-112.625
35.1365	48.1377		-110.594
27.0781	36.8996		-115.868
22.5384	51.6854		-114.075
24.992	23.0266		-117.652
31.157	21.3611		-115.474
22.9316	9.33954		-117.812
18.8421	24.6628		-119.153
16.4788	-28.6211		-106.953
22.1174	-30.0163		-104.814
14.7562	-40.1584		-99.7576
10.9933	-27.8923		-108.102
18.754	-16.2412		-112.738
8.71963	-1.11631		-118.96
2.40126	-0.328447		-119.286
10.4127	11.8892		-120.385
14.8506	-2.23667		-117.948
6.97214	-13.8117		-115.405
7.30435	-86.0576		-82.7625
8.72837	-76.7067		-83.6811
12.3334	-87.4074		-81.4344
6.01425	-95.361		-82.4284
2.42138	-85.0555		-83.5249
-4.6558	-102.693		-83.1105
0.111828	-103.692		-82.8095
-5.626	-112.25		-82.9042
-9.27052	-101.941		-83.2084
-3.46395	-93.1561		-83.4304
13.7737	-49.2806		-93.8389
18.8832	-50.4489		-92.2941
12.3907	-57.3651		-89.4063
8.22389	-48.1759		-94.8392
10.4864	-66.6107		-85.8946
15.8133	-68.3366		-84.1809
5.43427	-65.2267		-86.878
0.292461	-64.3361		-87.3294
1.60919	-55.2012		-90.8715
-1.18072	-74.6524		-84.9996
-4.9272	-63.9137		-87.3855
62.6075	91.5985		18.693
67.816	85.4448		17.3035
63.4913	95.1752		5.19123
57.1822	96.8921		20.1539
57.161	64.5748		-88.6782
62.2518	60.8644		-84.4768
55.4465	52.7524		-95.4152
51.6433	67.863		-92.4708
58.7964	75.3051		-79.5697
60.2435	84.6718		-67.6345
54.9788	88.8906		-70.8503
61.7361	91.5787		-53.59
65.2765	79.6774		-64.0924
63.0074	95.7541		-38.9478
68.1524	89.4834		-37.2376
57.6937	101.056		-40.5125
64.1015	97.1931		-24.1999
64.0378	97.1809		-9.35783
58.4724	102.91		-9.16607
69.2484	90.7198		-9.53082
53.4414	40.8027		-100.284
51.3481	28.3963		-103.505
47.8115	43.3496		-104.179
58.5792	37.9868		-96.0184
48.9502	15.8624		-105.309
54.0577	13.828		-101.013
46.513	3.17017		-105.413
43.4909	17.6154		-109.102
43.7793	-9.07247		-103.978
40.94	-21.67		-100.508
38.6567	-8.14732		-107.58
48.4184	-10.3597		-99.84
38.5588	-34.0181		-94.7579
43.188	-34.2989		-90.9815
36.5578	-44.7469		-88.5115
33.4424	-32.808		-98.6234
34.7009	-54.0305		-82.9709
32.744	-63.2637		-78.2025
29.6911	-53.2339		-86.6317
39.0984	-54.7676		-78.7605
27.1818	-90.9833		-73.5158
25.1983	-100.687		-74.4308
22.3854	-89.9832		-76.866
29.1968	-81.6519		-73.3946
31.4401	-92.4665		-69.5696
14.4646	-106.91		-79.8944
13.6711	-115.673		-80.0892
9.62368	-105.646		-81.3145
15.7553	-97.989		-79.6723
19.3329	-108.391		-77.8206
30.9097	-72.5575		-74.9197
35.3261	-73.4548		-70.4563
26.2792	-71.3551		-78.6144
77.5053	61.8188		-50.9196
79.189	65.5764		-39.5338
80.778	54.6311		-45.2084
75.8894	55.8272		-61.303
73.8353	68.2289		-56.0542
80.4103	67.682		-28.254
83.4165	59.4728		-23.2417
76.8457	75.4477		-32.2605
81.135	68.5625		-17.1257
80.6623	69.3867		-6.39266
82.8383	61.6665		-1.79067
77.624	76.7234		-8.56226
63.0676	35.2112		-91.536
65.0334	46.2518		-86.6273
67.0719	32.0784		-86.7604
60.989	23.5418		-94.7419
66.6498	57.0788		-80.0459
68.1887	66.477		-71.4157
70.6852	52.6966		-75.1794
52.987	-11.6022		-94.9453
56.1629	0.0626919		-96.2709
57.3361	-12.9601		-89.4773
49.8042	-23.3201		-91.8885
58.6556	11.6519		-96.3459
62.9172	9.76839		-91.3089
47.3303	-34.3191		-86.9055
51.3065	-34.7745		-81.8623
45.3179	-45.1979		-80.2798
43.1031	-54.6198		-74.5563
46.8239	-53.4785		-70.5779
39.6674	-74.6556		-64.8811
43.0646	-77.6017		-58.4702
37.4949	-84.3849		-64.1003
83.2618	25.7814		-46.8358
81.6281	19.9872		-54.2478
81.8788	31.4268		-52.4045
72.3817	78.7828		16.5121
73.1787	82.3465		3.63006
86.3738	35.7475		-7.42256
86.3938	43.5251		-12.3544
67.5022	-15.0016		-73.808
64.4458	-14.7096		-78.9045
70.157	-5.81611		-75.1989
70.2782	-15.7048		-68.301
64.3996	-24.5485		-71.0503
72.1461	3.54217		-75.8193
69.4499	5.65603		-81.2197
74.1019	12.4223		-74.3303
74.6565	1.12208		-69.8187
76.0553	21.4291		-70.9737
73.4666	25.2284		-76.5686
78.0324	29.6435		-65.5164
78.261	17.2899		-65.1174
55.4858	-48.7366		-59.9331
52.6393	-50.6183		-63.4422
58.2296	-41.3568		-63.7597
58.3312	-46.9302		-56.1754
52.9304	-56.2574		-56.2557
67.0671	-30.9271		-59.0612
64.1654	-37.9718		-55.8389
64.2755	-32.1905		-63.1774
69.9714	-23.736		-61.3895
45.5682	-80.5608		-52.9163
48.0613	-71.8732		-52.8926
71.9368	-47.2281		-5.50359
73.075	-43.7387		-3.52079
69.7273	-50.1168		-3.29123
73.3043	-42.0151		-2.10269
81.5884	-16.6085		-3.58907
83.2244	-11.3733		-5.64137
95.0435	-6.80378		-38.3554
96.0003	-1.00689		-35.9337
95.6142	-7.27837		-37.6555
79.1264	-45.4428		-25.2102
77.3849	-48.1837		-21.877
96.2816	3.73342		-32.4062
95.3644	4.16016		-32.8952
96.102	6.93036		-28.3082
97.07	2.95859		-31.8578
89.6819	-0.684706		-12.1538
88.3474	-0.543813		-12.8234
95.6172	8.29818		-24.1047
96.4414	7.47983		-23.3745
86.8581	-29.2642		-35.2535
80.246	-46.4703		-17.9106
79.5436	-46.3365		-15.3052
78.2103	-48.3798		-18.3907
84.0371	-8.77592		-7.3269
92.2054	6.91055		-19.775
89.9448	4.00895		-17.1886
90.9794	6.15224		-21.3227
87.0439	-0.110735		-14.2207
86.1877	0.427814		-15.7727
94.6839	4.07445		-33.1212
85.3842	0.270645		-17.1837
86.8547	2.13574		-19.7652
88.5873	3.89743		-23.2615
86.1274	1.98786		-24.3273
84.7804	-37.7357		-28.1998
84.4343	-39.473		-20.7144
76.4456	-49.4165		-18.8558
78.8675	-45.4513		-13.0786
80.526	-42.6702		-13.049
81.9011	-40.3735		-13.9043
82.6704	-38.8359		-14.8164
95.7585	-7.60912		-37.2542
96.9722	-2.04834		-34.9196
94.8245	4.91387		-16.1247
94.9004	4.24901		-15.8316
96.1409	6.4627		-19.1013
94.7826	3.62914		-15.6905
96.1868	5.25119		-18.6265
94.452	2.55638		-15.8751
97.3718	2.36353		-31.5099
97.2822	5.30405		-27.4171
97.4162	1.83639		-31.3847
96.904	6.70617		-22.9046
97.0466	6.07592		-22.7912
96.9802	5.47518		-22.5432
97.2879	4.21993		-27.0769
97.3256	1.45587		-31.0799
94.5935	-11.935		-36.2649
93.9869	1.2668		-16.4283
90.4037	-5.7777		-14.0896
95.7	0.857081		-24.7212
93.6404	-15.049		-31.2319
93.9657	-13.1692		-30.92
94.1632	-11.2924		-30.3286
94.1803	-9.77984		-29.4276
94.0169	-8.53247		-28.1905
93.2602	-7.61211		-25.6884
81.145	-35.0985		-12.6074
82.1309	-36.8151		-14.2357
87.4889	-12.2849		-11.2144
81.3284	-26.8967		-10.692
82.8988	-38.1195		-15.299
40.9143	21.8251		74.0411
49.5031	89.9765		45.3059
50.6394	96.1065		34.2217
23.0619	100.773		48.4833
23.5404	108.081		36.4322
14.5844	102.218		48.5549
51.3336	101.762		21.0723
51.9199	105.89		6.59222
23.8677	114.369		22.5423
15.724	115.786		22.4427
38.9333	116.323		-9.80533
45.847	112.604		-9.4179
52.2669	108.195		-9.30241
52.3911	108.147		-25.556
76.4493	45.4435		34.2374
83.7847	53.9424		3.49416
85.2293	52.4767		-7.10842
73.6568	84.1085		-9.61101
73.725	83.89		-22.4145
23.7688	117.623		-46.8186
22.9727	111.497		-64.2292
15.9226	118.892		-46.973
51.7574	105.897		-41.8376
50.7776	100.622		-58.3798
85.282	51.3967		-17.7823
84.6361	49.9844		-28.5721
72.597	82.9445		-35.2093
71.2464	79.8177		-47.8234
83.2187	47.4758		-39.279
81.627	43.2856		-49.445
79.881	37.401		-58.2084
77.3537	42.7964		-64.119
35.442	-94.8184		-64.7684
33.7408	-104.686		-66.0502
32.8675	-113.994		-67.0087
32.2189	-122.585		-68.1289
28.4292	-111.612		-71.5725
21.6465	102.575		-80.1186
20.0819	91.2122		-93.5056
14.2072	103.611		-80.4988
18.6458	78.8361		-103.12
17.2057	65.7988		-110.085
11.5021	79.7607		-103.422
15.757	52.8876		-114.944
14.1349	39.8457		-118.191
8.56467	53.89		-115.214
12.2791	26.0502		-120.07
5.50018	26.8455		-120.388
20.8905	-3.60212		-116.267
26.8848	-5.23096		-113.924
5.12125	-27.0246		-108.885
3.66761	-39.0285		-100.938
-0.586158	-26.4947		-109.024
2.61465	-47.6363		-95.1106
-2.99749	-47.2033		-95.0749
-2.33188	-84.0114		-83.9284
-7.1394	-83.2327		-84.0577
45.4515	70.9592		-95.9028
47.3268	82.4604		-86.4682
43.5781	58.4677		-102.827
49.1207	92.5577		-73.9217
41.5587	45.9007		-107.706
39.5607	32.9147		-110.887
37.398	19.6192		-112.587
35.2311	6.10096		-112.616
32.9208	-6.77497		-110.966
30.4184	-19.2846		-107.483
27.8532	-31.4125		-102.053
25.6737	-42.4891		-95.6449
24.329	-51.868		-89.8663
23.008	-60.7119		-85.1169
21.1216	-69.849		-81.8106
19.2559	-79.41		-79.9473
17.5267	-88.6545		-79.4543
24.0827	-109.85		-75.0398
23.4076	-118.635		-75.6116
69.6609	74.4421		-60.2844
74.2695	48.2613		-69.6733
72.4744	38.7348		-76.6731
70.4687	29.0014		-81.8446
68.4475	18.4615		-85.083
66.3799	7.8682		-86.4188
64.0921	-3.08271		-85.8582
61.0186	-14.0893		-84.1665
57.8001	-24.6147		-81.2626
54.8167	-34.3424		-77.3115
58.0876	-34.1568		-72.3024
52.176	-43.8913		-72.0271
49.82	-52.0783		-67.0993
50.6182	-64.1094		-53.4581
52.8441	-62.9156		-50.0925
79.9167	13.8351		-59.7021
78.295	6.56966		-62.8433
81.3666	9.80096		-53.7557
72.568	-16.0836		-63.3756
74.8525	-8.38681		-64.2378
61.1873	-33.2884		-67.7647
76.6515	-0.617319		-64.3812
61.2577	-44.928		-52.5242
58.5985	-51.8637		-49.3711
7.8131	-100.697		43.4284
52.936	-79.7573		3.70899
40.5335	-94.2114		5.29271
10.7408	-48.8771		95.243
14.1389	-49.7391		93.0159
17.3152	-51.5159		89.9985
5.13148	-57.2882		96.3385
5.40871	-58.1831		96.4126
5.58688	-59.226		96.3888
20.2895	-65.542		84.6203
19.9867	-63.7814		84.9811
19.6473	-62.1992		85.3835
15.6366	-45.8044		92.0441
35.0265	-56.66		76.4987
28.0455	-36.4537		82.7967
29.4072	-40.7981		82.5861
30.2065	-45.2545		81.9606
58.2152	-44.4699		57.6185
24.4866	18.8861		73.4503
82.6475	5.85284		-47.4287
85.4172	4.00609		-28.5347
85.838	1.93124		-26.2151
67.7602	-52.961		0.141768
30.2703	5.78243		72.4695
62.5374	35.1059		64.1091
6.86251	-33.8955		96.4699
53.4425	12.3986		66.3292
11.2109	-32.0836		93.6731
85.7129	1.73704		-25.1624
46.2395	-107.08		-42.8728
54.8529	-72.7614		-37.9587
54.9788	-66.0576		-43.0562
55.8203	-60.1936		-46.7058
21.8754	-29.5335		84.9585
11.4935	-56.2805		92.2044
22.9953	-56.758		80.3235
3.76435	-52.7907		93.7903
-70.8579	-41.5124		10.9869
-71.2247	-36.6869		12.2457
-71.9392	-39.2674		4.11911
-70.3593	-46.03		9.70111
-69.8457	-43.5646		19.0148
-65.1643	-107.512		-8.78935
-63.4104	-97.536		-8.47076
-67.2142	-106.192		-13.1806
-67.492	-117.633		-9.64719
-62.5152	-108.648		-4.52341
-69.4563	-124.988		-10.6677
-67.2574	-126.962		-6.07516
-71.0214	-123.101		-15.2889
-71.0719	-130.725		-11.682
-56.1807	-92.3189		1.39649
-59.7278	-91.2716		-3.51984
-57.1372	-99.6513		0.441978
-52.5099	-93.713		5.9685
-56.2323	-86.8433		2.52736
-66.3477	-89.1856		-16.4645
-64.7426	-89.7914		-12.2089
-66.0135	-83.9611		-16.0773
-67.2796	-87.877		-21.4631
-67.0975	-95.9292		-16.9237
-66.4456	-61.5532		21.1578
-67.0976	-59.9703		13.4524
-64.9346	-65.3093		18.7791
-65.1476	-63.5725		28.9279
-67.4904	-57.851		23.227
-68.1006	40.027		23.1257
-71.2085	38.6504		11.5838
-68.5154	32.2095		25.9552
-64.2072	42.8579		33.9266
-67.8761	48.1456		18.8898
-71.4302	50.6891		-28.6869
-73.4432	43.387		-24.0328
-71.7986	52.5211		-18.2161
-68.9767	57.562		-33.6844
-71.0479	47.5748		-38.2484
-15.8565	-104.942		40.0948
-15.4654	-100.729		42.536
-18.5697	-104.504		38.851
-17.0856	-112.8		38.3535
-13.6692	-105.219		40.9257
-19.9201	-125.034		34.5115
-22.6473	-137.053		30.4947
-16.9578	-125.517		35.7187
-23.0787	-123.782		32.8992
-17.4675	-146.547		29.6754
-18.554	-151.94		28.1561
-16.1222	-138.411		32.1906
-20.9033	-145.83		29.0988
-68.7753	-46.2549		-33.1725
-68.9945	-38.6197		-37.1933
-66.7549	-52.3526		-35.5517
-68.728	-52.6136		-28.1331
-70.7428	-40.1231		-30.8559
-69.4533	-33.1022		-40.1246
-72.1074	-28.2996		-36.9831
-69.9553	-28.2731		-42.4833
-66.411	-39.0779		-43.4862
-71.3954	-116.288		-31.3431
-72.1574	-119.256		-25.0228
-69.7089	-113.695		-37.9948
-72.3366	-122.813		-33.436
-14.2056	-126.143		36.3727
-12.2837	-113.741		40.1242
-68.7874	-45.4924		27.5631
-68.4597	-50.4016		26.6816
-67.4621	-46.7436		35.1787
-69.1183	-39.8753		27.7949
-67.7419	-58.145		5.78149
-68.8448	-54.1869		7.1512
-68.3049	-57.0319		-2.10497
-66.4426	-61.9273		4.04611
-18.1774	-86.8273		94.5051
-17.6154	-83.1816		95.3546
-22.2259	-85.8977		91.6996
-18.6929	-90.4645		92.3715
-14.427	-87.8772		96.1787
-26.673	-84.4856		87.7389
-26.4101	-80.6043		88.5888
-31.1017	-83.1107		82.7465
-26.837	-88.3712		85.7073
-10.1357	-80.5893		97.6616
-10.5027	-85.0115		97.9117
-9.6516	-76.0372		96.5577
-13.4863	-79.8561		96.7373
-18.8642	-93.5892		89.0708
-15.1862	-94.4992		90.7146
-22.7798	-92.6555		86.2947
-18.9438	-96.0463		83.997
-19.0571	-97.3843		77.4572
-18.6885	-97.6328		70.3903
-15.0352	-98.4009		78.6785
-14.5509	1.12131		82.1849
-11.4212	3.36061		84.0173
-13.4622	4.86768		79.7619
-17.7576	-0.378464		80.3555
-15.799	-2.78168		84.5156
-50.9175	-23.2352		73.949
-51.9997	-27.9563		73.0957
-45.1727	-22.5305		77.7921
-50.021	-18.2926		74.1372
-56.5564	-23.0697		68.4861
-60.6802	-11.7155		62.4579
-61.3042	-17.2269		62.0222
-55.1236	-12.6934		68.9409
-59.6181	-6.24715		62.771
-65.3977	-10.6755		54.287
-68.3008	8.42904		41.1235
-66.3827	10.0869		45.6754
-66.8826	16.4941		40.4756
-69.5809	7.7157		36.0993
-52.602	-32.6889		71.7703
-47.2178	-32.1152		76.6057
-57.5668	-33.0859		65.6004
-52.6896	-37.7898		70.5906
1.44152	1.82157		100.892
-0.516631	1.57344		100.194
0.913598	-2.87161		104.942
1.93774	6.93286		96.4881
-21.7878	75.6656		70.5654
-22.1524	81.1114		66.0917
-27.9367	74.6231		67.4018
-21.1613	69.1953		75.347
-16.0392	76.0163		72.9146
-10.7204	-99.1508		64.5385
-11.2306	-99.3967		72.4163
-13.9366	-98.5121		63.7448
-10.1621	-98.707		56.4262
-65.643	-47.1805		42.324
-66.3004	-40.7969		42.7157
-64.8149	-53.4576		42.0305
-63.2236	-46.9952		49.4459
-11.4561	-95.5327		91.3998
-11.5702	-97.9608		85.9284
-11.1781	-92.591		94.8284
-11.4995	-99.1653		79.3227
-44.7591	-83.5078		59.3063
-45.1012	-80.4651		62.7431
-49.3965	-80.1059		54.3538
-43.8294	-85.6636		56.4401
-40.1416	-86.044		65.1437
-47.307	-84.8564		33.739
-43.0882	-87.4926		38.7605
-50.3543	-82.3639		38.5883
-51.2665	-81.9012		28.543
-44.3354	-87.5133		28.5231
-10.2006	-98.9283		48.7684
-11.0561	-101.077		43.7959
-12.677	-98.6813		47.948
-5.01403	-7.79907		106.174
-2.23907	-7.39412		108.037
-4.02907	-3.65863		102.461
-8.24923	-8.57281		103.051
-5.90741	-11.053		109.116
-28.045	-19.2126		83.7228
-24.0643	-16.5342		85.3434
-25.7645	-14.3858		83.567
-32.3559	-20.8847		82.4542
-36.6963	-52.106		77.822
-34.8031	-52.5329		78.2432
-35.3743	-51.46		78.2105
-14.8952	-27.3563		95.7607
-16.9478	-27.041		93.7385
-14.4369	-28.5043		95.2968
-16.1708	-25.6165		95.7974
-15.204	-31.5588		93.4477
-13.0576	-31.7881		95.2141
-14.9507	-30.6853		93.7072
-17.7342	-31.0457		91.4418
-15.8458	-32.7711		93.1702
-3.30259	-32.0154		103.551
-5.22457	-31.4308		102.722
-3.709	-33.1432		102.024
-3.0268	-30.7266		105.642
-20.313	-29.7872		89.5291
-21.0083	-31.1064		89.3062
-19.7409	-28.8565		89.996
-22.4763	-27.7557		87.9428
-7.38593	-19.7547		112.259
-7.28417	-18.0762		112.687
-10.5125	-19.1523		107.986
-7.4243	-21.8304		111.13
-4.45059	-20.6323		114.896
-32.1587	-65.5462		81.7975
-33.2986	-69.0588		81.0296
-28.494	-67.2839		85.2929
-30.9678	-62.6201		82.5881
-35.261	-63.3245		78.9314
-34.8209	-46.2651		81.5315
-36.7484	-46.7756		80.1813
-32.5505	-45.7243		83.4129
-33.7104	-42.5423		83.4978
-4.80845	-36.992		99.4068
-4.38792	-35.475		100.118
-6.73843	-36.2232		99.0895
-5.1799	-38.4489		98.9785
-3.14362	0.839189		98.6423
-2.71913	5.32856		94.5421
-6.43477	-0.580724		96.081
-20.0817	-18.2327		91.7324
-20.461	-17.6291		90.3847
-20.5786	-19.6477		90.9102
-19.1769	-17.7176		93.8393
-18.8076	-16.7586		93.8719
-7.58698	-32.6156		99.6397
-5.9697	-33.392		100.458
-7.36308	-31.643		100.354
-9.22858	-32.2959		98.3973
-7.70899	-34.1562		99.0595
-6.91463	-30.7986		101.567
-6.56095	-29.7143		103.325
-18.001	-16.9693		95.8812
-18.8117	-18.5237		94.9603
-17.5461	-16.128		96.1246
-20.8849	-22.3446		90.1557
-20.5214	-25.0919		90.0135
-19.9066	-21.2329		92.3634
-6.11722	-42.8374		98.7982
-5.82726	-41.074		98.6841
-8.66615	-42.0751		98.5473
-6.61647	-44.4738		99.0062
-27.5356	-31.6884		85.9955
-25.5177	-28.2976		86.2355
-29.9732	-31.2752		84.8808
-29.8083	-34.9772		85.6329
-25.0455	-32.3175		87.3978
-16.0051	-65.2614		93.3084
-20.0638	-64.6111		91.4381
-16.4554	-67.2934		93.0404
-11.9086	-65.8447		94.5585
-15.5107	-63.6423		93.831
-30.3664	-48.5232		84.0183
-29.9249	-46.9632		85.3592
-33.0674	-49.5564		80.5404
-30.895	-49.1491		83.085
-17.2047	-15.5117		95.9863
-15.3028	-14.7121		98.7021
-17.2978	-14.7167		94.5513
-23.7449	-63.8399		89.0469
-23.2188	-62.2054		89.6409
-26.8815	-62.3847		86.4456
-24.1687	-65.7785		88.693
-8.33312	-66.2105		95.1329
-8.13891	-64.8403		95.4963
-8.61155	-68.236		94.9958
-57.7563	35.4055		56.083
-58.3443	36.8196		54.0956
-60.1861	29.5841		51.5999
-56.9448	34.242		57.9232
-34.342	61.2973		70.5236
-34.4245	67.3539		66.8568
-41.165	59.0302		65.3345
-34.3785	55.7539		73.5718
-28.0911	62.6455		75.097
-48.0416	56.1164		59.2567
-48.2159	61.9254		55.133
-54.245	52.3785		52.1098
-47.9952	51.0819		62.8984
-35.8261	47.4151		75.741
-35.0807	50.1378		75.4803
-36.7616	44.4313		75.5481
-30.253	48.6106		80.1743
-59.3192	38.4064		50.7181
-62.5944	32.0393		44.6925
-54.2271	44.0136		58.7097
-59.6707	41.6952		47.537
-18.6138	35.7309		80.2251
-15.0944	34.0923		80.5491
-17.763	37.2836		81.2018
-22.8356	36.8804		79.4724
-19.7362	33.8646		78.834
-2.15428	15.252		86.2646
-2.39527	12.8746		87.7646
0.814236	16.6814		87.8334
-2.05384	17.1786		85.1932
-5.0812	13.1365		83.9716
-30.4283	-3.73529		77.174
-24.1975	-2.92956		78.6059
-28.1718	-0.301266		76.2813
-38.1035	-3.57297		75.312
-32.756	-7.76454		78.329
-59.3995	13.0059		55.6492
-57.4733	9.42155		59.3015
-57.0304	14.3604		57.7225
-59.7027	17.3879		53.9125
-61.5163	11.8114		53.5365
-2.46653	9.50527		90.688
0.330521	10.8845		91.9906
-5.47221	7.50272		88.7655
-37.639	42.0778		75.2031
-37.8701	39.9747		74.9485
-31.7526	43.1072		79.1126
-43.4404	41.6521		71.7237
-48.7403	40.4995		67.8363
-53.0455	37.2396		63.6966
-48.3916	38.4117		68.3613
-55.4756	21.989		58.3169
-57.1018	22.1419		56.5358
-55.6008	18.5509		58.1582
-53.718	21.8225		59.9973
-54.7786	25.987		59.784
-43.0703	25.7857		69.3007
-41.0611	26.6776		70.8215
-44.9491	24.524		67.5396
-38.8196	27.3515		72.0396
-36.1462	27.6758		72.9481
-38.7551	28.3109		72.4276
-41.2757	27.6369		71.12
-35.7932	28.6364		73.3478
-33.128	27.7316		73.4616
-30.1307	27.1907		73.6133
-32.6502	28.5708		73.8185
-29.4242	27.9146		73.91
-27.2972	26.1113		73.5141
-24.7347	24.5341		73.2325
-22.1139	22.4919		72.6514
-19.7572	20.3823		71.935
-20.6163	22.9972		72.8542
-23.4177	24.9946		73.4434
-18.2107	20.8078		72.209
-18.2498	18.5869		71.3522
-19.0207	23.3225		73.1697
-22.0795	25.6235		73.8263
-32.1647	29.5162		74.2317
-28.6563	28.7724		74.3454
-49.4459	20.0715		63.2106
-48.484	19.0134		64.002
-27.611	37.4501		78.5679
-28.3072	35.5014		77.4297
-27.0655	39.4998		79.548
-32.8274	37.5298		77.0516
-46.3252	31.7382		69.2422
-45.2185	29.7162		69.5466
-42.8818	32.7519		71.6508
-47.2237	34.0795		68.9998
-38.6453	10.139		71.9767
-31.2124	9.05213		73.7515
-44.5024	11.8634		69.0084
-39.1993	8.6313		71.9677
-24.9123	9.25321		73.8692
-24.872	7.62542		74.1972
-20.5836	10.0309		73.4566
-15.9662	13.1076		72.6825
-17.0138	12.0051		72.9547
-15.3465	13.9917		72.4901
-37.6121	13.0295		71.9874
-31.3403	12.1394		73.4224
-42.9075	14.8241		69.3858
-19.7513	13.4747		71.8481
-18.727	13.9467		71.5245
-21.7605	12.816		72.4342
-17.8949	14.3402		71.4105
-17.1138	14.8977		71.4059
-10.4424	22.1263		76.1602
-9.15344	24.2597		77.9314
-12.2079	24.5764		76.1905
-12.0937	19.9325		74.2141
-14.7682	15.4555		72.4122
-25.2125	27.4358		74.1967
-13.284	19.1404		73.2462
-14.5539	21.2026		73.3441
-12.8803	17.3996		73.303
-37.3971	14.3375		71.9598
-31.2024	13.3971		73.3172
-19.9392	14.403		71.2692
-21.7944	14.0771		71.8793
-18.9539	14.5756		71.0719
-18.363	14.8973		70.9049
-46.3759	23.2229		65.8258
2.59131	31.1992		85.4564
2.30435	34.57		85.678
-0.317152	31.1563		84.8282
3.10859	28.1591		85.4575
-17.7368	4.40187		76.6529
-21.152	3.33905		76.0514
-18.865	1.90981		77.8061
-15.3078	5.70838		77.2781
-17.1946	6.31405		75.759
-12.792	7.3002		78.2839
-10.3093	9.23187		79.6232
-12.6941	12.377		74.9425
-12.8505	14.0653		74.0511
-10.6064	13.1176		76.4761
-5.97559	20.8145		79.7149
-5.05489	21.8495		80.7786
-6.83357	23.1494		79.3417
-18.1947	10.992		73.2205
-17.4465	9.66188		74.0183
-17.0553	8.05489		74.8752
-20.0693	6.8393		74.6841
-26.6775	-51.5315		83.2543
-22.9672	-51.3616		86.6347
-29.9638	-51.4694		80.1002
-26.5805	-51.4642		82.9657
-31.7222	-51.4628		78.7555
-31.4042	-51.3974		78.7647
-7.28557	-47.7449		98.9542
-7.37594	-48.971		98.6034
-7.07997	-46.5027		99.1233
-10.1335	-47.1686		98.5006
-13.0357	-49.179		96.7186
-15.9588	-48.6557		95.5935
-12.9955	-50.0093		96.0531
-10.4071	-49.4626		97.5639
-12.9265	-48.0883		97.3286
-19.0044	-48.4044		93.8442
-22.2803	-48.7717		91.2762
-19.0907	-49.4794		92.8642
-18.8922	-47.4237		94.4883
-12.6764	-46.8427		97.8041
-12.428	-45.5809		98.0956
-15.506	-46.5954		96.6795
-17.211	-44.6133		95.9494
-18.172	-45.469		95.4298
-14.1724	-44.665		97.4599
-16.5684	-43.6215		96.1754
-26.0227	-49.7914		87.1287
-25.6636	-48.6742		88.6891
-12.601	-50.8047		95.2218
-15.9833	-50.4313		93.7246
-12.2679	-51.2438		94.4394
-9.71412	-51.1338		96.1284
-19.5167	-50.4439		91.3673
-19.5179	-50.9877		90.2884
-32.478	-50.2572		80.3345
-33.7785	-51.3942		78.5851
-26.992	-52.4595		83.8344
-27.0318	-52.6292		84.1551
-23.1937	-52.5958		87.6249
-26.9588	-52.4032		83.5658
-27.5408	-53.721		84.6992
-24.0608	-54.3598		88.7905
-27.3498	-53.3139		84.6036
-20.8959	-54.9304		91.7555
-21.3653	-55.6584		91.6537
-17.4333	-55.3412		94.2239
-20.6343	-54.2507		91.5904
-12.7679	-54.0886		95.6432
-9.57399	-54.4517		96.5363
-12.5262	-53.2786		95.146
-16.6399	-53.6892		93.8249
-13.0807	-54.9363		95.9838
-7.341	-56.9373		97.5895
-7.13244	-55.8914		97.3442
-10.0313	-56.3636		97.1812
-7.53169	-57.9935		97.6906
-32.0463	-52.8595		77.9956
-31.9238	-52.2971		78.6221
-30.2151	-53.035		79.6589
-31.9594	-54.2295		77.3857
-6.61955	-53.969		92.5496
-6.57344	-53.3266		93.8452
-6.65025	-55.1237		91.4049
-9.11897	-53.8143		92.1099
-7.68045	-59.0927		97.654
-10.4555	-58.3876		97.2732
-7.82204	-60.1236		97.4784
-8.02754	-63.4502		96.0778
-7.97484	-62.1398		96.7136
-11.0814	-62.6987		95.7396
-12.0145	-44.7847		98.2151
-9.6355	-44.8798		98.7676
-11.1389	-43.5753		98.3248
-6.97102	-54.8246		96.9282
-6.75968	-53.9344		96.4123
-6.62065	-53.4895		95.9936
-6.65237	-53.2535		95.5533
-9.21433	-53.2123		95.6551
-12.399	-52.8736		94.733
-12.3113	-52.6926		94.3407
-16.111	-52.5678		93.0418
-6.67753	-53.1518		94.8634
-9.10629	-52.938		94.4985
-19.6979	-52.5053		90.6115
-19.917	-52.8151		90.9263
-19.6251	-52.3754		90.2155
-22.2192	-58.3408		91.1787
-22.5281	-59.3524		90.7577
-18.8702	-58.9443		93.5031
-21.9677	-57.4266		91.4249
-14.5625	-59.4506		95.6746
-14.8574	-60.5238		95.1824
-10.7285	-60.275		96.8651
-14.2522	-58.5608		96.002
-7.90173	-61.1004		97.1715
-19.4157	-51.1589		89.5287
-19.2712	-51.0821		88.8932
-15.7791	-51.1016		91.9324
-31.9113	-52.0477		79.2853
-30.2586	-52.4716		80.8819
-12.277	-53.5904		91.2534
-12.1553	-52.9006		92.5318
-12.5057	-54.6975		90.1519
-15.8781	-53.3343		89.8338
-12.181	-52.6586		93.6219
-15.8437	-52.4116		91.982
-15.0896	-61.951		94.5547
-19.3761	-61.3787		92.5151
-21.6375	-56.5112		91.6205
-18.2891	-57.1066		94.0272
-22.8472	-60.7143		90.2201
-25.8115	-59.4109		87.6555
-18.9418	-50.7711		88.5051
-22.1968	-50.9658		86.201
-18.2814	-49.6872		87.8491
-15.6176	-50.5818		90.2351
-12.2118	-50.7623		91.5649
-12.0642	-51.244		92.6223
-12.6542	-49.5518		90.1239
-9.47166	-50.8928		92.0896
-17.4077	-47.2392		86.8632
-20.0829	-47.3249		85.3944
-16.8133	-43.9795		85.9152
-14.8459	-47.1798		87.9626
-31.6334	-57.3613		76.9681
-29.7589	-57.4379		78.8198
-30.7196	-60.8986		77.4038
-6.65454	-57.394		90.2895
-7.08956	-60.7301		89.5154
-9.17058	-57.1787		89.9321
-12.355	-47.2219		88.7372
-11.6861	-44.0452		87.6721
-9.7656	-47.3172		89.2633
-12.4291	-56.9774		89.0878
-12.6894	-60.4884		88.1131
-16.0617	-56.8875		87.6966
-34.3288	-52.3955		72.6487
-34.3482	-52.5841		72.4232
-8.03204	14.3931		78.7181
-7.66363	12.8935		80.2123
-78.3671	0.0565443		-43.5634
-79.8857	-0.310725		-41.8632
-78.5787	4.74234		-43.5226
-76.4873	0.522814		-46.8601
-78.0367	-4.45528		-42.8578
-76.7303	18.1702		-6.82706
-75.6301	20.1727		-2.02453
-76.809	21.1987		-10.9419
-76.6498	23.4268		-16.0385
-77.1746	23.1191		-22.9447
-77.5054	18.3955		-17.1385
-75.8489	28.954		-17.2328
-74.424	-25.1181		-34.6558
-75.2934	-21.0617		-36.4094
-73.7209	-29.4508		-32.1622
-76.6342	-22.6283		-33.0087
-76.0087	-17.2467		-38.4121
-78.1378	-15.8467		-36.553
-76.8111	-13.1114		-40.171
-73.6218	-19.4551		-41.2541
-81.3544	-0.107455		-40.9632
-81.2796	4.94975		-41.1203
-81.1258	-4.36105		-40.0964
-82.8354	0.576592		-40.5838
-82.8029	-16.6498		-33.3955
-83.902	-17.6792		-32.3036
-81.3833	-15.1748		-34.7977
-84.7389	-18.4098		-31.2804
-85.5405	-14.1896		-33.283
-83.8385	-22.6057		-28.8426
-85.4831	-18.7866		-30.0722
-88.4375	-8.07362		-31.2798
-89.3927	-3.32893		-34.3135
-88.3746	-7.52666		-30.5158
-79.1606	-31.9578		-20.8696
-79.4563	-30.1739		-23.8544
-78.28	-31.1123		-22.9431
-78.7409	-32.7215		-18.8967
-79.6269	-32.1584		-20.1723
-80.2444	-24.8163		-8.70418
-79.9703	-25.4146		-8.68616
-79.4228	-26.6831		-8.96738
-88.2847	-7.16647		-30.1128
-87.8185	-7.8423		-29.1841
-89.9479	7.93252		-33.7836
-89.9588	8.61027		-35.2826
-89.9466	6.57429		-32.1554
-89.3381	18.231		-31.3061
-89.4898	19.6323		-31.4062
-89.438	21.7438		-30.382
-88.9401	23.7581		-27.3269
-89.5738	22.2391		-30.7712
-88.9062	21.4641		-28.1954
-81.0102	-1.31441		-8.73676
-81.9293	4.41162		-9.26007
-80.3186	-5.56142		-8.20638
-80.4442	-0.647942		-7.43114
-76.727	-18.4285		-1.98179
-76.9843	-14.0093		-1.45211
-76.4647	-22.2824		-2.47236
-75.7622	-19.0601		0.714017
-80.3895	-12.7612		-10.7739
-80.249	-10.7556		-10.8893
-80.8769	-14.7673		-11.3016
-77.5461	17.8806		-17.1174
-77.5832	17.8821		-16.9147
-77.767	19.2633		-20.5312
-85.0686	26.5305		-17.5598
-85.8208	28.3583		-20.6106
-85.9048	25.8922		-16.5827
-83.9395	23.1951		-14.684
-84.169	26.8565		-18.7177
-85.229	29.0237		-25.5599
-84.5272	28.6712		-22.6319
-84.4948	27.8726		-26.9398
-85.7651	27.8291		-29.1657
-85.5004	29.1906		-25.0574
-87.2593	13.7522		-39.7312
-88.2982	14.1148		-39.1918
-87.0725	19.7873		-36.8724
-86.5077	13.183		-39.9211
-82.5533	9.23319		-9.79701
-82.9191	8.00159		-10.4528
-90.1329	13.4018		-36.7034
-90.1434	18.6008		-34.4624
-90.1912	13.3162		-37.0633
-90.0621	10.5416		-36.9034
-88.3827	24.5548		-23.4137
-87.547	23.8493		-19.4908
-88.3997	25.5629		-22.8047
-88.2802	23.1674		-24.1392
-83.9384	10.2313		-12.5246
-84.3204	12.673		-13.2122
-83.5186	8.36063		-11.9732
-89.6317	14.0026		-34.0313
-89.8965	11.9657		-35.875
-82.5285	3.13854		-13.801
-82.9319	4.82503		-12.7009
-82.6653	3.44919		-14.4957
-87.1751	4.78636		-27.5363
-88.9614	7.714		-29.3886
-87.1461	3.66796		-27.6984
-86.8806	5.19435		-26.9206
-77.2708	-9.92155		-1.43928
-76.4254	-10.3009		1.05645
-77.7535	-5.16797		-2.21066
-81.0609	10.2318		-39.6379
-81.8234	12.8653		-38.6821
-80.5332	14.8865		-37.5253
-79.9679	9.54025		-40.7796
-83.7487	18.1289		-35.9776
-84.2235	14.0766		-38.8668
-85.6776	23.0795		-34.0502
-83.2141	21.8723		-32.7819
-85.5479	12.0715		-39.9081
-84.8798	6.388		-40.7266
-84.9013	1.29623		-40.3955
-79.8451	-15.0248		-35.6863
-80.4262	-11.655		-37.318
-79.1027	-18.3043		-33.9202
-80.828	-8.15078		-38.8557
-79.1846	-8.55813		-39.8882
-87.236	-7.87426		-28.1829
-78.32	-21.3828		-32.2646
-77.476	-25.1878		-30.0003
-78.4608	-32.4949		-16.1178
-77.978	-32.8095		-15.9743
-77.4245	-33.0772		-15.6745
-77.3403	-32.6608		-21.0237
-87.4167	2.9493		-28.1723
-89.2344	4.60494		-30.3114
-79.8078	-0.127001		-6.33912
-79.0508	0.163704		-5.11783
-78.3632	-14.2268		-4.94206
-78.7079	-14.3422		-5.60047
-81.7014	-18.2384		-11.0447
-81.8012	-17.0765		-11.8843
-82.8689	-20.1156		-12.5669
-79.9093	-8.69617		-7.7484
-80.3727	-8.73119		-9.91219
-82.7849	23.6425		-29.6221
-81.826	24.1291		-26.3283
-80.7264	19.6656		-32.4251
-79.9258	18.0086		-34.241
-79.1322	20.0462		-30.0201
-79.5223	17.6703		-35.3359
-88.8302	15.0467		-29.0356
-88.7868	13.5006		-28.7072
-83.0393	4.23666		-15.9067
-83.9387	5.64138		-18.5116
-86.7817	6.03234		-26.4206
-86.2148	6.00014		-25.0631
-88.2334	9.89662		-27.5589
5.16761	88.3079		65.8223
5.42194	95.255		58.4687
-3.03219	88.4288		65.3974
4.79411	81.5054		71.6226
4.76507	74.735		76.292
-3.22272	75.4932		75.6253
4.67503	67.4559		80.1925
-21.761	63.168		78.4307
-15.9194	62.7131		80.6375
-22.5078	57.5609		81.0294
-2.57846	-29.3196		108.24
-4.80203	-28.9122		106.77
-2.43087	-27.6024		110.744
-1.27211	-17.7121		116.572
-1.46811	-19.4684		116.698
-1.10822	-15.7295		115.853
-4.09214	-17.2573		115.258
-1.7089	-21.2831		116.25
-1.96448	-23.2084		115.18
-4.07666	-34.2332		100.954
-5.53868	-39.9313		98.7256
-7.73848	-39.0028		98.5328
-2.21284	-25.3482		113.31
-4.72711	-24.9749		111.69
-0.796314	-13.623		114.581
-0.420626	-10.8357		112.285
-3.55354	-13.4684		113.376
1.96951	47.6261		86.0847
2.64026	52.4301		85.4072
-4.57852	49.2279		85.3491
1.46397	43.72		86.1896
3.05483	17.2214		88.4431
3.30747	19.2556		87.4102
2.71855	14.834		89.9425
3.49403	21.1939		86.6475
3.5079	23.2562		86.0672
1.20233	20.6073		86.1187
-6.79642	-51.0053		92.2705
-6.54972	-51.8094		93.7832
-7.03035	-49.7513		90.9786
-6.57085	-52.0184		94.8981
-6.67144	-51.9041		95.7383
-8.98657	-51.7469		94.5249
-7.44802	-49.9398		98.1098
-7.33469	-50.7796		97.458
-6.98878	-51.4216		96.7165
-6.95469	-45.5609		99.1115
-6.88357	-47.4635		89.5605
-6.35748	-44.3267		88.315
-9.87863	88.1521		64.5121
-9.89311	94.5042		57.5407
-16.2877	87.3688		63.1913
-10.002	82.1092		69.9227
-10.5022	51.4989		84.604
-10.2187	55.0548		84.1602
-16.5565	53.364		83.5526
-11.5408	47.129		84.5288
-13.4102	43.8487		83.89
-15.7262	40.7943		82.8585
-18.937	45.6051		82.9583
-16.9579	38.9152		82.0488
-21.4456	40.4232		81.2769
-12.7721	36.9713		82.5807
-24.0138	28.2003		74.7328
-27.8524	29.6751		74.8277
-20.483	26.3057		74.3986
-22.8976	29.5831		75.6231
-26.292	26.712		73.7938
-21.3325	31.3155		76.9706
-17.7659	29.6264		76.9773
-25.4028	32.6522		76.6711
-35.1525	92.9284		40.8233
-35.3694	87.6216		48.1698
-28.8277	95.8775		43.5764
-35.5004	97.9966		30.7658
-22.2071	86.3915		61.1088
-28.517	84.8626		58.1046
-22.4217	91.9623		54.658
-22.7139	54.5059		81.9215
-28.5799	53.8534		80.1182
-23.3691	50.5337		82.2635
-26.5967	41.6642		80.4396
-25.6021	44.1085		81.249
-24.241	47.3811		81.9961
-29.3427	33.3439		76.2971
-34.1629	33.2999		75.2137
-30.7896	31.6961		75.275
-35.254	82.7733		53.8963
-35.0289	77.9435		58.6899
-41.9696	80.3388		48.4927
-34.6884	52.4712		74.875
-40.9223	50.6962		70.3431
-39.0281	30.2171		72.967
-42.1238	29.518		71.3868
-35.4209	30.5723		74.101
-38.8636	31.5222		73.3294
-38.3078	37.6942		74.5565
-43.6108	37.6106		71.7971
-38.4504	35.3735		74.1341
-38.7154	33.2036		73.7115
-34.6563	72.8624		62.9614
-41.6718	70.3867		57.5109
-48.0353	78.1918		41.6375
-53.1507	76.2146		33.56
-48.1615	73.0408		46.632
-43.4127	26.6352		69.5192
-45.3197	25.2363		67.6758
-44.7144	28.3864		69.4733
-46.5746	26.7669		67.5991
-43.8744	27.4512		69.6265
-47.9068	36.4022		68.7344
-51.2951	33.5073		65.3852
-12.2704	31.7012		80.302
-11.0729	33.1231		81.5634
-13.4201	29.8765		78.7393
-10.1415	28.9619		79.7702
-9.47979	34.4585		82.7035
-7.61449	31.6925		82.3735
-14.7072	27.2844		76.6068
-16.1668	25.4565		74.9932
1.45693	39.5		85.9787
-68.6852	-57.5358		-9.7248
-68.9185	-57.6695		-16.0958
-69.8402	-52.4988		-7.88108
-74.5836	31.8678		-37.2386
-76.3845	26.2186		-32.2052
-74.8675	34.1756		-29.1773
-72.8312	37.4272		-41.8662
-74.6189	27.9631		-42.89
-74.0463	0.649314		-52.6304
-74.4413	6.58939		-52.6092
-71.8333	0.317365		-58.1535
-73.6468	-5.4772		-51.1922
-74.4551	12.8689		-52.1845
-76.7307	10.9464		-46.0502
-74.513	18.4492		-50.3009
-72.2673	14.4735		-58.5511
-70.5499	-23.3757		-45.3249
-71.7117	-17.4154		-47.6556
-67.7691	-26.9884		-49.1677
3.45205	59.5914		83.3943
-3.23522	60.6284		82.9176
-9.75718	61.7886		81.9443
-10.0517	69.3369		78.4888
-27.111	-94.7078		56.2709
-21.6381	-96.4396		60.3653
-33.1508	-92.2758		50.0994
-24.8965	-95.5397		48.6967
-52.5549	-80.1225		42.6058
-53.5261	-78.1873		46.2797
-56.5673	-76.3526		37.4215
-47.4976	-84.1088		47.6572
-48.3313	67.5049		50.9026
-54.079	64.4329		43.4438
-9.97188	75.9911		74.4607
-58.0156	74.1811		24.0047
-58.8144	67.7519		29.5677
-61.8971	72.3883		14.1102
-9.53727	101.763		47.745
-2.27438	102.568		48.3358
-8.97371	108.661		35.9385
-16.2185	100.24		47.0179
-59.8598	47.1773		43.3116
-59.5678	54.2229		39.1436
-48.1086	24.9441		65.6094
-56.113	32.9943		59.3534
-54.9471	31.5766		60.8387
-57.7125	27.7562		56.2238
-53.6411	30.15		62.1408
-11.5077	-105.592		41.4656
-62.5293	-66.4686		37.6084
-61.4819	-69.8726		34.101
-58.3706	-70.9067		44.8824
-63.2097	-63.0292		40.0978
-10.4703	-41.8863		98.2041
-9.86668	-40.1583		98.1285
-12.3688	-41.92		97.6595
-29.1122	-44.8218		86.4563
-25.9289	-43.507		89.6603
-27.8859	-41.1982		87.804
-13.5082	-38.3833		96.3992
-12.6288	-36.7924		96.4406
-16.4284	-38.1772		94.7204
-14.366	-40.0239		96.3867
-10.9906	-38.6164		97.585
-38.3598	-47.1125		79.2366
-37.8426	-43.6539		80.7332
-40.2698	-48.0968		77.8341
-38.3159	-50.3255		77.8967
-62.3036	23.0956		48.5023
-63.6269	23.8439		45.3551
-63.5856	16.7329		48.1871
-60.7183	22.6569		51.4762
-64.9828	24.7937		41.4144
-66.7919	24.955		35.8347
-51.9183	21.6928		61.5325
-52.2691	19.6374		61.0168
-59.1157	22.2046		53.9763
-78.235	18.2785		-37.3065
-78.1395	20.7887		-33.3692
-76.5802	20.2116		-41.2802
-78.4261	14.5199		-40.4959
-77.3953	-8.96838		-41.8096
-75.3864	-9.66874		-44.9275
-71.9018	-44.3393		-18.0663
-72.2589	-40.7912		-23.814
-70.3491	-49.9247		-20.6088
-71.4487	-46.5784		-11.9618
-73.3419	-39.9912		-15.7206
-78.5633	9.81724		-42.5207
-74.7636	-20.1239		3.82447
-73.6262	-21.2072		8.13337
-75.1582	-15.5837		4.18195
-74.3535	-24.4313		3.24961
-71.14	6.97514		28.4598
-72.7525	5.81624		19.7124
-71.3219	-1.15643		29.5263
-70.4672	15.4676		27.3752
-55.2885	15.4574		59.0276
-53.7664	13.0608		61.255
-53.6451	16.7033		60.1717
-52.284	17.7743		61.1322
-51.035	16.2606		62.5436
-72.3123	-21.9078		14.3776
