1815
-73.3646	-56.4814		25.3972
-73.125	-53.8631		34.6198
-75.8194	-49.2866		28.238
-61.4634	46.8819		19.1556
-65.3021	44.9632		7.84036
-63.1769	39.5759		22.7385
-56.2414	49.9224		29.5245
-60.0639	54.4567		14.0875
-64.2746	53.2594		-33.5903
-67.2535	46.7335		-28.1833
-64.2276	56.0204		-23.3186
-60.9751	59.2915		-39.2942
-64.4402	49.3144		-42.829
-29.8988	-101.831		49.571
-29.2854	-98.1644		51.8079
-32.8834	-101.105		48.3321
-31.3602	-109.568		47.9337
-27.3423	-102.48		50.3358
-34.6338	-121.145		45.0596
-37.9737	-132.6		42.0766
-31.5896	-121.974		46.0399
-37.844	-119.54		43.7048
-33.3134	-142.495		41.6305
-34.7799	-147.664		40.5435
-31.4057	-134.657		43.4518
-36.7405	-141.414		41.1618
-75.2636	-42.5027		-27.9754
-74.4437	-35.3811		-32.9015
-73.8939	-48.8544		-29.6463
-76.1316	-48.2558		-22.1492
-76.6056	-36.1252		-26.3851
-74.0976	-30.1881		-36.4563
-76.2346	-24.9268		-33.8469
-73.9203	-25.6114		-39.3503
-71.7224	-36.6567		-39.1687
-84.868	-110.457		-18.9319
-85.9331	-112.706		-12.2387
-82.9061	-108.723		-25.975
-86.3064	-117.064		-20.7799
-28.7609	-122.914		46.5281
-26.2095	-111.146		49.3402
-77.246	-37.0068		31.0104
-76.9426	-41.9374		30.5746
-75.3803	-37.0402		38.9278
-77.401	-31.2516		30.7123
-76.4303	-51.0194		11.8162
-77.4395	-47.1378		12.5171
-76.8696	-50.5258		4.08643
-75.2916	-54.78		10.816
-26.4475	-86.2917		88.1617
-25.6484	-81.8944		90.1556
-29.8323	-84.6963		86.7528
-26.811	-89.9609		85.7566
-22.8737	-87.575		89.3585
-33.2303	-82.1642		85.136
-32.5079	-77.7988		86.8793
-36.904	-79.3271		82.7458
-33.4571	-86.306		83.0233
-18.6554	-79.6842		93.235
-19.2529	-84.1863		91.9723
-18.0312	-75.2701		94.1689
-21.6067	-78.5657		92.6139
-26.8796	-92.1463		83.3907
-23.757	-93.0567		84.4442
-30.1534	-90.847		82.2424
-27.2507	-93.3363		80.5669
-27.7914	-93.8832		76.919
-28.3026	-93.8899		72.4425
-24.5144	-94.9798		77.4242
-10.3228	7.04831		77.5284
-7.17268	8.17833		78.1851
-9.36873	10.5047		75.607
-13.3575	6.34717		76.7639
-11.5016	3.57162		79.5355
-50.2065	-11.4944		74.306
-52.0781	-16.518		74.1993
-44.0368	-11.3658		77.2738
-48.4156	-6.39007		74.018
-56.2446	-11.3654		69.8491
-58.143	0.189955		64.0864
-60.2478	-5.50749		63.9538
-52.3733	-0.626593		69.658
-55.6519	5.65698		64.1103
-63.7628	0.86088		56.3879
-65.4714	18.8124		40.1738
-62.0941	20.9664		44.7435
-62.842	25.9611		38.5383
-67.98	17.3068		34.9639
-53.4846	-21.7267		73.7661
-47.406	-21.7448		77.8595
-59.3809	-22.2716		68.4174
-54.382	-27.5457		73.5862
5.58071	4.10569		86.6303
3.46893	4.16213		86.3505
5.19693	0.753958		90.3235
6.07821	8.17566		82.8947
-8.61389	82.0831		58.3595
-8.57599	87.0138		53.883
-14.6383	81.311		55.9306
-8.55795	76.196		63.112
-3.10203	82.1399		60.1746
-21.9248	-96.1222		68.0539
-21.5098	-96.0634		73.2803
-24.9424	-95.2657		67.4869
-22.5898	-96.3521		62.233
-72.8557	-36.6773		46.4285
-72.9327	-30.5317		46.4619
-72.2714	-42.9402		46.5781
-69.5939	-36.2575		53.7128
-20.8438	-93.8616		85.1213
-21.2653	-95.2049		81.6901
-20.4423	-91.9284		87.5963
-21.4618	-95.8314		77.877
-51.1546	-74.1471		65.767
-51.0769	-71.2272		68.5326
-55.8537	-70.0007		61.1659
-50.5525	-76.7694		63.2741
-46.399	-78.1811		70.5733
-56.4365	-76.5482		43.5805
-52.1686	-79.7969		48.2554
-58.3111	-73.3464		46.9696
-60.5476	-73.2043		38.4233
-54.9209	-79.7432		39.8938
-23.3154	-97.3337		56.4514
-24.2385	-99.3194		52.9651
-25.926	-96.7415		55.8701
-0.6647	-1.41994		91.697
2.2253	-1.36649		92.5715
0.0481167	0.909208		89.02
-3.94177	-1.83797		90.4241
-1.14132	-3.05744		93.4913
-26.2705	-10.7346		80.5569
-21.9133	-8.66592		81.3084
-23.2924	-6.32384		79.8299
-30.9317	-11.6383		80.0731
-39.0055	-46.4742		84.4654
-37.0331	-47.1734		85.0774
-37.5105	-46.0266		84.9655
-11.8262	-17.6553		90.4189
-14.3102	-17.837		89.4673
-11.2813	-18.6347		90.3069
-13.3595	-16.347		90.2825
-12.5405	-21.9363		89.9497
-9.8736	-21.3901		90.6549
-11.9952	-20.9551		89.887
-15.6064	-21.7965		88.7315
-13.6718	-23.3218		90.2509
1.27819	-18.8707		94.8491
-0.523227	-18.2865		94.3009
0.945798	-19.8927		94.3367
1.36051	-18.0047		95.2616
-18.6237	-20.6816		87.1091
-19.629	-22.016		87.3332
-17.861	-19.7992		87.2592
-21.0382	-18.6589		85.3222
-3.10732	-9.60885		95.9016
-2.76791	-7.97223		95.934
-6.05073	-9.29254		94.5847
-3.35995	-11.5134		95.5838
-0.491475	-10.2535		96.85
-36.4451	-60.9743		86.1417
-37.838	-64.2661		84.611
-33.2025	-63.5863		88.5292
-34.9102	-58.0289		87.6766
-39.2043	-58.153		84.0798
-35.8598	-40.4436		87.4562
-38.0583	-40.7479		86.0857
-33.5611	-40.0162		89.0825
-34.2217	-36.7339		88.4298
-0.713327	-24.3927		94.0055
0.163291	-22.4072		93.8023
-2.74475	-23.8412		93.6301
-1.93437	-26.9668		94.911
0.816668	4.00372		85.7533
1.19617	7.41509		82.5389
-2.46029	3.34661		84.9455
-17.5892	-10.4789		86.5119
-18.0467	-10.0292		85.4796
-18.2817	-11.9586		86.1569
-16.3652	-9.63719		87.9447
-15.8641	-8.6455		87.7414
-3.00491	-20.048		92.8478
-1.25844	-20.3019		93.485
-2.69227	-18.9776		93.0381
-4.99432	-20.243		92.0983
-3.51484	-21.6344		92.8347
-2.23698	-18.0608		93.5145
-1.94281	-17.1584		94.0508
-14.8074	-8.52435		89.0737
-15.9112	-10.2559		88.8395
-14.2292	-7.6402		89.0336
-18.805	-14.2986		86.0051
-18.5516	-16.5301		86.4906
-17.5175	-13.3039		87.4942
-7.07808	-35.9529		100.568
-5.43726	-32.9798		98.6338
-9.53756	-34.8128		99.9708
-7.89254	-37.7405		101.591
-26.948	-23.1764		85.5872
-24.4756	-19.1593		84.1922
-29.4729	-22.7914		84.7035
-29.6998	-27.6557		87.2359
-24.3835	-23.6945		86.7223
-21.5309	-63.3304		96.6786
-25.1294	-61.8628		95.1939
-22.4693	-65.8039		95.1656
-18.1933	-64.7701		97.4363
-20.7569	-61.3479		98.0883
-31.8544	-43.0195		90.032
-31.3576	-41.3288		90.8089
-34.6547	-44.1351		87.2106
-32.363	-43.7172		89.4045
-13.8171	-7.08822		88.6978
-11.431	-6.02224		89.8086
-13.9907	-6.53703		87.5807
-28.3285	-60.4674		93.3141
-27.7646	-58.752		94.3441
-31.2899	-58.5496		91.0556
-29.0277	-62.7101		92.0715
-15.3347	-65.9826		97.6985
-14.6025	-64.0467		99.1304
-15.9639	-68.1973		96.4722
-47.0194	43.7273		52.1005
-47.8138	45.0554		50.0919
-51.0354	38.4931		48.1953
-46.0308	42.5558		53.9935
-21.6813	68.7764		60.9339
-21.5625	74.6854		56.5478
-28.5744	66.4515		56.9918
-22.0023	63.3901		64.6193
-15.5249	69.9842		64.3801
-35.8675	63.4363		52.0584
-35.8662	69.0422		47.3322
-42.9075	59.6055		46.0503
-35.5261	58.457		56.672
-23.815	55.4795		67.7749
-22.9881	58.0373		67.152
-24.7495	52.6461		68.1261
-18.5807	57.2234		70.7134
-49.3148	46.4347		46.6416
-54.7164	40.4167		41.1867
-42.3009	51.5619		54.1709
-50.0237	49.2282		43.09
-9.1971	44.8033		72.0302
-6.1628	42.2886		72.2049
-8.1513	46.9392		72.3796
-12.9417	45.939		71.6416
-10.6861	41.9321		71.5318
2.89839	17.1144		75.7674
2.51208	14.5328		77.348
5.80969	17.938		76.0774
3.42677	19.1411		74.729
-0.203272	15.8847		75.4483
-27.0007	5.2669		74.5652
-20.1134	4.91971		75.6381
-24.3266	8.21043		73.6967
-34.656	6.37527		73.271
-29.8579	1.63901		75.6795
-51.9432	24.0192		54.5176
-50.5828	20.2928		58.6283
-48.9914	25.0001		56.2864
-51.4451	28.329		52.2194
-54.7895	22.9327		52.6449
1.83607	11.1538		79.6351
4.55064	11.8339		79.8546
-1.1449	10.114		79.3472
-25.5803	50.1862		68.3756
-25.8997	47.957		68.5965
-20.5003	51.6549		70.6651
-30.7158	49.0531		66.1625
-36.0017	47.758		63.3452
-40.8216	44.9333		59.9167
-35.8922	45.6529		64.0796
-46.2931	31.5571		55.7331
-47.9351	32.0755		54.0326
-46.8281	28.4711		56.1057
-44.6734	30.9815		57.3123
-44.9128	34.8734		56.7278
-34.3111	33.0055		65.9932
-32.2523	33.6614		67.4882
-36.2147	32.1204		64.347
-30.0244	34.0693		68.705
-27.7174	34.165		69.6237
-29.8992	35.0868		68.9295
-32.3488	34.6688		67.6785
-27.3427	35.1546		69.8459
-25.0948	34.0115		70.1171
-22.4051	33.3764		70.2559
-24.5454	34.8781		70.266
-21.6453	34.1497		70.3467
-19.9751	32.3116		70.2078
-17.9125	30.6695		70.0362
-15.8944	28.477		69.5249
-14.2013	26.2575		68.7889
-14.3665	28.8319		69.4334
-16.5676	31.0843		69.9967
-12.6851	26.4128		68.7894
-13.2251	24.4682		68.2284
-12.7332	29.0069		69.4159
-15.145	31.6821		70.0247
-23.9436	35.84		70.4392
-20.7645	35.0644		70.4702
-40.9635	28.6101		60.4917
-40.1845	27.5076		61.3176
-17.0912	46.0806		71.1821
-18.1662	43.6328		70.867
-16.481	48.4065		71.4251
-21.7954	45.8524		70.307
-35.5709	39.1069		65.6104
-35.296	37.0832		66.0146
-32.2902	39.8642		67.5542
-35.6453	41.3166		65.2283
-32.4114	18.8043		69.2195
-25.9443	17.3589		71.0094
-37.4445	20.9076		66.4796
-33.2515	17.4742		69.3867
-20.2628	17.0681		71.2242
-20.3748	15.511		71.6103
-16.2487	17.2621		70.7362
-11.8357	19.3692		69.653
-12.913	18.5721		70.011
-11.1931	20.0645		69.3643
-30.8928	21.4165		68.9225
-25.4944	20.2379		70.4756
-35.2585	23.4986		66.4083
-15.2395	20.2966		69.0369
-14.2549	20.5571		68.6695
-17.0871	19.9968		69.6691
-13.4483	20.7911		68.4916
-12.6778	21.1765		68.4017
-4.65912	26.5295		70.2588
-2.73728	28.4638		70.7326
-5.83698	29.3791		70.194
-6.97455	24.6985		69.6022
-10.3892	21.2311		69.1185
-17.7922	33.7414		70.3521
-8.3676	24.1358		69.1843
-9.23058	26.2579		69.1226
-8.26464	22.4941		69.445
-30.3383	22.545		68.8329
-25.1481	21.3702		70.3075
-15.3122	21.1209		68.4566
-16.9819	21.1136		69.0982
-14.3933	21.1274		68.2159
-13.8218	21.3157		68.0091
-37.647	31.1761		62.771
9.71917	34.9332		73.9351
9.84847	39.248		74.4259
7.40745	35.4584		73.6459
9.56589	30.8582		73.5969
-13.7125	11.3314		73.6759
-17.0197	10.8696		73.3469
-14.6287	8.95181		74.8051
-11.3994	12.085		73.8877
-13.3123	13.1647		72.7917
-8.79352	12.8862		74.2712
-5.91945	13.7578		74.7827
-8.73153	17.9303		71.3526
-8.70852	19.4939		70.4929
-6.28616	17.8481		72.1866
-0.00927544	24.0328		71.7916
1.08455	24.8465		71.9625
-0.551128	26.7461		71.2861
-14.0956	17.8248		70.3713
-13.5547	16.4812		71.1018
-13.2184	14.8705		71.9262
-16.0067	14.1543		71.988
-28.7108	-46.8383		89.2984
-25.4706	-46.934		91.6574
-31.7311	-46.4676		86.8526
-28.6126	-46.8031		89.0491
-33.5942	-46.3756		85.6053
-33.2667	-46.3399		85.5861
-8.96751	-41.0412		102.374
-9.24924	-42.551		102.287
-8.61108	-39.7546		102.282
-12.0149	-40.0412		101.62
-15.358	-42.7311		100.312
-18.2156	-43.0477		99.0621
-15.4626	-44.4248		99.6966
-12.7045	-43.1224		101.179
-15.0466	-41.2445		100.682
-21.1123	-43.164		97.5593
-24.3961	-43.568		95.4858
-21.3353	-44.6882		96.7439
-20.8987	-41.8141		98.0675
-14.6106	-39.6688		100.856
-14.1608	-38.2797		100.866
-17.425	-39.9778		99.8221
-18.8547	-38.1738		98.9021
-19.9665	-39.2514		98.637
-15.7855	-37.5357		100.113
-18.0212	-37.0378		98.8965
-28.1665	-44.6512		92.1879
-27.7633	-43.3295		93.3213
-15.2204	-46.0993		98.8534
-18.4621	-45.9812		97.438
-15.0434	-46.9539		98.1327
-12.4241	-46.2853		99.9254
-21.9011	-46.0648		95.409
-22.0394	-46.7919		94.5045
-34.1217	-44.9697		87.1144
-35.7361	-46.1245		85.4549
-29.1599	-47.7401		89.8666
-29.2625	-47.9183		90.1552
-25.9089	-48.2657		92.6244
-29.0928	-47.6956		89.6513
-30.0395	-49.0717		90.6905
-27.4567	-50.4784		93.9465
-29.727	-48.6282		90.5985
-24.5672	-51.5059		96.6855
-25.2187	-52.2698		96.6631
-21.1755	-52.2446		99.1685
-24.0745	-50.7		96.4363
-16.1584	-50.7703		100.197
-13.3004	-51.5018		101.246
-15.6703	-49.5432		99.3909
-19.8632	-50.1957		98.4077
-16.799	-52.0844		100.84
-11.9901	-55.0866		102.933
-11.5355	-53.7052		102.493
-14.2634	-54.1565		102.369
-12.3751	-56.3235		103.151
-34.1481	-47.7846		84.8494
-33.8949	-47.2029		85.5148
-32.1915	-48.055		86.4685
-34.3039	-49.2073		84.1338
-10.3016	-50.8128		97.3083
-10.1069	-50.0227		98.4734
-10.692	-52.4823		96.0116
-12.6299	-50.3841		96.814
-12.6762	-57.5137		103.176
-15.0355	-56.4693		102.686
-12.9766	-58.5481		103
-13.965	-62.2407		100.658
-13.5178	-60.6702		101.904
-16.5315	-61.0545		100.411
-13.5837	-37.4111		100.77
-11.1277	-37.595		101.351
-12.4749	-36.2229		100.528
-11.0652	-52.2105		101.814
-10.5064	-50.7847		100.947
-10.216	-50.0829		100.316
-10.1895	-49.8212		99.8731
-12.5448	-49.4996		99.8176
-15.4109	-48.9588		98.8219
-15.3077	-48.776		98.4289
-18.9225	-48.6836		97.2545
-10.1776	-49.7641		99.3004
-12.3888	-49.2547		98.8367
-22.4981	-48.5208		95.0366
-22.8985	-48.9451		95.465
-22.3575	-48.3678		94.6332
-26.4655	-54.9336		96.3531
-26.8709	-55.9159		95.9017
-23.2692	-55.9101		98.6862
-26.1001	-54.0337		96.5789
-19.1618	-57.0369		100.989
-19.6335	-58.0993		100.36
-15.6183	-58.4036		102.245
-18.7122	-56.1618		101.334
-13.22	-59.5242		102.62
-22.0401	-47.0012		93.9447
-21.9146	-46.9812		93.4274
-18.4711	-46.9923		96.023
-33.7948	-46.9157		86.1968
-32.0833	-47.4056		87.7139
-15.5913	-49.9794		95.8688
-15.2964	-49.1432		96.9798
-16.0925	-51.4901		94.7328
-18.9911	-49.584		94.4666
-15.225	-48.8032		97.8689
-18.6587	-48.5438		96.2606
-20.1104	-59.5866		99.4018
-24.1405	-58.3651		97.3458
-25.649	-53.1394		96.7044
-22.362	-54.082		99.1871
-27.2817	-57.2645		95.2304
-29.8701	-55.494		92.9332
-21.5228	-46.6988		93.0343
-24.6267	-46.6382		91.2107
-20.6062	-45.4756		92.1459
-18.323	-46.6262		94.5103
-15.07	-46.8241		95.7869
-14.9886	-47.2087		96.8077
-15.1725	-45.4864		94.0938
-12.4054	-47.0575		96.3799
-19.2862	-42.5759		90.6455
-21.9287	-42.6047		89.5093
-18.0845	-38.4956		89.0453
-16.7378	-42.5173		91.5198
-34.5594	-52.4844		83.4066
-32.6689	-52.8108		85.1104
-34.5982	-56.3665		83.1125
-11.453	-55.7849		94.8268
-12.8185	-59.8798		94.1622
-13.6849	-55.259		94.4469
-14.2729	-42.556		92.16
-12.863	-38.4994		90.4383
-11.7092	-42.6945		92.6507
-16.6487	-54.6485		93.65
-17.8792	-58.8152		92.8447
-20.0207	-54.1425		92.4085
-36.8789	-47.0838		78.7518
-37.1519	-46.9932		77.8624
-3.21876	18.2423		72.965
-2.91338	16.6477		74.0003
-78.3398	3.03108		-43.3596
-79.9317	2.99218		-41.6156
-77.883	7.65701		-43.786
-76.3699	2.97174		-46.7086
-78.6632	-1.37145		-42.2024
-74.5097	23.9602		-8.48854
-73.1327	26.2146		-3.88647
-74.0196	26.558		-12.8777
-73.4574	28.2602		-18.1822
-73.9705	27.4126		-25.0586
-75.0861	23.3433		-18.7967
-71.785	33.4636		-19.9142
-78.1794	-21.3501		-31.8753
-78.4381	-17.4234		-34.0591
-78.1631	-25.4698		-28.9216
-80.0914	-18.52		-30.5092
-78.5557	-13.7684		-36.4557
-80.5215	-11.993		-34.7465
-78.7287	-9.77142		-38.6399
-76.4231	-16.4549		-39.0579
-81.3822	3.42231		-40.7359
-80.5917	8.36809		-41.3955
-81.7713	-0.702636		-39.4424
-82.7379	4.27955		-40.436
-85.3113	-12.0014		-31.5081
-86.5569	-12.7988		-30.3201
-83.6812	-10.8332		-33.0482
-87.5146	-13.3494		-29.2168
-87.6466	-9.28586		-31.6487
-87.3014	-17.37		-26.3495
-88.3433	-13.5449		-27.9553
-89.6547	-2.77458		-30.2587
-89.8298	1.73243		-33.7655
-89.5312	-2.17166		-29.5582
-84.3353	-26.4115		-17.4437
-84.2453	-24.8671		-20.6023
-83.265	-25.8491		-19.5928
-84.1383	-27.0567		-15.4042
-84.8675	-26.5149		-16.6989
-85.1372	-18.2894		-6.22477
-84.9576	-18.8989		-6.14226
-84.5809	-20.2373		-6.29146
-89.4006	-1.79092		-29.1934
-89.0685	-2.42744		-28.201
-88.7265	12.9189		-34.3619
-88.618	13.4641		-35.9351
-88.9468	11.7144		-32.5897
-86.6235	23.1937		-32.9014
-86.5641	24.5785		-33.1398
-86.2041	26.7432		-32.3252
-85.422	28.9378		-29.4685
-86.2627	27.2106		-32.764
-85.7316	26.5911		-30.1041
-82.0769	5.03635		-8.49807
-81.9667	10.7395		-9.55923
-82.1534	0.818848		-7.57384
-81.4669	5.76011		-7.27478
-81.1874	-11.7463		-0.260259
-80.7355	-7.27517		-0.159336
-81.5174	-15.6543		-0.367463
-80.5532	-12.244		2.43954
-83.3041	-6.50317		-9.43441
-82.8346	-4.56328		-9.72795
-84.0771	-8.45646		-9.76524
-75.2188	22.8224		-18.7178
-75.2566	22.8461		-18.5007
-75.1849	23.8727		-22.261
-81.1957	32.0941		-19.9957
-81.6216	33.6915		-23.2145
-82.1202	31.6424		-18.9396
-80.6515	28.975		-16.7976
-80.2648	32.2219		-21.1972
-80.9505	33.8409		-28.2451
-80.3254	33.6948		-25.29
-80.4341	32.5365		-29.5131
-81.6534	32.4011		-31.7266
-81.1771	34.0801		-27.7533
-85.1557	17.8029		-40.8999
-86.1344	18.3161		-40.3949
-84.11	23.9652		-38.6337
-84.5111	17.1589		-41.0297
-81.7278	15.5085		-10.5497
-82.2777	14.2792		-11.086
-88.0791	18.0526		-37.8216
-87.3444	23.359		-36.0905
-88.1467	17.932		-38.1659
-88.4232	15.2279		-37.7452
-84.7643	30.0129		-25.637
-84.0693	29.5824		-21.6488
-84.6288	31.0586		-25.127
-84.8738	28.5622		-26.2191
-82.8451	16.4128		-13.3702
-82.7948	18.7988		-14.2933
-82.7634	14.572		-12.6397
-87.5187	18.8344		-35.2139
-88.0618	16.705		-36.8629
-82.6276	9.17905		-13.9786
-82.7696	10.9676		-13.0315
-82.6894	9.44095		-14.7026
-86.5818	10.0864		-27.8162
-87.8465	12.9848		-29.9503
-86.7216	8.96787		-27.8669
-86.2443	10.5154		-27.2464
-80.3027	-3.18307		-0.526947
-79.6935	-3.41928		1.95779
-79.8817	1.52406		-1.73053
-79.6289	13.669		-40.44
-79.9961	16.4094		-39.7604
-78.4531	18.371		-38.787
-78.6152	12.7715		-41.51
-81.1163	22.0515		-37.5759
-82.155	17.8585		-40.065
-82.2956	27.3149		-36.1367
-80.0547	25.958		-34.7535
-83.7447	15.9673		-40.9103
-83.8909	10.2251		-41.1698
-84.6476	5.25187		-40.3302
-82.1211	-10.9266		-33.953
-82.1743	-7.69705		-35.927
-81.9049	-14.0788		-31.8568
-82.0386	-4.34661		-37.8187
-80.4451	-5.00848		-38.8157
-88.5333	-2.42743		-27.2085
-81.6111	-17.0451		-29.89
-81.3856	-20.6855		-27.2456
-83.9785	-26.6443		-12.7009
-83.5384	-27.0072		-12.5393
-83.0528	-27.2982		-12.2256
-82.6331	-27.3121		-17.548
-87.0851	8.24282		-28.2657
-88.5658	9.8653		-30.5585
-80.7974	6.31994		-6.2548
-80.0573	6.66015		-5.07969
-81.8873	-7.65693		-3.56354
-82.2025	-7.79301		-4.19906
-85.4298	-11.8018		-9.16456
-85.3103	-10.7077		-10.088
-86.7703	-13.6503		-10.4821
-82.304	-2.27729		-6.83471
-82.6595	-2.47098		-8.94335
-79.3785	27.9373		-31.7708
-78.3689	28.6001		-28.5241
-77.9336	23.5391		-34.1748
-77.4161	21.6691		-35.8107
-76.348	23.975		-31.7945
-77.0413	21.1868		-36.8771
-86.619	20.2068		-30.3137
-86.8131	18.707		-29.8296
-82.8864	10.1285		-16.1788
-83.4688	11.3711		-18.9008
-86.0288	11.3731		-26.8309
-85.5051	11.4022		-25.4759
-86.832	15.2188		-28.3383
17.9794	91.4778		52.4248
18.8498	97.3587		45.2106
10.2228	92.3193		52.1358
16.9558	85.5588		58.1015
16.1141	79.4915		62.7447
8.79271	80.8178		62.2269
14.9042	72.7163		66.8748
-9.60323	70.4025		66.6589
-3.82008	69.6396		68.4362
-10.5898	65.2113		69.7707
1.50262	-17.2279		95.6559
-0.477431	-16.6381		95.0704
1.48817	-16.1479		96.0486
3.06011	-7.39349		97.4128
2.64957	-8.95344		97.619
3.37678	-6.03208		96.9268
0.384483	-6.99248		96.7775
2.19094	-10.8031		97.5155
1.78117	-12.7571		97.1211
0.603975	-20.964		93.9891
-3.69791	-30.1442		96.7271
-6.09468	-29.5191		96.4744
1.51691	-14.6058		96.5725
-0.827379	-14.0859		95.9355
3.81494	-4.72983		96.1503
4.20375	-3.39071		95.0008
1.28671	-4.47978		95.6439
10.5019	53.409		74.3227
11.4792	57.9842		73.2965
5.06169	55.9579		73.6121
9.74095	49.6339		74.7046
7.97094	18.3298		76.1778
8.39149	20.4776		75.175
7.3869	15.6521		77.6654
8.76571	22.6113		74.413
9.12422	24.8526		73.8959
6.63033	22.2194		74.2605
-9.82524	-47.4474		96.7161
-9.72435	-48.1603		98.2555
-9.71785	-45.9923		95.064
-9.74346	-48.2159		99.1265
-9.77654	-47.9826		99.5902
-11.9979	-47.6393		98.6106
-9.5421	-43.8797		101.993
-9.73956	-45.2827		101.457
-9.7924	-46.7324		100.652
-8.3694	-38.7936		102.038
-8.8651	-43.0391		93.0057
-7.4594	-39.0575		91.0897
3.69646	92.5966		51.4971
4.16287	98.0372		44.6255
-2.48972	92.2926		50.5304
3.09176	87.275		56.8223
-0.189854	58.9114		72.8716
0.421112	62.0039		72.1656
-5.63028	61.2381		72.0082
-1.29282	55.3635		73.309
-3.09707	53.1402		73.2192
-5.5353	50.7798		72.9327
-8.36211	55.092		72.5229
-7.05934	48.9343		72.6593
-11.1768	50.3166		72.1641
-3.06558	46.055		73.0856
-16.3958	34.5934		70.4469
-19.7334	36.0737		70.5721
-13.3508	32.3006		70.0903
-14.9545	36.1675		70.6202
-18.9352	32.9739		70.2757
-12.9337	38.3668		70.9433
-9.89548	36.12		70.8576
-16.3373	39.9221		70.8681
-20.8066	97.2797		29.6856
-21.2622	92.8274		37.1981
-14.2771	99.8086		31.8629
-20.9929	101.29		19.5416
-8.27306	91.6814		48.9023
-14.5493	90.4734		46.5071
-8.13453	96.48		42.4728
-11.1438	62.5505		70.8893
-16.6252	61.8773		70.0012
-11.8428	58.9667		71.7377
-15.827	51.0052		71.6857
-14.5297	53.5114		71.8865
-12.8643	56.2188		71.9715
-19.9745	40.5462		70.6874
-24.5842	40.1394		70.136
-21.9158	38.355		70.5796
-21.3895	88.627		43.0638
-21.4414	84.343		48.0048
-28.3741	86.3089		38.4992
-22.4736	60.234		66.3008
-28.3933	58.1323		63.1771
-29.7567	37.0398		69.1077
-32.6971	36.6074		67.7171
-26.6411	37.1119		70.1111
-29.2424	38.413		69.18
-26.8054	45.572		68.7116
-31.3771	44.8098		66.981
-27.5563	42.8653		68.8932
-28.526	40.2329		69.0868
-21.4	79.7475		52.4291
-28.6156	77.2951		48.0929
-34.8591	84.0846		32.4166
-40.5563	81.8831		25.0001
-35.2511	79.4444		37.8106
-34.5109	33.8929		66.1491
-36.4737	32.8553		64.4358
-35.264	35.7623		66.0005
-37.3127	34.5564		64.2979
-34.7741	34.7653		66.2015
-35.7054	43.6331		64.7144
-39.57	41.267		61.9692
-3.92523	38.4811		71.9455
-2.3129	40.3736		72.5499
-5.502	36.0901		71.3215
-2.42345	34.5634		71.5401
-0.367722	41.8823		73.073
0.83975	37.7287		72.719
-7.53352	32.8397		70.4896
-9.53254	30.8301		69.9558
9.50755	45.1323		74.7408
-77.1355	-51.53		-3.24379
-77.22	-52.1316		-9.49431
-77.9165	-46.4676		-2.17858
-70.116	34.3885		-40.2226
-72.695	29.5082		-34.6188
-70.0371	37.4115		-32.391
-67.6288	39.2311		-45.4183
-70.7117	30.0483		-45.4877
-73.8811	2.29409		-52.5089
-73.4593	8.17023		-53.0859
-71.682	1.21885		-58.026
-74.3359	-3.6309		-50.4437
-72.6216	14.3739		-53.2905
-75.1591	13.3006		-46.943
-71.9209	20.0281		-51.9595
-70.2228	15.1248		-59.8434
-73.7886	-20.9965		-42.7146
-74.1007	-15.2346		-45.6743
-71.407	-25.184		-46.1937
12.8611	65.0617		70.6746
7.07555	66.6358		70.2611
1.52217	68.3243		69.4222
1.87039	75.6822		65.4519
-37.0573	-90.0573		62.2428
-32.1122	-92.4653		65.3241
-42.7084	-86.4128		57.8269
-36.8825	-91.1704		56.4162
-59.9155	-70.3462		50.0205
-60.5755	-67.9411		53.139
-64.3322	-66.2603		44.4089
-54.6042	-74.9995		55.3618
-35.7255	74.307		42.5866
-42.2242	71.0746		36.0533
2.58384	81.7522		61.3384
-46.1113	79.5065		16.0195
-47.4503	73.7066		22.2374
-50.6732	77.2898		6.56835
5.01638	104.016		34.8975
12.082	104.114		35.2908
5.99765	109.43		23.1091
-1.57505	103.142		34.4545
-50.1591	54.2266		38.3027
-49.3293	61.0118		33.3378
-38.9949	33.1213		62.482
-45.0966	41.2425		55.6461
-43.9523	39.8158		57.3403
-47.9168	36.7425		52.9291
-42.8449	38.4111		58.8065
-24.859	-103.25		50.7419
-70.0886	-56.157		43.2153
-69.2748	-59.6011		40.2868
-65.6769	-60.2273		50.588
-70.7101	-52.5466		45.4009
-11.332	-34.544		99.6635
-9.71603	-32.1118		98.182
-13.3258	-34.626		99.3538
-30.4201	-39.2184		91.2986
-27.3182	-37.875		93.6036
-28.737	-35.557		91.7327
-13.0353	-30.3081		96.0413
-10.978	-27.4203		94.275
-16.4289	-30.7515		95.2692
-14.8887	-32.839		97.5444
-9.77968	-29.527		96.2456
-39.8282	-40.8658		85.0285
-38.6227	-37.1328		85.7337
-42.0953	-41.4944		83.5291
-40.4008	-44.3174		84.2147
-54.7567	32.8307		45.992
-56.9207	33.1414		42.6986
-57.2022	27.3376		46.475
-52.3914	32.695		48.9965
-59.1598	33.4797		38.6079
-62.0124	33.1054		33.0351
-43.0372	30.5202		58.7659
-43.6661	28.5649		58.5148
-50.3019	32.3552		51.5229
-75.6499	21.4608		-38.9215
-75.2106	24.2753		-35.2418
-73.7307	22.8045		-43.0946
-76.361	17.5075		-41.7355
-78.6864	-5.78104		-40.6989
-76.7358	-6.97952		-43.7422
-78.7638	-39.0918		-13.2138
-78.4737	-36.044		-19.3157
-77.7128	-44.8706		-15.007
-78.8183	-40.8693		-6.94534
-79.8225	-34.5219		-11.4464
-77.1552	12.7261		-43.291
-80.0015	-13.1377		5.582
-79.4164	-13.9444		9.87329
-79.6216	-8.52942		5.51404
-80.239	-17.544		5.42408
-70.8174	15.4533		27.2176
-73.1484	13.7659		18.8446
-72.5333	7.69024		29.1113
-68.4754	23.6641		25.5108
-47.0019	25.5949		57.3501
-46.132	22.9992		59.8047
-45.2912	26.2484		58.1966
-43.9274	26.8526		58.8867
-43.021	25.2925		60.4004
-78.647	-14.1489		15.9276
-78.1246	-8.6184		15.5346
-79.0585	-19.327		15.7547
-77.6888	-13.9413		22.4679
-20.6829	-2.35277		78.9909
-16.7317	-1.19831		80.1976
-18.3019	1.68556		77.7379
-25.4465	-2.85059		77.9812
-32.5658	-2.63867		76.9464
-34.8776	-7.08186		78.1647
-39.7286	-1.94896		75.5679
-12.8593	-0.0767498		81.6063
-14.1282	-3.074		83.4538
-9.23122	1.33852		82.8329
-19.155	-8.71654		83.4293
-17.1291	-7.03033		84.1776
-14.3389	-10.6642		90.2886
-15.5743	-11.5529		89.4649
-14.5764	-12.6999		90.2281
-12.4077	-9.8946		91.3624
-16.5384	-12.4139		88.5614
-16.6175	-14.5426		88.5283
-41.3801	-21.9779		80.6661
-39.5512	-16.7204		80.026
-43.1087	-27.3557		81.1821
-36.3764	-22.2025		82.5689
-37.0009	-11.609		79.1127
-4.50634	-23.8182		93.3616
-6.56824	-24.1503		93.032
-5.95512	-26.4742		94.5279
-65.377	-35.532		60.9704
-65.0081	-41.8616		60.8342
-60.2514	-34.6503		67.8341
-65.1882	-29.0731		61.3816
-32.1932	-32.4232		88.333
-34.584	-32.5765		87.1553
-29.6535	-32.1065		89.6398
-44.4012	-32.8123		81.3335
-40.1864	-32.7537		83.998
-49.3826	-33.1804		77.9603
-45.1865	-38.0539		81.3616
-7.82644	-29.2971		96.2905
-64.0432	-48.3113		60.8234
-61.6607	-53.9767		62.445
-59.4228	-46.5579		67.7016
-67.7359	-49.3375		53.9221
-62.2896	-11.2992		63.0155
-67.3829	-11.609		55.1502
-63.7854	-17.1353		62.3187
-41.6729	-82.4949		75.0941
-36.8568	-86.2926		78.7544
-41.7018	-79.5941		77.1796
-50.448	-67.9154		71.3247
-45.9117	-71.8957		75.2558
-48.6264	-64.5582		74.7039
-54.4629	-63.8392		68.1051
-53.0254	10.594		63.6273
-47.6269	8.96977		68.2188
-49.8555	14.8666		63.3157
-40.9782	23.3038		63.1167
-42.2099	21.9408		63.2349
-47.5202	17.4877		63.1417
-45.2398	19.2495		63.3391
-43.0019	15.1533		67.1887
-38.429	25.7109		63.4352
-19.8644	-88.5865		90.0166
-54.6141	-44.9699		73.2545
-49.7157	-43.6403		77.8137
-54.8854	-39.7508		73.3786
-53.475	-49.5626		73.7231
-46.6124	-61.4074		77.4818
-43.0928	-64.85		79.991
-43.8451	-58.1771		80.4218
-49.2627	-57.6907		75.9197
-41.9032	7.82559		71.0892
-39.4915	11.1354		70.3611
-44.359	3.58611		72.1317
-54.8818	-33.7413		73.378
-46.456	-1.32171		73.166
-24.8668	-77.2406		91.5592
-28.1415	-75.5716		90.1417
-24.1605	-72.8855		92.6193
-31.8801	-73.5402		88.0852
-30.8948	-69.5168		89.3355
-35.4621	-70.9241		85.7197
-37.5343	13.2447		69.9361
-30.1999	11.5527		71.9146
-35.8426	14.7931		69.701
-43.6047	20.6443		63.3047
-39.8298	18.1984		66.8213
-34.4861	16.1911		69.5126
-27.3387	14.5445		71.4176
-5.71467	2.39585		84.0435
-4.9242	5.69147		81.327
-6.64286	-0.493761		86.719
-8.14645	-5.19689		91.769
-8.61263	-5.97549		92.1773
-4.7757	-4.61271		93.3899
-7.81575	-4.19709		90.7239
-2.97845	14.7088		75.2176
-3.37332	12.2619		76.793
-16.2908	5.37728		76.3007
6.74002	12.1059		79.9535
-58.2338	21.8543		49.6142
-4.04389	8.9764		78.9734
-71.1521	-48.7559		46.9203
-74.5763	-46.6048		37.9886
-68.3932	1.49038		47.2721
-71.3947	1.43669		38.724
-70.004	-5.5233		47.0479
-72.6439	-24.3262		46.5395
-75.2597	-24.9003		38.7057
-69.2056	-23.6559		54.2166
-72.0636	-18.1037		46.6335
-71.1861	-11.8936		46.8159
-74.0247	-12.6083		38.5499
-33.4142	-88.9117		80.9152
-23.3249	-69.1694		93.7618
-26.6186	-67.6463		92.4263
-20.1321	-70.4017		94.6511
-29.9597	-65.9303		90.6361
-20.3581	21.1089		70.139
-22.7682	10.5244		72.9495
-21.6286	12.426		72.4179
-20.9256	13.9831		71.979
-16.9487	-71.3893		95.2099
5.58604	27.606		72.9923
5.37765	24.3137		73.3831
7.40274	27.7854		73.3299
5.48773	31.369		72.9602
3.96135	26.9764		72.6239
-11.8807	21.8024		68.4067
-11.5371	22.8969		68.3225
-8.50206	20.9084		69.8903
2.34232	25.8844		72.2698
2.04334	29.3485		72.028
9.34113	27.6534		73.5874
-2.28226	-16.1997		94.3636
-2.71989	-15.1447		94.653
-2.34854	-6.60599		95.7521
-5.42108	-6.46308		94.3358
-2.0037	-5.41646		95.2991
-17.2706	-18.4451		87.5264
-14.5376	-19.9671		88.9376
-16.4573	-17.493		88.203
-1.48885	-4.37151		94.7204
4.00587	21.0893		73.9819
5.30043	35.4515		73.2807
3.3734	34.8141		72.8223
-11.6832	24.3421		68.3836
1.51071	33.7188		72.2721
-0.04356	32.0855		71.6893
-1.34902	30.3584		71.2252
-21.7857	-24.4039		88.0548
-24.1362	-27.8413		89.6408
-18.5468	-25.0277		89.7041
-26.8391	-31.8575		90.9156
-23.5113	-31.531		92.5708
-32.4034	-46.0663		85.7776
-30.3864	-46.3471		87.3251
-31.9434	-45.0929		85.1425
-32.5402	-44.2463		88.9196
-30.2887	-43.3974		91.3577
-30.9098	-42.2743		83.8705
-29.5116	-38.637		82.7448
-27.6543	-42.4962		86.2553
-15.4859	-25.4192		91.1105
-17.6191	-28.1146		92.5639
-12.3645	-25.2023		92.0573
-20.1919	-31.2334		93.8954
-22.1962	-33.9969		94.9339
-27.8928	-46.5979		89.1271
-26.2179	-45.4403		89.1078
-24.6922	-42.5882		88.0587
-23.6459	-38.5959		86.5042
-9.26663	-24.6719		92.7029
-7.95174	-22.3831		91.6994
-16.741	-35.2381		98.3535
-20.6019	-35.8873		96.9484
-14.4704	-5.18347		85.2526
-10.8676	-3.78831		87.2547
4.74876	-1.56985		93.0465
-7.27399	-2.55942		88.9195
-3.13059	-13.4378		95.1643
-5.87461	-13.1435		94.0548
-9.21696	-13.2246		92.6803
-12.3046	-13.739		91.2698
-9.68269	-11.3776		92.7918
-14.2941	-14.5863		90.2162
-15.3348	-15.6584		89.4402
-15.9702	-16.5999		88.7683
-8.8523	-6.78939		92.5739
-9.12623	-7.98131		92.8521
-9.51125	-9.55375		92.9189
-66.0643	-129.008		26.5488
-62.763	-121.009		27.5587
-69.7653	-126.868		23.3695
-68.5731	-134.856		25.856
-61.9226	-131.122		29.6147
-58.6211	-109.784		28.9228
-54.6759	-111.721		32.3401
-55.3847	-99.8167		30.2215
-62.3151	-107.831		25.4173
-53.9848	-83.3325		36.2692
-53.7054	-87.4555		33.4208
-50.3004	-85.9271		39.9523
-57.6287	-80.6272		32.2591
-53.9956	-92.6882		31.5356
-57.6483	-90.6766		27.6831
-50.1395	-94.7062		35.3538
-51.9033	-53.7926		74.367
-47.9231	-51.2806		78.3403
-55.4178	-56.4936		69.9287
-58.7188	-59.0998		64.5562
-60.2766	-62.2003		60.1685
-60.8892	-65.0896		56.3749
-44.6356	-49.2869		81.0768
-43.103	-52.2458		81.7361
-41.9331	-47.7185		82.9417
-45.1949	-46.046		81.0705
-40.3592	-46.8896		83.8672
-39.539	-48.903		84.089
-61.1084	-78.0644		27.789
-64.5163	-76.1829		21.784
-60.8823	-82.7791		25.1116
-62.2315	-74.0835		30.2943
-63.8759	-70.4828		32.9145
-65.8892	-66.7769		35.3446
-66.7156	-68.3532		26.1732
-67.9005	-62.9691		37.8281
-70.3043	-60.9876		30.6409
-65.7906	-105.79		21.7266
-69.8143	-116.888		20.8097
-62.702	-95.9347		22.5396
-69.2332	-104.17		17.7613
-73.097	-124.893		20.0267
-76.2217	-123.022		16.3471
-75.8905	-130.847		19.2532
-61.2196	-88.5682		23.5418
-76.188	-13.3063		30.135
-75.3306	-6.89729		29.9382
-76.8165	-19.3431		30.3081
-71.8958	-59.8703		23.7613
-73.0977	-59.0889		16.6401
-70.3595	-63.3417		21.5237
-65.4576	32.2461		24.5481
-69.0557	29.8532		14.185
-76.5096	-45.7808		29.4627
-77.6516	-44.6825		21.1803
-77.2068	-25.3484		30.6487
-78.5332	-25.2034		22.6629
-73.958	0.467154		30.0766
-75.9768	-1.17175		21.9586
-79.2915	-24.5178		15.7226
-79.8451	-23.221		9.4001
-72.7119	-73.5342		4.5132
-70.3585	-74.035		9.77987
-72.5293	-69.3678		5.43303
-74.713	-73.2481		-0.535841
-73.2503	-78.2624		3.90159
-74.1177	-83.5792		3.81872
-72.7473	-65.4181		6.97419
-73.299	-61.7968		8.36663
-74.3652	-64.9205		1.14848
-70.9742	-66.0798		12.7761
-74.9072	12.3656		10.6319
-76.3034	4.40772		13.5153
-73.2807	20.1558		7.49227
-71.432	28.238		3.88672
-69.58	35.8179		0.663988
-67.6825	43.4263		-3.23714
-65.7652	50.8892		-7.64593
-69.0578	41.875		-13.6656
-78.2371	-43.2457		13.2588
-78.5408	-42.1226		5.59389
-77.3194	-2.39422		15.0689
-78.3778	-3.42193		9.15351
-72.626	-102.563		13.3123
-76.2366	-113.375		12.7995
-69.0388	-67.0374		19.3582
-68.0488	-70.8243		17.2544
-79.1651	-121.145		12.1553
-81.7347	-126.861		11.2069
-81.3128	-98.3811		-5.05306
-83.8872	-107.491		-5.73979
-76.2789	-72.9308		-5.52535
-75.9305	-68.5406		-5.17911
-77.0648	-71.5949		-10.8854
-75.8447	-64.1641		-4.56171
-85.9287	-114.358		-6.83351
-87.5879	-119.851		-8.53353
-78.7066	-41.8036		-1.26333
-80.3314	-21.8404		5.03181
-80.3545	-25.7475		3.98708
-80.869	-19.9755		1.77887
-79.0769	-3.6795		5.20705
-77.8979	-79.5975		-18.0978
-77.1174	-73.5204		-17.6873
-75.871	-76.4888		-25.4852
-76.7662	-67.7901		-17.4351
-75.0629	-62.4027		-24.3127
-76.9873	-51.2035		-16.053
-80.5862	-31.7769		-10.5088
-81.0949	-29.2793		-17.1683
-79.8413	-107.267		-33.8802
-77.9768	-99.2604		-33.0321
-76.2215	-106.018		-41.2177
-81.668	-114.772		-34.7225
-78.3001	-31.3165		-24.4998
-79.9275	-27.1985		-23.2937
-81.2071	-25.1594		-22.8252
-81.9941	-24.2384		-22.7031
-57.5703	-133.098		32.4286
-60.079	-138.8		31.3804
-53.1777	-135.035		34.9253
-54.4617	-125.065		33.7609
-45.7593	-96.7604		39.3699
-45.9109	-92.2985		40.9337
-46.9847	-103.519		37.7419
-41.1345	-98.8021		43.153
-47.6453	-83.05		53.1718
-48.7845	-80.8802		57.2503
-46.6252	-85.5328		48.4542
-46.0444	-88.7174		43.9979
-41.4604	-91.1772		48.0749
-50.2864	-113.439		35.7925
-45.9232	-115.627		38.9355
-41.5549	-55.4112		82.5121
-39.5377	-52.7814		84.0489
-49.7283	-78.9707		60.5659
-38.1879	-51.0845		84.8648
-37.1218	-49.7486		85.3401
-36.2459	-53.3188		86.3859
-36.0978	-48.6256		85.6864
-34.3974	-50.4251		87.2567
-39.4136	-68.0798		82.7924
-40.5099	-71.9937		81.0844
-41.5143	-76.0222		78.9946
-29.2902	-48.2902		90.5916
-26.5371	-49.1952		93.4866
-28.9393	-47.7828		89.458
-25.6637	-48.2195		91.8274
-29.0655	-48.0016		89.0059
-32.0107	-47.2152		87.1107
-29.1557	-48.4884		88.6264
-29.4404	-49.9556		87.9441
-25.841	-48.9338		90.7687
-29.7912	-53.2478		87.1899
-26.5552	-53.5397		89.1825
-29.9704	-57.2609		86.8393
-36.5901	-100.252		46.2956
-38.0919	-107.076		44.3053
-36.6231	-96.3764		48.2306
-48.7297	-137.06		37.1256
-51.0798	-142.434		35.8697
-44.2908	-138.832		38.9725
-45.7583	-129.179		38.8722
-41.6541	-117.654		41.6554
-28.5616	-96.0749		55.21
-28.2813	-94.6659		60.8493
-31.9976	-95.1325		53.797
-40.3618	-140.26		40.2791
-42.5284	-145.422		38.9979
-28.2922	-94.089		66.9841
-22.1968	-48.4092		94.137
-22.1977	-48.6739		93.486
-22.2761	-49.2486		92.8609
-22.8273	-50.6269		91.8514
-23.3418	-53.8167		90.8941
-23.9521	-57.9352		90.2869
-58.4969	61.6426		8.58565
-54.0872	64.2031		18.7197
-56.6606	68.5817		2.68767
-61.7185	59.6962		-1.99785
-69.6491	39.9471		-23.3303
-74.2137	-9.59758		-48.4929
-71.8726	-12.3778		-53.1187
-68.7469	-86.4656		-45.8585
-65.2934	-85.427		-51.0417
-70.8296	-96.349		-46.1206
-72.2142	-88.2674		-40.0187
-67.1796	-76.5547		-45.7278
-72.9108	-105.007		-46.7113
-69.5182	-104.53		-51.6129
-75.1535	-113.219		-47.2405
-72.6988	-72.3166		-33.3888
-72.2197	-64.0006		-32.9509
-69.3204	-69.1643		-40.1941
-74.084	-81.4914		-32.9153
7.2158	113.882		9.26813
14.62	114.195		9.3846
8.02517	116.646		-5.92534
-0.05966	112.696		9.2677
3.5371	93.6644		-88.2824
11.0342	93.2096		-89.809
1.60305	81.849		-100.259
-3.75426	93.5052		-86.2371
5.12222	103.634		-73.4312
-0.871837	69.4928		-108.531
5.92356	68.4218		-110.212
-3.76162	56.0049		-114.468
-7.74779	69.569		-106.482
6.60875	110.888		-57.1484
7.63986	115.44		-39.8765
14.2645	110.839		-58.3423
-0.887834	110.272		-55.3423
23.4964	117.008		-23.4945
23.0841	114.915		-41.2976
15.7683	117.575		-23.1295
23.3033	116.486		-6.36823
-6.43954	42.9049		-118.186
-0.0515413	42.1519		-119.649
-9.08213	29.6722		-120.205
-12.7817	43.2911		-116.077
-11.7391	15.9123		-120.724
-5.46774	15.2517		-122.288
-14.3695	2.45808		-119.65
-18.0201	16.6094		-118.488
-20.8089	-34.0468		-105.365
-18.8715	-22.3176		-112.3
-15.4373	-35.3038		-106.523
-23.0417	-44.6435		-97.0013
-26.5562	-33.2623		-103.147
-4.57538	-12.1291		-119.704
-7.09573	-24.2219		-115.033
-10.6656	-11.0369		-118.671
-1.85621	0.428637		-122.286
-31.3696	-88.1159		-75.3114
-26.3822	-88.8844		-76.1305
-33.2429	-97.1786		-74.1133
-36.624	-87.5603		-73.8851
-29.6028	-79.0332		-77.1341
-35.1835	-106.128		-73.1129
-30.4122	-106.949		-73.7202
-37.3555	-114.93		-72.2038
-40.1042	-105.457		-72.102
-25.1854	-52.8781		-90.1143
-19.5779	-53.8005		-91.1577
-26.6022	-60.421		-84.8233
-30.4031	-52.113		-88.5039
-27.8932	-69.2899		-80.3595
-22.6213	-69.7821		-81.4276
-33.5547	-68.9536		-78.5166
-17.4399	-70.7156		-81.9071
-19.4795	-80.5524		-78.5568
-15.6587	-62.1547		-86.3763
-20.8465	104.854		7.40035
-14.0329	108.147		8.33848
-21.0644	107.145		-6.14638
-27.769	100.682		6.64392
-27.5446	68.0004		-95.9672
-25.3278	79.3742		-87.9142
-21.3463	68.8783		-99.9812
-30.0037	55.7947		-101.583
-33.4827	66.6237		-91.5047
-23.333	89.659		-76.9517
-29.6352	87.0002		-73.034
-22.1515	97.8488		-63.7064
-17.0689	91.5478		-80.4672
-21.6431	103.47		-49.6424
-21.8413	106.502		-35.2522
-14.9612	106.501		-51.6281
-28.4882	99.4888		-47.4174
-21.3825	107.83		-20.6485
-28.3751	103.517		-20.2355
-14.3116	111.341		-20.9476
-32.1943	43.5424		-105.335
-37.8961	43.0271		-100.882
-26.1229	43.6727		-109.389
-34.4227	30.9849		-107.414
-36.3813	18.3396		-108.073
-30.7136	17.7914		-111.959
-38.3422	5.69377		-107.019
-41.8203	18.5507		-103.648
-39.8764	-6.48186		-104.451
-44.6674	-5.74327		-100.226
-34.7662	-7.67172		-108.091
-41.4457	-18.8248		-99.7848
-43.4026	-30.5515		-92.8088
-38.1541	-31.4977		-96.7683
-45.2018	-40.5828		-85.4431
-47.8885	-28.9117		-89.0185
-46.6558	-49.2802		-78.9075
-51.1245	-48.092		-74.6214
-41.6047	-50.561		-82.6325
-47.9965	-58.0271		-73.1438
-52.0393	-85.1216		-65.6271
-56.6429	-84.673		-61.4966
-50.8788	-75.7635		-66.4076
-47.1006	-86.1346		-69.0915
-53.3253	-94.9292		-65.6623
-45.1272	-104.879		-70.5863
-50.2549	-104.427		-68.3874
-43.3984	-96.1033		-71.1608
-47.2817	-113.335		-70.0055
-49.4385	-66.9211		-68.8697
-44.5827	-67.7191		-72.6903
-54.0024	-65.8317		-64.2924
-46.7617	75.598		-58.4676
-41.2999	79.8943		-64.0948
-47.5243	68.5487		-68.1611
-52.1583	70.4961		-52.1204
-46.8036	80.6903		-47.5251
-46.9892	84.0455		-36.5163
-47.1128	86.0732		-25.5966
-41.1556	89.7382		-41.2275
-52.4887	77.8191		-30.7763
-46.0896	87.6416		-15.0629
-40.8278	93.3088		-17.943
-50.648	81.5401		-9.69983
-42.979	42.3505		-96.2084
-45.0008	30.4916		-98.327
-47.7333	41.2027		-91.2017
-41.0331	53.7401		-92.3421
-38.7965	64.9638		-86.7995
-43.9715	62.6635		-81.5984
-36.9221	75.0124		-79.1049
-49.3905	-4.91517		-95.2357
-50.3888	-16.5892		-91.0372
-53.95	-4.21755		-89.6615
-48.4167	6.87453		-97.6719
-46.8372	18.4907		-98.8281
-51.4441	18.622		-93.6587
-51.84	-27.1636		-84.9435
-53.7225	-37.2976		-77.1749
-55.7924	-25.7852		-79.8596
-54.92	-46.2158		-70.4233
-58.11	-43.5398		-66.564
-58.6085	-64.9358		-58.5544
-59.8155	-74.5871		-56.7551
-62.9187	-65.8909		-51.7915
-64.6366	44.2628		-50.9559
-61.4183	48.5813		-57.0347
-65.2162	37.6772		-57.7863
-34.2761	95.8608		6.56029
-34.3714	98.2285		-6.47515
-63.4171	57.9168		-12.5749
-60.7027	64.79		-18.3182
-64.2496	-1.30397		-73.8676
-64.6793	-10.9482		-70.1506
-67.1248	-0.542743		-68.3212
-63.5435	7.98776		-76.161
-61.2573	-2.50924		-78.9678
-62.1727	17.3017		-77.6844
-65.3527	16.4199		-71.4839
-60.9315	26.3571		-77.0477
-58.9301	17.8859		-83.2538
-59.6318	35.6969		-74.5566
-63.0859	33.0937		-68.3457
-58.5929	44.4918		-69.9017
-55.9511	37.8733		-80.4672
-64.8354	-35.2865		-56.4832
-65.0689	-42.7329		-51.9794
-66.9715	-32.3367		-52.9597
-64.8136	-27.9083		-61.1059
-62.7354	-38.2918		-59.7611
-69.5522	-14.9108		-57.5636
-69.7146	-7.48927		-60.6304
-67.3174	-17.3674		-61.5201
-69.3557	-22.1049		-53.6103
-66.3631	-67.2385		-45.8826
-65.8137	-58.402		-46.8421
-81.7964	-24.0906		-3.23827
-80.8409	-27.3076		-0.822528
-81.7473	-20.3521		-1.58283
-81.4008	-18.5776		-0.328428
-79.1072	7.79125		-3.88387
-78.5011	13.0616		-6.36881
-87.1367	18.492		-39.6564
-87.8465	18.2924		-38.9156
-85.925	24.4155		-37.7799
-86.7786	-21.5755		-22.813
-86.2981	-24.4133		-19.2291
-85.7215	-21.6724		-23.6256
-84.4682	29.2254		-34.687
-85.49	28.8069		-34.073
-83.1348	32.4954		-30.8714
-83.4561	29.2805		-35.2024
-80.1545	24.6333		-13.8805
-78.8635	24.2835		-14.53
-82.172	33.9651		-26.7731
-83.2446	33.5295		-25.9719
-87.7817	-4.85603		-34.3891
-88.5688	-21.6333		-15.4456
-87.3463	-24.0649		-15.7078
-88.1775	-21.4809		-12.8056
-78.1926	15.6004		-8.26523
-79.5936	31.938		-22.2694
-78.5974	28.6969		-19.3654
-78.7484	30.7038		-23.7277
-77.4932	24.1288		-15.9612
-76.5028	24.2292		-17.5509
-82.8687	28.9634		-35.4031
-75.8162	23.6751		-18.9367
-76.4494	25.688		-21.7131
-77.3706	27.6166		-25.4046
-75.8103	24.9171		-26.2329
-89.1193	-12.8427		-26.5582
-89.6898	-13.9861		-18.9744
-86.0299	-25.6015		-16.1111
-87.5975	-20.5856		-10.8022
-87.9186	-17.5984		-10.9963
-88.0864	-15.1164		-12.1004
-88.1266	-13.5047		-13.185
-89.6022	6.32225		-36.6898
-88.8631	11.8642		-38.5803
-88.1073	18.065		-38.4768
-87.2216	23.8444		-36.6687
-82.7168	31.1845		-18.4281
-83.3439	32.8229		-21.575
-83.0472	30.6035		-18.0697
-83.1768	30.0052		-17.8796
-83.8563	31.7458		-20.9965
-83.2795	28.8996		-17.9758
-85.996	28.3752		-33.6649
-86.2312	27.9085		-33.4863
-84.8418	31.4313		-29.8325
-83.9709	32.9906		-25.4311
-84.3442	32.4497		-25.2562
-84.5034	31.9017		-24.9617
-85.2453	30.4615		-29.3977
-86.2861	27.5619		-33.1539
-88.606	13.7638		-37.1023
-83.3374	27.5089		-18.4148
-82.7421	19.9368		-15.3947
-85.0254	26.9868		-26.7032
-88.9164	10.9239		-31.7504
-88.5325	12.8162		-31.6148
-88.0364	14.6825		-31.1973
-87.5095	16.1747		-30.4347
-86.9147	17.3876		-29.3068
-85.4482	-10.3362		-11.3313
-86.9116	-11.7319		-12.8065
-82.6115	13.1001		-11.9006
-82.6125	-2.54103		-10.0791
-88.0368	-12.7877		-13.7493
-23.3194	36.8319		70.4997
-7.74679	101.857		33.3516
-7.54277	106.72		22.1087
20.0371	103.502		35.4036
21.2926	109.147		23.3577
-7.0075	110.843		8.81107
-6.76251	113.442		-5.71089
22.4854	113.657		9.43849
8.24312	117.298		-22.5772
0.600517	116.159		-21.9478
-6.81033	114.193		-21.5064
-7.34364	112.693		-37.4862
-48.6056	67.4308		27.7745
-54.0721	75.0654		-3.63001
-56.2798	73.2424		-14.0214
-34.6825	98.8005		-19.6933
-35.1847	97.4529		-32.3026
22.0601	110.104		-58.9672
20.4653	102.561		-75.6159
-7.84784	108.917		-53.3192
-9.00701	102.197		-69.1608
-56.9478	71.3357		-24.5536
-57.0563	68.8822		-35.1409
-34.7662	95.0469		-44.8307
-34.8294	90.5645		-56.997
-56.8237	65.1362		-45.5156
-56.992	59.8054		-55.2158
-57.5422	52.9771		-63.3686
-53.406	56.6441		-69.7374
-61.2996	-85.0288		-56.3939
-62.8993	-94.9281		-56.78
-65.0726	-104.017		-56.9414
-60.0261	-103.751		-61.7965
-67.1936	-112.405		-57.3564
18.474	92.3651		-90.5297
15.9087	80.0096		-102.777
12.8755	67.0405		-111.222
9.73722	53.8506		-116.911
6.79527	41.017		-120.543
3.98532	27.9405		-122.619
1.12007	14.2727		-123.248
-16.7393	-10.1452		-116.95
-22.8433	-9.45589		-114.549
-9.65594	-36.5265		-107.323
-12.2455	-47.4065		-98.1613
-14.1014	-55.2021		-91.4096
-21.5121	-89.5313		-76.5917
-23.4902	-98.3744		-75.2507
-25.5431	-107.635		-74.0803
-27.8041	-116.856		-73.0398
-14.5771	69.3844		-103.615
-17.101	56.4764		-109.361
-12.3352	81.5908		-95.2963
-10.4273	92.7336		-83.7861
-19.4681	43.632		-113.069
-21.9462	30.5761		-115.06
-24.3806	17.3207		-115.541
-26.8512	3.99862		-114.352
-28.9314	-8.62124		-111.55
-30.7566	-20.7754		-106.9
-32.4147	-32.3885		-100.297
-34.1113	-42.7875		-92.751
-36.0435	-51.3889		-85.9764
-37.8181	-59.5789		-80.2857
-39.136	-68.3568		-76.0244
-40.5832	-77.6618		-73.192
-42.0044	-86.7854		-71.8037
-55.2741	-103.92		-65.4612
-57.5106	-112.404		-65.2552
-35.4065	83.92		-68.8165
-48.7403	60.2157		-75.7452
-50.409	50.1174		-81.8128
-51.9066	39.9139		-86.0512
-53.6323	29.128		-88.2915
-55.3154	18.4519		-88.6279
-56.9112	7.54969		-87.0273
-57.8082	-3.55212		-84.2666
-58.4208	-14.1351		-80.3146
-58.9978	-23.7911		-75.3623
-59.8592	-33.0265		-69.0646
-62.0703	-22.0695		-70.3881
-60.5131	-40.9183		-63.2405
-65.6056	-50.4658		-48.2984
-67.3761	-48.3145		-45.0952
-65.8082	30.9002		-62.6326
-68.557	28.1406		-56.3318
-66.8465	23.3187		-65.0686
-69.4369	0.298238		-63.3872
-68.8655	8.1293		-65.0092
-64.7377	-19.8206		-65.9619
-67.8281	15.9445		-65.9094
-69.1071	-29.1961		-49.5638
-69.0697	-36.1868		-45.6695
-36.6304	-93.4015		51.6078
-74.279	-58.199		9.76202
-67.5875	-74.8293		15.7914
-20.4635	-40.4539		98.411
-23.9159	-41.0505		96.54
-27.3337	-42.1888		93.9829
-17.323	-53.2137		101.25
-17.7868	-54.1934		101.448
-18.2307	-55.2384		101.503
-33.83	-56.0643		88.7127
-32.8881	-54.3234		89.5418
-32.1579	-52.8771		90.0896
-24.1395	-36.8373		95.1891
-45.4542	-42.4015		81.1709
-32.4279	-22.4212		83.6914
-35.0272	-27.5856		85.0468
-36.9744	-32.6155		85.7829
-64.7112	-22.8554		61.709
-10.8187	29.251		69.5211
-71.1389	25.4302		-49.6554
-74.4033	26.2507		-30.6471
-75.5841	24.6568		-28.1486
-80.1588	-30.3414		2.76609
-20.5517	19.8633		70.5097
-35.3648	55.3835		59.3903
-40.918	29.6899		60.3675
-7.33421	-20.7258		91.3223
-38.1156	31.7318		62.6866
-11.1916	-19.6977		90.1347
-75.5486	24.5103		-27.0456
-75.9204	-90.5933		-32.9073
-72.7607	-55.5829		-31.9944
-70.5822	-49.8531		-37.7875
-69.3303	-44.5194		-42.0617
-23.1077	-15.7351		83.0925
-36.7964	-46.0269		85.2115
-23.3538	-49.7634		96.0678
-33.7991	-46.9142		85.8642
-14.9545	-47.2201		97.6094
-6.99098	-112.571		-73.2579
-8.94608	-121.43		-72.3558
-82.4515	-24.1024		-22.3601
-83.0096	-22.5227		-23.9831
79.9408	-43.786		-3.23008
-82.62	-7.92877		-5.01239
77.3359	-52.4149		-28.2347
-84.5143	-21.6087		-24.2725
92.7688	-21.2551		-20.8018
-84.2543	15.913		-21.34
-84.4969	14.5383		-22.2442
84.854	-33.775		-16.185
83.7498	-36.0197		-16.3772
87.7938	-30.7712		-19.7385
-82.5816	-1.62914		-17.0006
-83.0422	-2.35072		-17.8017
82.5364	-38.4002		-15.6624
-84.2292	-3.66118		-19.0237
90.1739	-27.4696		-21.7711
-84.68	11.8738		-23.056
36.8484	16.7088		71.6088
32.7062	15.4771		70.6901
30.2555	13.5836		69.8863
30.2576	12.5121		69.7225
30.7511	11.6561		69.8633
51.7393	8.81945		66.6833
52.2604	10.068		66.6721
51.0598	11.6965		68.2414
48.815	13.488		70.1489
45.7676	15.7734		71.485
41.4745	16.9685		72.0061
38.9486	14.0507		72.017
39.9888	9.74325		71.4444
42.5262	8.83715		71.1312
44.7591	9.7953		70.9902
45.4955	12.0698		71.2588
44.095	14.1991		71.8148
41.5294	14.9464		72.1426
41.9059	11.8313		71.8968
38.5325	11.8082		71.7295
48.1436	9.21087		69.349
35.0993	12.155		70.9851
34.6728	14.4567		71.1277
37.7367	9.10526		71.2255
48.9604	11.2132		69.4321
43.271	7.30824		70.6701
34.5851	15.6636		71.1612
33.6659	15.0978		70.8739
35.8354	15.4084		71.4429
34.3837	16.2135		71.1124
40.9911	8.30635		71.1149
43.0161	7.83725		70.8426
41.1849	9.04921		71.2939
39.0109	9.25845		71.3151
40.7373	7.7851		71.0308
47.3382	12.2606		70.5669
48.4899	12.2682		70.0161
46.7583	13.0023		70.9391
47.0906	11.4506		70.5154
46.1404	14.0836		71.2615
47.3317	14.6758		70.996
44.9499	15.0573		71.6238
45.0256	13.3111		71.5656
43.3054	15.8028		71.9161
43.7367	16.6014		71.8296
41.4497	16.0078		72.0718
42.9169	14.8659		72.0304
39.7211	15.9022		72.0339
39.2749	17.0056		71.9213
38.2848	15.3529		71.9118
40.1703	14.7453		72.1566
43.1826	9.81067		71.3739
43.4683	10.5154		71.5366
42.1591	10.0105		71.5468
43.9912	8.95818		70.9458
40.7106	13.8849		72.2147
40.3661	13.0718		72.1581
41.6746	13.7208		72.1855
41.3282	9.8306		71.5203
40.7922	10.5311		71.7067
44.1056	11.0663		71.5412
43.8636	11.8928		71.7398
45.2125	10.7853		71.1278
44.058	12.7993		71.8029
43.1852	13.2237		71.9955
42.6083	13.9836		72.1104
30.612	14.2284		70.0248
30.1669	13.0514		69.7695
30.5264	12.0345		69.7956
50.4083	7.94555		67.6466
52.2485	9.47022		66.4446
51.9582	10.8244		67.3205
49.9986	12.5889		69.289
39.9177	10.9734		71.7682
39.986	11.771		71.9507
38.9409	10.7133		71.589
39.7154	12.5424		72.0542
38.5128	12.8625		71.889
49.5271	12.2396		69.385
50.0862	11.5811		68.86
36.6892	13.1459		71.5238
34.702	13.362		71.0205
36.9034	11.9389		71.4114
36.8316	14.1818		71.6479
37.6167	10.6325		71.317
36.048	10.7334		71.0832
33.8104	10.703		70.6243
32.1074	13.2447		70.3071
32.4524	12.4165		70.3138
32.0074	13.9608		70.3524
49.3112	8.24015		68.4239
50.1602	9.07134		68.0695
47.5646	8.27603		69.4394
48.4283	7.27579		68.9267
50.9106	10.9768		68.0665
50.8221	10.5252		68.0037
45.4223	8.12417		70.2513
46.2893	9.36394		70.3017
33.0736	11.5364		70.4173
37.055	14.9762		71.7161
31.907	14.437		70.4128
50.6127	9.8501		67.9338
48.5823	10.1332		69.3662
46.7595	10.3868		70.3931
46.064	7.19523		69.7524
47.3577	7.58841		69.3568
48.485	7.67249		68.864
-19.3068	29.3397		70.1674
-16.3569	26.4405		69.2479
-14.595	23.6231		68.0069
-15.0987	22.6414		67.8886
-15.9876	22.0954		68.1985
-33.8469	26.0183		66.2081
-36.463	28.6462		63.5889
-36.3575	29.9985		63.5641
-34.1632	31.0501		65.5185
-30.9802	31.826		67.8667
-27.1718	32.3344		69.6455
-23.0358	31.5932		70.2739
-21.9251	27.8962		70.6113
-25.0912	24.5245		70.082
-27.5845	25.0343		69.4852
-28.7953	26.9997		69.1273
-28.317	29.1421		69.3913
-26.2256	30.2615		70.1164
-23.8097	29.7188		70.5608
-25.3631	27.2739		70.3556
-22.779	25.7304		70.4611
-32.4473	27.7255		66.8724
-19.8534	24.3685		69.82
-18.4334	26.3339		69.8399
-31.5476	25.0115		67.6667
-23.6535	22.8495		70.0886
-32.226	29.9167		66.9624
-28.9784	23.9711		68.989
-17.7851	27.3975		69.7803
-17.4113	27.8536		69.7158
-18.9514	27.7433		70.1113
-17.2812	26.4543		69.5486
-26.7511	23.7074		69.6559
-26.8486	23.0965		69.6008
-24.6583	23.6877		70.0767
-26.4327	24.4768		69.7989
-28.4907	24.3808		69.168
