1821
53.8888	-9.26886		77.6182
56.9926	-11.0671		76.3282
59.4649	-8.18525		76.7009
38.1207	-33.4189		71.6364
39.2441	-32.3127		70.3916
38.5001	-31.3381		72.4288
36.4697	-35.2046		73.4298
37.8872	-36.506		70.6988
39.008	-29.2859		73.5341
39.8996	-26.9511		74.8737
41.8589	-27.1773		69.5896
42.2931	-25.687		71.1437
42.8839	-26.4616		68.4493
49.3186	-19.1082		72.9655
51.5034	-18.8913		72.2044
50.1991	-17.9746		73.7856
41.6669	-30.5051		67.5888
40.9698	-30.8379		68.428
40.1617	-31.4434		69.3134
39.9884	-34.0411		68.859
-16.4269	-56.9902		84.903
-16.4387	-56.8636		84.6885
-16.1059	-58.8413		82.4687
-16.5547	-55.054		87.4654
-15.9925	-60.017		81.196
-15.9759	-59.7651		81.1804
-11.971	-43.7118		100.302
-10.8533	-45.6862		99.3076
-10.765	-43.1442		100.382
-13.3263	-41.4498		101.104
-13.3336	-44.1711		100.037
-12.929	-48.6051		97.2366
-11.5395	-48.1686		97.8031
-13.7243	-46.7018		98.4226
-14.4233	-48.791		96.5133
-12.6278	-50.3524		95.8725
-12.4105	-52.1865		94.1767
-11.0188	-51.8352		94.8404
-13.9513	-52.5265		93.1794
-12.4099	-54.5668		91.6993
-10.0815	-47.6167		98.1603
-9.77978	-49.4235		96.8928
-8.8762	-46.9906		98.3615
-7.72022	-49.8143		96.0666
-8.56909	-50.7369		95.6603
-6.76147	-49.0705		96.1472
-7.79966	-47.9654		97.4565
-13.6447	-57.1495		87.8165
-12.0081	-56.9379		89.0895
-16.075	-48.6142		95.5806
-16.6809	-46.6125		96.9397
-17.0993	-48.292		94.7741
-15.6041	-50.7447		93.8724
-15.5765	-52.8453		91.6915
-16.4628	-52.8494		90.7021
-14.3355	-60.511		82.6561
-17.1681	-57.6767		85.4518
-17.1546	-57.5632		85.2499
-17.747	-55.847		88.3295
-17.3068	-57.875		85.7438
-18.3159	-58.8937		86.2289
-17.9351	-58.5347		86.1699
-19.8932	-57.8681		89.3662
-20.9786	-56.1434		92.3059
-20.1677	-55.5443		92.1096
-21.9299	-54.3076		94.6703
-21.7457	-56.8084		92.2494
-20.567	-50.269		96.0676
-21.7867	-51.2241		96.4376
-19.9008	-52.6937		94.1715
-19.5742	-49.4928		95.6071
-21.4258	-48.0099		97.4143
-25.1537	-47.5978		99.1677
-26.3333	-48.1982		99.2964
-24.0471	-49.6385		98.1842
-23.8424	-46.8985		98.8622
-26.1011	-45.4768		99.83
-17.3513	-60.5673		80.4007
-16.7341	-60.3726		81.0621
-18.8114	-60.8852		79.6823
-17.6498	-59.4261		82.016
-21.4099	-44.7112		94.3239
-20.6149	-44.7289		95.5129
-20.7939	-46.4217		93.5723
-23.1981	-44.924		92.9542
-22.0665	-43.1278		94.8169
-27.4749	-48.7853		99.2449
-28.5205	-46.5151		99.9459
-28.4997	-49.2793		99.0151
-26.2637	-50.9504		98.2192
-32.6524	-50.2034		96.8471
-31.1926	-52.6228		95.9368
-30.8406	-49.9354		97.9458
-33.7293	-47.9116		97.5138
-8.08073	-46.3648		98.4127
-7.03602	-45.1895		98.4407
-8.61038	-44.519		99.3505
-22.4813	-46.207		98.3704
-23.3134	-44.2971		98.966
-21.3381	-45.5516		97.7983
-20.7081	-45.1524		97.2907
-19.8274	-46.9559		96.4511
-20.426	-45.0381		96.8529
-21.4527	-43.4549		97.8085
-19.0707	-49.0787		95.1951
-18.4099	-51.3301		93.3183
-18.9045	-48.8526		94.8521
-20.3529	-44.9316		96.3115
-19.6377	-46.5916		95.5888
-21.1096	-43.2125		96.7941
-18.1254	-53.6007		91.1398
-18.0156	-53.3962		90.8215
-18.4796	-54.0597		91.4196
-24.3957	-58.3125		91.7853
-25.3743	-58.7552		91.2619
-23.5238	-57.8755		92.0753
-25.6824	-56.5874		94.0125
-26.8962	-54.3916		95.9765
-28.0894	-54.7827		95.3615
-25.918	-53.9412		96.3694
-28.3589	-51.8819		97.6034
-29.5783	-49.6434		98.6115
-30.6931	-47.2657		99.3355
-16.712	-52.8019		90.1549
-16.8934	-50.4481		92.3264
-16.743	-52.5795		89.6862
-15.3233	-62.5376		80.6306
-15.9174	-61.763		80.8679
-16.3872	-60.4152		81.743
-16.8366	-59.5488		83.2307
-20.1448	-48.5088		92.4007
-19.2794	-48.4834		93.5322
-19.5146	-50.7814		90.8203
-21.824	-48.8232		91.1328
-18.9354	-48.6371		94.3756
-18.3439	-50.8992		92.574
-29.7642	-55.1049		94.4694
-28.2449	-57.3638		92.6597
-22.6354	-57.3415		92.258
-23.7961	-55.6544		94.5544
-26.7681	-59.2297		90.5047
-24.8221	-60.5925		88.165
-16.5412	-52.112		89.3735
-16.6761	-49.8726		91.0674
-15.4636	-50.8868		88.7311
-16.3849	-54.2293		87.2357
-17.1571	-47.6313		92.5618
-17.6663	-45.6953		93.3989
-15.8954	-47.0473		91.0952
-17.4779	-47.8965		93.4778
-12.7487	-48.9463		87.8191
-12.8793	-47.1503		88.9262
-9.08063	-47.0712		87.0908
-12.6482	-50.8163		86.4456
-22.0707	-61.7197		78.8868
-26.0582	-62.7285		78.2743
-22.4289	-60.4684		80.6415
-26.68	-45.7671		91.7636
-26.0013	-47.4702		91.0658
-30.8851	-47.3532		91.0348
-27.2969	-44.2965		92.2297
-13.1433	-45.4416		89.8017
-13.5467	-43.6955		90.5529
-9.53846	-43.4601		89.056
-25.2188	-49.6047		89.9554
-29.5083	-51.1347		89.1394
-24.5297	-51.9096		88.496
-16.8528	-62.2547		74.5052
-16.9693	-62.4882		73.6649
43.4573	-23.3511		73.0159
42.4177	-23.5984		74.7674
29.228	-75.8875		-58.7761
25.0411	-77.1341		-57.4967
28.5574	-73.4673		-61.8585
33.6705	-74.5817		-59.2919
29.611	-77.7105		-57.2874
51.2391	-73.2638		-22.7222
53.4422	-71.8092		-27.3756
53.397	-72.1372		-17.8005
54.6809	-70.2659		-32.8685
59.3675	-67.5408		-34.6531
50.16	-72.5832		-33.5307
53.5607	-69.9934		-40.0279
6.13854	-81.6238		-46.1748
9.4055	-83.1788		-45.1457
2.32483	-82.7519		-43.0317
9.86911	-80.8669		-48.571
13.2811	-80.0034		-51.1696
10.0145	-78.02		-53.419
17.0671	-79.1638		-53.5703
15.5246	-81.866		-49.8037
30.3613	-79.1602		-56.6903
31.483	-80.3926		-56.6775
26.4709	-80.4514		-55.2887
35.0586	-77.4227		-57.3923
15.9987	-89.7318		-45.4789
19.7935	-88.8289		-48.1531
16.0529	-90.7439		-44.3402
12.2869	-90.6073		-42.3554
26.62	-89.9115		-47.3027
27.2436	-89.7859		-46.5566
3.67586	-90.4697		-32.1583
3.75632	-91.1054		-31.4974
3.19165	-90.6529		-29.8799
3.80404	-89.034		-34.1629
12.5557	-90.3771		-19.9569
11.8769	-90.3347		-19.7897
10.771	-90.309		-19.8416
27.6227	-89.6398		-46.1589
27.0224	-89.5531		-45.0281
41.4895	-85.7657		-51.9641
41.8925	-85.3449		-53.5688
40.4776	-86.4384		-50.1503
51.2783	-82.1636		-50.4784
52.6088	-81.839		-50.774
54.7188	-81.2396		-49.9565
54.6292	-81.1081		-47.5856
55.1574	-81.16		-50.4431
56.909	-80.5028		-46.9656
34.4505	-83.9037		-23.2112
39.8278	-82.6978		-24.616
35.0996	-83.3172		-21.8153
30.4939	-84.8162		-22.0254
18.8734	-86.8687		-13.3601
18.4913	-86.6444		-10.2808
15.2193	-87.8022		-13.4175
23.0326	-85.6702		-13.3597
23.5607	-86.9746		-23.9351
21.775	-88.0168		-24.3417
25.3093	-86.1364		-24.2477
49.7003	-72.7958		-33.4928
50.5235	-72.1127		-37.2235
49.7426	-72.8615		-33.2802
59.7356	-77.0645		-36.4465
61.2437	-76.8305		-39.9928
59.6008	-75.9492		-37.4928
56.7344	-77.4552		-32.8524
59.5387	-78.2165		-35.5384
60.9429	-75.4391		-45.0669
60.8352	-75.2221		-41.8234
61.2592	-75.7223		-44.6404
59.45	-75.9186		-48.746
59.4753	-74.941		-46.1604
45.1623	-80.515		-58.193
44.4053	-79.97		-58.1734
51.1732	-78.7879		-55.9377
45.8785	-81.4502		-57.8909
44.3058	-81.5416		-25.8694
43.2028	-82.2284		-26.4891
46.1663	-83.7699		-55.6094
51.3623	-82.3988		-53.9147
43.4546	-84.6005		-55.4821
46.0388	-83.8043		-55.9779
58.0754	-80.2071		-42.9351
57.7594	-80.1308		-38.6549
56.6447	-80.4726		-43.5008
59.1012	-79.9738		-42.4346
45.231	-82.1525		-29.1146
43.4818	-82.4625		-28.2345
47.4719	-81.5923		-30.1958
47.0083	-83.4543		-52.8364
44.9028	-84.1185		-54.543
50.0218	-81.5701		-40.8129
48.7011	-81.7941		-39.793
49.5111	-82.4005		-45.2541
38.1583	-83.0475		-29.3011
38.3709	-82.9667		-30.0845
39.9814	-83.0091		-28.4483
38.7979	-85.0008		-44.6275
41.712	-85.4969		-47.2241
39.194	-84.6675		-43.9818
37.7302	-85.3183		-44.662
26.7987	-84.5013		-13.8698
31.1016	-83.1275		-15.3323
26.6096	-84.2427		-11.0431
40.1672	-75.7048		-56.4181
39.019	-74.7481		-57.2828
44.6984	-73.9704		-54.6652
42.9693	-75.6916		-55.8879
48.8385	-76.2166		-54.1417
52.6595	-74.9013		-51.1951
54.2988	-76.7458		-53.1429
44.7402	-77.6041		-56.7169
43.1052	-79.3972		-57.8349
37.4868	-80.4784		-57.8917
32.8043	-82.1853		-56.9913
16.92	-83.3463		-49.3347
13.963	-83.9771		-47.0145
19.9424	-82.5576		-51.4976
23.0617	-81.5778		-53.5405
22.0439	-80.0026		-54.2232
27.0109	-89.1545		-43.8801
11.1715	-84.4894		-44.823
7.78874	-85.2798		-41.9129
11.9898	-85.552		-44.6358
5.07026	-87.5541		-36.9182
4.83244	-87.1043		-37.185
2.42399	-88.968		-31.7885
3.84786	-90.7597		-26.9355
3.43544	-90.4313		-26.6497
3.08351	-90.05		-26.2069
37.0616	-85.7483		-45.119
38.7556	-86.6535		-47.8602
35.5712	-82.6842		-20.6225
35.8283	-82.0265		-19.2542
22.6458	-86.4783		-17.257
22.526	-86.7385		-17.9981
18.8538	-89.9628		-23.8458
17.1698	-91.3731		-25.5094
19.7881	-89.5658		-24.8521
27.6196	-85.6032		-21.1066
27.3419	-85.7174		-23.4498
54.6586	-74.3102		-48.077
49.9597	-73.259		-50.0702
55.3255	-73.6404		-44.5604
47.9443	-72.8025		-51.5363
47.345	-72.4062		-52.528
50.2489	-71.9458		-47.2863
26.7666	-84.928		-26.2869
27.0435	-85.2594		-25.4588
48.5254	-83.0202		-47.6815
47.1259	-83.5291		-47.1572
38.9736	-82.8474		-31.7146
36.4768	-83.0593		-32.4422
40.1017	-82.8582		-34.755
40.0182	-84.3658		-43.5411
43.8167	-84.314		-45.451
40.0464	-84.0208		-42.0211
103.265	12.2337		50.4604
97.2277	8.54136		55.993
105.112	5.52763		48.7225
109.181	16.0233		43.4015
100.651	18.9178		52.0698
91.0225	5.14847		60.6544
88.3615	11.1901		62.3944
84.4205	1.52226		64.9629
93.1532	-0.834155		58.5762
85.4078	-19.4277		59.9462
82.1174	-22.1448		62.5595
84.7581	-16.2222		61.808
9.76795	-32.4506		102.931
10.9752	-32.5105		104.346
9.26455	-31.2234		103.506
10.2743	-33.771		101.578
19.7272	-29.8636		108.536
20.4216	-31.816		107.129
21.3282	-29.0132		107.807
18.9158	-27.9205		109.255
18.1599	-30.6119		108.748
16.4449	-31.2797		108.463
15.6092	-29.3539		109.233
14.681	-31.8762		107.619
5.92427	-32.9705		98.3732
5.30449	-31.6797		98.7891
-1.98405	-37.1079		97.8019
-0.963514	-38.5946		97.1586
-2.94908	-35.7838		98.2571
12.7912	-32.339		106.133
13.308	-33.952		104.574
12.1484	-30.5795		106.985
22.7372	-28.0406		106.728
23.2348	-29.9764		105.536
24.546	-26.6454		104.762
22.0578	-26.1021		107.313
70.5612	-6.15308		73.0753
67.786	-0.434201		75.4916
67.7564	-7.01451		74.4011
72.7793	-11.6949		70.8271
73.6676	-4.6431		71.4395
44.1836	-13.9178		82.2103
42.4311	-14.8253		83.9246
45.7711	-13.0515		80.9106
43.7859	-12.4137		82.6153
47.436	-12.1992		79.8367
47.4298	-14.1364		79.1432
49.3271	-11.2226		78.9633
46.9389	-10.6146		80.3137
-18.2985	-43.801		94.0093
-19.108	-41.9894		94.6089
-16.9471	-43.2149		92.6371
-18.9631	-44.111		95.4164
-19.002	-44.2755		96.2763
-19.7795	-42.6431		96.7578
-18.2184	-45.9616		95.4949
-18.7186	-44.3893		96.8491
-14.6085	-44.5511		99.5598
-15.9127	-44.7452		98.8945
-15.7126	-42.2049		100.375
-17.4892	-44.6055		97.9473
-18.4291	-42.6552		98.5188
-9.87785	-42.6841		100.281
-11.2887	-40.6456		101.065
-14.1802	-41.7839		91.2284
-10.5876	-39.8405		90.3019
-14.9887	-39.7962		91.7905
106.217	-0.0751066		46.8767
100.581	-2.99248		52.0012
106.676	-5.38785		44.8004
111.884	2.95576		40.1266
75.6011	-17.0902		68.5893
73.5271	-18.4729		69.5316
77.8505	-21.2542		66.9611
78.3524	-14.3364		67.1657
71.8669	-21.1335		69.7575
69.6109	-23.9707		69.6857
74.103	-24.6254		68.1982
67.8073	-26.108		69.0373
65.7319	-22.8092		70.8325
69.8032	-28.4076		67.9422
57.9551	-29.0267		64.7985
59.215	-28.3626		65.3211
55.262	-26.7408		65.6283
60.3513	-31.8294		63.8396
56.8248	-30.9607		63.8902
60.7755	-27.6442		66.0446
62.7489	-30.2578		64.996
58.4878	-25.2157		67.0288
114.793	-16.8899		21.0397
118.925	-14.632		10.8484
116.382	-10.8981		24.2532
110.146	-19.332		28.4944
106.801	-10.2316		42.2077
111.949	-7.9312		35.8497
106.438	-15.4757		38.823
79.1518	-24.6158		65.2185
78.2245	-25.9976		65.61
80.0947	-28.0976		62.2414
71.7478	-30.0369		66.8666
73.0339	-29.8506		66.6465
76.0793	-27.7952		66.1309
64.3448	-32.9226		63.8238
63.038	-33.8544		63.2501
65.5214	-36.427		62.0164
105.617	-21.1651		34.365
104.502	-26.9329		28.8411
100.925	-22.8604		39.3575
80.3517	-32.4043		57.0909
79.9821	-37.1592		52.7113
62.9637	-40.6818		60.08
64.3003	-40.1604		60.1701
62.8128	-37.6642		61.6098
62.6237	-43.341		58.3063
70.8133	-38.6004		59.5766
68.5262	-39.1548		59.84
70.9116	-42.1912		56.752
66.0751	-39.6937		60.0832
95.9003	-24.5746		43.8983
94.9633	-30.2394		38.7791
103.583	-32.0778		21.8935
98.7985	-33.9743		27.4488
102.553	-36.5342		13.7683
59.882	-45.2392		56.8362
58.6346	-47.1073		55.0061
61.7829	-45.7391		56.2645
60.4398	-47.7992		54.2863
60.7822	-45.3915		56.6861
70.092	-45.8328		53.5898
67.7683	-49.6337		50.0022
59.6838	-21.8922		69.6677
56.9929	-20.1342		70.4668
58.0678	-22.4166		68.8664
60.7918	-21.2813		70.4127
61.7118	-20.0849		71.4723
59.0831	-18.1084		72.3242
55.6029	-23.382		67.8741
53.6193	-24.2944		67.0019
63.5062	-8.38764		75.7339
62.7437	-3.44454		76.7466
-21.742	-90.2398		-16.16
-16.0854	-90.0959		-14.777
-23.0161	-89.6099		-22.8738
58.7933	-62.9208		-55.2574
54.3003	-63.476		-60.5737
62.8141	-58.9165		-60.2968
62.2209	-63.4711		-47.3535
54.8156	-67.092		-49.7765
26.9998	-70.2969		-67.3277
21.3824	-72.0776		-65.1186
25.1246	-67.5227		-72.5163
32.6885	-68.7835		-68.03
38.6514	-66.8617		-68.2963
38.5045	-63.4039		-74.5467
44.2034	-65.4047		-67.016
38.4991	-70.4735		-62.2374
4.69926	-75.7635		-56.6233
-0.222429	-73.7113		-59.6817
10.2303	-74.594		-59.858
78.6771	-1.69924		68.5081
75.6036	3.74607		70.6933
80.7942	-7.25788		66.4419
82.7226	-11.7693		64.3532
88.6341	-8.91603		60.4808
-67.7611	-70.8906		54.1567
-71.5369	-69.2026		46.0806
-63.2287	-74.4746		47.6107
-71.6011	-67.3896		58.3165
-41.7251	-86.3007		38.4874
-46.8548	-83.3079		44.4796
-36.7136	-88.7979		32.9183
-38.3848	-86.8544		42.2852
93.6332	-35.933		32.4607
91.9735	-41.2395		25.2231
94.7774	-5.81444		56.3622
101.211	-40.7119		3.96687
99.7508	-44.0082		-6.2347
95.7387	-43.6936		10.3301
117.891	6.94708		30.594
117.95	0.817398		28.9832
123.113	11.2758		19.0277
116.965	13.4035		32.2661
77.7987	-51.6638		27.6443
83.785	-48.9496		22.1632
58.4642	-49.3521		52.6395
67.7736	-53.632		43.4934
62.5371	-56.5539		41.3389
66.2977	-53.162		45.3055
64.7275	-52.6341		46.8962
-90.8337	-59.1403		39.6994
-91.7819	-57.1287		40.2967
-25.0208	-91.7248		32.9456
-20.5345	-91.7583		35.3904
-29.1168	-89.5748		40.0513
-29.1959	-91.321		29.6845
-5.40237	-43.7763		98.0036
-5.18351	-45.3318		97.2983
-3.16172	-41.8716		97.3541
-7.81224	-57.946		87.3428
-4.2364	-56.106		88.374
-6.36392	-55.6885		89.8504
-0.99003	-43.7537		95.1918
-0.677641	-41.3286		96.1384
-3.06523	-45.7051		95.6694
-0.946241	-45.9816		93.8696
1.18295	-41.5703		94.7491
-9.69654	-65.0691		80.5742
-13.2349	-65.6255		79.5007
-10.0424	-67.1574		78.8073
-5.78929	-63.8668		81.7479
58.2699	-62.0208		34.6337
57.8402	-60.6823		37.5215
52.7725	-65.4237		34.9527
58.9551	-63.0144		31.4262
59.6074	-63.9704		27.5364
59.5461	-65.4708		21.9574
55.7264	-53.7791		47.9544
53.6317	-54.6997		47.791
57.2408	-59.382		40.0898
47.1825	-70.7289		-54.406
43.2366	-71.7008		-57.2713
47.8691	-68.0147		-58.4044
50.1185	-70.3554		-50.6473
20.8216	-78.1353		-55.8095
19.0429	-75.9833		-58.5642
-9.6041	-88.0315		-26.5538
-4.60506	-88.4111		-24.7733
-10.687	-89.2405		-19.8554
-15.9082	-87.9369		-28.4511
-7.23138	-86.3609		-32.9771
38.5622	-73.0713		-58.8322
17.7726	-86.6468		-6.69536
13.6817	-87.6217		-6.74688
22.007	-85.4857		-6.90473
17.1811	-86.7585		-1.82301
43.7598	-76.0774		16.1399
51.164	-72.0556		14.0671
36.7573	-79.4577		18.2475
42.3596	-77.2984		7.13383
50.5128	-58.4933		46.2055
51.3156	-56.6205		47.4015
47.914	-58.3913		49.2544
51.9495	-55.0219		48.5615
50.3933	-54.6329		50.4733
17.1433	-86.8762		5.0682
17.3022	-86.9239		12.4555
12.501	-88.1205		4.97962
22.1192	-85.4043		4.43348
26.4748	-41.4493		82.2167
25.8129	-45.4996		79.794
30.3175	-39.0779		79.8929
27.6637	-38.441		84.0916
25.114	-51.9873		76.6768
24.6249	-58.8337		73.2169
20.7939	-55.0214		77.9683
28.8849	-35.7112		85.7168
30.429	-33.106		86.9845
26.0686	-37.3799		87.9142
20.3012	-41.8331		87.9185
22.119	-40.2325		88.8324
18.1806	-40.6234		94.0819
18.5295	-39.7024		95.7561
16.3088	-40.8725		93.8944
17.7295	-41.1553		93.0357
17.1843	-41.5624		91.9314
14.9131	-41.7643		91.6805
7.22241	-63.9619		78.5655
7.24554	-59.4565		81.4619
2.72636	-66.3405		78.1995
11.5625	-61.3762		78.8373
16.2201	-57.9834		78.683
3.50334	-36.593		96.229
1.50093	-38.0602		96.3011
3.46761	-37.8371		95.4477
-3.95981	-85.2857		52.5078
1.40994	-84.2361		53.0857
-3.44583	-81.2576		60.5325
-9.54494	-86.0013		52.1847
-1.40934	-57.7559		85.558
-1.10196	-55.8213		86.987
-1.48459	-59.7776		84.2027
-1.7994	-68.0911		77.4935
-6.45034	-69.2727		76.9316
-2.31334	-72.2048		73.4363
-1.76651	-64.5397		80.6434
-0.585772	-39.8268		96.6663
-15.6754	-86.3857		51.9866
-16.1242	-89.2711		44.4952
-14.0696	-82.432		59.9115
-21.5845	-85.6577		53.4624
16.1683	-80.015		54.401
11.2254	-81.5874		54.319
16.8789	-83.0815		45.8137
-53.2841	-75.0307		69.6228
-49.9683	-74.6503		71.444
-58.2747	-72.4758		74.3674
-37.4314	-79.513		63.0996
-32.7275	-82.004		59.2953
-33.8826	-77.4459		67.0235
-41.9478	-76.6592		67.8076
35.8648	-69.1152		53.117
39.6159	-65.349		52.869
34.2823	-64.6769		59.9203
48.3614	-53.5833		53.9162
46.8976	-55.3024		53.7516
42.1873	-62.2437		52.8263
40.2037	-58.7137		58.4075
43.9942	-59.4249		53.2863
50.7919	-50.5082		54.9065
-65.2754	-59.3203		90.0197
-66.5481	-57.687		90.3937
-12.6095	-78.2026		66.6566
-17.1327	-78.1121		66.8919
-7.87255	-77.5978		67.1493
-11.4617	-73.7196		72.4107
-30.353	-74.9577		70.6381
-26.1839	-76.3601		68.957
-26.9908	-71.6932		74.4917
-34.438	-72.7983		73.5111
33.107	-58.9435		65.501
29.1671	-62.2494		66.9942
36.4511	-55.6747		64.2495
-2.67776	-76.7332		67.6536
24.9865	-65.3409		67.9495
-50.4899	-60.5799		89.909
-45.0374	-58.9024		90.1844
-47.9358	-63.1569		87.3331
-45.2303	-65.8439		84.1131
-41.9245	-68.2359		80.5539
-40.3468	-64.0159		85.0371
38.588	-53.279		63.4351
40.2206	-51.2578		63.0257
37.6896	-47.2908		67.0984
45.4803	-57.2916		53.4605
43.3967	-54.5495		58.1593
41.6098	-49.6041		62.7033
40.2549	-43.7916		66.2239
31.7255	-30.3114		88.739
28.9267	-32.2375		91.5236
34.6386	-28.4745		85.379
23.2278	-36.2787		97.4065
24.3789	-35.4397		96.2389
23.5696	-34.2782		100.586
22.4031	-36.9195		97.8007
41.1365	-24.3075		76.4785
39.5391	-25.2297		78.8187
33.5386	-37.4233		76.5733
39.8158	-16.4392		86.8919
39.4687	-14.9249		87.2028
47.2668	-68.3268		37.9038
37.3382	-26.6714		81.9186
-15.5413	-91.5453		36.9259
-13.3868	-93.0549		28.1251
29.4116	-80.7075		36.3091
23.0618	-83.2009		36.4743
30.1944	-81.5824		27.8113
6.9405	-88.1729		36.7366
12.1442	-86.7486		36.7106
6.6235	-86.1144		45.2293
7.02036	-89.3549		28.5955
17.494	-85.1308		36.5824
17.6042	-86.2278		28.1593
-62.3745	-70.2518		77.8986
-40.1696	-57.4495		90.6013
-41.7148	-54.8294		92.1717
-38.1986	-59.9703		88.5782
-35.9818	-62.3903		86.1417
44.7363	-34.7581		65.41
37.5551	-41.2476		69.4386
39.0298	-39.6859		68.5429
40.0381	-38.4456		67.939
-43.1721	-52.5107		93.2447
-44.1116	-50.2818		93.957
51.8862	-13.5039		76.7302
51.6937	-15.1112		75.7413
54.3322	-13.1696		75.9938
51.6849	-11.9204		77.6064
49.4634	-14.5687		77.3991
44.0442	-26.9421		66.0778
45.1019	-26.2866		66.0459
43.9064	-25.6813		67.9651
50.9932	-16.6831		74.724
53.5523	-16.4499		73.9319
51.5352	-10.1955		78.2055
50.8145	-8.39607		78.7312
10.8008	-34.8618		100.214
12.0671	-35.1374		101.316
20.9724	-33.7161		104.902
22.3171	-33.0007		104.313
21.4311	-35.6347		101.658
10.3324	-42.2832		89.7894
11.4882	-41.7274		90.7483
8.50889	-41.0428		91.0007
23.5604	-32.0314		103.523
46.8884	-16.5027		77.9238
57.1482	-13.4025		75.2869
56.9076	-15.2462		74.2315
46.6868	-25.9468		65.9449
56.3584	-16.9113		73.0913
55.3762	-18.1417		72.1253
54.1727	-19.15		71.3826
4.83557	-47.3193		88.4598
3.97024	-45.3139		90.2104
2.23368	-50.4919		88.4967
-0.961632	-53.6661		88.3751
-0.858973	-51.1192		90.3233
-15.7601	-59.0925		81.4361
-14.8666	-58.4281		81.0267
-16.0414	-57.8609		83.0181
-13.5021	-59.6379		84.4156
-12.3682	-58.3917		86.9603
-12.204	-56.9345		80.2848
-12.4637	-54.7907		82.7683
-8.89561	-55.1832		79.8265
3.34288	-43.6317		91.7253
3.02801	-41.704		93.2281
1.41307	-45.8734		91.9606
-0.871321	-48.5889		92.0214
-3.1961	-50.8556		92.2678
-16.3105	-56.3247		84.8871
-15.2845	-54.7681		85.2048
-12.5828	-52.7593		84.7588
-8.91004	-50.986		84.0105
3.21489	-39.7386		94.4644
5.08008	-38.2807		94.2567
-5.22	-47.7334		95.9375
-5.26735	-50.2324		94.2665
24.0936	-38.2499		89.6895
25.2768	-36.1914		91.9056
27.0991	-24.6844		101.67
26.5739	-22.8505		102.074
26.3809	-33.9124		94.2301
13.9983	-35.3245		102.806
14.4879	-36.7986		100.295
14.7964	-38.4364		97.6017
16.8413	-38.5305		98.0719
14.7518	-39.9328		95.1423
14.3003	-40.8413		93.544
13.5082	-41.2147		92.6023
12.5355	-41.4729		91.6041
21.5182	-37.3609		98.2397
20.2986	-37.825		98.512
18.6818	-38.236		98.5204
-103.384	-101.021		12.3394
-106.186	-98.0214		16.2478
-108.323	-104.68		11.9515
-100.641	-103.579		8.43585
-96.6528	-96.1171		12.9035
-87.2269	-89.7168		13.5644
-84.3805	-92.2487		9.5044
-78.6967	-84.5626		14.3382
-90.0734	-86.9327		17.6598
-61.1673	-80.6036		20.3094
-57.0202	-82.9472		15.9583
-65.1917	-78.0973		24.5307
-66.6871	-80.9269		16.7947
-72.2709	-81.9709		15.2717
-75.6319	-79.2704		19.5631
-68.8676	-84.3929		11.1607
-21.8448	-77.724		67.3282
-24.3849	-81.2393		61.8429
-19.4563	-73.582		72.4895
-27.1331	-84.3781		55.5546
-30.8557	-86.1113		50.4106
-34.5424	-86.9497		45.9853
-17.6536	-70.2414		75.8282
-14.3059	-70.2505		75.9112
-16.409	-67.563		77.9265
-20.7733	-69.6046		76.3791
-15.8479	-65.8024		79.0566
-17.8581	-65.5118		79.2942
-53.4009	-84.9171		11.5108
-47.8941	-85.6579		14.885
-59.223	-85.3101		8.58758
-50.5135	-86.7842		6.18092
-42.6497	-87.1335		19.017
-40.2313	-88.1636		12.3629
-37.7295	-88.8492		22.7157
-33.2451	-90.3537		26.533
-30.987	-91.0658		19.1019
-81.4734	-94.5384		5.39259
-91.2033	-100.854		4.93195
-78.9857	-96.8455		1.12142
-72.5626	-89.4842		5.99474
-98.125	-105.799		4.48948
-103.205	-109.762		3.93876
-95.7574	-107.789		0.289415
-65.4338	-86.6277		6.96973
17.5364	-86.7433		20.2326
12.2609	-88.3521		20.3548
23.4124	-84.8114		19.8077
-29.7045	-91.1774		11.8337
-34.0353	-89.9266		8.82221
-28.8609	-90.9048		4.44906
58.9602	-67.5355		12.8646
56.9096	-69.92		1.64466
-12.0913	-93.4239		19.523
-11.2819	-92.8824		10.8601
7.20488	-89.8031		20.6196
7.44284	-89.7073		12.859
30.2148	-82.2725		19.5858
28.8537	-83.0966		11.2889
7.84313	-89.2741		5.03013
8.64315	-88.7521		-2.11688
-46.2134	-91.5206		-10.4154
-51.2583	-92.9319		-11.594
-45.6753	-92.6728		-15.4944
-41.556	-90.5847		-8.91515
-47.0865	-90.0919		-5.20417
-56.7171	-94.8735		-12.221
-36.9392	-90.2547		-6.73683
-37.6751	-89.5203		-0.831982
-36.5009	-90.8477		-12.7381
-32.5975	-90.2477		-4.72093
41.069	-78.0778		-1.81441
48.0843	-74.7433		-5.42719
33.8931	-81.1874		1.62849
55.3856	-71.1405		-9.46359
62.2614	-67.6998		-13.0139
69.1643	-64.1217		-17.2222
67.4345	-64.3496		-28.1715
75.9544	-60.5215		-21.884
-10.5874	-91.879		2.27379
-10.4332	-90.8542		-6.14067
27.742	-83.545		3.64702
26.7443	-83.8961		-2.95928
-76.5442	-99.0632		-3.53299
-86.455	-104.963		-3.89383
-38.745	-88.9754		5.75938
-43.5741	-88.3424		2.79185
-93.4256	-109.531		-4.33422
-98.4458	-113.195		-5.1228
-70.7276	-103.711		-21.9194
-79.4771	-108.121		-22.8006
-45.1896	-93.4246		-20.5144
-43.8682	-93.1877		-25.7971
-40.5098	-92.2408		-19.7129
-35.7541	-91.3672		-18.62
-86.0052	-111.484		-23.9034
-91.2285	-114.086		-25.5035
-10.9841	-90.0369		-13.6758
9.6457	-88.4426		-7.06559
11.2077	-88.2383		-10.7894
5.85406	-89.0745		-8.12797
26.4356	-84.0974		-7.37977
-52.5777	-94.5921		-33.3527
-50.1587	-90.9753		-40.0609
-46.3104	-92.7059		-32.5687
-40.2786	-91.3011		-31.9698
-35.4501	-87.6574		-38.2524
-22.7011	-88.3798		-29.6746
-1.60625	-88.7246		-23.8839
0.254193	-87.9119		-31.0865
-81.4232	-99.7191		-48.8735
-88.6578	-102.959		-49.7882
-81.2603	-94.7718		-55.2849
-73.6432	-96.377		-47.8888
-3.04406	-84.5815		-38.3936
1.48857	-85.5653		-37.4079
3.78416	-86.5047		-37.1477
-108.896	-94.7518		19.9708
-102.235	-90.1086		20.7703
-111.558	-91.3928		23.4347
-113.624	-98.2981		19.2371
-78.9121	-76.0506		24.2661
-82.063	-72.6537		28.7333
-84.688	-78.4915		23.148
-74.416	-75.2523		25.6965
-58.8468	-77.76		41.593
-63.7557	-76.0457		35.3038
-54.9025	-79.1939		46.7817
-69.1944	-75.0403		29.4935
-72.7584	-71.7112		34.3442
-92.7752	-83.6777		21.9145
-95.8159	-80.5252		26.0139
-24.0691	-68.9396		77.1678
-21.5796	-66.608		79.033
-51.5123	-80.2151		50.8167
-20.055	-65.0858		79.9793
-22.3476	-64.1877		81.558
-18.8597	-63.8207		80.6581
-17.8541	-62.6588		81.1381
-19.564	-62.1033		82.5904
-38.4182	-70.7154		76.7074
-42.4814	-72.517		74.7776
-46.4304	-73.9613		72.8629
-17.6492	-58.1072		86.1789
-18.5543	-56.6883		89.0195
-17.2872	-57.3999		85.0916
-16.7464	-59.2623		82.7097
-17.5643	-57.4153		84.6567
-17.7784	-55.4501		87.6544
-18.1305	-57.4843		84.2728
-19.6798	-57.8141		83.5802
-18.6315	-55.3957		86.5948
-23.0148	-58.557		82.8275
-27.1608	-59.6115		82.3189
-23.5384	-56.3734		84.953
-84.726	-69.2307		32.58
-80.6684	-68.35		34.2819
-90.3913	-71.8436		31.4192
-114.295	-87.9602		26.6728
-107.81	-83.5774		27.8834
-116.786	-84.4263		29.5651
-118.714	-91.219		25.7004
-98.6021	-77.3624		29.7383
-80.5537	-61.8115		44.2316
-78.8297	-64.5307		42.0297
-77.1705	-63.0395		52.5043
-118.857	-81.222		31.8125
-123.106	-84.2267		30.779
-74.1744	-64.7051		61.1615
-18.0864	-53.1551		90.3665
-18.3894	-53.0284		89.7149
-19.0377	-53.0064		89.0241
-20.5992	-53.4027		87.8609
-24.0104	-54.1683		86.8261
-28.2354	-55.4375		86.1454
85.7425	-54.0039		-4.6186
84.1172	-55.9974		-15.9037
92.123	-50.4407		-10.7542
87.6294	-50.8219		6.3098
65.1441	-63.9137		-38.1197
15.6074	-73.2939		-62.925
12.0461	-70.8326		-67.1549
-63.1073	-82.8671		-58.6978
-53.263	-79.4437		-58.3226
-63.947	-87.4929		-53.6843
-72.778	-86.7965		-59.2062
-63.0077	-78.5018		-63.0666
-81.1695	-90.4674		-59.9727
-89.0233	-94.2373		-60.6789
-81.5984	-86.2787		-64.0564
-46.9596	-85.9066		-47.1808
-56.1899	-89.0785		-47.1187
-44.8626	-80.9625		-53.2595
-38.3775	-83.9233		-46.4634
127.087	15.9754		5.48847
127.037	8.85764		4.16725
129.199	20.1808		-9.45703
126.232	23.0483		6.96441
102.395	27.1337		-91.5806
113.013	27.7069		-76.7916
103.589	19.5957		-90.9749
90.1472	25.3782		-103.504
100.577	34.6737		-91.6071
77.6049	22.3536		-111.844
79.069	15.1457		-111.123
64.3177	18.2884		-117.824
75.347	29.2469		-112.086
121.011	27.4185		-60.4925
121.75	19.6769		-60.1352
119.604	35.0909		-60.1867
126.394	26.0051		-43.2188
126.194	38.5349		-23.9295
123.474	45.8615		-22.5267
126.52	34.9023		-7.01059
128.073	31.0924		-25.0602
123.198	41.1801		-41.6261
51.5535	13.9398		-121.592
53.1314	7.22588		-120.764
38.5586	9.18911		-123.704
49.4822	20.4025		-121.78
25.1662	4.13865		-124.284
27.0837	-2.34882		-123.322
12.1947	-1.08823		-123.271
23.3324	10.4958		-124.573
-22.3866	-16.6921		-109.046
-20.4773	-22.5796		-108.005
-32.1458	-22.3014		-100.838
-24.6399	-11.4322		-109.089
-11.3807	-11.3903		-115.972
-4.10172	5.94146		-120.868
-6.57994	11.8281		-119.911
7.85347	11.3783		-123.338
-1.90118	-0.059782		-121.089
-15.484	0.385598		-116.291
-73.2691	-42.284		-79.8885
-64.5143	-38.551		-81.5558
-71.6995	-47.4947		-79.5701
-82.0035	-46.0056		-78.8425
-74.972	-37.4706		-79.6581
-93.8879	-40.5135		-76.8934
-92.316	-45.1574		-77.5665
-102.679	-44.5961		-76.0285
-95.5628	-36.1578		-76.0355
-85.0035	-36.6021		-77.9196
-39.6403	-27.1156		-94.1936
-37.8616	-32.328		-93.6578
-46.6766	-30.8152		-89.0282
-41.6035	-21.6453		-94.0857
-55.1498	-34.5067		-84.6379
-53.7013	-40.2253		-83.9628
-56.6329	-29.3187		-84.6219
-58.5041	-24.3964		-84.0269
-50.4146	-20.2553		-88.3274
-67.9082	-28.8128		-80.866
-60.7595	-19.7076		-82.9922
122.34	-11.7837		-1.2834
119.233	-18.8539		-3.15081
124.312	-9.214		-14.8862
124.608	-4.97539		0.791985
81.5036	-6.47205		-104.499
81.397	-13.3171		-101.161
69.3821	-10.0739		-110.165
81.095	0.475481		-107.309
92.9792	-3.71212		-96.4159
103.58	-1.90383		-85.4268
104.209	5.18049		-87.7764
112.354	-1.68408		-72.2354
102.21	-9.21824		-82.6517
118.696	-2.71532		-58.2689
115.973	-10.435		-57.2337
120.518	4.65159		-59.053
122.536	-4.94008		-44.0263
124.481	-6.85877		-29.4003
126.839	0.587786		-28.4683
121.322	-14.3691		-30.1712
57.2764	-13.7677		-113.923
44.9667	-17.8614		-116.006
56.138	-7.06779		-116.772
57.9984	-20.2271		-110.578
32.6027	-21.9657		-116.614
34.0168	-28.0157		-113.269
20.3412	-26.367		-115.512
30.8561	-15.8245		-119.356
8.57354	-30.5181		-112.833
-3.21754	-35.0821		-108.071
6.27901	-25.1108		-115.419
10.4111	-35.774		-109.58
-14.1766	-40.2842		-101.127
-11.491	-44.9695		-98.2821
-23.4499	-45.0814		-93.8615
-16.3005	-34.6858		-104.007
-31.5191	-49.1597		-87.4313
-39.7373	-53.0165		-81.7842
-33.9529	-43.8961		-90.0978
-29.232	-53.9527		-84.0827
-65.9997	-63.2931		-74.646
-75.6593	-66.4313		-74.7051
-68.1178	-58.147		-77.0235
-56.7776	-60.2401		-75.3701
-64.4635	-68.3221		-71.5426
-87.4317	-59.5607		-77.5746
-95.5088	-63.3319		-77.1836
-88.9976	-54.5425		-78.0176
-78.9428	-56.1313		-78.0472
-85.9312	-64.8177		-76.4791
-48.2142	-56.7734		-77.6718
-45.9852	-61.7124		-74.0848
-50.1348	-51.6131		-80.4533
94.5596	-30.445		-70.9235
100.239	-31.4718		-60.1583
90.7512	-37.6265		-65.4021
87.1026	-30.7273		-80.5775
97.6014	-23.3978		-75.7104
104.192	-32.8526		-49.3089
99.2242	-40.1416		-44.2966
108.669	-25.4555		-53.1311
106.793	-34.3776		-38.4397
108.617	-34.7846		-27.7093
103.538	-40.9523		-22.8837
113.274	-28.3804		-29.8509
58.4736	-26.1306		-106.876
69.7557	-22.8538		-103.024
58.4498	-31.8364		-102.751
46.838	-29.8775		-108.981
80.9209	-19.6282		-97.4381
91.1001	-17.3626		-89.7309
79.8164	-25.9867		-93.1594
12.3893	-41.0601		-105.54
23.8552	-37.5801		-108.184
14.2632	-46.2965		-100.863
1.16311	-44.833		-101.159
35.1241	-33.7501		-109.429
36.3848	-39.0938		-105.154
-8.75963	-49.1483		-95.0371
-6.31524	-53.553		-90.7538
-18.0623	-54.0691		-87.3826
-26.3578	-57.9467		-80.6935
-22.793	-61.1452		-77.5109
-43.8453	-66.9064		-69.342
-43.5504	-72.3212		-63.4938
-53.3425	-70.1959		-67.6961
66.9235	-54.3021		-65.5635
60.0846	-54.9403		-72.341
70.2815	-49.4943		-71.2831
115.451	-25.7316		-4.21848
117.522	-23.3092		-17.3493
82.2443	-56.4523		-26.9263
88.328	-51.974		-32.6415
20.1102	-58.3142		-87.0692
18.0085	-54.8176		-91.5947
29.0792	-55.6165		-89.5535
21.7886	-61.8393		-82.0382
10.843	-61.03		-83.1037
38.0041	-52.3913		-91.1375
37.6411	-48.2327		-96.1398
46.841	-49.688		-90.5675
38.1134	-56.6292		-85.4607
56.0689	-47.1781		-88.1401
57.2194	-42.2398		-93.4583
64.9328	-45.3827		-83.5727
54.4872	-51.9987		-82.4427
-12.4386	-67.6954		-68.764
-16.1193	-65.715		-71.6381
-5.39625	-65.6064		-73.5623
-8.78592	-69.7461		-65.6321
-19.5476	-69.9984		-64.1789
8.74656	-68.38		-71.1743
1.85175	-70.0729		-66.9386
5.57564	-66.0616		-74.6966
15.9236	-66.7557		-74.5274
-43.8633	-76.8386		-58.3169
-34.9724	-74.4678		-59.1421
6.95825	-89.292		-16.343
10.6965	-88.7334		-14.6316
3.93233	-89.2913		-13.4658
12.4421	-88.2419		-13.2444
36.8055	-81.0414		-17.8331
41.589	-79.2419		-20.6817
46.2869	-82.5031		-57.3429
52.0056	-80.5969		-55.4349
46.2756	-83.3347		-56.7227
8.39219	-91.2979		-38.4605
5.85395	-91.7947		-34.5563
56.6644	-78.8041		-52.1988
56.4981	-77.7362		-52.5324
59.8722	-77.4883		-48.1787
56.4861	-79.9578		-51.7515
52.5885	-78.0536		-29.5014
51.9819	-76.7442		-29.9052
61.4011	-76.8694		-43.8396
61.2204	-78.1123		-43.2135
23.9373	-87.8251		-51.1644
9.34399	-93.9634		-31.0321
9.59234	-93.7046		-28.1585
6.70967	-93.178		-31.0585
43.8612	-78.2958		-22.7598
59.129	-75.1805		-38.4442
55.9534	-75.111		-35.0887
57.7006	-74.3376		-39.7372
51.5246	-75.2181		-31.1245
51.3687	-74.0118		-32.6017
56.0682	-77.178		-52.6098
50.6228	-73.2206		-33.8837
52.5337	-73.1376		-36.9949
54.3704	-73.2345		-41.0968
51.4189	-72.0289		-41.5503
16.9913	-91.5912		-43.0438
16.6381	-93.3719		-35.1316
4.92092	-92.1474		-31.1546
10.3944	-92.992		-25.7394
13.4722	-92.9307		-26.1948
15.8648	-92.7456		-27.4696
17.3298	-92.448		-28.6384
46.1372	-83.6926		-56.3141
51.7715	-82.1096		-54.5324
59.2525	-78.9686		-35.1364
58.783	-79.4365		-34.8321
60.813	-78.9262		-38.6449
58.2437	-79.6833		-34.6319
59.895	-79.6636		-38.0882
57.1659	-79.9472		-34.6719
56.1931	-80.5756		-51.412
59.2224	-79.4724		-47.3917
55.802	-80.9065		-51.2408
60.861	-78.9824		-42.7749
60.4231	-79.445		-42.6345
59.9283	-79.7322		-42.3061
58.38	-80.0861		-46.9429
55.4888	-81.0683		-50.8778
42.0998	-85.1188		-54.7823
55.7865	-80.1657		-35.0492
48.4929	-81.2074		-31.3788
55.1038	-80.8135		-43.9609
39.7677	-86.6604		-49.2392
41.5542	-85.9813		-49.0969
43.3189	-85.2316		-48.6429
44.7357	-84.5585		-47.8103
45.8895	-83.9131		-46.5779
46.6624	-83.0998		-43.8929
20.0669	-89.4984		-26.2114
18.8455	-90.9964		-28.0344
42.0824	-82.6536		-27.3523
27.1819	-85.5117		-24.6708
17.9554	-92.1852		-29.2335
61.9799	-34.6788		62.8367
117.524	-4.85141		26.8245
122.405	-1.66488		15.6359
115.174	20.6269		33.8319
120.476	25.5389		22.0711
112.492	27.9399		35.3509
126.241	2.03819		2.47915
128.362	5.41181		-11.9452
124.428	30.4236		8.48335
121.747	37.792		9.90026
129.066	23.67		-25.9477
129.205	15.9754		-26.7574
128.458	8.40517		-27.6805
126.244	10.5545		-43.6577
89.7722	-46.4582		16.1587
97.885	-46.0811		-17.0651
96.1173	-47.0065		-27.8992
117.661	-21.2944		-30.6559
115.835	-19.8677		-43.3238
117.512	42.6748		-59.264
109.21	42.9076		-75.9211
114.754	49.9954		-57.8735
121.664	12.2965		-59.4335
114.196	12.8766		-75.2581
93.8515	-46.4026		-38.5565
90.9142	-45.338		-49.1609
112.715	-17.7267		-55.7021
107.574	-16.4686		-67.7363
86.5858	-44.0806		-59.4487
80.7791	-43.5815		-69.0507
73.5915	-43.9525		-77.1035
76.1449	-38.2463		-82.8627
-63.6657	-73.7085		-67.4898
-73.4158	-77.1222		-67.9888
-82.1961	-80.9898		-68.3459
-90.2495	-84.6428		-68.9369
-83.113	-75.2492		-72.0483
98.423	41.9389		-90.8301
85.7661	39.5505		-103.091
95.6143	48.8703		-89.7218
72.8527	35.9528		-111.608
59.7493	31.6103		-117.479
70.0944	42.5982		-110.467
47.0551	26.983		-121.288
34.3929	22.1855		-123.458
44.3417	33.7222		-120.103
21.1667	16.9912		-124.182
18.4689	23.2768		-123.121
0.143476	-6.20964		-120.61
2.03625	-12.5536		-119.447
-26.9034	-5.82173		-108.694
-36.8498	-12.0449		-99.7537
-29.2786	-0.628277		-107.668
-43.9711	-16.5304		-93.201
-46.3799	-11.5129		-91.9998
-76.5126	-32.8044		-79.0957
-78.2672	-28.2687		-78.2318
80.2426	7.86091		-109.604
92.5681	10.7308		-101.294
67.4208	4.10355		-115.385
104.085	12.4841		-89.8205
54.7559	0.124337		-119.117
41.9984	-4.33766		-121.146
29.0851	-9.05079		-121.659
16.2305	-14.1195		-120.502
4.13145	-18.9696		-117.68
-7.46287	-23.7698		-112.995
-18.4123	-28.6456		-106.356
-28.0913	-33.4923		-98.8709
-35.9824	-38.099		-92.29
-43.5739	-42.2939		-86.7954
-51.9578	-45.921		-82.6373
-60.955	-49.5477		-79.9256
-69.843	-52.8953		-78.6362
-84.3492	-70.0736		-74.6526
-92.461	-73.8954		-74.6665
100.348	-16.1239		-79.4498
78.5411	-32.0653		-88.1285
68.3843	-34.447		-94.1742
58.2026	-37.0067		-98.3538
47.5993	-40.2391		-100.56
37.2177	-43.7319		-100.856
26.7221	-47.4995		-99.1865
15.982	-50.8064		-96.2189
5.79098	-53.932		-92.0398
-3.41369	-57.0132		-86.9137
-0.763424	-60.4585		-82.5432
-12.0607	-60.5122		-80.5429
-19.4531	-63.509		-74.6836
-27.0096	-72.5325		-60.5468
-24.2244	-74.3182		-57.6542
53.1608	-55.9317		-77.1038
45.6655	-57.8846		-79.4918
51.3285	-60.0639		-71.1343
23.4051	-64.692		-77.508
30.9616	-62.5113		-79.2994
2.30887	-63.324		-78.6425
38.4668	-59.9942		-80.2753
-4.95341	-71.7385		-62.6302
-11.6545	-73.5777		-58.5682
-75.9697	-68.1437		38.9054
-28.1928	-90.7486		-2.74502
-48.4552	-88.5021		0.592309
-9.69474	-51.2913		95.3339
-9.84234	-53.8801		92.9928
-10.778	-56.5357		89.8506
-22.858	-52.0247		96.6376
-23.8893	-52.7609		96.6831
-24.9261	-53.3808		96.6166
-25.1661	-63.202		83.784
-23.4945	-62.2206		84.7023
-22.0927	-61.3479		85.4024
-5.66743	-53.0058		91.9413
-10.5414	-70.0092		76.2984
7.22976	-55.9723		83.1098
2.84121	-59.2782		83.0954
-1.52783	-61.7489		82.6765
6.51398	-83.033		53.6092
52.1219	-25.0529		66.3683
49.5489	-64.0542		-64.7265
52.174	-69.8518		-45.8364
50.9924	-71.5944		-43.3879
1.27846	-89.633		-9.37094
43.718	-35.3495		66.0122
79.1192	-42.1		47.901
6.56214	-37.5363		94.3222
57.0369	-48.7899		53.2136
8.365	-39.3094		92.6659
50.9153	-71.7255		-42.2794
-65.1962	-92.649		-47.4808
-29.4838	-82.9626		-45.419
-24.5541	-78.8289		-50.8507
-19.7323	-75.9485		-54.9459
13.0343	-45.8026		85.7912
-19.2499	-54.7208		91.8492
-16.4264	-60.3221		81.4192
-17.4453	-48.0815		94.2109
-57.6656	33.3306		31.1855
-53.5274	35.7673		32.4706
-57.4104	36.2655		24.1516
-61.5042	30.8526		29.8082
-57.5419	30.2265		39.2069
-118.209	-3.26603		11.0846
-108.483	0.190286		10.9415
-118.449	-0.0593705		7.19115
-128.203	-6.14886		10.8514
-117.606	-6.87999		14.6594
-135.574	-7.9307		10.395
-135.726	-11.5709		14.4105
-135.229	-4.87107		6.16804
-141.397	-9.2063		9.82994
-99.596	-5.2324		18.9897
-100.604	-0.689315		14.9732
-106.859	-7.96096		18.2583
-99.0254	-10.0153		22.5362
-94.1817	-2.48321		20.1089
-103.17	8.44186		3.44802
-102.459	5.99224		7.39046
-98.1974	10.7947		3.63445
-103.093	10.7831		-1.44382
-109.671	5.70579		3.28735
-70.7255	17.6816		39.9357
-71.24	20.098		32.7874
-73.8632	14.4147		37.3663
-70.3089	14.6209		46.349
-67.684	20.4437		41.9723
16.6307	64.5702		35.0707
11.9739	69.4467		24.4568
10.2345	60.382		39.0668
22.7989	59.8585		44.2526
22.9484	69.5909		29.7149
15.7323	84.721		-17.1684
9.16717	81.7662		-11.4317
18.8125	83.8289		-6.78779
22.0836	87.1944		-23.2318
11.6871	84.7317		-26.5378
-94.3392	-50.4976		40.2445
-90.1258	-48.8416		42.0163
-95.1379	-47.5915		39.643
-100.35	-53.5313		40.0178
-93.4915	-52.8425		40.5479
-110.186	-56.93		38.9315
-120.402	-60.1459		37.4154
-109.054	-59.8195		39.2651
-110.86	-53.4305		38.2514
-125.044	-69.193		36.3674
-129.747	-70.7805		35.7964
-118.13	-66.5685		37.4001
-126.223	-65.8431		36.6179
-68.294	35.365		-14.8672
-62.3185	40.0125		-19.4033
-73.1188	30.9132		-17.4214
-73.0852	31.3397		-9.34374
-63.4552	39.7841		-12.4129
-58.1561	43.6183		-22.6533
-54.7188	47.7791		-19.1694
-54.5434	46.8319		-25.2808
-62.4899	38.5574		-26.393
-131.547	1.52898		-9.87298
-133.659	-0.346981		-3.31564
-129.37	2.47449		-16.9871
-137.962	-0.614757		-11.6392
-108.132	-62.5301		39.1886
-98.6662	-58.2838		40.4631
-57.3374	26.8633		46.6137
-61.4525	24.5161		45.4249
-56.4186	23.5407		53.1598
-52.5792	29.6849		47.0701
-71.4435	22.7332		25.3297
-68.2361	25.6478		26.9256
-72.2217	24.8821		17.4679
-74.5377	19.7583		23.3361
-68.5856	-49.0085		90.089
-62.9183	-47.4176		92.2565
-68.6815	-45.2063		89.318
-72.631	-50.2314		87.6386
-68.0654	-52.7135		90.5311
-68.1674	-41.1186		88.2097
-63.1136	-39.3821		89.905
-67.6214	-36.4145		86.3047
-72.3051	-43.0654		86.2231
-55.4374	-51.5929		94.0468
-61.3354	-53.6397		92.9384
-50.1966	-49.5637		94.3152
-56.5543	-48.8272		93.9266
-74.9631	-50.8376		85.2594
-74.2066	-53.9951		85.7009
-75.3726	-47.6714		84.6139
-76.924	-50.9009		81.8503
-78.4509	-50.5325		77.3178
-79.7222	-49.6589		71.6833
-77.7911	-53.853		77.3248
22.3436	-4.29444		85.0488
25.3061	-5.66762		85.46
24.7133	-2.1304		81.6298
19.8186	-2.47005		84.318
19.6377	-6.63732		88.4006
-19.6453	6.62488		87.1463
-24.4054	5.34984		86.9034
-14.8964	2.38179		89.5872
-14.8312	8.46323		86.8128
-24.2827	11.9268		83.189
-18.2038	22.1004		77.4001
-23.4606	20.0916		77.6534
-14.1249	15.8039		82.5462
-12.3111	24.1545		76.656
-21.0723	29.3127		70.2241
-6.96754	45.2369		55.986
-3.62428	43.2426		59.0894
0.498757	47.9376		54.1025
-9.53788	47.3765		51.8694
-29.0461	4.01467		86.0482
-24.2558	-0.481744		89.5409
-33.7354	9.48803		81.1456
-33.5384	2.54443		85.1945
32.1006	-17.6677		95.1418
30.8213	-16.1778		95.0582
28.8249	-19.3862		98.6376
35.2608	-15.7888		91.492
74.0825	37.2883		62.9065
78.4625	41.2731		58.739
70.0678	41.5623		61.4989
69.284	32.7765		67.5084
77.2516	33.0694		63.8271
-79.9761	-55.1011		64.5825
-78.2148	-56.1361		71.5688
-80.8207	-52.3614		64.4577
-82.1278	-54.1686		56.3051
-54.5838	19.8568		59.5304
-49.6231	22.5918		60.3277
-59.2496	16.7971		58.8103
-51.8533	15.7763		65.8046
-73.3327	-56.8521		85.7855
-75.3995	-56.8358		82.0341
-71.1181	-56.6137		88.1599
-76.9184	-56.6977		77.2154
-73.3719	-19.577		70.3945
-70.1071	-18.6367		73.6365
-72.8353	-12.6713		66.716
-75.9973	-21.0297		67.3239
-73.5598	-26.3332		74.5279
-82.3446	-13.721		47.018
-82.6506	-19.6738		50.3645
-79.7179	-10.5474		51.7195
-81.9742	-8.02947		43.3772
-85.4892	-17.0485		41.599
-84.7601	-53.2025		47.6727
-88.4102	-53.377		42.2655
-85.6494	-50.9055		47.489
22.451	-18.0811		101.419
24.3013	-19.7949		102.14
25.7138	-16.2201		97.8724
20.0317	-16.251		100.067
19.9073	-19.5431		104.27
-0.443043	-8.88598		91.6375
3.69354	-10.8364		92.4482
4.71237	-7.9667		91.2165
-4.32269	-6.17234		91.1988
-34.6315	-19.5907		91.1482
-33.9821	-21.3885		91.2495
-33.3005	-20.4177		91.2549
2.73125	-22.1175		96.7982
1.75677	-20.7805		95.9642
2.0982	-22.9369		96.1939
3.33808	-20.566		97.408
-1.20331	-23.9749		95.0574
0.0792904	-25.2158		95.6524
-0.120039	-23.7517		95.14
-2.35298	-21.9762		94.2645
-2.86596	-24.0957		95.1716
6.83988	-29.9228		100.739
6.29804	-28.4716		100.205
5.85364	-30.093		99.6108
7.69625	-29.9084		101.987
-2.82084	-19.6683		93.6433
-4.55136	-19.7135		93.7364
-1.59949	-19.653		93.8319
-2.62597	-17.2716		93.1776
12.7115	-23.2166		107.116
14.2119	-22.4506		107.465
11.5063	-20.8735		104.896
11.0141	-24.0076		106.138
13.7762	-25.4476		108.593
-47.4063	-27.9834		90.8237
-52.2392	-28.246		89.1898
-47.749	-31.8737		92.1274
-43.1743	-27.9742		92.3169
-46.3796	-24.26		89.7886
-27.815	-18.6229		93.7048
-29.5439	-17.171		92.9491
-25.9404	-20.2311		94.7494
-23.8211	-17.3868		94.6299
1.48978	-31.4598		97.8676
3.47441	-30.6434		98.2112
1.00495	-30.1465		97.7166
-0.916739	-32.7597		97.9984
28.9347	-14.4697		94.5098
31.6684	-12.52		91.0648
26.1033	-12.6461		93.6661
6.04302	-14.6008		96.2407
5.9035	-14.1094		95.5777
4.49476	-15.1801		95.805
7.43112	-14.7219		97.2761
8.35922	-14.3733		97.1721
3.8546	-27.7971		97.9087
4.39625	-28.8969		98.4653
4.82545	-27.4502		98.4377
2.81667	-26.9496		97.0761
2.35037	-28.5066		97.4828
5.65759	-27.3596		99.3211
6.50071	-27.1722		100.502
8.81344	-14.9567		98.2327
7.11337	-15.3815		97.9246
9.70457	-14.7266		98.2232
2.39833	-16.2122		94.9288
0.808348	-17.6101		94.3904
4.09867	-16.2677		96.4164
-8.88772	-37.2611		100.372
-6.32422	-35.674		99.3969
-9.26919	-35.0728		100.475
-10.6974	-37.9556		101.067
-10.1154	-14.9846		93.3872
-5.34877	-15.0469		92.7605
-11.6228	-13.0724		93.247
-14.9146	-15.4546		94.2905
-8.76891	-17.1381		93.7328
-39.9236	-40.1004		96.4804
-40.6166	-37.0968		96.1736
-42.8183	-40.8102		95.3711
-39.2611	-43.3927		96.2944
-37.7048	-39.6286		97.6014
-27.4159	-23.1898		94.7694
-25.715	-22.4835		95.4951
-29.9771	-21.6175		92.8249
-28.2781	-23.1456		94.2733
10.3127	-14.5293		97.9873
12.1946	-15.1169		99.193
10.7036	-13.9342		97.0736
-41.0071	-34.2155		95.5546
-38.9916	-33.988		96.5275
-41.1664	-31.1527		94.4816
-43.8386	-34.6316		94.3829
-38.577	-46.1534		95.8428
-36.4826	-45.806		96.8771
-40.9211	-46.7956		95.023
24.3241	47.5979		62.1529
24.7676	48.7191		60.7811
17.5955	47.1484		59.7896
24.2163	46.3919		63.4433
56.8622	39.0467		67.103
60.8791	42.4444		63.2373
51.6137	43.7055		64.3603
53.4756	36.4739		70.3883
61.0258	34.8127		69.4223
45.4401	48.3244		61.0851
49.2386	51.8228		56.8
38.2568	52.2846		57.0618
42.8585	46.0024		64.4381
47.8681	34.1714		73.9089
49.913	34.6665		73.0523
45.5189	33.7733		74.4195
50.8215	29.8871		77.1654
24.8689	50.4585		58.3697
16.7715	50.9998		54.9411
33.8648	48.3506		62.7736
26.6207	52.468		55.7774
45.6693	15.6411		76.3148
46.0708	12.1617		76.238
47.2411	15.6739		76.6874
44.9568	19.3333		76.4542
43.9779	15.6328		75.8423
38.6721	-7.30836		82.3713
36.9116	-8.66072		84.3258
41.3839	-9.38057		82.8976
40.1782	-6.46739		81.2089
35.3032	-5.62848		81.6261
10.1102	4.73168		83.7097
14.7134	0.749037		84.1031
13.8731	6.08191		81.4668
4.97358	9.59613		83.2314
5.7339	3.0558		86.1229
4.27014	37.1991		64.7813
2.50131	32.9045		68.6904
7.25801	35.8865		65.508
7.99078	40.2035		62.423
1.63991	38.4368		63.9488
34.5516	-10.4593		87.3436
37.0288	-12.2374		87.6148
31.4532	-8.77002		86.8549
43.5927	33.6155		74.5711
41.9213	32.9793		74.6977
46.9113	28.8352		77.3845
40.6263	38.6399		72.2447
36.7331	42.3308		69.868
30.8005	44.5055		67.2894
35.2497	41.1451		70.551
14.6876	38.6376		64.5967
13.7715	40.2203		63.4596
11.796	36.8616		64.8725
15.5819	37.0139		65.6758
18.6052	40.1283		65.3523
26.0031	30.1653		72.3664
28.0659	28.8917		73.4055
23.5978	31.0717		71.037
30.1339	27.3124		74.1692
32.0141	25.251		74.6208
31.0954	27.7315		74.3577
28.9037	29.5451		73.572
33.0827	25.4382		74.8021
33.5643	22.8573		74.6208
34.5153	20.1542		74.4398
34.5723	22.8773		74.7598
35.5247	19.9505		74.5151
34.9275	17.2555		74.2143
34.7519	14.4688		73.8589
34.0567	11.8249		73.2321
33.011	9.57879		72.631
35.2142	11.0715		73.1302
35.8555	13.754		73.7529
34.0401	8.81346		72.5951
31.9767	8.07929		72.1925
36.2007	10.1383		73.1285
37.0689	13.1034		73.7721
35.6797	22.9075		74.9593
36.6972	19.7616		74.6619
16.4039	32.4824		67.9656
16.079	31.1683		68.6924
43.8155	23.0095		76.6334
42.0751	22.665		76.1495
45.5852	23.552		77.0718
41.9416	27.3304		76.3206
30.1339	35.8237		71.9733
28.7193	33.8715		72.3533
33.0357	33.4344		73.482
31.9935	37.9909		71.5301
15.1472	18.2947		76.3566
18.5632	12.5249		77.3493
12.8271	23.7638		74.12
13.4955	17.8963		76.765
22.0864	8.29399		76.7529
21.0332	8.00657		77.309
24.5209	5.81756		75.7152
28.4164	4.05156		73.8539
27.2455	4.29755		74.4586
29.2805	4.05636		73.3884
18.3129	18.924		75.8032
21.0138	13.6509		76.5437
16.3744	24.0887		73.8062
27.2232	6.56487		73.5981
27.9404	6.17142		73.0693
25.9924	7.50778		74.473
28.5562	5.8565		72.7604
29.3059	5.64883		72.5008
39.0303	3.96253		74.5667
41.7751	3.5385		75.5024
40.2953	6.17236		74.4548
35.9445	4.63399		73.4367
30.6824	4.38708		72.979
37.1902	16.3611		74.2976
34.5302	5.18115		72.9015
35.895	6.85265		72.9463
33.1692	4.0259		73.1524
19.6205	19.3402		75.6273
22.1422	14.1016		76.2355
27.7816	7.12963		72.9599
26.8739	8.09944		73.7748
28.2858	6.63258		72.6051
28.7401	6.44972		72.2839
21.3128	31.5135		69.7053
54.1693	-3.2096		77.9851
56.7093	-1.18853		77.5849
52.5969	-1.06133		78.0194
52.0206	-5.03526		78.4218
22.1412	1.95666		79.1832
19.9718	3.92189		79.3333
20.2779	1.0164		81.0972
24.0536	0.560271		79.1982
23.4696	2.58864		77.883
26.36	-1.02713		79.5298
29.0768	-2.53736		80.0541
29.3339	1.53302		75.5237
30.4237	2.45804		74.3848
31.0845	0.0919571		76.4217
40.7044	-0.690148		77.0257
42.2033	-1.17967		77.534
42.2166	1.13806		76.4508
26.0638	4.73668		75.0124
25.4324	3.97289		75.7993
24.5703	3.17433		76.7671
22.6059	4.90084		77.1892
-29.044	-27.1693		93.0669
-27.4417	-29.489		94.3258
-30.3886	-24.7456		91.6684
-28.9748	-27.2038		92.8012
-31.3698	-23.2931		90.9135
-31.1741	-23.473		90.7936
-13.9912	-39.1253		101.487
-15.3137	-39.5314		101.237
-12.7312	-38.6468		101.53
-14.7444	-36.8093		101.545
-18.71	-35.4503		100.532
-20.1262	-33.4255		100.028
-20.1331	-35.9162		99.729
-17.687	-37.5921		100.738
-17.2632	-35.169		101.06
-21.5889	-31.4349		99.293
-23.6804	-29.1648		98.0262
-23.061	-31.7798		98.4079
-20.3152	-30.9888		99.8599
-15.7577	-34.7846		101.382
-14.4022	-34.3715		101.499
-17.2822	-32.714		100.931
-16.3481	-30.561		100.606
-17.7176	-30.3349		100.45
-14.5559	-32.6194		101.209
-15.092	-30.478		100.568
-26.8906	-26.7762		95.6453
-25.4214	-26.5191		96.7384
-21.5041	-36.4104		98.5973
-22.9011	-34.0166		98.1344
-22.1633	-36.6928		97.7301
-20.1824	-38.5671		98.9685
-24.6637	-31.8336		97.091
-25.4021	-31.9193		96.1879
-30.3548	-22.3891		92.5405
-32.3049	-21.7396		91.2997
-30.0004	-27.4132		93.6847
-30.2223	-27.4373		93.9763
-28.7281	-30.0067		95.3031
-29.9231	-27.4273		93.4623
-31.6926	-27.5455		94.7297
-31.4517	-30.1437		96.8509
-31.1471	-27.5241		94.5603
-30.6168	-32.8662		98.601
-31.6135	-32.7932		98.6878
-29.6769	-35.1229		99.602
-29.6709	-32.7371		98.261
-25.7872	-37.5298		99.2693
-24.7266	-40.0745		99.4241
-24.5861	-37.5035		98.6895
-27.1258	-34.9941		98.7123
-27.3185	-37.5743		99.8362
-26.9394	-43.1815		100.269
-25.5575	-42.7689		99.8985
-27.6148	-40.6219		100.423
-28.1939	-43.5923		100.453
-32.909	-23.5757		90.2306
-32.197	-23.5163		90.8477
-31.976	-25.2323		91.3027
-34.3509	-24.1293		89.5158
-22.7543	-41.5376		95.1601
-21.9855	-41.4918		96.3512
-24.4676	-41.8628		93.7803
-23.6026	-39.8006		95.3183
-29.3754	-44.0068		100.454
-30.0054	-41.228		100.689
-30.4596	-44.3631		100.275
-34.4707	-45.4523		98.1204
-32.7607	-45.0295		99.2322
-35.0528	-42.5692		98.6112
-13.4232	-34.1953		101.432
-12.321	-36.0283		101.487
-11.8805	-34.1894		101.18
-24.0803	-42.2975		99.3408
-22.752	-41.9434		98.6634
-22.0882	-41.7506		98.1437
