1811
29.8241	31.4202		-116.904
24.7328	46.0559		-115.903
28.2838	17.457		-118.151
34.4058	16.109		-115.708
26.7065	3.74763		-117.789
22.1538	18.8034		-119.92
21.2339	-33.7701		-105.47
26.8461	-34.8481		-103.076
19.7378	-44.9518		-97.7438
15.7764	-33.2986		-106.835
23.2412	-21.6473		-111.75
12.9483	-7.21969		-118.947
6.63887	-6.6747		-119.514
14.2379	5.73099		-120.874
19.0586	-8.07323		-117.69
11.519	-19.7654		-114.907
13.5099	-90.138		-78.4818
14.6297	-80.794		-79.8333
18.6293	-91.2218		-76.9146
12.531	-99.4629		-77.7426
8.54636	-89.3634		-79.4559
1.99638	-107.22		-78.4502
6.85719	-108.026		-77.9442
1.34663	-116.779		-77.8596
-2.70768	-106.641		-78.7387
2.87318	-97.6692		-79.164
18.9394	-53.7746		-91.3497
24.0644	-54.6618		-89.5769
17.7427	-61.6604		-86.5011
13.3649	-52.9392		-92.5848
16.0826	-70.7677		-82.5353
21.4865	-72.1936		-80.5502
10.9609	-69.6332		-83.7562
5.75767	-68.9698		-84.4183
6.86511	-59.9987		-88.4243
4.56899	-79.1946		-81.5804
0.480191	-68.7518		-84.6651
57.61	92.8357		16.4658
62.9511	86.844		15.5695
59.2039	95.831		2.75919
52.0936	97.9656		17.4678
57.8612	61.2153		-89.995
62.8983	57.8906		-85.4732
56.8093	49.1035		-96.2574
52.3979	64.1246		-94.1034
58.7865	72.3356		-81.322
59.4652	82.2072		-69.7705
54.217	86.0795		-73.3422
60.1877	89.7189		-55.9988
64.495	77.5711		-65.8459
60.7385	94.5284		-41.5087
65.962	88.5489		-39.3398
55.3717	99.5471		-43.4932
61.1657	96.6186		-26.7822
60.4318	97.2264		-11.9146
54.7721	102.734		-12.1901
65.7662	90.9793		-11.5988
55.404	36.9308		-100.662
53.8664	24.3691		-103.406
49.8458	39.0893		-104.844
60.468	34.5069		-96.1142
51.9787	11.7288		-104.742
56.9997	10.093		-100.194
50.0011	-0.991922		-104.372
46.6025	13.0998		-108.784
47.672	-13.197		-102.484
45.2083	-25.6476		-98.5328
42.6356	-12.64		-106.297
52.2291	-14.0989		-98.1346
43.1657	-37.704		-92.2627
47.7176	-37.6068		-88.3119
41.4616	-48.1075		-85.5186
38.0983	-36.895		-96.3638
39.8822	-57.1126		-79.5189
38.233	-66.1256		-74.2767
34.8915	-56.7177		-83.398
44.2522	-57.4337		-75.1092
33.6898	-93.7691		-68.2481
32.0359	-103.606		-68.7882
28.8376	-93.1491		-71.8456
35.3703	-84.3529		-68.5338
38.0191	-94.856		-64.0383
21.4509	-110.544		-74.3931
20.9515	-119.328		-74.2334
16.5302	-109.542		-76.0402
22.4426	-101.567		-74.524
26.3996	-111.725		-72.0755
36.7388	-75.2873		-70.5109
41.174	-75.7397		-65.8196
32.0704	-74.4855		-74.4482
76.7137	60.8144		-51.482
77.778	65.0809		-40.191
79.9805	54.0331		-45.3433
75.7436	54.3714		-61.6611
73.062	66.8372		-57.0231
78.4094	67.6804		-28.9415
81.4386	59.8333		-23.447
74.8077	75.1101		-33.4271
78.5742	69.0421		-17.7905
77.5181	70.2892		-7.0509
79.6755	62.8728		-1.9898
74.4038	77.3936		-9.67669
64.8759	32.112		-91.3733
66.258	43.3729		-86.891
68.8047	29.3611		-86.3394
63.3423	20.2948		-94.1315
67.2377	54.478		-80.7415
68.1142	64.244		-72.4858
71.2215	50.4804		-75.5596
56.6988	-14.9132		-93.0319
59.455	-3.27958		-94.7796
60.9379	-15.8159		-87.3598
53.9055	-26.5052		-89.5326
61.509	8.32055		-95.2873
65.6605	6.84793		-90.0346
51.7694	-37.2481		-84.0901
55.6502	-37.2698		-78.8887
50.0869	-47.758		-76.9554
48.1899	-56.8823		-70.7685
51.7987	-55.3648		-66.7263
45.534	-76.4221		-59.9963
49.0254	-78.8335		-53.2679
43.7684	-86.199		-58.7276
83.6215	25.4611		-45.6623
82.5444	19.3569		-52.8789
82.2515	30.7652		-51.5133
67.6614	80.344		15.2772
69.1747	83.3487		2.16469
84.436	36.9787		-6.46078
84.4218	44.5202		-11.7318
70.7091	-16.6528		-71.2967
67.7983	-16.7395		-76.4917
72.986	-7.5434		-73.0234
73.343	-16.963		-65.6857
67.9838	-26.0593		-68.1872
74.5896	1.75853		-74
71.9961	3.49334		-79.5696
76.1186	10.6942		-72.8431
76.9894	-0.254981		-67.8255
77.5791	19.8407		-69.8232
75.0585	23.258		-75.6588
79.0162	28.2944		-64.6656
79.7252	16.0874		-63.7253
60.0422	-49.688		-56.0994
57.3563	-51.8713		-59.575
62.4815	-42.5032		-60.2442
62.719	-47.5716		-52.3807
57.8161	-57.019		-52.0666
70.642	-31.615		-55.85
68.0477	-38.4913		-52.3694
68.032	-33.1868		-59.9653
73.2267	-24.5433		-58.4318
51.6386	-81.3431		-47.4323
53.7084	-72.5446		-47.8817
75.2294	-44.773		-2.12774
76.0524	-41.3258		-0.288144
73.2317	-47.5236		0.0930343
76.1101	-39.6242		1.04945
82.1267	-14.6885		-0.998655
83.4911	-9.57463		-3.16597
96.4411	-5.92965		-35.5169
96.9998	-0.0923094		-33.3064
97.0017	-6.34639		-34.7846
82.6092	-43.6816		-21.3409
81.0145	-46.2394		-17.9798
96.8957	4.73025		-29.9661
95.9863	5.09863		-30.4997
96.3799	8.03895		-26.0028
97.6911	4.01786		-29.3629
89.5845	0.910208		-9.78921
88.2943	0.981789		-10.499
95.6326	9.5395		-21.8629
96.4587	8.78576		-21.0791
89.4842	-28.1046		-31.7643
83.5881	-44.3388		-14.0938
82.8342	-44.1166		-11.5683
81.7555	-46.2526		-14.5284
84.2236	-7.06609		-4.89883
92.0899	8.20966		-17.5659
89.8674	5.36719		-14.9569
90.9931	7.37238		-19.1264
87.0612	1.31878		-11.9532
86.2755	1.77033		-13.5457
95.324	4.98593		-30.74
85.5547	1.53636		-14.9778
87.0363	3.33179		-17.5718
88.8308	5.00054		-21.07
86.5529	3.00004		-22.152
87.7274	-36.1553		-24.4853
87.29	-37.5543		-17.0357
80.1196	-47.3152		-14.9807
82.0561	-43.1812		-9.44486
83.4798	-40.4386		-9.47944
84.6839	-38.2117		-10.372
85.3555	-36.7422		-11.3021
97.1467	-6.64502		-34.3666
97.9714	-1.03612		-32.2223
94.6023	6.46149		-13.7798
94.7059	5.81877		-13.4701
95.9955	7.92885		-16.7737
94.6171	5.21352		-13.3151
96.0802	6.75746		-16.26
94.3528	4.14288		-13.4683
98.0038	3.45917		-28.981
97.5873	6.51401		-25.011
98.0675	2.95319		-28.8304
96.9336	8.05368		-20.5681
97.0981	7.44461		-20.427
97.0474	6.86477		-20.1531
97.6273	5.46933		-24.622
97.9827	2.59157		-28.5109
96.1847	-10.8805		-33.2405
93.9854	2.84037		-13.9874
90.7047	-4.12957		-11.5279
96.1115	2.18917		-22.1989
95.2108	-13.7831		-28.1497
95.4147	-11.9108		-27.9023
95.483	-10.0342		-27.3798
95.3789	-8.50818		-26.5403
95.0952	-7.23652		-25.3613
94.1847	-6.25966		-22.9292
83.525	-33.0528		-9.31713
84.6668	-34.7535		-10.8272
88.0732	-10.5289		-8.54651
83.0157	-25.0083		-7.71643
85.544	-36.0483		-11.7987
33.9266	25.7693		74.3526
42.8132	91.9866		42.7498
44.7714	97.582		31.3851
17.2371	101.739		44.3696
18.2111	108.545		31.9986
9.16323	102.835		44.0362
46.219	102.634		17.9309
47.4869	106.133		3.22388
19.0266	114.239		17.7919
11.0367	115.348		17.3317
35.1367	115.352		-14.1467
42.0534	111.915		-13.3443
48.5079	107.764		-12.7959
49.3116	107.038		-29.0489
71.4803	48.1542		34.9555
80.564	55.4294		3.7069
82.6608	53.5892		-6.86819
70.3145	84.5561		-11.2135
71.0068	83.8057		-24.0507
21.4416	114.557		-51.6823
21.4543	107.706		-68.8046
13.6221	115.535		-52.157
49.3876	104.095		-45.2383
49.2027	98.1229		-61.5544
83.2976	52.0893		-17.555
83.2364	50.2354		-28.343
70.4838	82.2888		-36.8632
69.7732	78.6062		-49.3901
82.401	47.2617		-39.0157
81.419	42.6315		-49.0672
80.2646	36.3651		-57.6362
77.7847	41.3712		-63.8603
42.1186	-96.7733		-58.9181
40.7645	-106.802		-59.8073
40.1798	-116.214		-60.4104
39.7621	-124.902		-61.2316
35.6501	-114.25		-65.3028
20.9756	98.1132		-84.2994
20.2519	86.1859		-97.1978
13.5613	98.8629		-84.9719
19.5617	73.4107		-106.286
18.8023	60.0831		-112.711
12.4301	74.0628		-106.865
17.9672	46.9736		-117.044
16.9109	33.7941		-119.771
10.7781	47.7034		-117.593
15.6003	19.912		-121.108
8.83136	20.4484		-121.683
25.0626	-9.14526		-115.755
31.0041	-10.4537		-113.149
9.91838	-32.6842		-107.853
8.65276	-44.3008		-99.3387
4.2174	-32.3683		-108.204
7.73139	-52.6315		-93.0602
2.08691	-52.4091		-93.2263
3.70736	-88.5229		-80.067
-1.1858	-87.931		-80.3949
46.2549	66.8356		-97.8653
47.3938	78.7481		-88.8974
45.0625	54.0406		-104.288
48.3876	89.3879		-76.7644
43.6544	41.248		-108.677
42.2213	28.1143		-111.354
40.5805	14.727		-112.548
38.8865	1.18674		-112.064
36.9709	-11.645		-109.929
34.8114	-24.0102		-105.971
32.5489	-35.889		-100.052
30.634	-46.6546		-93.1459
29.5246	-55.7393		-86.8907
28.4538	-64.3543		-81.6769
26.8581	-73.3662		-77.9138
25.3192	-82.883		-75.5904
23.9035	-92.1569		-74.6843
31.2221	-112.848		-69.04
30.8273	-121.679		-69.2609
68.8739	72.6837		-61.6641
74.7326	46.4432		-69.7487
73.5644	36.617		-76.3838
72.1227	26.6524		-81.1879
70.6258	15.9712		-84.0243
69.0229	5.3238		-84.9568
67.162	-5.58974		-83.979
64.5069	-16.5244		-81.8834
61.6727	-26.9194		-78.5852
59.0349	-36.4545		-74.2476
62.1766	-35.8672		-69.1508
56.7273	-45.7212		-68.5441
54.6711	-53.6479		-63.2307
55.8728	-64.7361		-48.8611
57.9954	-63.247		-45.5244
81.3133	12.9728		-58.1173
80.1304	5.59096		-60.9901
82.7052	9.30329		-51.9643
75.4911	-17.0053		-60.6905
77.4256	-9.37224		-61.8297
65.1198	-34.6388		-64.5731
78.8671	-1.64233		-62.2622
65.4555	-45.2712		-48.7831
63.1285	-52.032		-45.3311
10.1819	-104.622		52.4937
58.3014	-75.8509		8.80637
48.0136	-92.085		12.834
10.1954	-48.2618		97.6067
13.4834	-49.4342		95.7546
16.7749	-51.4324		93.1798
5.00243	-57.8		97.3562
5.34048	-58.811		97.3602
5.54232	-59.8957		97.2412
19.4025	-65.4249		86.7409
19.0778	-63.9251		87.6493
18.7514	-62.5433		88.4967
14.7449	-45.5867		94.6868
34.1757	-55.2946		80.1564
26.4869	-35.0181		83.7564
27.6732	-40.1661		84.5412
28.598	-45.1054		84.9015
56.5564	-44.1965		59.4199
20.7281	23.7737		71.1955
83.9086	5.72884		-45.4455
85.9484	4.80257		-26.4247
86.3682	2.87674		-24.0167
71.4252	-50.1663		3.49897
25.2116	10.8927		70.043
55.6771	38.4219		66.422
5.50167	-30.4511		96.7478
46.5893	16.3278		67.7859
9.43223	-29.1769		93.8062
86.2099	2.7195		-22.9778
53.3997	-107.414		-35.7488
60.414	-72.1697		-32.7712
60.2155	-65.8326		-38.2776
60.7723	-60.2123		-42.2536
20.3922	-27.3542		85.1192
11.0851	-56.7781		94.1791
21.9848	-57.5371		85.0583
3.69402	-52.6965		95.1352
-71.6333	-44.2581		8.7268
-72.3604	-39.703		9.87039
-72.3564	-42.2716		1.86897
-70.7496	-48.4661		7.58081
-70.7933	-46.0763		16.7689
-63.9391	-110.08		-4.86059
-62.765	-99.8418		-4.95469
-65.6492	-108.943		-9.5753
-65.4618	-120.447		-5.54029
-61.669	-111.078		-0.215492
-66.7676	-128		-6.52031
-64.7487	-129.801		-1.66693
-68.1461	-126.309		-11.3661
-67.8594	-133.97		-7.53606
-56.9393	-94.0074		5.35072
-59.8295	-93.1124		-0.0790097
-57.55	-101.757		4.91006
-53.9836	-95.4624		10.5273
-56.993	-88.0067		5.9289
-65.142	-91.832		-13.955
-63.9098	-92.1459		-9.47306
-64.9049	-86.5276		-13.9761
-65.7014	-90.8602		-19.1875
-65.6715	-98.6977		-13.9825
-65.4989	-61.8505		19.3776
-66.4275	-60.8463		11.9682
-63.8746	-65.1387		17.6269
-63.8946	-63.2094		27.1167
-66.8618	-58.5956		21.0384
-69.2057	37.0001		18.1742
-72.0595	35.0172		6.62274
-69.5111	29.3002		21.2734
-65.455	40.4877		28.9699
-69.0394	44.9128		13.6463
-71.3999	45.38		-34.0081
-73.3695	38.2396		-29.1416
-72.1174	47.6152		-23.6591
-68.9872	52.0943		-39.1867
-70.6517	41.9057		-43.39
-17.0436	-108.43		50.0647
-17.2157	-104.102		52.4951
-20.0731	-107.939		48.5709
-17.4262	-116.032		47.4187
-14.6085	-108.722		51.0299
-18.832	-127.726		42.4975
-20.3055	-139.22		37.8347
-15.5861	-128.2		43.7714
-22.3569	-126.512		40.8603
-13.9985	-148.229		36.9327
-14.6882	-153.442		35.2148
-13.2977	-140.443		39.7194
-17.638	-147.606		36.2376
-66.9678	-50.4628		-33.9666
-67.0818	-43.1796		-38.3861
-64.7574	-56.5162		-35.8252
-67.1079	-56.4224		-28.6069
-69.1296	-44.4037		-32.1457
-67.4656	-37.9121		-41.6002
-70.3349	-33.1336		-38.8688
-67.9279	-33.291		-44.2027
-64.1799	-43.8605		-44.4527
-67.8649	-120.227		-27.9417
-68.8724	-122.906		-21.4551
-65.8933	-117.932		-34.7086
-68.2896	-126.997		-29.8992
-12.5176	-128.794		44.4789
-11.9588	-117.009		49.2801
-69.4925	-47.5522		24.9628
-68.6765	-52.0122		24.0185
-67.7898	-48.4556		32.6161
-70.2389	-42.412		25.3334
-67.1995	-59.6887		4.53431
-68.542	-56.0145		5.50272
-67.6806	-59.1553		-3.05545
-65.7672	-63.2564		3.31405
-15.012	-88.1955		86.9385
-14.9565	-84.3253		87.8879
-19.3966	-87.3414		84.4527
-15.3129	-91.962		84.9195
-11.5063	-88.9175		88.4998
-24.2189	-85.8286		81.3291
-24.1297	-81.7866		82.4802
-28.8863	-83.78		77.8239
-24.242	-89.9926		79.3578
-8.84376	-81.7017		90.2878
-8.84117	-85.6855		90.2107
-8.84355	-77.4075		89.9958
-11.7409	-80.9531		89.4501
-15.6673	-95.0461		82.069
-12.1825	-95.723		83.5616
-19.9087	-94.3382		79.6487
-16.3323	-97.3865		78.1133
-17.1776	-98.6951		73.7557
-17.5649	-99.2574		69.5049
-13.4312	-99.5703		74.8041
-15.987	5.40567		79.741
-13.2801	7.91851		81.8815
-15.0035	9.62475		76.7243
-18.6533	3.61102		77.8237
-17.0144	1.05496		82.4902
-49.3655	-22.1657		69.8813
-50.5279	-27.3153		69.5782
-43.7311	-21.1542		73.9713
-48.3765	-16.9618		69.7726
-54.8931	-22.8826		64.4483
-58.6134	-12.0791		58.2498
-59.4384	-17.9152		57.9736
-53.2308	-11.967		64.4209
-57.5033	-6.33748		58.4969
-63.5365	-12.2571		50.5789
-67.7657	6.47589		37.3922
-65.6145	8.56131		41.9033
-66.9977	14.5396		36.4741
-69.3851	5.28226		32.3765
-51.3519	-32.6301		68.917
-46.0811	-31.5441		73.9637
-56.3014	-33.9909		62.8321
-51.695	-38.2526		68.5889
-1.71343	7.56273		101.198
-3.55217	7.07761		100.459
-2.36981	2.9917		105.498
-1.04282	12.4687		96.536
-23.7184	75.192		65.1346
-24.4779	80.6314		60.5047
-29.5141	73.9274		61.9065
-22.7181	68.9121		70.2651
-18.4459	75.7805		67.6171
-10.3013	-101.268		66.605
-10.3246	-100.877		71.1115
-13.5616	-100.677		65.8949
-10.5125	-101.678		61.8718
-65.5737	-48.796		40.138
-66.3784	-43.2902		40.4772
-64.3488	-54.118		40.0824
-62.7785	-48.6342		47.7239
-9.50657	-96.4489		84.1419
-9.97348	-98.8299		79.8672
-9.27185	-93.4717		87.0851
-10.2995	-100.184		75.4195
-42.8169	-80.8128		60.2211
-43.1036	-77.7414		63.1141
-47.2889	-77.1935		55.4843
-41.9818	-83.589		57.6554
-38.2967	-83.976		65.2252
-47.3055	-84.4161		36.9518
-43.131	-87.4358		42.677
-49.1057	-81.0233		40.5417
-51.294	-81.0648		31.0566
-45.7888	-88.0373		33.172
-11.1876	-102.667		57.3845
-12.2284	-104.658		54.0693
-13.9429	-102.327		56.6599
-7.90602	-2.59473		106.643
-5.33952	-1.8431		108.756
-6.95933	1.54432		102.75
-10.8066	-3.8729		103.101
-8.72351	-5.95004		109.823
-26.7076	-18.6166		81.7133
-23.2608	-15.918		83.6454
-24.9566	-13.608		81.7045
-31.0154	-19.8092		79.8579
-36.7464	-54.2017		80.3629
-34.7728	-54.7076		81.0285
-35.4142	-53.6358		80.9925
-14.6149	-25.1049		94.5115
-16.2723	-25.1307		92.3443
-14.0316	-26.3322		94.0313
-15.9784	-23.2998		94.5739
-14.5388	-29.6141		92.2606
-12.7591	-29.525		94.1244
-14.2895	-28.7588		92.4731
-16.7814	-29.3006		90.126
-15.1533	-30.8841		92.1308
-4.40051	-27.6321		103.844
-6.14418	-27.278		102.847
-4.61515	-28.9485		102.209
-4.34498	-26.1508		106.146
-19.2238	-28.1987		88.0804
-19.9592	-29.5728		87.9616
-18.688	-27.2172		88.4933
-21.3092	-26.342		86.3603
-9.68773	-15.0661		113.202
-9.73688	-13.3082		113.679
-12.499	-14.9044		108.396
-9.54734	-17.2182		111.939
-6.91225	-15.5626		116.126
-31.0746	-66.7482		80.7721
-31.9391	-69.8867		79.0781
-27.113	-68.9172		83.0261
-30.1117	-64.0688		82.4481
-34.4149	-64.4683		78.9494
-34.3429	-48.1778		83.9612
-36.5432	-48.6421		82.3825
-31.9138	-47.5661		85.8908
-32.8841	-44.5785		85.3975
-5.20065	-33.3174		99.7887
-4.98208	-31.5464		100.371
-6.93687	-32.81		99.2368
-5.31008	-35.2158		99.5563
-6.02709	5.96735		98.7523
-5.45707	10.3341		94.4465
-9.01538	4.0354		95.9323
-19.94	-16.6397		90.0812
-20.2648	-16.243		88.6867
-20.1325	-18.3113		89.2323
-19.3767	-15.6244		92.3984
-19.1611	-14.5321		92.4514
-7.934	-29.1822		99.3744
-6.53309	-29.5904		100.41
-7.857	-28.079		100.073
-9.37954	-29.2185		97.8643
-7.97608	-30.7672		98.8472
-7.62102	-27.0215		101.394
-7.53834	-25.7151		103.317
-18.6184	-14.3171		94.6848
-19.0876	-16.2322		93.6494
-18.3383	-13.3294		94.9487
-20.0939	-20.9616		88.4923
-19.5459	-23.5433		88.4031
-19.4858	-19.5685		90.7909
-6.0042	-41.6635		100.314
-5.7508	-39.2738		99.8111
-8.47308	-40.8946		99.876
-6.45339	-43.4745		100.735
-26.6202	-31.0012		84.858
-24.3652	-27.1798		84.6406
-29.0262	-30.7336		83.6561
-29.0993	-35.2563		85.407
-24.133	-31.3461		86.3038
-15.2718	-66.958		90.5692
-19.0789	-66.4341		89.254
-15.6258	-69.1762		89.3251
-11.3754	-67.4803		91.3916
-14.9684	-65.0051		92.0314
-30.1303	-50.2217		86.576
-29.6876	-48.5634		87.588
-32.9592	-51.4961		83.4947
-30.668	-50.9196		85.818
-18.0775	-12.656		94.7928
-16.6787	-11.2928		97.809
-18.1056	-11.9915		93.2525
-22.573	-65.5914		87.7067
-22.2234	-63.8879		89.005
-25.9518	-64.2353		85.8179
-22.8743	-67.701		86.4068
-7.88419	-68.0734		91.6955
-7.67799	-66.3105		93.0163
-8.10258	-69.9851		90.7934
-58.3495	35.681		52.7987
-59.0692	36.6837		50.4705
-60.4805	29.1055		48.015
-57.4137	34.901		54.8807
-35.2374	61.0942		65.8587
-35.6637	66.5014		61.6829
-42.3013	58.7027		60.6592
-35.168	56.1511		69.4949
-29.0322	62.6556		70.4076
-49.2907	55.5995		54.5124
-49.5678	60.8232		49.8761
-55.5365	51.3916		47.2829
-48.8466	51.5396		59.0409
-36.7198	48.3485		72.9274
-35.889	50.9478		72.263
-37.709	45.482		73.1362
-31.1274	49.1604		77.3781
-60.2613	37.7493		46.6193
-63.4429	30.5754		40.3785
-54.9519	44.49		55.3037
-60.8116	40.4896		43.0139
-18.9957	37.6722		78.0389
-15.9034	36.5576		78.339
-18.0889	38.9741		79.1584
-23.2516	38.4817		77.1667
-20.3394	36.2119		76.2977
-4.72674	20.6534		85.0244
-4.88411	18.0347		86.9804
-1.78905	22.0385		87.15
-4.59036	22.7713		83.8216
-7.53304	18.5694		81.9869
-30.2855	-1.0022		73.543
-24.3409	0.290198		75.6956
-28.1382	2.92103		72.591
-37.6003	-1.37212		70.9377
-32.3471	-5.53594		74.7118
-57.7513	12.8531		51.9685
-55.5256	9.59698		55.2397
-55.2161	14.5947		54.0105
-58.481	17.2426		50.4287
-60.0532	11.2786		49.8341
-5.04162	14.583		90.2424
-2.37992	16.0692		91.8875
-7.88355	12.4141		87.8206
-38.5564	43.2947		72.9952
-38.7869	41.4262		72.7806
-32.664	44.1926		76.8541
-44.1214	43.5994		69.7614
-48.8434	42.7421		66.1728
-53.3636	38.9474		61.5356
-48.4449	40.7704		66.8087
-54.3543	22.4811		54.8822
-56.1695	22.4426		53.1314
-54.012	18.9475		54.6036
-52.4153	22.6581		56.5137
-54.2942	26.9012		56.5569
-42.6595	28.2508		65.476
-40.8857	29.3456		66.9768
-44.2046	26.6727		63.6452
-38.7866	30.1941		68.1998
-36.2941	30.7651		69.0634
-38.8607	31.0613		68.7095
-41.2112	30.2283		67.42
-36.0334	31.6073		69.5861
-33.3994	31.0058		69.5511
-30.4468	30.6631		69.612
-32.9898	31.7438		70.0103
-29.7963	31.3169		69.9932
-27.617	29.8668		69.3189
-25.0727	28.6477		68.8457
-22.529	26.9944		68.1329
-20.3395	25.2664		67.3127
-21.1628	27.5409		68.409
-23.8411	29.1219		69.1203
-19.0281	25.7544		67.6267
-18.9774	23.764		66.6561
-19.7721	27.8916		68.7886
-22.6352	29.7271		69.6277
-32.5945	32.609		70.6165
-29.1159	32.0969		70.5785
-47.7258	21.6189		59.4415
-46.7276	20.6452		60.0895
-28.2068	38.9281		76.1749
-28.8912	37.349		74.8352
-27.6203	40.7582		77.3037
-33.5618	39.0703		74.6942
-46.4788	34.0166		66.7205
-45.2826	32.0506		66.5653
-43.3292	35.1167		69.0201
-47.2933	36.417		67.0322
-37.647	12.7036		66.8439
-30.7055	12.3941		68.9072
-43.0313	13.8878		63.9627
-38.2329	11.0207		66.895
-24.7651	13.2848		69.3462
-24.8173	11.5299		69.8976
-20.7463	14.6785		69.1257
-16.7846	18.5597		68.1064
-17.6567	17.2769		68.5024
-16.325	19.5096		67.8223
-36.566	15.8805		66.8481
-30.6896	15.5564		68.3992
-41.5987	17.1647		64.3579
-19.9486	18.5033		67.1543
-19.0665	19.1021		66.8174
-21.7453	17.5618		67.7174
-18.3795	19.5975		66.6949
-17.7761	20.2456		66.6573
-12.9761	27.5739		72.2028
-11.7526	29.5292		74.6999
-14.3049	29.3926		72.4796
-14.3431	25.5202		69.6642
-15.9772	21.0758		67.6994
-25.7235	31.0994		70.1862
-15.1687	24.7154		68.6128
-16.2668	26.3734		68.8365
-14.6936	23.1396		68.6197
-36.3144	17.2649		66.8501
-30.5671	16.8807		68.2375
-20.1177	19.4326		66.4909
-21.7878	18.8759		67.0497
-19.2633	19.7258		66.3163
-18.7879	20.111		66.1416
-45.2484	25.0807		61.9256
-0.366265	36.1982		84.1676
-0.732269	39.1233		84.2482
-2.95494	35.9451		83.4326
0.135697	33.5983		84.2618
-18.6419	8.81288		73.2198
-21.6006	7.34577		72.6187
-19.6152	6.03656		74.7688
-16.5608	10.4719		73.7385
-18.1161	10.9481		72.0327
-14.3902	12.3475		74.8029
-12.2179	14.51		76.4135
-14.2286	18.0327		70.6301
-14.4396	19.8449		69.4839
-12.5761	18.8871		72.3257
-8.77524	26.8421		76.7698
-7.87204	27.8428		78.2528
-9.65273	28.8669		76.4587
-18.6949	16.0175		68.8395
-18.1572	14.6144		69.8485
-17.8877	12.8589		70.9151
-20.5475	11.1777		70.8025
-26.3145	-53.2209		85.5075
-22.6565	-52.831		88.0709
-29.7283	-53.3231		83.0193
-26.2042	-53.1617		85.2691
-31.5683	-53.4625		81.7455
-31.2197	-53.3743		81.7302
-6.97171	-46.8016		100.808
-7.0394	-48.0407		100.439
-6.832	-45.5507		100.968
-9.74489	-46.139		100.236
-12.7058	-48.5667		98.1763
-15.7741	-48.6707		96.7236
-12.7077	-49.7541		97.2538
-10.0171	-48.7		99.164
-12.516	-47.3042		98.905
-18.9444	-48.9242		94.9004
-22.2042	-49.6307		92.5193
-18.9764	-50.2008		93.8806
-18.8818	-47.7308		95.6009
-12.296	-45.9659		99.3989
-12.0786	-44.7146		99.6641
-15.2671	-46.166		98.0343
-17.1592	-44.4067		97.1505
-18.1392	-45.4018		96.6295
-13.9352	-43.979		98.853
-16.4931	-43.353		97.3557
-25.8882	-51.1161		88.8866
-25.6105	-49.827		90.2473
-12.3284	-50.8948		96.1303
-15.789	-51.039		94.5105
-11.9946	-51.5225		95.1611
-9.40805	-50.9308		97.2588
-19.2831	-51.4598		92.3395
-19.2156	-52.1361		91.2643
-32.3684	-52.2165		83.3542
-33.7337	-53.5114		81.5795
-26.6077	-54.1993		86.0612
-26.6586	-54.3922		86.3239
-22.8328	-54.1541		88.9458
-26.5623	-54.1381		85.8388
-27.14	-55.5831		86.7204
-23.6641	-56.2675		89.9112
-26.9458	-55.1559		86.6907
-20.5134	-56.6525		92.6147
-20.9523	-57.458		92.4855
-17.2496	-56.6868		94.7267
-20.2552	-55.8248		92.4716
-12.5501	-54.7364		96.0997
-9.30126	-54.912		97.0438
-12.2349	-53.7615		95.7112
-16.397	-54.7541		94.4421
-12.9382	-55.8103		96.3517
-7.06522	-57.894		97.9236
-6.86944	-56.6262		97.8006
-9.80234	-57.281		97.4851
-7.22271	-59.087		97.9029
-31.7955	-54.8416		80.8359
-31.7057	-54.3032		81.5661
-29.8332	-54.9218		82.4491
-31.584	-56.114		79.9683
-6.26343	-54.2839		93.3865
-6.26205	-53.5738		94.8389
-6.26173	-55.747		91.7738
-8.68558	-54.2287		92.9353
-7.32234	-60.2413		97.7307
-10.1769	-59.5038		97.3636
-7.4219	-61.254		97.4027
-7.54943	-64.5985		94.6747
-7.5107	-63.1709		96.0843
-10.6531	-63.8754		94.5116
-11.6745	-43.8309		99.7608
-9.34137	-43.8101		100.426
-10.8415	-42.5869		99.8099
-6.70263	-55.3001		97.5119
-6.47594	-54.1767		97.1141
-6.35993	-53.7152		96.8083
-6.39858	-53.4917		96.4729
-8.89528	-53.4561		96.3608
-12.0542	-53.3075		95.3874
-11.9589	-53.149		95.1087
-15.746	-53.4451		93.8044
-6.40176	-53.3948		95.8604
-8.76445	-53.2167		95.4411
-19.3006	-53.7982		91.5948
-19.5461	-54.1736		91.888
-19.2274	-53.659		91.2552
-21.6591	-60.1115		91.7184
-21.8837	-61.0696		91.0749
-18.5201	-60.437		93.6769
-21.4447	-59.2545		92.1136
-14.4095	-60.678		95.5143
-14.6236	-61.7323		94.7623
-10.3836	-61.3673		96.6507
-14.1516	-59.7759		95.9835
-7.46795	-62.1639		96.9006
-19.1024	-52.3403		90.58
-18.9542	-52.2827		90.0402
-15.4701	-51.8745		92.794
-31.7257	-54.0449		82.2759
-29.9847	-54.3206		83.754
-11.7822	-54.2344		92.0963
-11.734	-53.4337		93.466
-11.9428	-55.6516		90.6248
-15.3496	-54.3165		90.7769
-11.8013	-53.141		94.5128
-15.4237	-53.2911		92.9307
-14.7261	-63.1978		93.6005
-18.7937	-62.873		91.9267
-21.1836	-58.3611		92.3888
-18.0225	-58.6128		94.4447
-22.0495	-62.3886		90.1493
-25.0522	-61.2793		88.085
-18.6126	-51.9646		89.7221
-21.8411	-52.4213		87.7382
-17.9095	-50.7366		89.09
-15.2985	-51.4278		91.3286
-11.8896	-51.2409		92.6193
-11.7531	-51.645		93.5446
-12.2783	-50.0624		91.255
-9.14386	-51.1486		93.1785
-17.0135	-47.9397		88.0397
-19.7097	-48.2889		86.7234
-16.3976	-44.2662		87.0227
-14.4251	-47.625		89.075
-31.0799	-59.0241		78.9035
-29.1176	-59.1795		80.5797
-30.094	-62.3605		78.2784
-6.27123	-58.5124		90.0225
-6.69757	-62.142		88.4738
-8.71043	-58.3952		89.6891
-11.927	-47.4426		89.8363
-11.3044	-43.8532		88.7461
-9.37166	-47.3456		90.3915
-11.8941	-58.3349		88.9874
-12.1814	-62.0634		87.346
-15.4352	-58.4191		87.859
-33.8179	-54.0325		74.7807
-33.9701	-53.7528		73.8121
-10.4346	20.2597		74.9844
-10.0164	18.5755		76.9232
-76.7213	-5.67162		-46.924
-78.2924	-6.0122		-45.2797
-77.0193	-1.04264		-47.0934
-74.731	-5.29432		-50.1421
-76.3402	-10.0892		-46.0163
-76.7121	13.7197		-11.1129
-75.7958	15.9098		-6.36662
-76.7003	16.5807		-15.3335
-76.4098	18.6114		-20.4897
-76.6924	18.0349		-27.3655
-77.1367	13.5557		-21.414
-75.6749	24.0797		-21.8706
-72.7917	-29.9788		-36.8314
-73.6315	-26.0967		-38.7888
-72.1621	-34.1016		-34.1356
-75.0993	-27.5355		-35.4196
-74.3053	-22.4505		-40.9701
-76.5235	-21.0637		-39.2829
-75.0901	-18.4775		-42.9274
-71.7725	-24.6734		-43.5755
-79.7965	-5.82813		-44.4493
-79.8096	-0.829966		-44.8174
-79.5298	-9.98777		-43.3991
-81.3021	-5.1927		-44.1563
-81.3061	-21.8831		-36.2987
-82.437	-22.8886		-35.2166
-79.8473	-20.4419		-37.6937
-83.3075	-23.5994		-34.2008
-84.0705	-19.557		-36.3935
-82.4776	-27.5885		-31.5762
-84.0945	-23.953		-33.0152
-87.1122	-13.5506		-34.7794
-88.0079	-9.02194		-38.0145
-87.0894	-12.976		-34.0446
-78.1162	-36.2513		-23.1492
-78.2737	-34.6428		-26.1703
-77.14	-35.4877		-25.1833
-77.7992	-36.9087		-21.1577
-78.6315	-36.4342		-22.4647
-79.9596	-28.9061		-11.5325
-79.6872	-29.4712		-11.4824
-79.1162	-30.6987		-11.691
-87.0224	-12.6006		-33.657
-86.5894	-13.2153		-32.6937
-88.7665	2.11871		-37.9717
-88.7346	2.7348		-39.4881
-88.8008	0.832179		-36.3
-88.4357	12.4423		-35.9061
-88.6106	13.8228		-36.067
-88.6353	15.9614		-35.1312
-88.2804	18.0977		-32.1562
-88.7674	16.4325		-35.5421
-88.1728	15.7841		-32.9282
-80.7541	-5.83901		-12.4229
-81.6701	-0.214573		-13.1887
-80.0857	-9.99529		-11.7151
-80.2475	-5.11866		-11.1268
-76.8968	-22.3584		-4.96316
-77.1486	-18.0144		-4.58729
-76.6154	-26.1331		-5.32049
-76.1234	-22.8898		-2.22632
-80.0333	-17.1623		-14.0135
-79.89	-15.1953		-14.19
-80.4846	-19.159		-14.4802
-77.1702	13.0342		-21.3783
-77.2144	13.0412		-21.1738
-77.2978	14.2692		-24.8358
-84.7838	21.3558		-22.4153
-85.4687	23.03		-25.5479
-85.6371	20.7305		-21.4437
-83.6974	18.1907		-19.3841
-83.859	21.6665		-23.5512
-84.7357	23.5156		-30.4781
-84.1251	23.3062		-27.5262
-83.9429	22.3487		-31.7779
-85.1297	22.1672		-34.0383
-85.0263	23.6925		-29.9974
-85.9834	7.72628		-44.0224
-87.0466	8.06913		-43.5383
-86.0143	13.8328		-41.4242
-85.2152	7.18624		-44.1596
-82.3064	4.53013		-13.9266
-82.6355	3.27632		-14.5474
-88.9469	7.41072		-41.1009
-89.1373	12.6533		-39.0866
-88.9908	7.30559		-41.4576
-88.8149	4.57521		-41.1786
-87.8699	19.062		-28.2752
-87.1528	18.5412		-24.3148
-87.9265	20.0854		-27.7093
-87.7167	17.6562		-28.9396
-83.5967	5.39038		-16.7308
-83.9796	7.77865		-17.5222
-83.1788	3.56657		-16.0962
-88.5531	8.13482		-38.4533
-88.7133	6.03622		-40.2107
-82.0818	-1.62795		-17.6837
-82.537	0.0601594		-16.6657
-82.1926	-1.34745		-18.3911
-86.1888	-0.649667		-31.5473
-87.9395	2.11049		-33.5677
-86.1379	-1.76103		-31.6625
-85.9252	-0.210314		-30.9422
-77.3941	-13.997		-4.71908
-76.6821	-14.2844		-2.18548
-77.7964	-9.33013		-5.66969
-79.7444	4.46824		-43.5636
-80.5928	7.08005		-42.7554
-79.3851	9.18029		-41.6384
-78.5961	3.77778		-44.6263
-82.7032	12.3424		-40.3511
-82.9955	8.19095		-43.0721
-84.7868	17.2669		-38.7001
-82.3515	16.2025		-37.3097
-84.2389	6.1231		-44.0666
-83.437	0.482602		-44.6208
-83.3804	-4.54125		-44.076
-78.2731	-20.2774		-38.5236
-78.8317	-17.0456		-40.3064
-77.5675	-23.4074		-36.6075
-79.2218	-13.6668		-41.9948
-77.5339	-14.0527		-42.9413
-86.0532	-13.182		-31.6808
-76.8232	-26.3376		-34.8067
-76.0435	-29.9522		-32.3713
-77.6736	-36.5736		-18.4367
-77.1911	-36.8607		-18.2664
-76.6524	-37.0936		-17.9406
-76.28	-36.8921		-23.1943
-86.3785	-2.50156		-32.1138
-88.1287	-1.01515		-34.3673
-79.6588	-4.54184		-10.0371
-78.9537	-4.18212		-8.80468
-78.3223	-18.3615		-8.10209
-78.6286	-18.5045		-8.76455
-81.2984	-22.5933		-14.1265
-81.3605	-21.4898		-14.9978
-82.3622	-24.5173		-15.6046
-79.703	-13.057		-11.1339
-80.0594	-13.1803		-13.2949
-82.0654	18.0997		-34.2224
-81.2291	18.744		-30.9339
-79.8442	14.1123		-36.7838
-78.9572	12.4282		-38.4849
-78.3513	14.6458		-34.3481
-78.5023	12.0661		-39.5409
-87.9488	9.39053		-33.5044
-87.8894	7.87075		-33.1153
-82.5166	-0.629586		-19.836
-83.3241	0.638116		-22.5085
-85.8583	0.640612		-30.4756
-85.3461	0.680236		-29.1076
-87.3169	4.36918		-31.812
0.0364728	89.0841		61.1992
0.325606	95.845		53.7729
-7.37741	88.8154		60.4221
-0.305581	82.3562		67.0082
-0.339993	75.6065		71.8112
-7.12158	75.9064		70.8083
-0.393128	68.2565		76.23
-23.0098	62.8757		74.1186
-17.4491	63.0698		76.3452
-23.4755	57.8988		77.2821
-4.19624	-24.5145		109.038
-6.23107	-24.4385		107.229
-4.34681	-22.6439		111.739
-4.13397	-12.2165		117.925
-4.22888	-14.0223		118.082
-4.08505	-10.171		117.135
-6.80083	-12.0291		116.501
-4.33298	-15.9165		117.632
-4.42205	-17.9463		116.511
-4.82554	-30.1689		101.143
-5.48041	-37.3001		99.5689
-7.54345	-36.724		99.1685
-4.44164	-20.2779		114.448
-6.78135	-20.1133		112.677
-3.89451	-7.95375		115.754
-3.63556	-5.15375		113.379
-6.49631	-8.11199		114.473
-1.52506	50.6689		83.7904
-1.2377	55.0041		82.5663
-6.83036	51.3764		82.8662
-1.76315	47.1519		84.2243
0.322358	22.7175		87.8578
0.550477	24.8267		86.6598
-0.0191035	20.1447		89.6695
0.691628	26.8013		85.7728
0.647712	28.8246		85.0872
-1.51711	26.2419		85.0335
-6.50915	-51.1593		93.4473
-6.25509	-51.8988		94.8494
-6.74545	-49.9161		92.2179
-6.27937	-52.052		95.855
-6.40149	-51.8629		96.6791
-8.67032	-51.8336		95.3883
-7.09817	-49.0893		99.8803
-7.02626	-50.1232		99.0614
-6.74444	-51.0833		97.9984
-6.75052	-44.5975		100.923
-6.57858	-47.3585		90.7691
-6.13	-43.8121		89.5429
-13.5986	88.216		59.2666
-13.8585	94.427		52.2374
-19.4575	87.1322		57.7221
-13.396	82.1933		64.6952
-11.9708	52.8263		81.7913
-11.9035	56.0973		80.9774
-17.5358	54.1463		80.4326
-12.6395	48.7602		82.1281
-14.1118	45.4321		81.746
-16.1239	42.2766		80.8506
-19.4591	46.6889		80.5583
-17.2856	40.4388		80.0574
-21.7724	41.5497		79.1237
-13.4566	39.1706		80.7137
-24.6276	31.7276		70.8607
-28.3892	32.8302		71.221
-21.1956	30.326		70.3573
-23.6015	32.8397		72.0625
-26.6784	30.4179		69.6566
-22.0924	34.2116		73.8491
-18.7426	33.0231		73.7589
-26.059	35.1905		73.6775
-37.8324	91.3936		34.7581
-37.7625	86.309		42.2082
-31.8384	94.6573		37.6134
-38.3507	96.09		24.5561
-24.9335	85.8755		55.4678
-30.8705	84.0398		52.329
-25.5028	91.3094		48.9588
-23.4228	55.0387		78.5437
-29.254	54.2509		76.7197
-23.9717	51.4013		79.2976
-27.0986	42.6209		78.1618
-26.1253	44.9511		78.8424
-24.7677	48.2608		79.3488
-29.9689	35.668		73.3783
-34.831	35.7242		72.391
-31.3227	34.4845		72.1467
-37.3285	81.6094		48.0155
-36.783	76.8867		52.936
-43.896	78.8341		42.5643
-35.4443	53.1572		71.2811
-41.8952	51.4876		66.8215
-39.4135	32.8823		69.6718
-42.3284	32.0441		68.0969
-35.9163	33.3945		70.7418
-39.394	34.0315		70.2713
-39.1339	39.3441		72.2998
-44.059	40.0354		69.9585
-39.1836	37.3605		71.6782
-39.3721	35.4915		70.9449
-36.0842	71.8823		57.4257
-43.1298	69.1744		51.9303
-49.8765	76.3164		35.6773
-54.9477	73.9318		27.5971
-49.8068	71.3751		40.8295
-43.1142	29.0376		65.8103
-44.6668	27.3485		63.888
-44.6563	30.7369		66.1796
-46.1658	28.825		64.1502
-43.695	29.8092		66.0754
-47.9275	38.8229		67.1151
-51.3999	35.4172		63.253
-13.6336	34.973		78.0792
-12.3926	36.1413		79.5637
-14.8638	33.4267		76.02
-11.9884	33.0256		77.4114
-10.8659	37.427		80.8835
-9.53973	35.4451		80.554
-16.2376	31.315		73.1314
-17.5635	29.789		70.9943
-1.68273	43.4403		84.2738
-67.8415	-60.1182		-10.3363
-67.824	-60.6509		-16.5019
-69.1438	-55.2258		-8.99325
-73.8243	26.2251		-41.8538
-75.6583	20.7658		-36.675
-74.4192	28.8347		-33.9368
-72.0614	31.6136		-46.6297
-73.5851	22.1146		-47.3131
-72.081	-5.34338		-55.7801
-72.5983	0.523741		-56.04
-69.6545	-5.84333		-61.1638
-71.6174	-11.3243		-54.0596
-72.7643	6.7614		-55.8959
-75.2092	5.04604		-49.8022
-73.0124	12.371		-54.2695
-70.3924	8.14823		-62.2121
-68.4644	-28.6185		-47.28
-69.6204	-22.8879		-49.9228
-65.4556	-32.27		-50.7831
-1.14441	61.3601		79.8017
-6.3592	61.8179		79.1468
-11.9098	62.4903		77.9034
-12.6517	69.4356		73.8272
-27.1502	-96.5007		59.3257
-21.6796	-98.4882		62.7847
-33.3343	-93.3551		54.0081
-26.184	-98.0635		54.8227
-50.626	-78.0861		43.7782
-51.3817	-75.6787		47.2321
-54.6997	-74.5387		37.8112
-45.775	-82.2211		49.4866
-49.7939	66.0626		45.309
-55.5478	62.6472		37.8837
-13.02	76.0499		69.3694
-59.7128	71.3779		18.0201
-60.3906	65.2025		23.7928
-63.4527	69.0641		8.1117
-13.6729	101.399		42.2825
-6.81946	102.504		43.1279
-13.1446	107.878		30.2471
-19.9607	99.6012		41.3542
-61.1642	45.4839		38.4038
-60.9439	52.2152		33.897
-47.2511	26.6843		62.0321
-56.4713	33.9839		56.5007
-55.1885	32.7631		58.0174
-57.5847	28.1492		53.0257
-53.7359	31.4789		59.2653
-12.1671	-109.129		51.655
-60.9072	-65.3856		36.2919
-59.7366	-68.56		33.1422
-56.4416	-68.9103		44.6322
-61.9009	-62.2565		38.6283
-10.2058	-40.8011		99.4687
-9.60858	-38.6359		99.0238
-12.0969	-41.0137		98.8696
-28.8948	-46.4183		88.3373
-25.9378	-44.5643		90.9176
-27.6896	-42.6522		89.0558
-13.2435	-37.1032		96.8051
-12.3002	-34.8896		96.4331
-16.1795	-37.3925		95.023
-14.1499	-39.2433		97.1705
-10.7306	-36.762		98.04
-38.2148	-48.9193		81.1959
-37.3052	-45.3044		82.238
-40.1974	-49.5953		79.5368
-38.3819	-52.2313		80.1624
-62.2567	22.2044		44.8485
-63.9426	22.4934		41.3732
-63.0473	15.7046		44.4953
-60.3131	22.2388		47.98
-65.6405	22.9812		37.1048
-67.6071	22.5478		31.3624
-50.463	22.8927		57.9975
-50.5519	20.7207		57.3877
-58.4593	22.1295		50.5449
-77.1623	12.6274		-41.4815
-77.2532	15.2806		-37.6696
-75.4204	14.4284		-45.4547
-77.1664	8.76737		-44.4995
-75.6684	-14.4793		-44.7553
-73.529	-15.2426		-47.7301
-70.8826	-47.9335		-19.4571
-70.9933	-44.7684		-25.282
-69.1304	-53.4345		-21.5129
-70.6959	-49.7971		-13.3812
-72.5052	-43.6614		-17.4801
-77.1384	4.022		-46.3159
-75.3711	-23.8469		0.945614
-74.5783	-24.807		5.32331
-75.6988	-19.3935		1.15467
-74.9615	-28.0545		0.508297
-71.3435	3.77596		24.7141
-73.1572	2.28471		16.0164
-71.3821	-4.31198		26.2053
-70.9685	12.3722		23.2833
-53.4224	15.9375		55.2857
-51.7768	13.7622		57.1777
-51.7456	17.4468		56.4246
-50.4014	18.8105		57.3949
-49.0754	17.5089		58.5778
-73.6737	-25.3588		11.6202
-73.9832	-19.9902		11.5087
-73.3596	-30.2821		11.1263
-72.6689	-25.6414		18.4464
-23.8811	-8.45791		80.6594
-21.1173	-6.1298		82.3301
-22.7276	-3.10404		78.8567
-27.6083	-9.78787		78.7086
-34.1395	-10.5568		75.7979
-35.5873	-15.4295		76.726
-41.1606	-11.0141		72.6835
-18.0254	-3.74362		85.0052
-18.5736	-7.69958		87.2806
-14.8946	-0.857767		88.5589
-21.2751	-15.313		86.3092
-20.0782	-12.9584		87.622
-17.954	-16.6812		96.5866
-18.6462	-17.5488		94.5648
-17.7178	-18.7649		95.8887
-16.8014	-15.7779		99.3005
-19.0814	-18.4954		92.7108
-18.7132	-20.8783		91.9683
-40.4041	-30.7939		77.8038
-38.9644	-25.5444		77.6397
-41.8897	-36.1942		77.8029
-35.6028	-30.6793		80.587
-37.0239	-20.192		77.2959
-8.25943	-32.5786		98.541
-9.673	-32.5275		97.5702
-8.6251	-34.5766		98.51
-59.4767	-47.5013		55.1606
-58.3031	-52.8884		55.2208
-55.693	-45.8718		62.1823
-60.2368	-41.4692		55.4287
-31.3009	-40.1105		85.7322
-33.6248	-40.5061		84.3666
-28.9164	-39.5013		87.1948
-42.7899	-41.5251		77.5367
-39.0157	-41.0876		80.6433
-47.1119	-42.5473		73.5371
-43.1963	-46.4449		77.2457
-9.10148	-36.5599		98.6854
-56.659	-58.0995		55.4061
-53.979	-62.6697		57.2146
-53.3521	-55.8357		62.5652
-59.5988	-59.3429		48.068
-60.1891	-23.6945		57.0917
-64.4128	-24.8118		49.2513
-60.622	-29.5621		56.3838
-33.5943	-87.3875		69.8937
-28.4142	-90.706		74.0204
-33.8511	-84.3327		71.9768
-43.0094	-74.3187		65.9785
-38.5224	-77.5826		69.8647
-41.9228	-70.7924		69.4964
-46.8493	-70.8325		62.938
-56.0182	-0.745715		58.4936
-50.6325	-1.2535		63.5974
-53.7945	4.16838		58.9497
-46.7843	15.843		60.8011
-47.7208	13.8387		60.5372
-52.0308	7.44379		59.2659
-50.1821	9.8773		59.8906
-47.2265	6.1404		63.5149
-44.8312	19.0768		61.7746
-9.10631	-89.657		89.1497
-50.0111	-53.699		68.2931
-46.3815	-51.8259		73.218
-50.9504	-49.3697		68.2527
-48.4456	-57.4777		68.8587
-40.6916	-67.6208		72.3753
-36.9239	-70.6062		74.6344
-38.8715	-64.5705		75.3705
-43.6944	-64.3273		70.9628
-44.8579	-1.3081		67.4318
-43.08	2.60829		67.1163
-46.3826	-6.18587		68.1897
-51.5526	-44.087		68.2637
-47.4222	-11.6042		69.0666
-15.3654	-80.1844		88.0363
-19.5231	-79.1608		85.9107
-15.8143	-75.9647		87.9377
-23.9093	-77.7925		83.3208
-23.652	-73.9416		84.0555
-28.2667	-75.8326		80.4266
-41.5516	5.38065		66.9101
-34.199	5.22919		69.7558
-40.2047	7.47572		66.9122
-48.8511	11.8998		60.2285
-44.8014	10.2404		63.7272
-39.1789	9.32554		66.8547
-31.823	9.08644		69.3085
-11.8669	1.70126		92.5996
-11.2768	5.90865		88.6364
-12.7635	-2.31607		95.7691
-14.5476	-9.84779		102.518
-14.8951	-10.9906		102.884
-12.0863	-8.85688		107.562
-14.1912	-8.28673		101.144
-9.95516	16.5014		78.9072
-10.1628	13.8189		81.3897
-21.1316	1.72764		76.8467
-0.456334	16.7603		92.5385
-62.7203	9.67984		46.6952
-10.6739	10.089		84.7769
-62.6966	-59.1053		40.2551
-65.9805	-56.9375		30.9393
-67.1129	-11.9617		42.6261
-69.4503	-11.7892		34.8705
-67.2751	-19.0519		42.1735
-66.9074	-37.4695		40.8352
-69.0713	-37.534		33.2903
-64.1808	-36.6981		48.3096
-67.2136	-31.5414		41.2109
-67.338	-25.3723		41.6212
-69.5577	-25.9252		33.8886
-24.1082	-93.0331		77.1484
-15.8421	-72.1665		88.3846
-19.6401	-71.4861		86.8656
-12.0628	-72.6942		89.4516
-23.3058	-70.6507		85.0624
-25.3375	17.816		67.9834
-26.8679	5.73209		71.5992
-25.9028	7.94733		70.9639
-25.289	9.74752		70.366
-8.49032	-73.2089		90.0855
-3.47602	30.7418		82.9013
-3.29941	28.0675		83.2368
-1.61918	30.9954		83.8712
-4.32071	33.0889		82.5716
-5.18175	30.0752		81.621
-17.2622	21.2569		66.7402
-17.2036	22.5417		66.8163
-14.5416	21.4269		68.8784
-6.70935	28.9918		79.9481
-7.49853	31.268		79.8992
0.471661	31.1681		84.5567
-8.00601	-24.0579		105.398
-8.53832	-22.2725		107.365
-9.63802	-11.7627		113.658
-12.5447	-11.6713		108.81
-9.58887	-10.1048		112.923
-18.3725	-25.6981		89.1809
-16.1502	-27.4342		90.9268
-17.9252	-24.5678		90.3826
-9.18166	-8.36406		111.966
-4.17564	24.8517		83.222
-5.12726	35.3571		82.5623
-6.91364	34.4622		81.509
-17.659	24.0383		67.0736
-8.48212	33.4651		80.1224
-9.72653	32.2477		78.5113
-10.6765	30.9751		76.7697
-21.7398	-31.8988		87.9325
-23.7468	-35.0584		88.4568
-18.9055	-32.409		90.0677
-26.131	-38.9486		88.7784
-22.7873	-38.2745		90.8951
-30.3595	-52.9843		81.9481
-28.2575	-52.9842		83.5252
-29.9639	-51.9601		81.369
-30.8345	-51.4007		85.2624
-28.3503	-50.3685		88.0122
-29.0652	-49.1018		80.4025
-27.7384	-45.415		79.7755
-25.7374	-48.9445		83.0022
-16.3285	-32.7582		92.2097
-17.747	-35.1065		92.5786
-13.8706	-32.9123		94.2991
-19.6528	-37.852		92.8626
-21.2409	-40.4403		93.1119
-25.4443	-52.8618		85.4375
-23.8189	-51.5482		85.6798
-22.5824	-48.6477		85.0712
-21.9313	-44.8476		84.0304
-11.6107	-32.7192		96.1488
-11.1314	-30.8694		96.0185
-15.4596	-41.6343		97.3451
-19.3657	-42.1485		95.1417
-18.5047	-10.3305		89.7812
-16.1218	-7.95597		94.0324
-3.06707	-1.39981		109.761
-13.493	-5.69871		98.9114
-9.14735	-19.651		110.005
-11.5442	-19.431		106.011
-13.9545	-19.5194		101.678
-15.9599	-20.0585		97.8206
-14.631	-17.2335		102.561
-17.0856	-20.9561		95.1947
-17.5944	-22.1783		93.1558
-17.7561	-23.4507		91.5961
-14.9844	-12.102		103.369
-14.9874	-13.4911		103.585
-14.9332	-15.2414		103.258
-48.6207	-138.529		18.9172
-46.7922	-130.321		20.4878
-52.4954	-136.704		15.3442
-50.0612	-144.581		17.8277
-44.2807	-140.251		22.4274
-44.7936	-118.969		22.6447
-40.6287	-120.618		26.8586
-43.6004	-109.065		24.5167
-48.6254	-117.197		18.4141
-44.8335	-91.9578		29.7128
-44.3379	-96.5958		26.8114
-40.8105	-94.4964		35.0003
-48.6376	-89.025		24.2215
-43.7313	-102.088		25.4833
-47.4717	-99.8974		20.4688
-39.4326	-103.961		30.9046
-46.5062	-61.017		69.5192
-43.6344	-58.5367		73.7511
-48.8175	-63.7729		64.9819
-50.9016	-66.9293		59.3894
-51.744	-70.1359		54.7261
-51.91	-72.9185		50.7348
-41.3096	-56.7336		76.5668
-39.4426	-59.5124		76.9627
-39.2231	-55.505		78.5755
-42.2897	-53.737		76.7543
-37.9492	-54.6745		79.6478
-36.7841	-56.56		79.735
-51.9061	-86.0826		19.1028
-54.7402	-84.2026		13.2146
-51.2558	-91.3513		16.6442
-53.0146	-81.9015		21.8723
-54.5089	-78.3143		24.8921
-56.3845	-74.8022		27.7145
-57.1378	-76.2153		17.9072
-58.2254	-71.5339		30.5349
-60.715	-69.4506		22.7772
-52.148	-115.272		14.0774
-54.1082	-126.679		12.7875
-50.9961	-105.173		14.9517
-55.5055	-113.733		9.60016
-55.9455	-134.981		11.6472
-59.1398	-133.316		7.65523
-57.6527	-141.226		10.5855
-50.8022	-97.558		15.5519
-71.2941	-25.7054		26.152
-71.4149	-19.294		26.3616
-71.0928	-31.5306		25.8938
-62.2569	-68.2492		15.8165
-63.3764	-67.4074		8.79261
-60.6007	-71.4862		13.4468
-70.1238	21.5057		22.6904
-72.6991	19.1078		12.0542
-67.8368	-55.5103		22.6651
-69.0278	-53.9102		14.4316
-70.7298	-37.1162		25.7479
-71.9923	-36.3979		18.0221
-71.366	-11.849		26.852
-72.9886	-13.0267		18.5754
-72.9027	-35.1612		10.7457
-73.7136	-33.5818		4.2328
-61.7459	-81.9984		-3.80728
-59.7019	-82.3583		1.37147
-61.9452	-77.6687		-2.71655
-63.485	-81.8331		-8.77493
-61.8049	-86.9469		-4.58558
-62.0786	-92.5175		-4.8229
-62.4935	-73.6294		-1.00252
-63.3066	-70.0184		0.546374
-63.9517	-73.2654		-6.71598
-60.8993	-74.1596		4.68484
-74.6546	1.17207		7.54814
-74.4366	-7.00023		10.0987
-74.6923	9.25976		4.75836
-74.5503	17.7308		1.56947
-74.2457	25.6854		-1.20206
-73.7803	33.6929		-4.59561
-73.1772	41.5649		-8.46833
-74.6216	32.4781		-15.1021
-69.7201	-52.3551		6.56018
-70.1828	-51.171		-1.0209
-74.1999	-13.8661		11.3516
-75.1975	-14.5654		5.19352
-58.7369	-112.202		4.74561
-60.5136	-123.479		4.04575
-59.1873	-75.0104		11.1665
-58.0438	-78.7902		8.91117
-62.1202	-131.601		3.19564
-63.6785	-137.626		2.08112
-66.6838	-108.115		-14.0438
-67.8975	-117.637		-14.9241
-64.8307	-81.5874		-13.6644
-64.9532	-77.0757		-13.122
-65.5361	-80.2033		-18.8273
-65.3186	-72.6199		-12.2949
-68.8734	-124.795		-16.1463
-69.6455	-130.494		-17.9082
-70.4332	-50.7815		-7.81461
-74.459	-32.1127		-0.169982
-73.9727	-35.763		-1.49671
-75.3129	-30.2619		-3.37998
-75.9432	-14.6481		1.12775
-65.1549	-88.2069		-26.111
-65.1386	-81.9737		-25.4586
-63.307	-84.5681		-33.0362
-65.4945	-76.1485		-24.9704
-64.292	-70.3252		-31.306
-67.6565	-59.5905		-22.8469
-73.6048	-41.1278		-16.4106
-74.4876	-38.598		-22.8587
-62.7725	-115.728		-42.2597
-62.0876	-107.476		-41.1438
-59.1004	-113.669		-49.2256
-63.4893	-123.462		-43.3396
-71.4746	-39.9762		-30.1103
-73.6509	-36.2203		-28.7545
-75.2076	-34.4367		-28.2342
-76.1116	-33.6556		-28.107
-39.7135	-141.78		25.7046
-41.2017	-147.643		24.1099
-35.0732	-143.232		28.6407
-38.038	-133.614		27.8116
-34.4242	-105.41		36.6243
-35.2603	-100.64		38.2713
-34.4368	-111.999		34.4999
-29.0814	-106.498		41.9392
-38.6042	-90.3536		48.3886
-39.9296	-87.9783		51.8791
-37.1484	-93.3038		44.4266
-36.0413	-96.8245		40.8482
-30.8268	-98.7139		46.374
-35.9778	-121.925		31.1843
-31.1978	-123.604		35.0568
-37.2488	-62.2164		77.6019
-35.9859	-59.995		79.2743
-40.9956	-85.9028		55.0075
-35.1594	-58.4619		80.2482
-34.3482	-57.1779		80.9714
-32.6403	-60.2652		81.5885
-33.6008	-56.0076		81.5089
-31.4997	-57.4887		82.9073
-32.8328	-73.5007		77.2912
-33.4081	-77.1669		75.6307
-33.898	-81.0104		73.7153
-26.5671	-54.7567		86.7404
-23.1303	-54.9964		89.6288
-26.3654	-54.1899		85.6345
-22.6157	-54.0719		88.1817
-26.46	-54.4179		85.1243
-29.8629	-54.1108		83.2352
-26.4426	-54.913		84.6571
-26.3934	-56.2815		83.8045
-22.6168	-54.8113		86.9404
-25.9441	-59.2197		82.6849
-22.3411	-58.9703		84.7374
-25.1035	-62.6637		81.8596
-24.0849	-107.321		46.0104
-24.636	-114.331		42.964
-24.7918	-103.101		48.228
-30.3386	-144.74		31.2515
-31.7794	-150.252		29.3642
-25.6279	-145.971		33.4754
-28.6953	-136.75		33.9343
-26.5388	-125.104		38.3923
-16.7381	-101.992		55.6856
-16.8407	-100.548		60.1499
-20.3653	-101.465		53.9419
-21.4659	-146.914		35.0916
-22.8117	-152.198		33.1496
-17.377	-99.7735		64.945
-19.0313	-53.6715		90.7206
-18.9115	-53.9299		89.9462
-18.8045	-54.5242		89.1456
-19.0554	-55.8641		87.8694
-18.9003	-58.6742		86.4361
-18.664	-62.3513		85.0947
-68.5815	52.4788		8.69917
-65.1811	55.1686		19.2199
-67.7277	59.8486		3.34414
-70.9681	50.5894		-2.13802
-74.6555	30.9579		-24.8131
-70.5792	-17.2524		-52.4263
-67.7811	-19.4622		-57.0005
-54.3128	-92.8699		-52.7972
-50.8746	-91.138		-57.6286
-54.9685	-103.039		-53.4671
-57.6795	-95.3859		-47.3468
-54.1385	-82.7368		-52.2514
-55.7683	-111.959		-54.4025
-52.3014	-110.792		-59.0081
-56.7889	-120.449		-55.2685
-60.5034	-79.6851		-40.3848
-61.1069	-71.2928		-39.6068
-57.4044	-75.8307		-46.7045
-60.6726	-89.1047		-40.3152
-12.1212	113.456		16.2033
-4.87603	114.871		16.7026
-11.1724	117.271		0.840828
-19.1116	111.186		15.7805
-8.98177	98.1951		-83.2539
-1.43369	98.9511		-84.448
-8.65454	86.8197		-95.8125
-16.2491	96.8334		-81.5594
-9.49201	107.553		-67.8796
-8.92353	74.6453		-104.699
-1.96926	74.6989		-106.106
-9.52117	61.1684		-111.315
-15.8159	73.5756		-102.976
-9.74666	114.136		-51.157
-10.0799	117.905		-33.5445
-2.11805	115.301		-51.9961
-17.1365	112.301		-49.7274
4.73394	120.96		-16.2135
5.33332	119.784		-34.2705
-3.00786	120.341		-16.1825
3.95708	119.434		1.10719
-10.0417	47.9691		-115.695
-3.53793	48.2525		-116.898
-10.5552	34.545		-118.391
-16.4777	47.2941		-113.861
-11.0605	20.5292		-119.605
-4.68088	20.8984		-120.91
-11.6489	6.74359		-119.207
-17.4828	20.1606		-117.626
-12.9709	-31.1197		-106.76
-12.61	-18.8537		-113.085
-7.41753	-31.5		-107.707
-13.8074	-42.3714		-99.0289
-18.8492	-31.3132		-104.804
0.297327	-6.23165		-119.416
-0.531829	-18.8254		-115.356
-5.94781	-6.11971		-118.616
1.17033	6.75162		-121.356
-16.1496	-87.8654		-79.6742
-11.0673	-87.8599		-80.2434
-16.6818	-97.2142		-78.9119
-21.4783	-88.1486		-78.5302
-15.7028	-78.4776		-81.0536
-17.2837	-106.448		-78.3394
-12.4014	-106.54		-78.7089
-18.1277	-115.556		-77.864
-22.3049	-106.544		-77.5851
-14.8722	-51.1882		-92.6697
-9.15619	-51.2139		-93.4621
-15.2854	-59.1405		-87.8094
-20.1928	-51.2808		-91.3092
-15.3692	-68.371		-83.7947
-10.0541	-68.0313		-84.5959
-21.0627	-68.9534		-82.2599
-4.77369	-68.1666		-84.8387
-5.40985	-78.4322		-81.981
-4.16356	-59.1563		-88.86
-38.3522	100.448		12.3549
-32.1642	104.653		13.865
-38.4394	103.511		-1.29834
-44.5211	95.3597		10.9602
-35.5269	68.4936		-93.506
-35.361	79.6758		-84.8798
-29.3927	70.5017		-97.1701
-35.8989	56.3264		-99.7312
-41.3375	66.0108		-89.4075
-35.362	89.602		-73.3851
-41.3223	85.8236		-69.8955
-35.9402	97.2175		-59.7059
-29.3303	92.5936		-76.513
-36.8282	102.144		-45.3232
-38.0309	104.37		-30.7354
-30.6148	106.254		-46.8488
-43.0603	97.0607		-43.6174
-38.3266	104.966		-15.94
-44.5859	99.6354		-16.0993
-31.8667	109.517		-15.715
-36.0713	44.0576		-104.08
-41.7701	42.4651		-99.9528
-29.9553	45.3102		-107.815
-36.2959	31.3929		-106.771
-36.2909	18.6064		-108.037
-30.4841	19.1126		-111.648
-36.3384	5.72999		-107.602
-41.8281	17.7794		-103.905
-36.0721	-6.69052		-105.634
-41.0251	-6.87323		-101.664
-30.737	-6.92798		-109.042
-35.8636	-19.3776		-101.609
-36.1856	-31.6112		-95.3213
-30.7585	-31.5918		-98.9983
-36.6218	-42.152		-88.5829
-40.9494	-30.8155		-91.7527
-36.9129	-51.2827		-82.5865
-41.5961	-50.9348		-78.5692
-31.6444	-51.6538		-86.0351
-37.0804	-60.4185		-77.3325
-37.3529	-88.3277		-71.1543
-42.0988	-88.7196		-67.3409
-37.5238	-78.799		-71.5315
-32.209	-88.4715		-74.326
-37.2042	-98.2758		-71.5914
-27.4289	-106.77		-76.3402
-32.6602	-107.164		-74.432
-27.0115	-97.7604		-76.5105
-28.2972	-115.521		-76.1795
-37.314	-69.6673		-73.5483
-32.2986	-69.5937		-77.0662
-42.0996	-69.4315		-69.2726
-56.9689	71.2506		-56.7369
-52.0567	76.5946		-61.8723
-56.2851	64.6471		-66.7706
-61.6988	65.0903		-50.9317
-58.1952	75.7347		-45.5676
-59.3058	78.4763		-34.4052
-60.1472	79.9101		-23.3812
-54.277	85.2066		-38.5295
-63.935	71.2242		-29.283
-59.7786	81.0639		-12.6908
-55.3772	87.5812		-14.9861
-63.4893	74.1001		-7.91769
-46.834	40.7993		-95.5896
-46.9474	28.8645		-98.2924
-51.5046	38.7056		-90.9054
-46.7863	52.1694		-91.1656
-46.4911	63.3337		-85.0541
-51.4171	60.0232		-80.2358
-46.4546	73.1719		-76.8515
-45.9337	-6.98689		-96.9484
-45.234	-18.8846		-93.3548
-50.6696	-7.22677		-91.6584
-46.7188	4.94397		-98.8066
-46.909	16.7348		-99.3839
-51.6174	15.93		-94.4957
-45.1998	-29.8421		-87.8833
-45.7035	-40.4936		-80.7774
-49.4119	-29.2741		-83.0386
-45.7125	-49.7968		-74.5881
-49.3312	-47.7567		-70.8737
-46.9308	-69.431		-63.8842
-46.8086	-79.3049		-62.5318
-51.2315	-71.2547		-57.5486
-69.7985	37.2833		-51.7162
-67.1596	42.3121		-57.3699
-69.1252	31.0255		-58.8381
-50.2047	89.6659		10.2196
-50.1955	92.7557		-2.82488
-71.9727	49.0937		-12.8437
-70.2991	56.5485		-18.0182
-61.6315	-6.56281		-76.5038
