1844
-42.7899	-68.3815		97.2685
-35.546	-62.2103		96.9781
-41.1909	-62.8343		97.2795
-57.1382	-70.5222		90.3006
-54.6444	-73.0739		91.112
-59.612	-67.795		89.0591
-59.336	-71.636		86.9022
-61.3836	-71.7664		82.6716
-63.1197	-71.3936		77.4203
-59.1297	-74.7022		82.8459
13.655	2.71442		80.3951
17.4883	2.38691		81.4496
16.4918	5.1343		77.6772
10.2857	3.52458		79.3793
10.7066	0.325474		82.9641
-26.7385	4.49988		82.8296
-30.9681	1.80967		83.1424
-21.7521	1.5081		84.579
-22.7069	7.54727		82.1334
-32.0256	8.21218		79.5707
-28.3474	19.1688		74.1242
-32.8568	15.8004		74.4109
-23.4341	14.6212		78.5104
-23.6027	22.6391		73.4335
-32.9662	24.4496		67.4929
-26.5776	43.6761		52.298
-22.6386	42.8225		56.1629
-21.2906	48.8629		50.1847
-29.7163	44.8392		47.5823
-35.0264	-1.11164		83.096
-30.0155	-4.30673		85.8898
-40.4046	2.32305		78.9281
-38.9072	-4.48387		83.2473
27.8043	-6.80039		93.6548
26.0774	-5.89501		93.5643
25.0395	-10.0426		98.0887
30.4494	-3.12439		89.0997
50.8246	60.561		66.6841
53.846	65.6514		62.019
45.7066	63.4822		65.0761
47.3964	54.8687		71.8809
55.2161	57.4599		67.7454
-60.3712	-77.3905		70.7971
-58.5934	-77.3389		77.5059
-62.4881	-74.7647		70.7576
-62.431	-77.5835		63.4316
-60.736	2.58439		60.6198
-57.2169	7.13467		60.578
-64.0319	-2.22242		60.7333
-56.9052	0.0984507		67.2138
-52.3753	-75.4686		91.3586
-55.0286	-76.6567		87.4152
-49.5504	-73.6965		94.1212
-57.0113	-77.1787		82.8178
-69.574	-41.6934		74.0672
-66.6946	-39.4341		77.1317
-70.3544	-34.7382		70.6613
-71.5518	-43.9119		71.2516
-68.1619	-48.3235		77.8746
-80.1609	-39.1949		50.203
-78.2657	-44.7516		54.4837
-78.0294	-35.0834		55.2799
-81.793	-33.8136		45.573
-82.5239	-43.4284		44.6576
-65.0255	-78.446		55.7972
-68.2985	-80.5083		51.0482
-66.9825	-76.3616		55.5232
17.7759	-10.5717		101.155
20.3979	-11.8068		102.183
20.6123	-7.93715		97.1217
14.3736	-9.44075		99.2253
15.4864	-12.493		104.246
-7.93135	-5.39327		85.6066
-3.33809	-5.92939		86.137
-3.29303	-3.06491		84.5438
-12.0697	-4.09792		85.4955
-38.0355	-28.7183		90.7943
-36.8052	-30.3313		90.8795
-36.5428	-29.1967		90.8357
-2.80039	-19.7979		95.8855
-4.26115	-18.509		94.5265
-3.18551	-20.8195		95.4378
-2.70175	-18.0025		96.0751
-5.92451	-22.6966		94.2529
-4.18464	-23.8042		95.2282
-5.08009	-22.216		94.3552
-7.70236	-20.8407		92.9069
-7.28965	-23.2039		94.2917
4.87516	-27.9304		100.638
3.68918	-26.4803		100.147
3.82689	-28.4058		99.4952
5.89562	-27.4081		102.126
-8.83101	-18.1646		91.4347
-10.2685	-18.7344		91.5654
-7.77062	-17.8437		91.6423
-9.13658	-15.0928		89.942
9.20285	-18.211		107.698
10.4555	-16.9649		107.985
6.7499	-16.4353		104.89
7.73632	-19.6175		106.776
11.1297	-20.1023		109.376
-44.3166	-39.9919		92.0931
-47.9218	-41.6404		91.1118
-42.9141	-43.7723		93.4969
-41.0958	-38.8241		92.9141
-45.0537	-36.2413		90.8839
-32.033	-25.2081		92.7546
-33.9554	-24.4078		92.0811
-29.8491	-26.0175		93.663
-28.6696	-22.4615		93.2101
0.144257	-30.7883		97.8227
1.71228	-29.6623		98.1696
-0.958202	-29.355		97.7011
-1.59274	-32.2153		97.8158
23.4281	-5.01823		93.0051
25.8393	-1.78809		88.7788
19.8834	-4.2512		91.7758
-1.28061	-10.3655		91.7922
-1.24021	-9.52369		90.4939
-2.57848	-11.0541		91.2217
-0.219763	-10.705		93.7268
0.678869	-10.116		93.5781
0.768259	-26.2335		97.889
1.82143	-27.431		98.4394
1.60998	-25.6544		98.3943
-0.699175	-25.396		97.0527
-0.411415	-27.2653		97.5002
2.51795	-25.3215		99.2949
3.4556	-24.8738		100.538
1.20208	-10.8785		95.5779
-0.440723	-11.6829		94.9568
2.08841	-10.4226		95.6298
-4.52303	-12.6758		90.926
-5.90867	-14.723		91.2786
-3.0874	-12.8837		92.841
-7.23014	-37.0557		99.3684
-5.33641	-35.2794		98.6398
-8.58767	-34.7808		99.523
-8.76414	-38.1336		99.9749
-15.8313	-15.3907		90.1401
-11.8807	-13.6331		88.9992
-17.2976	-13.7793		89.568
-20.0175	-17.5442		91.7024
-14.3345	-17.2592		90.9666
-31.4901	-50.2536		97.1627
-34.0498	-47.3545		96.7892
-33.5515	-51.7309		96.676
-29.0127	-52.9272		97.0606
-29.7893	-49.0757		97.7919
-29.9402	-29.4943		94.0109
-28.6292	-28.0589		94.5549
-32.9532	-29.174		92.2472
-30.7415	-29.8503		93.5989
2.70279	-10.0821		95.3419
4.89878	-10.4287		97.4113
3.06124	-9.2659		93.7852
-36.2339	-44.3401		95.9746
-34.5698	-43.4135		96.5667
-37.8631	-41.1986		94.7971
-38.3014	-45.563		95.3651
-26.9769	-55.1464		96.6517
-25.4934	-53.9982		97.2336
-28.8082	-56.6632		96.2947
1.61706	53.8164		62.3043
1.36023	55.6314		60.4336
-4.8258	52.0899		58.316
2.13802	52.0528		63.9771
34.0982	57.3336		70.6802
36.7705	61.6214		66.8557
27.936	59.9471		67.5821
32.189	53.6711		73.933
39.3559	54.6847		73.4077
20.656	62.2613		63.6696
22.8949	67.1385		59.0999
12.4355	64.3101		57.9097
19.443	58.4043		67.5395
27.8009	48.7242		77.1395
29.5118	50.2906		76.4511
25.8127	46.9312		77.4729
32.8983	46.9938		79.94
0.442176	58.0205		57.275
-7.54218	56.7972		51.9271
10.2693	57.3986		64.941
1.00264	61.0463		54.1603
33.4877	32.7781		78.4668
35.075	29.2159		78.0087
35.3184	34.0067		79.2388
31.1448	35.267		78.5436
31.2257	31.0888		77.243
31.3674	5.49379		80.1449
29.9216	3.70573		81.9918
34.3377	4.79249		80.7983
32.7309	6.93854		78.9095
27.8475	5.87291		78.969
-0.537592	8.44672		78.5614
4.01585	5.42453		78.8393
2.73489	9.82668		77.0177
-5.59026	12.5616		78.3745
-4.41514	6.54085		80.4267
-11.9622	39.476		63.2013
-12.3905	34.7221		66.7908
-8.52432	38.9094		64.2144
-9.48235	43.5447		61.09
-15.2075	39.8773		62.1113
28.0606	1.22344		84.9662
30.8519	0.648148		85.354
24.6397	1.57665		84.1528
24.0542	45.3418		77.5473
22.7966	43.6481		77.4158
28.9321	43.6939		79.5936
20.2775	47.5502		75.918
15.8119	49.5704		73.7461
8.99771	50.3545		69.997
14.8594	47.5633		74.1369
-2.71912	43.3122		63.9598
-4.19849	44.7485		62.6854
-4.51695	41.0932		63.9575
-1.22168	41.7951		65.116
-0.0954981	44.8646		65.1523
9.2561	36.3214		71.5092
11.3915	35.5927		72.6096
7.14213	36.9598		70.1385
13.5178	34.5872		73.3774
15.564	33.177		73.7824
14.2077	35.2926		73.8326
11.905	36.3979		73.0467
16.3911	33.6855		74.1765
17.5991	31.4468		73.7636
19.3472	29.427		73.4108
18.4882	31.8207		74.0692
20.3315	29.6373		73.6219
20.6694	27.2209		72.8204
21.4893	24.8363		72.0733
21.8696	22.1988		71.0568
21.8674	19.7868		70.0237
23.2144	21.8311		71.0086
22.7419	24.523		72.0527
23.0797	19.3541		70.0221
21.5593	18.036		69.2744
24.452	21.2693		71.037
24.0953	24.3534		72.2175
19.4786	32.3176		74.4937
21.4613	29.9719		73.9756
1.33612	37.4029		67.1249
1.41028	35.8928		67.6461
28.0235	37.2965		78.3787
26.1601	35.8998		77.4159
29.7367	38.9556		79.2178
24.5158	39.5838		77.8941
11.4027	41.962		73.4204
10.6396	40.1879		72.9932
14.6393	40.8653		74.9035
12.5405	43.7814		73.8886
2.35466	22.5446		73.2769
6.79557	17.6779		73.7533
-0.525623	27.6551		71.6487
1.03506	21.8856		73.5946
11.4449	14.6241		73.0017
10.2242	13.6805		73.5354
14.9428	13.0402		72.0765
19.6707	13.0302		70.486
18.3881	12.7711		71.0005
20.5093	13.3892		70.0928
5.0948	23.8894		72.7725
8.91742	19.6554		73.1325
2.66539	28.7358		71.3195
17.6333	15.1064		70.1314
18.492	14.9862		69.6682
16.0284	15.5433		70.9322
19.2061	14.8909		69.4194
19.9908	14.9337		69.2394
29.0727	16.543		72.1889
31.8325	17.1868		73.5556
29.6137	19.129		72.5927
26.1538	16.065		70.701
21.7116	14.1679		69.8083
23.0452	27.3039		73.2038
24.8181	16.1		70.085
25.4089	18.0805		70.4026
24.0296	14.6052		70.1702
6.19309	24.5781		72.6245
9.87837	20.4319		72.8966
18.01	15.8806		69.5349
16.7426	16.4724		70.3062
18.6864	15.5647		69.2276
19.1965	15.5304		68.9608
5.41286	37.2913		68.8389
46.3758	15.2612		78.8555
48.2722	17.9839		79.4614
44.7407	16.7805		78.8152
44.2756	12.838		78.3316
12.9249	7.61017		75.3518
9.80349	8.74938		75.3941
10.6129	6.19551		76.9285
15.4955	7.15795		75.4354
14.5098	8.81546		74.1876
18.3263	6.74651		75.8918
21.3827	6.5196		76.6015
21.2434	10.7286		72.2073
22.0501	12.1161		71.1748
23.1483	9.90872		73.2331
31.8859	12.6267		74.4897
33.3981	12.6924		75.1941
32.8274	14.9429		74.2567
16.9843	12.6382		71.4825
16.52	11.4123		72.2512
15.734	10.036		73.1487
12.9124	10.7811		73.4977
-29.6117	-33.7214		92.3903
-26.8093	-35.2789		93.5586
-32.0477	-32.2536		91.1638
-29.499	-33.7581		92.1297
-33.5878	-31.3286		90.4794
-33.2999	-31.4395		90.3563
-11.42	-40.2881		100.355
-12.3293	-41.1662		100.111
-10.4358	-39.4429		100.396
-13.0777	-37.9133		100.46
-16.7902	-37.8749		99.5357
-18.5891	-36.3726		99.1448
-17.4311	-38.8154		98.888
-14.9482	-39.6768		99.7527
-15.8288	-37.046		100.014
-20.8076	-34.8788		98.391
-23.8166	-33.4431		97.0608
-21.8272	-35.7038		97.5811
-19.9128	-34.0346		98.908
-14.7409	-36.168		100.308
-13.7071	-35.3439		100.409
-16.6846	-34.6775		99.9097
-16.6241	-32.3251		99.5463
-17.9265	-32.5407		99.4163
-14.3958	-33.7358		100.125
-15.5312	-31.87		99.4829
-27.7621	-32.3442		94.8622
-26.5814	-31.5275		95.8335
-17.9171	-39.8607		97.9404
-20.2773	-37.9915		97.442
-18.1258	-40.4886		97.1038
-15.9275	-41.6152		98.2128
-23.0927	-36.3476		96.3771
-23.6796	-36.8004		95.441
-33.0011	-30.0866		92.0246
-35.1196	-30.186		90.8572
-30.3223	-34.3027		93.1016
-30.4649	-34.3985		93.4005
-27.6153	-36.1343		94.5945
-30.2562	-34.3027		92.8727
-31.6012	-34.9511		94.1408
-29.6071	-37.0897		96.1159
-31.1581	-34.7683		93.9785
-27.3511	-39.3996		97.8821
-28.2483	-39.6782		97.9953
-24.9174	-41.4927		98.9687
-26.6268	-38.9635		97.5377
-20.2468	-42.6935		98.639
-18.0757	-44.7423		98.7117
-19.5311	-42.0971		98.0109
-23.0681	-40.5004		98.1158
-21.1687	-43.3499		99.1997
-18.2591	-48.0639		99.4409
-17.3587	-47.2706		99.0489
-19.8187	-46.2072		99.6705
-19.1388	-48.8265		99.6623
-34.8769	-32.115		89.9041
-34.2568	-31.8468		90.4515
-33.2581	-33.3345		90.8994
-35.9484	-33.0484		89.3124
-16.4344	-45.6486		94.3021
-15.7404	-45.2282		95.4659
-17.6196	-46.5851		93.1389
-17.9958	-44.2247		94.5216
-20.0275	-49.5848		99.7221
-21.6085	-47.6088		99.9979
-20.9097	-50.2695		99.6232
-24.0094	-52.8482		98.051
-22.7475	-51.7659		98.8456
-25.6539	-50.6601		98.5061
-12.8777	-34.9045		100.346
-11.2024	-36.4408		100.408
-11.4749	-34.4819		100.116
-16.4902	-46.4211		98.4851
-15.778	-45.7204		97.8416
-15.4769	-45.3961		97.3914
-15.4319	-45.1842		97.0143
-17.0561	-43.7312		97.6167
-19.205	-41.8064		97.5506
-19.0796	-41.7154		97.1769
-21.841	-39.8085		97.033
-15.5107	-45.0726		96.4025
-17.0145	-43.5558		96.6169
-24.7273	-37.984		96.0127
-25.1155	-38.126		96.4446
-24.6125	-37.9229		95.6144
-30.8244	-41.1773		97.9428
-31.8305	-41.7218		97.6187
-28.6749	-43.5434		98.994
-29.9571	-40.6809		98.0901
-25.8003	-46.1074		99.6109
-26.8696	-46.8113		99.205
-23.3089	-48.8699		99.7033
-24.8595	-45.5602		99.8173
-21.7744	-50.9663		99.3425
-23.8415	-36.9847		94.8183
-23.7696	-37.0191		94.266
-20.8727	-38.7301		95.8298
-33.9565	-31.7101		91.0886
-32.7121	-32.9073		92.0956
-20.0906	-42.4766		94.5705
-19.3612	-41.9818		95.6393
-21.3263	-43.3261		93.5683
-22.5981	-40.527		94.3064
-19.0673	-41.7648		96.5593
-21.6612	-39.8185		96.0744
-28.1531	-47.8787		98.5679
-30.9412	-45.1199		98.062
-29.0715	-40.1907		98.1179
-26.8427	-42.5072		99.2479
-33.1142	-42.5297		97.1425
-34.6181	-39.7682		95.83
-23.3673	-36.9769		93.825
-25.9778	-35.4427		92.9351
-22.1962	-36.4316		92.8891
-20.6932	-38.4747		94.3553
-18.2546	-40.2666		94.6071
-18.2833	-40.6718		95.5089
-17.9627	-39.1082		93.2841
-16.3903	-41.7615		94.3863
-20.0147	-34.7159		91.4094
-22.1099	-33.4324		90.9723
-17.4518	-32.0947		90.0797
-18.0725	-35.943		91.6326
-38.1665	-35.1021		88.7998
-36.5855	-36.3477		89.7932
-40.3768	-37.4699		88.6113
-19.8255	-48.5231		92.1307
-22.9833	-51.0436		91.7753
-21.3351	-47.0884		92.4493
-16.3224	-37.2083		91.6652
-13.7557	-34.7654		90.3212
-14.5933	-38.5869		91.522
-23.4613	-45.2821		92.6169
-26.6627	-47.8732		92.1202
-26.021	-43.3477		92.5063
-37.3437	-29.116		85.026
-37.446	-28.4859		84.2048
25.9266	9.20743		74.5628
25.4279	7.68238		76.0865
-59.6052	51.3768		-28.9583
-60.633	52.0007		-26.9403
-56.6463	55.0399		-29.3066
-58.5728	50.6865		-32.6798
-62.2127	47.7191		-27.8907
-38.6494	61.2533		5.79781
-35.5171	61.639		10.1517
-37.6115	63.8523		1.42731
-37.1209	65.774		-3.88301
-39.1652	66.418		-10.6238
-41.258	62.6808		-4.3254
-33.1862	69.4547		-5.74818
-71.6783	29.3159		-18.3134
-69.9499	33.0377		-20.3132
-73.5791	25.4567		-15.5089
-71.2998	32.5742		-16.4771
-68.3312	36.4914		-22.5705
-68.5961	38.8485		-20.4378
-66.5206	40.2338		-24.5931
-68.6233	33.3951		-25.6835
-61.4021	53.0568		-25.8069
-58.0136	56.8264		-26.4398
-63.8832	49.6525		-24.5797
-61.9713	54.5202		-25.2328
-71.9437	41.1712		-16.374
-73.2274	41.0802		-14.9868
-70.1875	41.3931		-18.1736
-74.125	41.0198		-13.7495
-72.3136	44.8213		-16.0299
-75.7696	37.1604		-11.0492
-74.6828	41.1488		-12.3724
-69.9805	51.1892		-14.0634
-68.1742	55.5541		-17.4073
-69.4055	51.5136		-13.3477
-76.9726	26.7007		-2.87394
-76.5948	28.3576		-6.01337
-76.1592	26.8117		-5.18852
-76.7597	25.7566		-0.85244
-77.3125	26.8298		-2.0726
-70.3627	32.2357		9.0117
-70.5613	31.621		9.04141
-71.0732	30.3374		8.78901
-69.0113	51.7005		-12.9872
-68.9162	50.8318		-12.0629
-61.0128	64.3212		-17.8177
-60.8816	64.9405		-19.376
-61.5754	63.1905		-16.0644
-53.2434	71.4571		-16.3879
-52.457	72.6148		-16.5916
-50.8142	74.0895		-15.765
-48.4737	75.0407		-12.9831
-50.674	74.58		-16.1771
-50.1425	73.3643		-13.653
-55.1464	49.9347		6.67036
-52.1279	54.7593		5.71029
-57.3595	46.3528		7.53179
-53.9966	49.9671		7.80975
-62.0388	34.3326		14.5465
-59.1297	37.6781		14.6465
-64.5469	31.3718		14.4069
-61.2071	33.1293		17.1709
-62.7882	41.2864		5.7053
-61.3644	42.6608		5.35532
-64.6022	40.1598		5.46891
-41.6309	62.3205		-4.26725
-41.6149	62.3309		-4.05696
-41.6157	63.7508		-7.76456
-41.6668	73.7484		-4.16925
-41.6919	75.8814		-7.25838
-42.5049	73.7617		-2.99076
-42.3959	70.2931		-1.19852
-41.0311	73.4784		-5.5098
-41.8805	76.3675		-12.3724
-40.9476	75.3897		-9.51547
-42.3681	75.1237		-13.7532
-43.8482	76.1155		-15.7796
-41.8781	76.643		-11.8485
-56.4292	67.3164		-24.8087
-56.8491	68.231		-24.1226
-51.7314	71.5268		-22.5249
-56.2821	66.418		-25.0759
-49.5109	58.7397		4.7901
-50.7405	58.1295		4.32148
-58.1554	68.7451		-21.2224
-54.2707	72.4954		-19.4476
-58.3331	68.74		-21.5673
-60.0301	66.5692		-21.1748
-46.7024	74.9725		-9.24331
-45.7015	73.5917		-5.4107
-45.9277	75.6896		-8.72558
-47.6932	73.9216		-9.86396
-50.467	60.5934		2.20965
-49.2862	62.6955		1.3475
-51.2704	58.8981		2.87244
-56.8179	68.6781		-18.6759
-58.7448	67.4568		-20.2903
-54.3757	54.5271		1.40963
-53.3255	55.9595		2.40264
-54.4169	54.8898		0.707219
-59.686	59.7181		-11.7225
-59.4861	63.2056		-13.5498
-60.4393	58.8759		-11.7845
-59.0613	59.7873		-11.1935
-56.5764	40.8166		14.2601
-55.6847	39.8542		16.6606
-53.8861	44.6107		13.043
-54.044	60.556		-25.4655
-52.6748	62.9517		-24.6181
-50.1295	63.5555		-23.8572
-53.9338	59.3969		-26.7293
-50.1061	68.0035		-22.0549
-53.7389	65.4782		-24.4961
-47.9105	72.8704		-20.2351
-46.568	70.2212		-19.2907
-56.2783	64.9416		-25.1276
-59.7007	60.2805		-25.5468
-63.0165	56.447		-24.7436
-69.1326	40.5341		-19.3469
-67.6494	43.5428		-21.2145
-70.4129	37.486		-17.3782
-65.929	46.532		-23.0266
-65.1939	45.2102		-24.3087
-68.2875	50.3702		-11.1501
-71.5567	34.5769		-15.5454
-73.0302	31.0499		-13.035
-75.807	25.6328		1.91535
-75.6284	25.0635		2.01768
-75.3434	24.4919		2.25476
-76.1181	24.9318		-3.2368
-61.2198	58.5483		-12.1444
-61.9452	61.1234		-14.1312
-52.9347	49.8625		8.73219
-51.9062	49.5048		9.78144
-61.0282	38.5953		11.3934
-61.5005	38.7697		10.8019
-67.4987	38.1357		6.22951
-66.9712	39.0883		5.28167
-69.9496	37.5914		5.07395
-59.0608	43.7794		8.25599
-59.8938	44.1672		6.15827
-44.4141	71.0244		-16.3652
-42.6775	70.5004		-13.2881
-46.0673	66.888		-19.1765
-46.9249	65.2608		-20.9574
-44.1168	65.9475		-17.0565
-47.0855	64.8271		-22.0739
-54.4803	68.5742		-13.9079
-55.398	67.3653		-13.4439
-54.4727	55.8071		-0.721308
-54.768	57.6075		-3.31571
-58.3265	60.3116		-10.7869
-57.6324	59.8221		-9.51761
-57.102	64.2255		-12.0511
78.1393	55.9736		56.4334
82.083	61.8188		48.8134
72.2142	60.8265		57.3983
73.8362	50.4026		62.5129
69.5381	44.7994		67.6047
64.1857	49.8621		68.1665
64.776	38.966		72.3906
43.9856	50.9378		75.8005
48.3974	47.7407		76.3726
41.6117	48.3929		78.5311
7.16719	-26.8577		104.067
5.54949	-25.3728		103.094
8.34173	-25.9095		105.957
15.6497	-19.4691		110.142
14.3499	-20.6803		110.411
17.0245	-18.1067		109.318
13.7515	-17.7186		109.458
12.9259	-21.9513		110.156
11.4253	-23.2406		109.353
2.84074	-28.9058		98.7426
-3.48922	-33.81		98.1195
-4.82164	-32.1257		98.2604
9.85909	-24.575		107.91
8.09389	-22.9362		106.95
18.4578	-16.8489		108.023
20.2048	-15.2591		105.824
16.4433	-15.3215		107.511
54.0661	27.6614		79.6823
56.5394	30.3642		78.6365
50.4373	33.1289		79.837
52.0005	25.3157		80.0429
36.2446	3.97863		80.875
37.6355	5.47539		79.6825
34.6205	2.27054		82.6335
39.0125	7.0327		78.8262
40.5165	8.59545		78.3146
37.1067	7.76057		78.7484
-14.6854	-43.2928		93.9403
-14.7357	-44.0752		95.2755
-14.2497	-42.1525		92.7216
-14.6449	-44.2568		96.2776
-14.4588	-44.1107		97.085
-16.1485	-42.6527		96.4559
-13.0943	-41.8833		99.6954
-13.727	-42.6508		99.0499
-14.133	-43.45		98.1795
-9.71959	-38.7764		100.281
-12.7658	-40.2295		91.1642
-10.3219	-37.8172		89.7364
67.0186	64.605		57.7628
70.3633	70.3256		50.6427
61.7983	67.7548		57.7116
63.3982	59.3052		63.3143
47.4966	38.3408		79.9874
48.7867	39.9504		79.417
44.1332	42.9799		79.8116
45.0145	36.5924		80.4442
42.5427	36.167		80.429
39.3032	35.7561		80.1644
39.3711	40.4384		80.3979
37.149	35.0807		79.7929
34.6767	38.0329		79.867
39.2878	30.6611		79.5232
24.4	27.3217		73.5397
22.6314	30.3147		74.3895
25.6172	24.1044		72.5195
26.055	28.0528		74.3414
21.7965	27.2045		72.9449
28.3152	29.0723		75.498
29.6657	25.8875		74.7746
26.2856	31.8878		75.9961
48.7638	85.9012		39.168
46.4312	80.859		46.883
55.634	84.0963		40.4408
50.0213	91.2731		28.8534
56.747	70.5653		56.9132
50.9486	73.3042		55.3995
59.3685	75.9173		50.3486
40.498	46.9967		79.4219
36.0351	49.2307		79.3762
38.3303	44.8739		80.2051
31.532	40.7868		79.9219
33.7888	42.0413		80.3026
36.4391	43.3719		80.4058
23.9996	34.3892		76.3483
20.7505	36.6749		76.2212
21.9624	33.5091		75.5191
44.3123	76.0901		52.8712
42.0567	71.3613		57.9325
37.2336	78.9166		49.1666
30.6969	51.6945		75.5294
25.335	53.8611		72.9505
15.4051	36.9389		74.716
12.6877	38.2932		73.8287
17.9762	35.0746		75.0836
16.4601	37.8129		75.2567
20.9683	42.1909		77.0006
17.9112	44.2387		75.9867
19.3527	40.4682		76.4286
17.7379	38.9661		75.8189
39.5917	66.4556		62.5214
32.6767	69.3736		59.0636
30.4497	81.9429		43.7522
24.0818	84.8174		36.8277
28.0516	77.185		49.2924
9.59504	37.1095		71.8822
7.32944	37.6623		70.4227
9.97806	39.1233		72.4909
7.44189	39.5158		70.9046
9.85099	37.956		72.2223
13.9071	45.684		74.2263
8.3649	46.1636		71.0923
35.572	25.0789		77.022
37.8655	25.7154		78.1237
33.0404	23.8854		75.5643
35.1364	21.2971		75.8922
40.3626	25.7655		78.9389
39.8067	21.9441		78.1003
29.9572	22.3558		73.5993
27.5965	21.5412		72.2556
50.2025	22.2143		79.9901
-84.5968	-0.290233		8.83599
-86.224	-0.0497751		2.38924
-81.4597	4.39063		10.556
-34.5427	72.36		-26.2036
-38.5233	68.9227		-20.3188
-31.5698	73.6618		-18.3016
-30.5684	75.7661		-31.6451
-38.2968	69.8688		-31.5111
-57.8601	49.5409		-38.9759
-54.2191	54.292		-39.4114
-57.5567	48.19		-44.9397
-61.334	44.5513		-37.0435
-50.0006	59.0219		-39.5384
-51.6951	58.6497		-32.7651
-45.9851	63.1487		-38.1266
-48.614	59.239		-46.4981
-69.8116	28.6112		-30.0222
-67.1434	34.0266		-32.7236
-70.9556	24.23		-34.1166
60.1247	34.6191		76.1106
55.8606	39.4308		76.5479
52.0396	43.9048		76.5672
55.4379	48.7344		72.8391
-70.0906	-62.9836		67.1059
-67.0548	-67.9971		69.4889
-73.2632	-56.5803		63.0302
-71.9826	-64.5673		59.3449
-75.8904	-31.7033		59.6123
-73.5468	-29.5215		63.4961
-77.0386	-25.7175		55.0237
-74.6816	-39.133		63.8478
25.3321	72.2262		54.2025
18.0055	74.7318		48.067
59.6093	54.0268		68.1412
17.4566	87.6219		28.2825
13.9319	82.4792		34.5737
11.5192	89.9946		19.2185
73.9946	76.732		40.501
79.8873	72.9333		39.723
77.0477	82.8293		28.2395
68.0634	79.6173		41.1191
3.04064	65.6545		49.9724
6.81563	71.3144		45.4181
5.21092	39.6295		69.2353
2.4845	50.3053		65.2813
2.93301	48.242		66.4993
-2.36383	48.2751		62.3723
3.368	46.2656		67.4396
-71.7942	-83.7168		49.2801
-72.9011	-13.3662		56.1959
-76.0494	-16.6719		52.4551
-71.1864	-20.0403		62.8567
-69.9464	-10.2832		58.8943
-9.81163	-33.5499		99.5591
-7.89214	-32.3016		98.8714
-11.287	-32.5065		99.4867
-26.6353	-26.58		94.8206
-23.0944	-27.0876		96.2667
-23.1687	-24.307		95.0116
-9.47888	-28.9223		97.8021
-7.31108	-27.808		97.0701
-11.7848	-27.4137		97.134
-11.496	-30.0147		98.485
-7.35546	-30.1607		98.1341
-35.4023	-23.4979		91.5705
-32.3151	-20.6643		91.8816
-37.4729	-22.5373		90.7613
-37.9587	-26.1229		90.92
-10.9763	49.4855		56.2983
-12.8955	51.3976		53.4095
-15.6977	45.7254		56.9485
-8.6303	47.8256		58.7704
-14.7566	53.6573		49.6919
-17.5794	55.7411		44.6715
0.292594	40.3359		66.1494
-1.21651	39.1707		65.7403
-6.59598	46.3444		60.7689
-46.1626	64.5569		-24.3592
-43.617	66.1006		-20.655
-44.5018	65.1979		-28.8413
-49.4457	62.0878		-27.1813
-64.5254	43.8346		-26.5303
-64.1358	42.1569		-29.9923
-79.4995	12.3679		-0.140749
-78.526	15.5215		-6.2529
-82.7743	7.10844		-2.55223
-79.4128	10.1628		6.20218
-77.0736	16.5787		2.13054
-53.0711	58.7803		-28.7635
-60.5798	31.5872		20.2574
-59.6316	29.9025		24.5161
-57.7072	35.0834		20.1801
-63.3117	28.2258		20.0713
-33.8762	46.2474		40.4837
-38.0199	47.4923		32.537
-38.8836	40.3433		42.7341
-28.2418	52.2097		38.3319
-6.18222	38.4241		64.875
-6.73699	35.1722		66.9047
-4.04942	38.0659		65.4185
-2.35652	37.8017		65.9182
-2.40591	35.6676		67.039
-57.8487	28.2776		30.5654
-54.4797	32.4467		30.0986
-61.1095	24.4756		30.4043
-55.6672	26.7295		37.1163
0.212667	-0.606542		83.0798
3.65115	-1.37123		83.8482
3.762	2.03159		81.0781
-3.39065	0.986125		82.5802
-8.65845	4.00011		82.3155
-12.5526	1.19091		83.9667
-13.6494	7.49869		81.9227
7.52939	-2.30544		85.4658
5.05954	-4.86042		87.8931
11.8118	-2.98029		87.6629
-1.27313	-7.52092		88.2074
1.06943	-7.25551		89.0166
0.170807	-13.2888		97.302
-1.03931	-13.1035		95.8444
-1.09421	-14.7173		96.8967
1.90183	-13.7713		99.1852
-2.04126	-12.9831		94.4139
-3.38534	-14.572		94.0519
-25.375	-7.29784		87.4516
-21.1392	-4.4126		86.5413
-29.6255	-10.467		88.3964
-21.748	-9.88345		88.4499
-16.501	-1.63541		85.2721
-2.03884	-28.4729		97.4706
-3.3907	-27.6667		97.0603
-3.96118	-29.8007		97.7325
-52.5649	-2.52091		73.3321
-55.8299	-7.08422		73.3967
-47.7613	-5.40565		78.8964
-49.0632	1.74488		73.3596
-24.5204	-19.917		92.8448
-26.5636	-18.8246		92.2495
-22.2492	-20.9955		93.5253
-33.7936	-13.936		89.0058
-30.6838	-16.1503		90.5939
-37.9499	-11.2812		86.7348
-37.5757	-17.5605		89.3624
-5.92808	-31.0533		98.2522
-59.0426	-12.199		73.397
-60.9719	-17.8922		74.524
-53.7538	-14.0133		79.2717
-63.4569	-10.2943		67.3397
-37.4653	12.6185		74.0012
-42.0707	16.8048		67.3222
-41.67	9.25592		73.6941
-66.4292	-54.9542		81.6526
-63.9093	-60.836		85.0699
-64.0432	-52.6325		83.8966
-62.9007	-36.878		80.2705
-62.1543	-43.37		82.9795
-58.0216	-34.9333		83.7475
-62.7968	-30.5448		78.161
-18.9976	26.2475		72.1531
-14.9524	21.3567		75.6638
-14.3549	28.7098		71.1016
-1.97567	32.3408		69.114
-3.90981	31.7144		69.3688
-11.0669	30.0508		70.4232
-8.21301	30.5868		70.0993
-8.23303	25.0922		73.4868
1.60889	32.9474		69.207
-46.2853	-71.1536		96.1566
-48.9877	-16.0746		83.6932
-44.4228	-18.5899		87.1339
-46.193	-12.3315		83.5799
-50.9403	-20.0995		84.1331
-53.6367	-33.5709		86.3514
-53.1703	-38.6803		87.8759
-49.0784	-33.0878		88.6254
-53.1783	-28.8804		85.4428
-10.6754	17.1454		77.502
-7.13955	19.0888		76.1467
-14.6209	14.4165		79.1659
-42.7466	-8.30844		83.3455
-18.6325	10.9404		80.7965
-43.4947	-59.9522		96.6627
-45.8658	-56.5713		95.5196
-39.7406	-56.7092		96.5296
-48.4354	-52.7419		93.8359
-44.5221	-49.8035		94.3161
-50.4248	-48.5025		91.8881
-4.46692	20.1728		75.1733
0.405113	15.1125		75.7709
-2.32261	20.7911		74.5168
-5.95237	31.162		69.7067
-4.02785	26.5174		72.3568
-0.565969	21.4096		73.9814
4.01673	16.2746		74.5296
16.0155	-3.7132		90.0791
18.7108	-0.82847		86.4173
13.2034	-6.34673		93.5005
7.8816	-11.2387		100.506
6.94854	-11.853		101.018
10.9742	-12.3478		103.59
8.92583	-10.2508		99.1096
24.53	6.1874		77.7015
23.1225	4.36891		79.8461
7.18998	4.0858		79.1091
32.6438	-0.0711632		85.391
-18.853	40.8406		60.0668
21.1214	1.87969		82.9814
-67.0618	-7.22515		60.7677
-70.13	-2.53085		52.2517
-36.7485	29.4856		59.6739
-39.9945	32.7595		51.9708
-41.6963	24.6214		59.8618
-53.6089	11.5796		60.403
-57.004	13.9053		53.2424
-49.8617	8.85684		67.1121
-49.8882	15.901		60.2243
-45.9262	20.2767		60.0111
-49.3341	22.9503		52.5371
-61.7372	-64.7773		87.5536
-36.3669	-54.0051		96.4409
-38.8212	-50.8356		95.8298
-34.0264	-56.725		96.5892
-41.2147	-47.4855		94.7814
13.96	17.7998		71.749
5.10847	11.0555		75.7452
7.09437	12.0799		74.8162
8.6858	12.9033		74.0953
-31.8475	-59.2275		96.3663
39.3143	12.4345		77.6235
37.1628	10.1039		77.7455
40.9056	11.6743		78.0001
41.2149	15.0895		77.9451
37.3808	12.7671		76.9904
20.9164	15.2409		69.1625
21.8459	16.0703		69.1387
22.9733	13.279		70.545
35.2007	12.7979		76.0822
36.7898	15.4602		76.3001
42.2859	10.6615		78.1213
4.23005	-23.9962		102.015
5.02855	-22.8839		103.46
11.6156	-15.8911		107.818
8.95988	-14.1163		104.952
12.7197	-14.7769		107.125
-6.48402	-17.1087		92.0841
-5.86621	-19.9368		93.3943
-5.31432	-16.8764		93.007
14.048	-13.8308		106.166
34.2981	8.18702		78.1503
42.9944	17.9268		78.576
40.9288	18.5098		78.0499
22.623	17.3695		69.3694
38.5669	18.713		77.1348
36.1469	18.3457		75.9648
34.0254	17.8672		74.8046
-12.9575	-19.3274		92.0166
-16.1013	-20.5839		93.0982
-11.1484	-21.771		93.4041
-19.831	-22.3128		94.22
-16.9601	-23.8504		95.1798
-32.4186	-31.5998		90.2807
-30.8224	-32.7109		91.1554
-31.569	-30.9592		89.547
-31.2017	-30.1943		93.2241
-28.7968	-30.4626		94.7124
-29.3816	-28.8915		88.0519
-26.4089	-26.2482		86.6682
-26.7692	-30.6314		89.4039
-9.36225	-23.8057		94.6739
-11.7123	-24.6487		95.3769
-7.35708	-25.4728		95.7176
-14.471	-25.5596		96.1351
-16.9557	-26.6943		96.8763
-28.7791	-33.9219		91.9866
-26.8663	-33.7552		91.5439
-24.355	-32.0841		90.3046
-21.7171	-29.2912		88.8608
-5.28993	-26.6913		96.5367
-3.61872	-25.6363		96.1712
-13.8521	-31.0054		99.0526
-16.6104	-29.3062		98.2859
3.7127	-7.15789		90.5033
7.0573	-7.89928		93.5681
22.3702	-13.0807		102.523
10.8269	-8.61007		96.7025
6.39107	-21.2441		105.424
4.22794	-19.6336		102.988
1.89547	-18.0647		100.564
-0.403698	-16.7536		98.1765
2.94356	-16.3521		101.256
-2.081	-16.2327		96.447
-3.39176	-16.2842		95.0306
-4.38306	-16.5213		93.909
6.21856	-12.6225		101.551
5.33504	-13.6471		101.9
4.15859	-14.8833		101.779
-121.854	-76.184		32.2385
-114.85	-72.008		32.4757
-124.019	-71.871		29.6397
-127.033	-79.1845		32.1055
-119.294	-80.7078		34.6707
-105.515	-65.838		32.8054
-103.035	-70.1983		35.6979
-97.6552	-59.9461		33.2828
-107.721	-61.5674		29.841
-85.499	-47.3901		39.5718
-89.1463	-51.1688		35.7439
-83.3937	-52.2212		43.1361
-87.4555	-42.7997		35.61
-92.7246	-55.1723		34.0559
-94.7165	-50.7776		30.7625
-90.3503	-59.6518		37.4247
-52.5656	-24.2421		84.5035
-47.8552	-25.4841		87.561
-57.2881	-23.8038		80.7536
-62.4146	-23.7577		75.843
-66.9397	-25.239		71.3222
-70.6308	-27.1492		67.2391
-44.1803	-26.6723		89.311
-44.8375	-29.7407		89.6068
-41.2793	-27.6301		90.2436
-42.5615	-23.8359		89.354
-39.4199	-28.1876		90.6312
-39.9151	-30.1702		90.7191
-89.1778	-38.1346		31.4763
-90.6948	-33.3222		27.0074
-92.607	-42.0121		28.7092
-86.2926	-33.8855		35.0891
-83.5557	-29.3237		40.0384
-81.136	-24.836		44.6331
-85.2348	-25.0769		33.7405
-78.6176	-20.4151		48.907
-80.6608	-16.6288		41.4593
-109.654	-57.3041		26.7143
-118.926	-63.6031		26.8211
-101.818	-51.2986		26.777
-111.76	-53.3289		23.4095
-125.964	-67.8689		26.8408
-127.807	-64.0124		23.702
-131.471	-70.8011		26.7116
-96.4738	-46.3247		27.3414
-52.7446	24.9751		44.6979
-48.5852	29.7113		44.3227
-56.5103	20.5236		45.066
-82.3025	-13.8143		34.5402
-83.7104	-11.4909		27.5625
-84.4034	-17.6227		31.1851
-21.7658	58.045		37.0018
-27.3335	59.5409		27.3865
-72.8785	0.427282		43.7893
-74.7985	3.21412		35.1784
-60.1342	16.0579		45.4984
-62.5962	18.4537		37.406
-43.6552	34.9319		44.0417
-47.5488	36.1069		36.2413
-64.2791	20.5746		30.3621
-65.3902	22.8919		23.9759
-96.1513	-23.3653		12.8499
-94.3126	-26.0203		17.3105
-92.858	-19.8692		14.2658
-97.9241	-21.1612		8.44669
-99.919	-27.0948		11.8666
-104.118	-31.1285		11.5174
-89.8341	-16.3348		16.4691
-87.249	-12.8773		18.6084
-91.4516	-14.2054		11.0791
-88.2739	-18.7202		21.7658
-41.6449	48.6671		24.6538
-46.4143	42.3661		27.7579
-36.8442	54.7903		21.3263
-31.7401	61.1304		17.5942
-26.7723	66.9847		14.3155
-21.7748	72.901		10.4111
-16.8653	78.7565		6.03331
-25.3563	73.9995		0.252859
-76.0088	5.65408		27.0124
-77.2517	7.57804		19.1016
-50.5679	37.0915		29.498
-53.1399	37.8853		23.6927
-113.833	-49.3012		19.7044
-122.807	-55.8		20.0085
-86.7694	-21.5685		27.7919
-89.4055	-25.4822		24.5553
-129.535	-60.1721		20.0631
-134.815	-63.0635		19.7196
-119.613	-37.8306		3.80457
-127.16	-43.6995		3.45227
-99.3842	-19.2143		3.98224
-96.0378	-15.6405		4.71381
-99.6651	-16.8238		-0.920908
-92.8075	-11.9269		5.81272
-132.937	-47.9277		2.72322
-137.62	-51.1548		1.37973
-78.7045	8.66759		12.0011
-65.9725	24.925		19.6078
-68.5592	21.988		18.4483
-66.0562	27.2095		16.4094
-54.6504	38.7441		19.8286
-106.401	-22.1228		-8.36694
-101.788	-17.4682		-7.66995
-103.63	-19.5654		-15.6781
-97.708	-12.7746		-7.02215
-93.7169	-8.18066		-13.6705
-86.579	1.42596		-4.21655
-75.7546	19.1654		3.37315
-76.0005	22.4003		-3.18858
-126.644	-41.6672		-24.5049
-120.257	-36.2724		-23.7611
-123.736	-41.6389		-32.2501
-132.641	-46.6278		-25.1781
-76.4374	20.0653		-11.293
-74.9915	24.2722		-9.55527
-74.7132	26.6385		-8.75217
-74.7687	27.8213		-8.47478
-116.481	-85.2009		36.8321
-121.629	-88.0295		36.2895
-113.61	-89.6307		38.6746
-109.588	-80.9478		37.494
-87.343	-64.4773		40.9239
-84.1383	-60.9255		42.8097
-92.047	-68.9574		39.7334
-84.0518	-69.0791		44.0065
-75.9504	-50.5129		59.0414
-74.3798	-47.9841		64.2154
-77.9363	-53.7323		52.7457
-80.8145	-57.3839		46.7801
-77.8003	-62.3702		50.0384
-99.9792	-74.6239		38.5747
-97.1304	-79.3183		41.1677
-45.3906	-32.8346		90.008
-42.1804	-32.6431		90.8329
-73.0552	-45.9676		68.1721
-40.0804	-32.3788		91.1455
-38.3519	-32.1652		91.2864
-39.6093	-35.0053		92.083
-36.8339	-31.9073		91.2959
-36.313	-34.0452		92.3671
-52.3415	-43.8399		89.7108
-56.5291	-46.5404		88.1153
-60.8193	-49.6102		86.0029
-30.6344	-34.674		93.8119
-28.3387	-36.5228		95.4658
-30.1792	-34.4571		92.6378
-27.4799	-36.2402		93.7745
-30.4133	-34.5997		92.2691
-32.5646	-32.8148		91.4899
-30.7827	-34.9497		91.9416
-31.9002	-35.8941		91.3842
-28.0815	-36.7579		92.8444
-34.192	-38.0391		90.7971
-31.3808	-39.7629		91.591
-36.6231	-40.723		90.5746
-80.6192	-73.2355		46.4709
-85.6231	-77.8307		45.1263
-77.6117	-70.0243		48.4786
-110.749	-94.1141		40.2271
-115.664	-96.7615		39.3834
-107.779	-98.3429		41.4155
-103.945	-89.9425		41.4094
-94.256	-83.7341		43.3573
-68.8837	-74.1376		55.2408
-66.4443	-72.5241		62.8308
-71.3466	-71.2737		54.3299
-105.107	-101.936		42.1421
-109.813	-104.532		41.1845
-64.6033	-71.6749		70.8057
-24.5571	-38.0398		95.0517
-24.7622	-38.2739		94.3661
-25.1862	-38.7138		93.7502
-26.4535	-39.4508		92.9274
-28.6893	-41.5193		92.1574
-31.5547	-44.2982		91.7468
-2.93513	81.0977		21.6061
3.19235	79.0615		31.3569
1.51249	86.7776		15.7535
-8.00017	82.9704		11.3957
-28.411	74.1844		-9.29355
-64.3947	39.2114		-35.3276
-64.8673	36.2129		-40.4965
-106.407	-29.0037		-37.3339
-103.529	-29.3345		-42.9424
-114.093	-36.0106		-37.636
-109.678	-29.4062		-31.119
-99.0505	-21.6061		-36.998
-121.017	-41.8914		-38.1503
-118.478	-42.7173		-43.5031
-127.751	-47.2748		-38.5183
-99.3942	-16.6811		-23.6953
-93.649	-9.96202		-22.8136
-95.5239	-14.9558		-30.7819
-106.213	-23.7124		-23.526
79.3685	88.1814		13.8957
85.6663	84.3508		12.7387
80.0839	92.4077		-1.69274
72.694	91.1794		15.122
53.4437	87.2026		-84.878
59.1834	82.7908		-87.7204
43.5223	80.056		-97.0012
47.5845	90.9096		-81.5704
62.3394	92.6326		-69.8565
33.2852	72.2801		-105.319
38.0733	67.7615		-108.218
22.3229	63.4891		-111.259
27.9015	75.9595		-102.074
69.7273	95.6551		-53.4596
75.2525	96.5096		-36.0624
75.8715	91.471		-55.9845
63.4048	99.1009		-50.3686
91.1179	86.6506		-22.1909
87.5209	87.6024		-40.18
85.1132	91.3961		-20.4679
92.5435	83.8551		-4.79799
12.0211	54.5757		-114.997
16.6823	50.4991		-117.6
1.87362	45.2797		-117.04
7.25795	58.24		-111.755
-8.40403	35.3555		-117.586
-3.78829	31.4315		-120.265
-18.2865	25.4669		-116.522
-12.9228	39.2253		-114.224
-43.1285	-3.29154		-102.343
-35.539	6.3839		-109.223
-39.568	-7.23451		-104.473
-50.1212	-12.1342		-93.9696
-47.1344	0.308931		-99.1078
-18.6807	7.6986		-118.776
-27.2394	-1.57067		-114.07
-22.9604	11.9494		-116.649
-9.43085	16.979		-121.403
-79.9816	-47.201		-72.5815
-76.4087	-50.55		-74.2485
-86.7231	-53.901		-71.4155
-83.8253	-43.9783		-70.276
-73.3708	-40.3076		-74.3365
-93.4587	-60.4285		-70.4164
-90.0575	-63.7488		-71.8337
-100.291	-66.668		-69.457
-97.0218	-57.2075		-68.5768
-55.8548	-18.857		-87.0265
-51.9022	-22.6526		-89.0549
-60.8074	-25.1914		-81.786
-59.4999	-15.4983		-84.5054
-66.5774	-32.5947		-77.4554
-62.6548	-35.8253		-79.4201
-70.8112	-29.3946		-74.6622
-58.9865	-39.4731		-80.7992
-66.0807	-47.1087		-77.4915
-52.9963	-32.6027		-85.2429
50.9944	96.2938		16.4836
58.5256	95.1641		16.4182
50.6966	100.544		2.76962
42.9279	96.7319		16.6983
11.9658	84.3964		-88.1575
21.3971	91.5153		-80.0422
17.0824	82.1819		-93.2259
2.14197	76.3912		-93.8062
6.84111	85.9793		-82.702
30.3575	97.4589		-68.9922
24.1208	98.239		-64.0648
37.695	101.799		-55.5701
36.1776	95.9952		-73.5392
43.0684	104.242		-41.2906
46.3714	104.834		-26.6327
50.0756	103.32		-44.3303
35.4238	104.425		-38.0236
49.2087	103.533		-11.8863
41.0664	103.746		-10.4459
56.993	102.593		-13.2706
-7.26574	67.9425		-97.6306
-11.6895	70.1124		-92.1973
-2.69761	65.1817		-102.739
-16.6793	59.0275		-99.7744
-25.746	49.687		-100.541
-21.8944	46.5688		-105.426
-34.5956	40.1008		-99.5892
-29.5214	52.3132		-95.1634
-42.6223	30.4398		-97.1817
-45.5658	33.1573		-92.1082
-39.5889	27.0756		-101.745
-50.5061	20.3399		-92.6819
-58.0566	10.6058		-85.798
-54.8246	7.42507		-90.6818
-64.4588	2.11399		-78.5144
-60.2634	13.9588		-81.1911
-69.9383	-5.35214		-72.0908
-72.3261	-2.46299		-67.0257
-67.0377	-8.73107		-76.7
-75.493	-12.8286		-66.476
-94.1267	-34.4362		-59.4665
-97.1649	-32.0654		-54.6156
-87.6597	-27.151		-60.0528
-91.0643	-37.5695		-63.7439
-101.014	-41.8626		-59.6497
-100.666	-54.084		-66.2238
-104.388	-51.1081		-63.1806
-94.1453	-47.6671		-66.7701
-107.329	-59.9913		-65.5884
-81.4657	-20.1518		-62.3605
-78.4272	-22.9992		-66.988
-83.9844	-17.3328		-57.0203
5.35543	96.2701		-46.911
11.5726	97.5991		-53.3393
-0.573715	92.205		-56.7814
-1.14489	94.1274		-39.8126
9.64243	98.9724		-35.7168
12.8217	100.269		-24.5059
15.2597	100.42		-13.4356
20.2258	102.461		-30.0043
5.56252	97.3036		-18.0741
18.2923	99.5385		-2.92578
25.3943	101.787		-6.45701
11.8671	96.1681		2.95512
-15.6566	71.7623		-86.657
-24.4864	63.3165		-88.8575
-19.5688	72.7829		-80.858
-6.94539	79.6147		-82.7046
2.10972	86.9333		-77.1234
-2.80016	87.2		-71.0966
10.4436	93.1811		-69.3558
-48.2874	35.7977		-86.2727
-55.3577	25.9886		-82.3258
-50.8589	38.1548		-79.8793
-40.9451	45.4484		-88.4573
-33.0409	54.4159		-89.4722
-36.0527	56.3942		-83.4933
-61.9192	17.0581		-76.3835
-68.3823	8.4699		-68.703
-63.6418	19.7051		-70.5723
-73.7561	0.646082		-62.1338
-74.2357	4.14191		-57.6357
-86.5086	-14.8066		-50.5337
-93.1324	-22.5195		-48.9908
-89.7604	-14.1509		-43.1599
-26.0842	79.0849		-37.5112
-21.8677	81.7626		-43.9849
-31.2986	74.9209		-44.4857
34.9401	96.3038		17.4873
34.7566	100.5		4.31107
-11.8384	84.0638		1.04049
-6.68032	89.1636		-4.82167
-55.3418	44.145		-62.1916
-60.7834	35.7736		-58.753
-56.4302	45.6129		-56.1103
-49.6922	51.8486		-64.2726
-54.3373	42.1769		-67.8583
-43.389	59.0706		-65.692
-45.611	59.2425		-58.961
-37.0478	65.8356		-64.934
-41.1821	58.525		-71.8097
-30.2465	72.5357		-62.3201
-33.6985	71.4228		-55.5933
-23.6906	78.6179		-57.5122
-26.7909	73.1192		-68.8017
-73.3139	13.4651		-46.0205
-77.3504	6.68912		-41.8162
-72.7346	16.6591		-41.9835
-69.5613	20.3145		-50.3397
-73.8967	10.2091		-49.8055
-65.1736	33.4074		-45.4515
-61.4279	40.1596		-48.216
-65.413	30.6445		-49.8947
-68.6471	26.6957		-41.8015
-92.6554	-14.1794		-36.8025
-86.8565	-6.87467		-37.3701
-70.4084	25.1681		11.341
-71.0326	21.69		13.5472
-67.7497	27.9093		13.1177
-66.1476	28.9539		14.3748
-50.2685	49.6756		10.8542
-47.4018	54.1012		8.3399
-57.4425	68.8443		-23.213
-58.0088	68.9782		-22.3688
-52.808	72.8145		-21.3498
-77.1429	32.8745		-7.74191
-77.7314	29.7503		-4.34406
-76.4991	32.2941		-8.70648
-48.4126	75.5315		-18.361
-49.3748	75.678		-17.592
-44.8747	76.9228		-14.6853
-47.6469	75.0771		-19.0423
-43.8625	65.9148		1.46088
-43.1214	64.98		0.56899
-42.5993	76.9843		-10.719
-43.5856	77.1181		-9.75966
-70.3591	48.9874		-18.6066
-77.1985	32.8184		0.00828743
-77.6971	30.142		-0.612272
-76.2307	32.3488		2.66596
-46.1353	56.3595		6.44434
-40.8128	72.9989		-6.6941
-41.2998	69.267		-4.10734
-41.0381	71.7071		-8.34296
-42.323	64.2997		-1.09326
-41.7301	64.0616		-2.84923
-47.3709	74.5032		-19.3568
-41.6928	63.431		-4.36613
-41.5737	65.9072		-6.94867
-41.8827	68.6251		-10.3961
-42.241	65.6154		-11.6168
-74.66	41.9787		-10.8043
-74.3433	40.2778		-3.08184
-77.6096	28.165		-1.29145
-74.7727	32.458		4.66237
-73.3158	35.1108		4.6436
-72.2403	37.4036		3.62132
-71.5694	38.9054		2.56497
-65.8745	59.6746		-20.2284
-62.4315	64.1514		-22.0714
-58.2755	68.8769		-21.8973
-53.9921	72.9226		-20.0523
-43.1649	73.6687		-2.41208
-43.3211	75.9156		-5.39287
-43.693	73.332		-2.035
-44.0942	72.8742		-1.839
-44.2233	75.2117		-4.75992
-44.8025	72.0012		-1.93271
-49.9525	75.5517		-17.119
-50.3716	75.2735		-16.9089
-46.6727	76.8632		-13.4006
-44.3794	77.0032		-9.12198
-44.9401	76.7416		-8.90208
-45.3263	76.3165		-8.57685
-47.4661	76.2111		-12.905
-50.5588	74.9566		-16.5637
-60.8997	65.3554		-20.5351
-45.6872	70.9253		-2.39063
-48.8183	63.7754		0.287481
-48.7733	72.7721		-10.3777
-61.8506	62.3972		-15.2553
-60.4409	63.7267		-15.122
-58.9064	64.9294		-14.7288
-57.4979	65.7496		-14.0087
-56.1281	66.2417		-12.9467
-67.1343	39.6509		4.07298
-69.4557	39.5793		2.7957
-51.8161	57.4726		3.54318
-60.1139	44.2543		4.99546
-71.1981	39.5199		2.0045
20.4838	32.8959		74.941
62.2155	82.0447		40.9661
64.2933	88.076		29.4361
86.1087	68.0942		38.4652
89.5211	74.1895		25.8522
65.8738	93.5028		15.7941
66.0825	97.8615		0.992423
91.8519	79.5445		11.4149
78.8123	95.2818		-18.6165
71.928	98.4921		-16.6935
64.7409	100.898		-15.0302
61.6009	102.25		-31.1598
10.2383	77.0154		40.0753
6.31647	91.7201		9.303
2.16332	93.0835		-0.870889
33.2968	103.223		-9.02418
30.6105	104.271		-21.7319
81.8044	86.5501		-57.9854
74.1167	83.3724		-74.7392
57.1274	101.59		-47.1766
50.3728	98.8034		-63.1715
-0.85434	93.4504		-11.3844
-3.77111	93.0435		-22.0422
28.044	103.847		-34.5138
23.9074	101.875		-46.9107
-7.10774	91.3042		-32.6128
-11.6016	88.3697		-42.5013
-17.0655	84.1609		-50.8314
-12.4413	85.8074		-57.7922
-100.622	-30.477		-48.8441
-107.9	-37.7615		-49.3403
-115.098	-44.0354		-49.4509
-111.313	-45.9612		-55.0394
-121.829	-49.6838		-49.7733
64.7501	77.9722		-89.7583
53.9661	70.7553		-102.062
42.8951	62.7976		-110.479
31.9369	54.3628		-116.113
21.5818	45.7689		-119.722
11.3885	36.7014		-121.786
0.979066	26.9831		-122.399
-27.2566	15.935		-113.838
-31.6094	19.6776		-110.344
-35.5977	-11.4333		-106.313
-42.9677	-20.4066		-97.0726
-48.2361	-26.8882		-90.2855
-72.8171	-53.8031		-75.5354
-79.4862	-60.2951		-74.1958
-86.4659	-67.0469		-73.0158
-93.5921	-73.5963		-71.9219
22.5106	79.2777		-98.0248
12.2064	70.74		-103.816
32.4789	87.0459		-89.6226
41.9335	93.6954		-77.9822
2.31052	61.8917		-107.581
-7.6007	52.6986		-109.594
-17.4029	43.0717		-110.125
-27.0593	33.1969		-108.969
-35.7823	23.4842		-106.232
-43.7813	13.6869		-101.702
-51.0841	3.94627		-95.2219
-57.6066	-4.92849		-87.7693
-63.3903	-12.0743		-81.0038
-68.9695	-18.8199		-75.3466
-74.7421	-26.1148		-71.2325
-81.1332	-33.5567		-68.5499
-87.5649	-40.5962		-67.2963
-107.904	-48.2581		-59.4421
-114.711	-54.0655		-59.1697
18.129	98.3173		-58.9467
-7.36022	87.0152		-64.4911
-15.3578	80.3955		-70.6596
-23.0524	73.3332		-75.0222
-31.0184	65.6311		-77.3609
-38.6382	57.7229		-77.7931
-46.0612	49.2911		-76.3088
-52.8775	40.1158		-73.7915
-59.0088	31.0279		-70.124
-64.4532	22.5374		-65.4477
-69.7317	14.3497		-59.382
-65.2302	25.0006		-59.8737
-74.1636	7.23348		-53.7914
-81.9911	-0.0599337		-38.4365
-81.6282	2.31156		-34.8194
-36.3625	70.3053		-49.4802
-39.2624	68.6446		-42.7971
-41.9207	64.9203		-52.016
-57.0836	46.9174		-50.7364
-52.3201	53.3753		-52.1731
-65.428	27.7616		-54.8906
-47.092	59.4427		-52.9627
-72.0494	20.0334		-38.0712
-75.6309	13.59		-34.4817
-74.4581	-67.1204		52.8608
-84.9923	-9.19738		20.8466
-92.3668	-29.3155		22.2795
-18.9138	-33.2118		99.2299
-21.9416	-31.8133		98.1221
-25.5822	-30.8498		96.3824
-22.0403	-43.9523		99.5825
-22.917	-44.4691		99.7967
-23.8621	-45.0234		99.8826
-38.8636	-38.0764		93.4703
-37.1156	-37.5069		93.8778
-35.5844	-36.7993		94.1226
-19.8172	-28.0308		97.2275
-40.4991	-20.8119		89.388
-19.0655	-11.9715		88.9868
-23.8172	-14.7198		90.5317
-28.3992	-17.6241		91.5277
-45.3909	5.84785		73.3582
25.9342	20.7384		71.2927
-41.9078	66.8718		-35.7681
-41.0903	66.563		-16.1506
-42.5104	65.5118		-13.4964
-71.5031	18.3818		17.0212
13.0671	16.8596		72.1847
18.7737	55.9364		69.9513
1.92047	38.2752		67.1168
-2.44156	-24.6272		96.1481
5.31295	37.9921		68.9501
-3.89274	-21.6673		94.9304
-42.3791	65.2172		-12.4595
-113.322	-30.2773		-23.6552
-88.5936	-2.59775		-21.2293
-84.0727	1.80995		-27.045
-80.4092	6.21771		-31.2483
-8.64686	-11.4747		88.0099
-35.9373	-29.5686		90.8833
-25.7161	-38.5519		97.0515
-33.9736	-31.705		90.7639
-18.2181	-40.7478		96.3579
-73.8602	-81.7759		-75.3921
-80.5222	-88.2063		-74.4767
-74.9862	28.1362		-8.05787
-74.8049	30.0008		-9.56273
44.3975	-76.9711		-17.4029
-62.0958	39.0339		10.0482
35.2475	-81.3152		-41.9859
-75.5839	31.712		-9.55817
66.9809	-65.303		-36.7813
-53.3433	62.2363		-5.50107
-54.4671	61.3696		-6.3989
53.327	-71.1083		-30.9593
51.0733	-72.263		-30.9742
57.2685	-70.1572		-34.9719
-60.9473	46.004		-1.85118
-61.9035	45.812		-2.61232
48.7186	-73.5278		-30.0509
-63.8686	45.6155		-3.6791
61.0427	-68.7201		-37.3822
-56.2491	59.3697		-7.2373
54.6815	-11.8036		63.2549
50.1261	-10.2875		63.0748
46.5887	-10.1484		62.6938
45.8453	-11.155		62.4972
45.7444	-12.31		62.5377
62.3496	-26.5961		54.6511
63.5081	-25.7878		54.6036
63.7043	-23.7607		56.6476
63.2027	-21.0664		59.2437
61.9322	-17.6652		61.3925
59.0662	-14.4657		62.7327
55.1021	-15.3625		63.241
53.316	-19.9888		62.4353
55.0418	-21.9079		61.6014
57.7375	-21.9283		60.9681
59.9087	-20.3689		61.0122
59.7117	-17.9894		62.0032
58.0042	-16.1017		62.8311
56.5323	-18.9254		62.5147
53.3051	-17.2251		63.0467
59.9775	-24.3723		58.2944
50.0312	-14.8345		62.9197
51.2356	-12.4856		63.142
50.5405	-19.4236		62.6308
61.9584	-23.0111		58.2854
54.4243	-23.7271		60.9233
51.98	-11.3404		63.1927
50.7351	-11.2337		63.074
52.9609	-12.3491		63.2663
52.2034	-10.6941		63.1855
53.139	-21.8487		61.8502
54.6663	-23.0511		61.1696
53.9255	-21.1955		62.0299
51.9936	-19.9697		62.4753
52.4618	-22.2632		61.784
61.4378	-21.1468		59.9067
62.2913	-21.7998		59.1049
61.418	-20.275		60.4438
60.7764	-21.6785		59.8833
61.4291	-19.1252		60.9746
62.6605	-19.3399		60.5229
60.8619	-17.7451		61.6688
60.11	-19.1615		61.4897
59.8899	-16.3629		62.2962
60.6804	-15.9809		62.1535
58.5146	-15.194		62.7851
59.0987	-16.8909		62.4612
56.8868	-14.3059		63.1063
57.098	-13.1175		63.1077
55.224	-13.8119		63.27
56.7042	-15.4988		63.1208
56.3724	-21.2638		61.7248
57.1602	-20.7236		61.8156
55.5724	-20.6987		62.1084
56.4507	-22.3369		61.1128
56.7084	-16.5366		63.07
55.9023	-17.054		63.0937
57.4611	-17.1896		62.8454
54.6375	-20.5232		62.2662
54.6318	-19.6445		62.5649
58.093	-20.5341		61.6574
58.3662	-19.7079		61.9308
58.8678	-21.2956		60.9545
59.0071	-19.088		61.9528
58.4946	-18.3189		62.3508
58.3984	-17.4344		62.5889
47.4251	-9.85534		62.7956
46.0798	-10.5709		62.5749
45.8038	-11.8011		62.512
60.7642	-26.7408		55.9431
63.1284	-26.2763		54.3386
63.7966	-24.9943		55.411
63.5082	-22.4738		58.0329
54.1104	-18.7876		62.8086
54.7129	-18.0679		62.9748
52.9511	-18.4993		62.8095
54.9565	-17.1962		63.1326
53.9738	-16.2081		63.2109
62.9658	-22.461		58.2031
62.9489	-23.3336		57.4979
52.2816	-14.9036		63.1897
50.4885	-13.4927		63.0333
51.6906	-16.1148		63.0357
53.1115	-14.0297		63.2899
51.4833	-17.8197		62.7786
49.974	-16.7616		62.8506
47.8209	-15.3882		62.8078
48.0372	-11.8106		62.7631
47.7754	-12.8303		62.7115
48.4456	-11.0836		62.8343
60.1126	-25.9457		57.0077
61.2969	-25.5738		56.5356
58.7835	-25.0055		58.4887
58.739	-26.4392		57.6817
63.1737	-24.2521		56.4548
62.8128	-24.5942		56.396
56.8985	-23.8673		60.0263
58.5832	-23.1931		59.8209
47.722	-14.0706		62.7109
53.8223	-13.4425		63.3073
48.7055	-10.5819		62.9128
62.1615	-25.0769		56.3616
61.0129	-23.706		58.2615
59.7946	-22.4194		59.8282
56.6448	-25.2012		59.2847
58.07	-25.5066		58.492
59.0649	-26.0823		57.6246
19.6624	24.3613		72.1711
20.3299	20.6686		70.5849
19.9905	17.8221		69.0889
19.0121	17.1714		68.9633
18.025	17.018		69.3331
5.29244	30.2871		71.0016
4.87231	34.3904		69.1579
5.80191	35.4687		69.2036
8.18089	34.7523		70.7536
11.3265	33.4395		72.4206
14.9175	31.3907		73.3693
17.8718	28.3203		73.2018
16.567	24.516		72.9768
11.7809	23.292		72.8691
9.93635	25.2788		72.8793
10.1419	27.893		72.886
11.952	29.6274		73.1031
14.502	29.21		73.4391
16.2161	27.2775		73.3971
13.1835	26.0389		73.3676
14.4716	23.0401		72.8341
7.52661	30.9172		71.4821
16.3175	20.4027		71.4895
18.6526	21.4621		71.4398
6.58635	27.773		71.9083
12.1049	20.9138		72.3929
9.02201	32.6144		71.653
8.11724	25.083		72.5886
19.7708	22.0583		71.3607
20.3437	22.2783		71.2742
19.0265	22.8663		71.9101
19.6262	21.0429		70.9871
9.90914	23.4573		72.7395
9.4689	22.9275		72.6475
11.7097	22.1947		72.6699
10.5988	24.05		72.8884
8.7695	25.1624		72.6947
11.1511	31.5425		72.6002
10.5489	30.9221		72.5479
12.1162	31.1828		72.9236
10.4347	32.68		72.206
13.3391	30.9885		73.1643
13.2684	29.6148		73.3284
14.7796	30.3365		73.3722
13.1989	32.3505		73.0799
16.1429	29.2707		73.41
15.5864	28.5018		73.4771
17.1339	27.754		73.2752
16.5377	30.041		73.4011
17.7497	26.1926		73.0192
16.6121	25.9797		73.2501
17.9604	24.7144		72.7298
18.8386	26.4388		72.8142
10.7195	26.3849		73.1127
9.61357	26.721		72.8331
11.2603	25.4746		73.1722
11.3681	27.0107		73.2525
15.5859	26.0082		73.4249
15.0907	26.7849		73.5194
14.9755	25.2447		73.3699
11.3302	24.5553		73.0813
12.2343	24.3799		73.1617
11.6176	27.8637		73.269
10.88	28.8182		72.9925
12.5412	27.9741		73.4043
13.2856	28.553		73.4505
14.068	27.9519		73.5298
14.9868	27.7919		73.5408
20.1863	19.4337		69.9852
19.5353	17.425		68.9599
18.463	17.0769		69.1655
4.80594	32.6002		69.9889
5.23061	35.219		68.9714
6.73743	35.3916		69.8499
9.71842	34.1089		71.7144
13.0278	23.8116		73.0988
13.2174	22.8359		72.8257
13.7918	24.2346		73.22
14.6695	24.39		73.2366
15.5468	23.567		72.9096
9.68347	33.5594		71.7179
8.68346	33.7869		71.2564
16.5546	22.2466		72.2796
17.5065	22.9367		72.3535
15.3489	21.7294		72.2698
17.6004	20.8287		71.4119
13.7264	21.6292		72.3617
14.5732	20.2968		71.876
15.6172	18.4707		71.0509
18.711	18.8645		70.0761
19.3741	19.3167		70.1516
17.8172	18.5724		70.2302
5.7163	31.6545		70.617
6.84711	29.8839		71.4958
6.06343	32.8196		70.3812
7.53442	34.3337		70.5246
7.14221	34.0698		70.4401
8.04927	27.6248		72.3204
8.86898	29.1199		72.3299
16.73	18.4521		70.5275
18.1119	23.5603		72.3992
19.6617	20.1131		70.4879
6.5968	33.587		70.3321
8.23693	31.8006		71.5428
9.7015	30.1034		72.4305
6.2731	29.3652		71.4415
5.58061	30.6429		70.9208
54.9164	-11.1736		63.2966
51.8867	-10.1566		63.2241
48.7911	-9.52509		63.0414
46.3373	-9.23261		62.9188
44.9022	-9.3982		62.7851
44.3059	-9.76673		62.581
44.1402	-10.0232		62.4253
44.1656	-10.2507		62.3846
44.4207	-10.7609		62.4108
44.7542	-11.456		62.4713
45.9035	-13.0159		62.7111
48.103	-16.5112		62.8287
50.7177	-20.8729		62.5747
54.1973	-24.7402		60.676
58.0259	-26.8745		57.8599
61.3152	-27.5315		54.893
63.2609	-27.4737		53.0251
63.8604	-27.3932		52.5786
