1815
-71.5605	-42.5494		25.1774
-70.7041	-38.818		33.8613
-71.4202	-32.2291		26.95
-71.3689	-51.3622		5.70228
-71.9832	-47.1997		6.69501
-72.0592	-51.071		-1.75278
-70.6647	-55.4798		4.51214
-22.9539	-92.0941		96.3784
-22.1231	-86.5863		97.2858
-27.1407	-90.065		94.0293
-23.6672	-96.2255		94.4322
-19.1686	-93.4984		97.9372
-31.5274	-87.0576		90.8139
-30.6989	-81.8414		91.2681
-36.1244	-83.4495		86.544
-32.1961	-91.3866		89.3738
-14.563	-82.5569		99.2763
-15.3046	-88.65		99.7404
-13.4166	-76.7068		97.8157
-17.7984	-81.7958		98.3871
-24.1533	-98.878		91.9899
-20.5026	-100.105		93.3972
-28.339	-97.0354		89.909
-24.9561	-100.825		88.2616
-25.9845	-102.083		83.3186
-26.4401	-103.096		77.2327
-21.7847	-103.704		84.3556
-12.1247	6.02188		81.6301
-9.1258	7.82618		83.4577
-11.1102	9.62318		78.7323
-15.1383	4.86492		79.8743
-13.1348	2.03135		84.5048
-49.7674	-17.5222		74.5411
-51.2822	-22.2292		73.7105
-43.5255	-16.8486		78.2874
-48.4122	-12.6172		74.8132
-55.9426	-17.7715		69.1525
-59.2506	-6.71796		63.1916
-60.5258	-12.2552		62.7188
-53.3736	-7.3539		69.7246
-57.5684	-0.995522		63.4177
-64.0929	-5.32688		54.9625
-65.2225	14.5309		41.8554
-62.9817	16.0811		46.2885
-63.0812	22.0302		41.1988
-66.7857	13.8012		36.8527
-52.3688	-27.0102		72.4727
-46.3208	-26.4867		77.0551
-58.0673	-27.413		66.4211
-53.0115	-31.8861		71.4871
2.60881	4.59726		99.9786
0.705525	4.48649		99.2797
1.77421	0.0898724		103.563
3.48079	10.1282		95.4106
-15.0829	72.2322		66.6125
-15.2651	78.1498		61.978
-20.7661	71.419		64.1872
-15.0244	65.7351		71.6891
-9.85774	72.4073		68.4171
-18.3602	-107.265		71.7785
-18.3348	-105.911		79.0775
-22.016	-106.203		71.1903
-18.4834	-108.988		64.05
-69.1632	-39.3556		41.577
-69.0095	-33.3802		42.2605
-69.0369	-45.3807		41.3729
-66.6881	-39.4969		49.455
-17.1104	-101.078		94.2158
-17.6815	-103.276		90.1584
-16.4643	-98.5947		96.7437
-18.0915	-104.797		85.0182
-51.96	-78.7738		65.639
-51.3222	-75.2145		68.4712
-56.4122	-74.4442		59.8086
-51.7937	-81.8713		63.1773
-47.1405	-82.4519		71.8426
-57.4344	-82.4891		39.9247
-53.5218	-86.9114		45.8835
-59.0946	-78.4562		43.6279
-60.6896	-77.9441		33.7061
-55.842	-87.0037		35.8995
-18.9825	-111.618		56.2996
-20.0628	-115.42		51.4372
-22.1221	-110.988		55.6327
-3.9667	-4.53309		104.53
-1.32065	-4.18054		106.232
-2.842	-0.478239		101.275
-6.98999	-5.2982		101.698
-4.97584	-7.84887		107.257
-24.8047	-15.955		84.4163
-20.7327	-13.8558		86.2861
-22.3029	-11.3192		84.7304
-29.6001	-16.5185		82.8486
-35.5754	-48.85		78.6554
-33.6031	-49.4372		78.8687
-34.0919	-48.3557		78.8097
-13.197	-24.2934		94.1954
-14.8123	-23.9022		92.497
-12.7295	-25.4007		93.5681
-14.3318	-22.6107		94.5649
-13.3443	-28.3897		91.7391
-11.6716	-28.5074		93.0772
-13.0451	-27.535		92.0228
-15.5231	-27.8398		90.0689
-14.0498	-29.5617		91.4615
-3.55661	-27.4549		100.928
-5.27355	-26.9788		100.072
-3.9329	-28.5029		99.3018
-3.23148	-26.3717		103.139
-17.8187	-26.4166		88.4634
-18.6072	-27.6955		88.1889
-17.2478	-25.508		88.9306
-19.7748	-24.309		87.2106
-6.84216	-16.8225		110.085
-6.69768	-15.11		110.514
-9.68524	-16.5008		106.404
-6.99376	-18.8016		108.936
-4.19779	-17.3852		112.322
-33.5985	-62.6575		83.6311
-35.5003	-66.3333		83.4424
-30.1469	-64.9596		86.8912
-31.7416	-59.587		83.9167
-36.3517	-59.905		80.9169
-33.2304	-42.9993		81.6618
-35.2814	-43.3362		80.5526
-30.9769	-42.5403		83.2401
-32.0709	-39.2592		83.1262
-5.02992	-32.4247		96.7213
-4.61503	-30.7588		97.3895
-6.68541	-31.811		96.3274
-5.37808	-34.1606		96.3738
-1.75904	4.00474		97.7519
-1.10331	8.67372		93.6475
-4.84005	2.84116		95.3815
-17.2713	-15.3363		91.5532
-17.5497	-14.7047		90.5095
-17.7005	-16.7249		90.8236
-16.6362	-14.9494		93.2279
-16.2722	-13.9266		93.2924
-7.27929	-28.4262		96.8564
-5.93867	-28.8599		97.651
-7.09741	-27.4701		97.5857
-8.63539	-28.4255		95.6979
-7.46384	-29.9062		96.2218
-6.72908	-26.6315		98.8833
-6.4688	-25.652		100.723
-15.8053	-14.3269		95.0236
-16.4816	-15.8861		94.1738
-15.3819	-13.4347		95.2705
-18.0595	-19.2231		89.8129
-17.832	-21.8034		89.3344
-17.2763	-18.3349		91.8425
-6.78194	-39.459		96.6592
-6.31682	-37.5546		96.3411
-9.03987	-38.4999		96.3313
-7.33349	-41.1315		97.0248
-25.4068	-27.7339		85.0747
-22.947	-24.5994		85.6144
-27.8667	-27.1		84.1506
-27.9731	-31.1028		84.6386
-22.8986	-28.5609		86.302
-17.6856	-63.1165		93.6705
-21.334	-62.1726		92.0042
-18.3201	-65.7202		93.6702
-14.0887	-63.9213		94.7342
-17.1685	-61.1946		93.915
-29.0059	-45.4143		83.7887
-28.6937	-43.7214		84.8398
-31.5852	-46.5047		80.7954
-29.4674	-46.0618		83.014
-15.0542	-12.7508		95.1725
-13.6059	-11.942		97.6003
-14.9882	-11.7443		93.9488
-24.7958	-60.9978		89.7406
-24.125	-59.1622		90.0136
-27.6749	-59.4815		87.2223
-25.5153	-63.4631		89.6885
-10.8301	-64.515		95.2233
-10.5625	-62.8199		95.4101
-11.2624	-66.9144		95.3042
-51.7387	39.4909		55.5671
-52.1384	40.4663		53.9582
-54.5666	34.0644		51.7971
-51.0856	38.6748		57.0963
-27.5375	59.8718		68.4793
-27.1778	64.4633		65.0128
-34.1109	58.2135		64.1239
-28.0673	56.1453		71.143
-21.8194	61.0662		72.1894
-40.8466	55.7845		59.0286
-40.5848	60.7799		54.7206
-47.0339	52.5837		52.7008
-41.2075	52.5398		61.968
-29.9392	50.7574		73.2109
-29.0954	52.6092		72.9011
-30.9221	48.5844		73.1085
-24.9364	52.1019		77.9547
-52.9605	41.5723		51.0863
-56.9184	36.1897		45.3693
-47.6253	46.8463		58.0428
-53.0447	44.1099		48.3686
-14.2119	40.4768		77.5751
-10.8284	38.5769		77.908
-13.4453	42.187		78.4767
-18.0477	41.6133		76.9218
-15.1331	38.3577		76.2919
0.32596	19.225		84.8255
0.0103455	16.6848		86.6402
3.25772	20.4475		86.416
0.615316	21.1998		83.7259
-2.50155	17.2366		82.7547
-27.5781	1.68666		77.0061
-21.2991	2.4738		78.386
-25.3908	5.33254		75.5384
-35.2785	1.86239		75.225
-29.9674	-2.68097		78.6496
-54.8447	18.6201		56.1915
-53.187	15.0068		59.6638
-51.8527	19.8389		58.2299
-54.7562	22.9801		54.455
-57.4213	17.4934		54.0976
-0.430075	13.1321		89.7005
2.30814	14.4074		90.8832
-3.38503	11.2979		87.9654
-31.9216	46.6606		72.791
-32.225	44.7385		72.5619
-26.3461	48.0569		76.9013
-37.7364	46.2238		69.4244
-42.9661	44.7874		65.7815
-47.1545	41.7145		62.1448
-42.7774	42.8379		66.2673
-49.4943	27.0557		58.5581
-51.4421	27.4066		56.8334
-49.708	23.7662		58.6065
-47.3209	26.7005		60.1829
-48.8135	30.8153		59.5198
-36.0743	30.2782		67.8808
-34.1117	31.1311		69.1656
-37.9028	29.1028		66.3876
-31.9799	31.7202		70.146
-29.5666	31.9204		70.7995
-31.9508	32.7029		70.4755
-34.3289	32.1092		69.4378
-29.2428	32.8514		71.1572
-26.7644	31.8108		71.1749
-24.0098	31.2315		71.3021
-26.2977	32.6626		71.4994
-23.349	31.981		71.5926
-21.5154	30.1886		71.2326
-19.244	28.6155		70.991
-16.9269	26.5157		70.4805
-14.9705	24.3789		69.8919
-15.5164	26.9795		70.705
-17.9899	29.0681		71.2045
-13.5685	24.7612		70.1972
-13.7905	22.676		69.4343
-14.0602	27.2817		71.0564
-16.7354	29.6905		71.5925
-25.8353	33.6572		71.9217
-22.6615	32.9075		72.025
-42.372	24.7565		63.1287
-41.5245	23.7229		63.7842
-22.1974	42.1687		76.134
-22.7471	40.1		75.0671
-21.7775	44.3272		77.0896
-27.2147	42.4093		74.7407
-40.1881	36.3081		67.524
-38.7105	34.323		67.979
-36.6822	37.3524		69.6956
-41.5269	38.623		67.035
-33.4622	15.4304		70.3915
-26.6809	14.3616		71.9756
-38.7016	17.1007		67.93
-34.3476	13.9515		70.5331
-20.8936	14.317		72.1038
-21.2851	12.8438		72.5606
-16.8796	14.7777		71.7973
-12.2592	17.4179		71.0556
-13.3856	16.4176		71.3415
-11.5906	18.2382		70.8356
-31.9405	18.2819		70.1636
-26.1996	17.3002		71.4281
-36.6154	19.9992		68.0502
-15.5731	17.8999		70.0669
-14.6397	18.2883		69.7634
-17.4364	17.4286		70.5748
-13.8636	18.6277		69.6563
-13.1038	19.1439		69.6424
-6.67647	26.243		74.4114
-5.36605	28.4036		76.1466
-8.15378	28.6019		74.2328
-8.30947	24.0002		72.4286
-10.9568	19.6216		70.717
-19.6225	31.5621		71.897
-9.39818	23.1394		71.4432
-10.3834	25.1554		71.426
-9.14173	21.4801		71.5843
-31.5491	19.5258		70.0639
-25.9401	18.4993		71.234
-15.6482	18.7476		69.4563
-17.3101	18.5746		69.9651
-14.7758	18.8701		69.2918
-14.2231	19.1509		69.1206
-39.2994	27.8323		65.0577
5.70383	34.7966		83.0273
5.31672	37.9645		82.8857
3.19281	34.8507		82.4188
6.07719	32.0184		83.2816
-15.3485	9.55806		75.2891
-18.6364	8.79085		74.7441
-16.4392	7.29461		76.7453
-12.9373	10.5884		75.8958
-14.6568	11.2422		74.2782
-10.3516	11.9065		76.9919
-7.68587	13.5854		78.5862
-9.49592	16.6776		73.4713
-9.39797	18.2844		72.5026
-7.49025	17.3852		75.1243
-2.71785	25.0091		78.1528
-1.81019	26.0061		79.164
-3.39	27.3112		77.6111
-14.6741	15.5293		71.5833
-14.3196	14.2775		72.4334
-14.2495	12.7777		73.3508
-17.1934	11.8852		73.1437
-25.5838	-48.4737		82.9908
-22.279	-48.137		85.7966
-28.6412	-48.5847		80.3153
-25.4697	-48.4309		82.7401
-30.3894	-48.5556		79.1065
-30.0808	-48.502		79.1131
-8.21015	-44.3723		97.168
-8.37839	-45.5679		96.8693
-7.93513	-43.1298		97.2784
-10.7565	-43.4766		96.6929
-13.611	-45.3743		95.009
-16.0894	-44.9656		93.9811
-13.5262	-46.2795		94.3818
-11.1538	-45.7631		95.856
-13.4302	-44.2852		95.5753
-18.7165	-44.8473		92.4112
-21.7646	-45.2614		90.0472
-18.8152	-45.929		91.4983
-18.6474	-43.8303		92.9962
-13.1315	-43.0542		95.9788
-12.8222	-41.8379		96.1866
-15.7044	-42.8854		94.9052
-17.1421	-41.0161		94.1652
-18.0354	-41.8713		93.7609
-14.4224	-40.9331		95.513
-16.5338	-40.0412		94.286
-25.2188	-46.4848		86.3098
-24.9679	-45.2648		87.6636
-13.155	-47.1938		93.5225
-16.0992	-46.8883		92.1532
-12.8127	-47.7232		92.7286
-10.6027	-47.5511		94.4421
-19.1537	-47.0125		90.0539
-19.1196	-47.6373		89.0036
-31.0245	-47.2559		80.5991
-32.439	-48.3945		79.0235
-25.95	-49.3291		83.5965
-26.0221	-49.4731		83.9061
-22.5995	-49.2893		86.8322
-25.8877	-49.2955		83.3626
-26.6397	-50.5351		84.584
-23.7535	-51.0071		88.1848
-26.4065	-50.1382		84.4397
-20.9159	-51.4952		90.8804
-21.4845	-52.2219		90.8814
-17.9459	-52.0992		93.066
-20.5351	-50.7895		90.6243
-13.5336	-50.7187		94.0557
-10.6291	-51.0937		94.9474
-13.1685	-49.7766		93.4536
-16.9159	-50.3014		92.4313
-14.0143	-51.7855		94.5445
-8.99567	-53.8419		96.3432
-8.68149	-52.6922		95.9456
-11.3654	-53.3176		95.8738
-9.27815	-54.9685		96.5862
-30.9114	-49.9587		78.5463
-30.6583	-49.3883		79.0552
-29.0219	-50.0978		80.0584
-31.1171	-51.3229		78.1582
-7.92336	-50.7742		91.0667
-7.85847	-50.0534		92.2284
-8.03427	-52.1039		90.0334
-10.0877	-50.5531		90.6847
-9.52506	-56.1174		96.6917
-12.0032	-55.5177		96.2258
-9.76509	-57.2477		96.6538
-10.3078	-61.1824		95.7678
-10.1341	-59.6369		96.1832
-13.0683	-60.3555		95.389
-12.3891	-41.0108		96.2425
-10.1432	-41.2568		96.8128
-11.485	-39.8832		96.2636
-8.38934	-51.4843		95.3592
-8.10496	-50.5153		94.7208
-7.95819	-50.0817		94.2732
-7.95747	-49.8697		93.8391
-10.1897	-49.6806		93.8763
-12.9867	-49.3512		93.0247
-12.8835	-49.2		92.6674
-16.1904	-49.1355		91.548
-7.95767	-49.8103		93.1785
-10.0715	-49.4912		92.8238
-19.3582	-49.0843		89.4128
-19.6294	-49.384		89.777
-19.2609	-48.9859		89.0232
-22.7107	-54.951		90.7912
-23.1488	-56.0234		90.5509
-19.7846	-55.9024		92.9663
-22.3188	-54.0086		90.91
-16.0788	-56.7219		94.8696
-16.4466	-57.8809		94.5946
-12.5038	-57.6063		96.0726
-15.6955	-55.7518		95.0399
-9.95226	-58.3906		96.4819
-19.0195	-47.8546		88.2827
-18.8747	-47.8248		87.6893
-15.8003	-47.728		90.3946
-30.5852	-49.1211		79.654
-28.9631	-49.508		81.1559
-12.8453	-50.3268		89.9283
-12.71	-49.5466		91.0337
-13.1517	-51.5713		88.9977
-15.9876	-50.0868		88.6819
-12.7516	-49.2171		92.022
-15.9027	-49.0377		90.5482
-16.7325	-59.3952		94.2726
-20.4719	-58.4919		92.4759
-21.8838	-53.0965		90.9629
-18.9692	-53.9539		93.1778
-23.6097	-57.4986		90.2866
-26.1719	-56.1512		87.8302
-18.5518	-47.5568		87.3063
-21.5082	-47.7948		85.3445
-17.8606	-46.5206		86.5967
-15.5884	-47.3509		88.7973
-12.6056	-47.4958		89.9547
-12.5459	-47.8834		90.9672
-12.8507	-46.3851		88.5296
-10.19	-47.6653		90.4036
-16.9149	-44.1203		85.5067
-19.3711	-44.226		84.2572
-16.2049	-40.9416		84.5015
-14.6007	-44.063		86.4449
-31.3944	-54.3923		78.1124
-29.4022	-54.4959		79.7481
-31.2771	-57.8721		78.8169
-8.33095	-54.8812		89.2049
-9.16793	-58.7654		89.1735
-10.5192	-54.5739		88.9338
-12.39	-44.1318		87.1106
-11.5817	-41.0768		86.0491
-10.112	-44.2856		87.5758
-13.3874	-54.2629		88.2488
-14.1658	-58.2581		88.0004
-16.6142	-54.0475		87.0984
-34.2718	-48.9608		73.7857
-34.353	-48.9791		73.6392
-5.09965	18.642		77.3095
-4.94934	17.0904		78.9405
-77.8022	1.74508		-44.6356
-79.3324	1.61656		-42.9285
-77.6963	6.34567		-44.7505
-75.9192	1.83525		-47.9617
-77.7753	-2.635		-43.7752
-74.1584	21.689		-7.62033
-72.807	23.8252		-2.66987
-74.1454	24.3427		-11.9496
-73.9402	26.1498		-17.2542
-74.6339	25.4786		-24.341
-75.167	21.3134		-18.2664
-72.8014	31.3481		-18.6491
-75.6133	-22.4043		-34.8882
-76.1799	-18.5271		-36.7716
-75.23	-26.4804		-32.261
-77.614	-19.6842		-33.3555
-76.6242	-14.9174		-38.8957
-78.6378	-13.2675		-37.1063
-77.1369	-10.9657		-40.7919
-74.4254	-17.4717		-41.6371
-80.7783	1.97082		-42.0485
-80.3524	6.92167		-42.3582
-80.8418	-2.14932		-41.0431
-82.2238	2.73185		-41.7014
-83.3761	-13.5592		-33.9864
-84.5593	-14.4276		-32.8733
-81.8326	-12.2996		-35.4176
-85.4388	-15.0219		-31.844
-85.9499	-11.0247		-33.9733
-84.8347	-18.948		-29.2932
-86.195	-15.2585		-30.6492
-88.3897	-4.74863		-32.1597
-89.0459	-0.313857		-35.3454
-88.2768	-4.15506		-31.4001
-80.8014	-27.5591		-21.1477
-80.9819	-26.0872		-24.1048
-79.8495	-26.9857		-23.1598
-80.4028	-28.142		-19.1815
-81.287	-27.6523		-20.4862
-81.1547	-19.4194		-9.22392
-80.9319	-20.014		-9.20446
-80.4827	-21.3089		-9.46219
-88.1542	-3.7744		-31.0018
-87.7225	-4.37984		-30.0435
-88.8171	10.7275		-35.1267
-88.8067	11.2951		-36.6565
-88.8798	9.50691		-33.4485
-87.4639	20.8886		-32.906
-87.5236	22.2529		-33.0523
-87.3119	24.3703		-32.0713
-86.6124	26.4902		-29.0139
-87.4251	24.8312		-32.4842
-86.7491	24.2041		-29.8374
-80.0693	3.17972		-9.38801
-80.5476	8.67383		-9.99309
-79.7132	-0.885045		-8.80563
-79.4225	3.89151		-8.04134
-77.0615	-12.8923		-2.45037
-76.9614	-8.60176		-1.88754
-77.0982	-16.6502		-2.96862
-76.1453	-13.3237		0.288483
-80.3718	-8.01798		-11.3781
-80.0815	-6.1149		-11.5143
-81.0027	-9.97567		-11.8834
-75.2359	20.8409		-18.3161
-75.2679	20.8537		-18.1003
-75.4415	21.9692		-21.8489
-82.2507	29.4945		-18.9752
-82.9907	31.1547		-22.1782
-83.1232	28.9927		-17.9805
-81.2727	26.3916		-15.9332
-81.3416	29.6853		-20.1538
-82.4478	31.4617		-27.3006
-81.6686	31.2416		-24.2316
-81.7933	30.2238		-28.6625
-83.1734	30.112		-30.9995
-82.7376	31.6794		-26.8011
-85.8255	15.8015		-41.308
-86.8385	16.2532		-40.7817
-85.1909	21.8614		-38.6189
-85.1	15.1999		-41.4744
-80.8019	13.2886		-10.6217
-81.2937	12.0738		-11.2882
-88.6819	15.8746		-38.2483
-88.3099	21.0913		-36.1384
-88.7522	15.7723		-38.6131
-88.8084	13.0582		-38.3595
-85.9129	27.4722		-25.0298
-85.0212	26.9795		-20.979
-85.8504	28.4821		-24.4345
-85.9161	26.0769		-25.7375
-82.1871	14.1177		-13.4674
-82.3998	16.4353		-14.225
-81.8984	12.3391		-12.8638
-88.0907	16.6132		-35.5472
-88.5258	14.5202		-37.3533
-81.3176	7.14151		-14.626
-81.5857	8.86146		-13.5446
-81.4376	7.39522		-15.338
-86.1234	7.97018		-28.6872
-87.7494	10.7751		-30.667
-86.1776	6.87331		-28.823
-85.783	8.39413		-28.0662
-76.9107	-4.67724		-1.85898
-76.0792	-4.88329		0.705327
-77.0019	-0.174105		-2.64995
-79.7467	12.1652		-41.0201
-80.3339	14.8316		-40.14
-78.8667	16.8142		-39.0077
-78.7243	11.3381		-42.1457
-81.8896	20.1834		-37.6018
-82.694	16.0701		-40.4072
-83.4775	25.1969		-35.8236
-81.0233	24.0037		-34.4623
-84.192	14.0918		-41.4107
-83.9156	8.46088		-42.0495
-84.2868	3.51667		-41.5463
-80.2784	-12.3035		-36.2912
-80.6325	-9.11042		-38.029
-79.7607	-15.4007		-34.426
-80.7988	-5.78092		-39.6772
-79.1891	-6.34622		-40.6783
-87.1247	-4.3571		-29.0291
-79.1981	-18.31		-32.6781
-78.6256	-21.8795		-30.3001
-80.0597	-27.6827		-16.4261
-79.5966	-27.993		-16.2349
-79.0561	-28.2675		-15.9321
-78.9969	-28.3879		-21.1833
-86.5105	6.15833		-29.2894
-88.2668	7.70818		-31.5164
-78.715	4.43274		-6.91987
-77.9087	4.757		-5.66787
-78.3836	-9.02542		-5.45088
-78.7423	-9.17225		-6.12355
-82.0962	-13.2352		-11.6261
-82.1074	-12.2057		-12.4671
-83.438	-15.1233		-13.1416
-79.5466	-3.87322		-8.31794
-80.0432	-4.06846		-10.533
-80.4008	25.8893		-31.2785
-79.3184	26.517		-27.9142
-78.6573	21.7794		-34.0105
-77.9899	20.0194		-35.7773
-76.9801	22.2052		-31.5602
-77.629	19.605		-36.8693
-87.1218	17.9123		-30.5002
-87.1726	16.4294		-30.1267
-81.7738	8.06911		-16.7974
-82.6134	9.28447		-19.4981
-85.6125	9.23753		-27.5773
-85.0159	9.27379		-26.1885
-86.8173	12.9849		-28.8615
10.1739	85.3949		60.5535
10.947	92.7426		53.3168
2.56844	85.6251		60.2919
9.26619	78.0839		66.2143
8.59518	70.7788		70.9226
1.53784	71.6239		70.4621
7.76877	63.0179		75.3687
-16.1546	60.6225		75.2914
-10.3775	60.465		76.6608
-17.2387	57.2549		77.6873
-2.70704	-25.1695		105.912
-4.80546	-24.8661		104.4
-2.53656	-23.7172		108.36
-0.979237	-14.2204		113.83
-1.30046	-16.0431		113.944
-0.691411	-12.2204		113.164
-3.65203	-13.8958		112.709
-1.62254	-17.9005		113.527
-1.95079	-19.7404		112.555
-4.30116	-29.5309		98.2114
-5.79462	-36.0112		96.25
-7.71285	-35.2007		95.9921
-2.28564	-21.7032		110.807
-4.58996	-21.4574		109.334
-0.275323	-10.2022		112.039
0.259682	-7.62292		110.066
-2.88476	-10.1297		111.038
4.73142	48.29		81.9378
5.3949	51.7458		80.9149
-1.12664	50.2413		81.1812
4.28395	45.4595		82.3621
5.39772	20.9027		87.0088
5.73588	22.9896		85.8414
4.95714	18.4671		88.6385
5.99819	24.9878		84.9473
6.16234	27.0221		84.2662
3.78733	24.4555		84.4269
-7.83671	-47.8927		90.5634
-7.70839	-48.5921		92.0554
-7.91502	-46.7303		89.2768
-7.75759	-48.7284		93.1526
-7.85552	-48.5602		94.0076
-9.88877	-48.3361		92.7594
-8.49363	-46.4748		96.4266
-8.44839	-47.2851		95.8099
-8.16689	-47.9934		95.0283
-7.74664	-42.1966		97.214
-7.58511	-44.5434		87.8533
-6.87441	-41.5354		86.6445
-3.77748	85.4597		59.6338
-3.5234	92.2861		52.7028
-9.73123	84.7836		58.6179
-4.14947	78.8703		64.9758
-6.55173	52.5998		80.5676
-6.18865	54.4997		80.0838
-12.0559	54.3074		79.6129
-7.47619	49.7131		80.863
-9.14829	47.8563		80.5634
-11.3695	45.6035		79.8811
-14.4082	49.5886		79.6855
-12.6064	43.8802		79.2202
-16.7921	45.2982		78.531
-8.45172	41.6627		79.7949
-18.5405	32.3163		72.4042
-21.9596	33.8867		72.524
-15.2926	30.3623		72.1703
-17.663	33.7651		73.2691
-20.5906	30.8051		71.5034
-16.3971	35.6129		74.5373
-13.0769	33.8071		74.6422
-19.9916	37.0025		74.2988
-27.7958	91.8329		37.0546
-27.9179	86.1466		44.7432
-21.5851	94.5465		39.4449
-28.2204	97.1889		26.6532
-15.2584	83.9502		56.9138
-21.2284	82.6202		54.4078
-15.4139	90.0118		50.3831
-17.6306	55.614		78.4048
-23.3935	54.9942		77.6925
-18.2916	52.7749		78.9947
-21.4369	46.4913		77.8905
-20.5208	48.5068		78.5303
-19.1273	50.797		78.9566
-23.5763	37.7891		73.9288
-28.0168	37.9045		72.9821
-24.656	36.0601		72.9961
-27.7105	80.8545		50.7638
-27.45	75.5581		55.8949
-34.3271	78.9335		45.8909
-28.6021	54.1038		72.2903
-34.7583	52.7857		68.2552
-32.371	34.7144		70.9634
-35.3691	34.0788		69.6449
-28.9909	34.8977		71.8742
-32.3538	36.0842		71.2892
-32.5864	42.5166		72.2553
-37.9953	42.3155		69.5483
-32.4781	40.1134		71.9496
-32.4599	37.8329		71.594
-27.138	70.0411		60.5935
-33.9409	68.2825		55.9027
-40.4544	77.4504		39.3598
-45.8571	76.1878		31.4225
-40.4774	72.034		44.9207
-36.4375	31.1356		68.0745
-38.306	29.8027		66.5202
-37.9902	32.9757		67.9928
-39.752	31.3747		66.4501
-36.9675	31.9742		68.163
-42.3365	40.9032		66.6615
-45.5476	38.1222		63.8329
-8.09454	35.9372		77.8268
-6.92283	37.4089		78.9731
-9.08213	33.9185		76.3867
-6.1117	33.0646		77.5594
-5.27388	38.6618		80.012
-3.60094	35.7709		79.9107
-10.294	31.2426		74.3846
-11.5382	29.3558		72.8481
4.35904	42.2156		82.6258
-72.6665	-52.4474		-8.92876
-72.985	-53.3031		-15.0327
-73.2014	-47.0636		-7.57795
-71.807	32.9663		-39.2573
-73.8844	27.8754		-33.9257
-71.7723	35.6823		-31.0928
-69.8014	38.0424		-44.1777
-72.205	28.828		-44.8808
-73.5238	1.3898		-53.7618
-73.5305	7.24908		-53.9605
-71.3786	0.535426		-59.2914
-73.5252	-4.54561		-52.0897
-73.131	13.4444		-53.7601
-75.4662	12.111		-47.5058
-72.8123	19.0472		-52.0594
-70.9068	14.4762		-60.238
-71.6831	-21.8696		-45.5163
-72.4091	-16.12		-48.0853
-69.1886	-25.9434		-49.1576
6.2248	56.9594		78.6112
0.40452	58.1212		78.2419
-5.22243	59.4034		77.5645
-4.99687	65.4533		73.9831
-36.8028	-99.3659		63.9882
-30.7951	-102.517		67.9133
-43.3752	-95.0898		57.9972
-35.7277	-102.593		56.8447
-60.3293	-75.0127		46.8495
-60.6992	-72.2708		50.3429
-63.6949	-70.0691		39.8966
-55.9579	-80.2703		53.7443
-40.5903	66.3198		49.8208
-46.561	64.2144		42.6636
-4.43318	72.2587		69.5738
-51.0886	74.7556		21.8119
-51.8379	68.4274		28.0623
-55.4509	73.3724		11.7643
-2.88109	99.9301		42.8253
4.1053	100.546		43.2724
-2.05547	107.018		30.8277
-9.33204	98.5697		42.3018
-53.0076	48.7152		44.1423
-52.5438	55.2442		39.197
-41.1799	29.5733		64.9123
-50.4007	37.7182		58.3338
-49.2333	36.3423		59.8108
-52.1363	32.5876		55.9691
-47.8095	34.844		61.1752
-20.5904	-120.108		49.4507
-67.987	-58.5194		37.469
-67.2965	-62.2476		34.3929
-64.548	-63.5057		46.6456
-68.3795	-54.8357		39.8626
-10.6923	-38.2427		95.9928
-9.9208	-36.4777		95.7435
-12.4948	-38.2388		95.4819
-27.9801	-41.5442		85.6404
-25.0294	-40.0804		88.4035
-26.6686	-38.0141		86.6964
-13.0626	-34.8063		94.0947
-11.9391	-33.2001		94.0764
-15.6937	-34.7068		92.6617
-14.1308	-36.413		94.1744
-10.7614	-34.9572		95.137
-37.0761	-43.4293		79.832
-36.3706	-39.7831		80.9232
-39.4349	-43.9833		78.7666
-37.26	-46.8592		78.788
-57.424	28.1808		49.0162
-58.8451	28.8339		45.9487
-59.3587	22.3563		48.745
-55.6375	27.8277		51.9106
-60.2422	29.6392		42.2068
-62.2474	29.7245		36.747
-45.1265	26.4648		61.6138
-45.551	24.434		61.2514
-53.8304	27.4625		54.3438
-76.3573	19.9598		-38.8876
-76.027	22.6549		-34.9534
-74.65	21.4715		-42.988
-76.8539	16.0981		-42.0073
-77.4392	-7.00728		-42.5711
-75.5022	-8.06554		-45.6623
-74.5864	-39.9079		-17.8481
-74.6656	-36.9655		-23.6056
-73.6096	-45.8678		-19.9793
-74.273	-41.5063		-11.8428
-75.6056	-35.2718		-15.7709
-77.3274	11.3746		-43.9053
-75.2517	-14.1379		3.45286
-74.2436	-14.8782		7.85314
-75.2645	-9.74183		3.87588
-75.1922	-18.344		2.80953
-68.7048	12.9152		29.1878
-70.7144	11.4708		20.1723
-69.6859	5.2959		30.2419
-67.2675	20.7685		28.0439
-49.6229	20.7704		59.4659
-48.2927	18.2872		61.5079
-47.4587	21.7538		60.5566
-45.7178	22.6234		61.4124
-44.5377	21.1179		62.6767
-73.0441	-15.0771		14.2862
-73.1087	-9.81652		14.4415
-73.055	-19.9926		13.4855
-71.9519	-15.0425		21.328
-20.5991	-6.32917		83.8693
-17.3979	-4.43451		85.306
-19.1469	-1.13568		81.8648
-24.9864	-7.22876		82.1373
-32.2099	-7.51343		79.9712
-34.2465	-12.0822		80.7586
-40.066	-7.35593		77.4772
-14.2029	-2.65588		87.2677
-14.9672	-6.57804		89.3727
-11.0252	-0.522285		89.7034
-18.3976	-13.5196		88.7087
-16.9108	-11.489		89.816
-15.5051	-17.133		96.4557
-16.2319	-17.4488		94.8715
-15.4456	-18.925		95.9175
-14.2939	-16.74		98.7102
-16.7457	-17.7962		93.4313
-16.6837	-19.8569		92.6747
-40.0628	-26.0901		80.1019
-38.4502	-21.3589		80.697
-41.5102	-30.9885		79.3616
-34.818	-26.308		82.0352
-36.1873	-16.4886		80.9624
-7.91249	-31.6081		95.837
-9.20309	-31.5251		95.1512
-8.49926	-33.3607		95.6483
-63.1011	-39.052		57.357
-62.7877	-45.0577		57.2159
-58.5172	-38.1194		64.6162
-63.0799	-33.1171		58.0576
-30.3548	-35.1156		83.9904
-32.7753	-35.3801		82.929
-27.8359	-34.8157		85.3528
-42.5158	-35.8191		78.4455
-38.2955	-35.6847		80.5167
-47.5788	-36.4057		75.3862
-42.8961	-40.6867		77.7201
-9.18777	-34.9146		95.6439
-62.1675	-51.1352		57.3996
-60.2503	-56.6403		59.6586
-57.5672	-49.1263		64.7565
-65.6418	-51.9734		49.7282
-61.697	-17.4166		61.3723
-65.821	-16.7797		52.958
-62.4782	-22.4242		60.1627
-42.242	-86.3076		78.0515
-36.9006	-90.7399		83.5258
-41.7725	-83.0178		79.9492
-50.1268	-71.1526		70.9923
-45.5002	-75.1331		76.0639
-47.6507	-67.1044		73.944
-53.9544	-66.751		66.9319
-55.4107	4.63259		63.271
-49.597	3.41103		68.539
-52.28	9.4515		63.5834
-42.3922	19.2439		64.9049
-43.8587	17.6183		64.7592
-49.8346	12.3332		63.8376
-47.4027	14.3874		64.339
-44.8483	10.4238		68.0002
-39.734	22.1032		65.4771
-15.8432	-94.6694		98.7346
-52.7027	-47.3625		70.3054
-47.4707	-45.8909		74.5569
-53.1052	-42.5209		70.2996
-51.5762	-51.7022		71.0355
-44.9363	-63.5357		76.0975
-41.4791	-67.1721		79.1937
-41.4972	-60.1666		78.0153
-47.6052	-59.7537		73.955
-43.2407	2.65707		72.1848
-40.8149	6.47212		71.5305
-45.4677	-2.07211		73.2197
-53.2753	-37.0991		70.6433
-46.9788	-7.41534		74.2283
-21.3091	-80.6556		96.7884
-25.2095	-78.8329		94.3248
-20.2477	-74.8187		95.4603
-29.4485	-76.6991		91.0441
-27.9673	-71.4062		90.3716
-33.4976	-73.7848		87.1907
-38.7853	8.90828		71.0794
-31.1286	7.93295		73.3307
-37.0059	10.7895		70.8697
-45.5134	16.0418		64.569
-41.4007	14.007		67.9117
-35.6016	12.4741		70.6383
-28.3479	11.3404		72.5063
-7.88632	1.20182		92.7229
-7.01194	5.52293		89.2794
-8.93681	-2.87215		95.569
-11.3362	-11.0217		101.51
-11.8215	-12.2087		101.855
-8.62905	-10.3778		105.578
-10.8214	-9.35126		100.303
-5.10356	15.2988		80.5952
-5.5816	12.881		82.6877
-17.9084	3.51691		79.1088
4.31829	14.9644		91.3689
-60.2057	16.5312		50.9953
-6.2716	9.46563		85.7863
-68.5401	-51.0343		41.563
-70.6537	-48.0562		31.8947
-67.2936	-3.4623		46.3322
-68.9648	-2.32726		38.3446
-67.9258	-10.1938		45.4596
-68.8111	-27.533		42.9808
-70.2629	-27.2972		35.2403
-66.4983	-27.7398		50.8976
-68.5862	-21.9444		43.7775
-68.3376	-16.1724		44.5113
-69.8435	-15.7547		36.577
-32.5649	-94.4114		87.3271
-19.1617	-69.6989		94.2426
-22.8893	-68.5179		92.3549
-15.5443	-70.5403		95.4691
-26.6397	-67.1167		89.8902
-20.8526	18.3569		70.8761
-24.0208	7.83779		74.3272
-22.908	9.81211		73.5706
-22.0516	11.3462		72.9826
-12.1231	-71.1015		96.116
2.33776	29.1186		82.3819
2.26177	26.2884		82.8692
4.14369	29.3968		83.1481
1.73526	31.7958		81.9164
0.713554	28.334		81.4344
-12.3691	19.9753		69.7391
-12.0901	21.2363		69.7539
-9.24345	19.7782		71.9219
-0.706252	27.1723		80.3005
-1.3701	29.9483		79.9025
6.18031	29.4832		83.6725
-6.56012	-24.3875		102.898
-6.74769	-22.9979		104.823
-6.42356	-13.5524		110.507
-9.39336	-13.325		106.753
-6.17826	-11.9003		109.914
-16.8708	-24.054		89.6937
-14.8352	-26.0265		90.947
-16.3443	-23.0969		90.894
-5.59274	-10.1885		109.098
1.17606	23.1419		83.1198
1.00902	34.66		81.7083
-0.778999	33.9872		80.874
-12.3547	22.8038		69.8737
-2.41441	32.9815		79.7825
-3.61527	31.5513		78.5976
-4.55101	30.1416		77.4174
-20.488	-29.5646		87.7235
-22.6238	-31.8522		87.4256
-17.7357	-30.5232		89.5745
-25.0253	-34.746		86.8986
-21.7928	-34.4899		88.9381
-29.2866	-48.1766		79.3814
-27.3315	-48.2998		80.9203
-28.9545	-47.1313		78.9484
-29.6077	-46.5429		82.4694
-27.4208	-45.6674		85.2831
-28.2007	-44.2814		78.1913
-26.9739	-40.9706		77.8714
-24.9898	-44.4373		80.62
-15.3365	-31.1145		91.2463
-16.8503	-32.7924		91.1104
-13.0577	-31.4678		92.796
-18.7904	-34.6533		90.8098
-20.4317	-36.6612		90.7139
-24.7697	-48.1722		82.9296
-23.2477	-46.9869		83.2321
-22.0249	-44.3589		82.6299
-21.338	-40.9382		81.6855
-11.0215	-31.5028		94.1241
-10.395	-29.9355		94.1895
-15.5505	-38.4837		94.2201
-18.8441	-38.5552		92.46
-15.1383	-9.42975		91.3009
-12.7155	-8.03775		94.5089
1.02432	-4.06056		107.031
-9.89569	-6.53714		98.3218
-6.8862	-20.8632		107.288
-9.37895	-20.4946		104.032
-11.853	-20.3589		100.526
-13.9141	-20.4106		97.3528
-12.2464	-18.3735		101.434
-15.0862	-20.7192		95.2551
-15.7281	-21.3534		93.5637
-16.0585	-22.2029		92.0952
-12.0438	-13.3901		102.28
-12.1972	-14.7942		102.454
-12.3325	-16.5199		102.12
-61.6016	-137.903		21.4667
-59.2524	-130.244		22.8451
-65.4425	-135.417		17.9723
-63.418	-143.561		20.4887
-57.2647	-140.349		24.8845
-56.5522	-119.579		24.6112
-52.4491	-122.316		28.6035
-54.8274	-110.082		26.1904
-60.2928	-116.808		20.5868
-54.8765	-91.752		31.997
-54.6879	-96.8278		28.7514
-51.0759	-95.8575		36.9143
-58.2117	-87.3871		26.8097
-54.4484	-102.874		27.1698
-57.9133	-99.2966		22.5634
-50.3982	-106.551		31.9699
-50.1667	-55.8652		71.9879
-45.5812	-53.2848		75.3059
-54.1026	-58.7256		67.9359
-57.7832	-61.8085		62.4754
-59.7311	-65.5637		57.8964
-60.6592	-68.9847		53.8167
-41.7868	-51.3862		77.1264
-40.2894	-54.2917		77.819
-38.7538	-50.0569		78.0446
-42.5014	-48.28		76.9922
-36.9745	-49.2827		78.4286
-36.0986	-51.1062		78.6299
-60.8993	-83.3914		21.6301
-63.3857	-80.5752		15.3599
-60.7469	-89.1636		19.0729
-61.7806	-78.5943		24.1398
-63.0731	-74.1887		27.0035
-64.6346	-69.9686		29.5082
-64.9207	-71.2535		19.5817
-66.1692	-65.8778		31.9895
-67.547	-63.06		23.9559
-63.6441	-113.981		16.3754
-66.4201	-125.122		15.3105
-61.7427	-103.822		17.1738
-66.8644	-111.626		12.0002
-68.8332	-133.087		14.3238
-71.9582	-130.852		10.3678
-70.9667	-139.03		13.3689
-60.8646	-95.8682		17.8107
-70.9352	-15.2931		28.8317
-70.7829	-9.0905		29.4397
-71.0652	-21.0543		28.19
-68.3674	-61.3853		16.8767
-69.0921	-60.2767		9.95402
-67.3007	-65.2569		14.7272
-65.2493	29.0353		27.7165
-68.5666	26.9524		16.5917
-71.4021	-46.3173		23.6903
-71.848	-44.5679		15.66
-71.2182	-26.7245		27.7394
-72.0566	-25.7744		20.1466
-70.3521	-1.86208		30.3393
-71.7585	-2.78642		22.0379
-73.0296	-24.933		12.7891
-74.1366	-23.7083		6.28456
-69.733	-76.7414		-2.02464
-67.8148	-77.492		3.20002
-69.3512	-71.9858		-1.07136
-71.4286	-76.3047		-6.99772
-70.4164	-82.0708		-2.64483
-71.3234	-87.9747		-2.73057
-69.2772	-67.4367		0.500027
-69.5003	-63.312		1.92636
-70.7007	-66.9341		-5.18233
-67.8426	-68.2193		6.18394
-72.4844	10.2223		11.346
-72.8654	2.60028		13.6334
-71.8467	17.7423		8.72975
-71.028	25.6324		5.62055
-70.1074	33.0836		2.8426
-69.1149	40.6306		-0.673259
-68.0731	48.1117		-4.74469
-70.6545	39.4612		-11.6147
-72.4513	-43.1321		7.81627
-73.1841	-42.2507		0.350964
-73.0393	-3.89842		14.5843
-74.2603	-4.85741		8.2288
-69.9335	-109.353		7.18781
-72.6226	-120.62		6.65404
-66.4361	-69.4297		12.693
-65.8328	-73.8737		10.6662
-74.8596	-128.595		5.9271
-76.8832	-134.446		4.90262
-77.5395	-103.531		-11.6479
-79.6498	-113.196		-12.3854
-72.7503	-75.8756		-11.882
-72.2819	-71.03		-11.4547
-73.3417	-74.3557		-17.0672
-72.0263	-66.1841		-10.7304
-81.2801	-120.399		-13.5247
-82.5806	-126.133		-15.2448
-73.789	-42.2239		-6.34935
-75.0894	-22.4497		1.9317
-75.0688	-26.2155		0.435019
-76.0283	-20.7306		-1.2008
-75.1917	-5.11281		4.0654
-74.0514	-82.8707		-24.2239
-73.299	-76.3383		-23.6839
-71.9449	-79.3249		-31.2897
-72.9556	-70.1641		-23.2922
-71.2405	-64.331		-29.7299
-72.9661	-52.4861		-21.3326
-76.3516	-32.5341		-14.6174
-77.3704	-30.2333		-20.946
-74.7493	-111.526		-40.2202
-73.2617	-103.152		-39.198
-70.9989	-109.771		-47.3818
-76.2041	-119.353		-41.2168
-74.919	-32.2857		-28.3431
-76.6316	-28.2142		-26.8482
-77.9965	-26.2528		-26.2414
-78.8097	-25.388		-26.0834
-52.6477	-142.617		28.0389
-54.5043	-147.923		26.5756
-47.9337	-144.782		30.8575
-50.4581	-135.225		29.8983
-45.4205	-109.997		36.8239
-45.821	-104.822		38.7197
-45.7888	-116.184		35.1236
-39.8943	-113.304		41.2334
-48.8945	-90.9557		52.1487
-50.2384	-87.5867		56.6747
-47.3767	-95.0612		47.0343
-46.3131	-99.8228		42.1594
-40.996	-103.34		46.9068
-47.7115	-124.807		32.6146
-42.7992	-127.572		36.2444
-38.6577	-57.2208		78.9783
-36.3017	-54.6923		79.3694
-51.1496	-84.7656		60.3875
-34.92	-53.1108		79.4196
-33.7792	-51.8517		79.4445
-33.0239	-55.1418		81.1479
-32.7504	-50.8057		79.4762
-31.1093	-52.4111		81.1485
-37.7313	-70.8561		83.0035
-39.4738	-75.1272		82.3691
-40.9577	-79.3833		81.2764
-25.9903	-49.7834		84.4224
-23.0409	-49.956		87.6733
-25.7059	-49.3864		83.1806
-22.3249	-49.2969		85.9556
-25.8153	-49.6369		82.7276
-28.8436	-49.3394		80.5688
-25.9119	-50.0923		82.414
-26.1307	-51.4067		81.9952
-22.4921	-50.029		84.8667
-26.3541	-54.4566		81.8785
-23.0001	-54.1553		83.9174
-26.3799	-58.2263		82.3242
-34.4504	-115.833		44.6731
-35.3476	-121.39		42.6063
-34.7106	-111.098		46.827
-43.0969	-146.958		33.3422
-44.9221	-151.817		31.5912
-38.2554	-148.814		35.4433
-40.8813	-139.922		35.7321
-37.8949	-129.984		39.3555
-25.3479	-110.148		54.8702
-25.4551	-106.93		62.3607
-29.4705	-108.92		53.358
-33.9583	-150.264		36.9465
-35.7266	-154.873		35.1285
-26.1107	-104.606		70.401
-19.0811	-49.0649		88.465
-19.0176	-49.3841		87.7365
-19.0544	-49.9776		87.092
-19.5206	-51.188		86.2145
-19.823	-54.0182		85.6372
-20.221	-58.1203		85.5926
-61.5871	57.8588		12.9309
-57.4039	59.604		23.7908
-60.5676	65.0225		7.16357
-64.7843	56.5362		1.70745
-71.3387	37.8832		-21.6786
-72.9554	-10.4908		-50.5274
-70.5676	-13.0944		-55.2469
-64.2616	-88.9702		-51.3225
-60.748	-87.5625		-56.292
-65.9257	-99.3193		-51.8798
-67.7716	-91.1942		-45.716
-63.0525	-78.5806		-50.873
-67.5905	-108.347		-52.7166
-64.0872	-107.493		-57.4713
-69.4182	-116.896		-53.487
-68.7943	-74.637		-38.8102
-68.4422	-65.861		-38.0993
-65.4538	-71.0653		-45.2748
-69.9723	-84.3711		-38.62
-0.915163	113.09		16.7494
6.46928	113.951		16.9428
-0.0748386	117.279		1.28727
-8.10879	111.342		16.6485
-2.16341	98.742		-83.6623
5.44845	98.8437		-85.1135
-3.23693	87.3065		-96.3658
-9.52869	98.0081		-81.7087
-1.36568	108.142		-68.1108
-4.86883	75.1036		-105.331
2.08327	74.5405		-106.974
-6.8791	61.6061		-111.981
-11.8384	74.6398		-103.362
-0.520005	114.69		-51.2104
0.0239	118.366		-33.4159
7.20933	115.213		-52.3125
-8.04744	113.471		-49.5112
15.6621	120.001		-16.444
15.6178	118.959		-34.6657
7.85407	120.019		-16.151
15.2624	118.243		0.996975
-8.7178	48.3713		-116.366
-2.18976	48.0741		-117.785
-10.5228	34.9041		-119.033
-15.1942	48.2643		-114.305
-12.3232	20.839		-120.198
-5.91162	20.639		-121.715
-14.1357	7.0135		-119.731
-18.7559	21.0431		-117.996
-18.4631	-30.915		-106.997
-17.1994	-18.6646		-113.422
-12.9394	-31.8093		-108.119
-20.0765	-42.075		-99.1681
-24.3325	-30.5534		-104.847
-3.2818	-7.11832		-120.266
-5.11541	-19.7178		-116.093
-9.53099	-6.44596		-119.264
-1.30262	5.87301		-122.298
-26.0053	-87.6838		-79.5137
-20.8899	-88.1503		-80.2422
-27.3727	-97.1128		-78.6863
-31.378	-87.468		-78.1995
-24.7337	-78.2103		-80.9517
-28.8009	-106.416		-78.0408
-23.8861	-106.959		-78.5638
-30.4605	-115.558		-77.483
-33.8633	-106.045		-77.1257
-21.7492	-50.7875		-92.7304
-16.023	-51.3428		-93.7013
-22.7412	-58.7202		-87.8188
-27.0698	-50.3755		-91.201
-23.5498	-68.0163		-83.7524
-18.1872	-68.1696		-84.7198
-29.2933	-68.0583		-82.0375
-12.8858	-68.7845		-85.1264
-14.3757	-79.1114		-82.1999
-11.5746	-59.7582		-89.2152
-28.2494	102.118		14.2357
-21.7208	105.808		15.4035
-28.5304	105.658		0.375008
-34.8016	97.568		13.2075
-31.7884	71.2841		-93.1115
-30.3435	82.4765		-84.3968
-25.5695	72.7559		-97.032
-33.4532	59.105		-99.3851
-37.7043	69.3112		-88.7585
-29.0867	92.3969		-72.7657
-35.2774	89.1197		-69.013
-28.5438	100.016		-58.9029
-22.8756	94.8821		-76.1489
-28.5205	104.92		-44.3158
-29.0401	107.088		-29.499
-21.9944	108.527		-46.1015
-35.1349	100.347		-42.3359
-28.7856	107.462		-14.488
-35.4737	102.651		-14.3531
-21.9453	111.491		-14.5504
-34.867	46.7921		-103.762
-40.5945	45.7201		-99.392
-28.732	47.4913		-107.746
-36.3158	34.0767		-106.453
-37.498	21.2133		-107.704
-31.7347	21.1715		-111.542
-38.6836	8.27234		-107.229
-42.9939	20.9177		-103.346
-39.4628	-4.21948		-105.219
-44.3174	-3.89697		-101.059
-34.2354	-4.98489		-108.822
-40.2576	-16.942		-101.138
-41.4782	-29.1224		-94.7795
-36.1457	-29.6616		-98.6427
-42.6592	-39.5898		-87.9797
-46.0674	-27.8175		-91.0471
-43.6052	-48.6818		-81.9372
-48.143	-47.8135		-77.7666
-38.4558	-49.6088		-85.5567
-44.464	-57.8281		-76.6386
-47.2064	-86.1005		-70.3014
-51.9249	-86.0148		-66.3242
-46.48	-76.3868		-70.7298
-42.1187	-86.7594		-73.645
-48.0021	-96.2301		-70.6833
-39.0285	-105.793		-75.7122
-44.3	-105.696		-73.6273
-37.7916	-96.6942		-75.9499
-40.6902	-114.578		-75.4706
-45.4589	-67.1382		-72.8038
-40.511	-67.5867		-76.4835
-50.1196	-66.378		-68.3756
-51.7261	75.8838		-55.0443
-46.549	80.8012		-60.4634
-51.9994	69.2691		-65.2654
-56.756	70.1643		-48.9389
-52.1414	80.4037		-43.6396
-52.5639	83.1346		-32.2407
-52.8388	84.5088		-20.9734
-47.159	89.4299		-36.6802
-57.564	76.3251		-26.7795
-51.9159	85.4233		-10.0573
-47.1381	91.5419		-12.6604
-55.9284	78.8041		-4.90672
-45.676	44.5242		-94.8028
-46.9491	32.5536		-97.5201
-50.3832	42.8717		-89.9
-44.4615	55.9275		-90.3362
-42.9614	67.0879		-84.1661
-48.0231	64.2186		-79.1055
-41.771	76.9262		-75.8658
-49.0918	-3.48755		-96.1494
-49.3362	-15.4432		-92.5382
-53.6765	-3.20466		-90.6626
-48.8738	8.53293		-98.0138
-48.0321	20.3739		-98.609
-52.6548	20.0477		-93.5119
-50.1109	-26.3672		-87.0284
-51.3556	-36.9143		-79.8703
-54.1116	-25.3008		-82.0276
-52.0346	-46.1906		-73.6565
-55.3397	-43.6971		-69.8281
-54.8101	-65.824		-62.8356
-55.6198	-75.9054		-61.4211
-59.1178	-67.1623		-56.3535
-67.269	43.3757		-49.436
-64.4444	48.0717		-55.2899
-67.464	37.0685		-56.7432
-40.869	92.386		12.8472
-41.1183	95.9294		-0.523159
-66.4964	55.2775		-9.3905
-64.5354	62.4076		-14.8635
-64.0361	-1.25508		-75.0339
-63.7947	-11.0248		-71.8696
-66.8877	-0.772984		-69.5406
-63.9682	8.1433		-76.8091
-61.0208	-2.17832		-80.1
-63.2281	17.5829		-77.8096
-66.2887	16.3426		-71.719
-62.5842	26.6897		-76.6701
-60.0641	18.5248		-83.2836
-61.8939	36.0094		-73.6497
-65.1255	32.9971		-67.6058
-61.4275	44.6712		-68.4731
-58.3854	38.6191		-79.4143
-62.3688	-35.7615		-59.6861
-62.2025	-43.3904		-55.6477
-64.5774	-32.9034		-56.1145
-62.7867	-28.2382		-63.8466
-60.1671	-38.6771		-63.0116
-68.1991	-15.4556		-59.7415
-68.8904	-7.99775		-62.3534
-65.8961	-17.7493		-63.7383
-67.4947	-22.7027		-56.246
-62.5457	-68.8286		-50.7085
-62.2855	-59.6059		-51.3131
-77.2469	-24.8518		-6.68287
-75.9732	-27.8686		-4.57899
-77.1891	-21.1958		-4.65524
-76.8233	-19.4442		-3.21384
-76.9638	5.84871		-4.29404
-77.007	10.9544		-6.43507
-87.836	16.3669		-40.0485
-88.5057	16.1299		-39.3396
-87.0422	22.2087		-37.7495
-83.8638	-23.0115		-26.121
-83.0102	-25.7059		-22.8485
-82.8394	-23.065		-26.8751
-85.8795	26.9366		-34.2827
-86.8485	26.4645		-33.7118
-84.6963	30.1154		-30.1664
-84.8806	27.0503		-34.7837
-80.2339	22.1532		-13.2794
-78.9184	21.8778		-13.9416
-83.724	31.5001		-25.8546
-84.7453	30.9982		-25.1103
-86.5139	-6.65906		-36.3851
-85.2348	-23.085		-18.9149
-83.8879	-25.3893		-19.4313
-84.6772	-22.8617		-16.2307
-77.0576	13.455		-8.18264
-80.6512	29.4648		-21.2494
-79.2462	26.2981		-18.5119
-79.7168	28.3641		-22.8297
-77.5671	21.8716		-15.3759
-76.6275	22.0764		-16.9819
-84.2343	26.7679		-35.0052
-75.9323	21.6231		-18.4312
-76.8663	23.6087		-21.1337
-78.118	25.5318		-24.7857
-76.3485	23.0513		-25.8565
-86.9652	-14.6101		-29.2281
-87.0563	-15.7198		-21.7673
-82.4852	-26.8208		-19.9198
-83.9552	-21.8999		-14.1116
-84.4418	-19.0296		-13.9953
-84.8368	-16.6385		-14.9111
-85.057	-15.0962		-15.8754
-89.2724	4.23953		-37.9468
-89.0152	9.76636		-39.458
-88.7317	15.9035		-38.9284
-88.2493	21.583		-36.7045
-83.6795	28.531		-17.5414
-84.6194	30.1893		-20.6739
-83.9528	27.9664		-17.2598
-84.0249	27.3754		-17.1152
-85.0007	29.1145		-20.1957
-84.0206	26.2749		-17.2693
-87.2961	26.0214		-33.3453
-87.4807	25.5639		-33.2002
-86.2714	28.9773		-29.2339
-85.4004	30.4267		-24.6317
-85.7052	29.8941		-24.5124
-85.8016	29.3321		-24.2334
-86.5666	27.9993		-28.8493
-87.4942	25.1999		-32.8718
-88.857	11.6046		-37.8055
-83.9582	24.9185		-17.8019
-82.5006	17.5491		-15.2471
-85.9518	24.5509		-26.3482
-88.7593	8.74051		-32.6691
-88.5094	10.6077		-32.3876
-88.1376	12.4536		-31.8233
-87.6915	13.9296		-30.9361
-87.1376	15.1274		-29.6968
-82.3732	-11.8825		-13.6673
-83.8835	-13.3275		-15.304
-81.573	10.9228		-12.2258
-80.0482	-4.14613		-11.7032
-85.0517	-14.416		-16.3632
-25.4044	34.6903		72.3702
-15.3174	96.9229		41.0884
-15.3204	103.336		29.6108
12.0358	100.556		43.3991
13.2126	107.889		31.1798
-14.9128	108.994		16.0553
-14.6807	112.956		1.24
14.3769	113.981		17.0538
0.307849	119.179		-15.6947
-7.2987	117.454		-15.1922
-14.6098	114.922		-14.9102
-14.8829	114.434		-31.3055
-52.3666	61.8052		33.6065
-58.6788	71.8675		0.9746
-60.8339	70.6707		-9.90174
-41.4256	97.5011		-14.1048
-41.7789	96.9715		-27.1003
15.1221	115.019		-52.864
14.2036	108.17		-70.1415
-14.9827	111.528		-47.6133
-15.5535	105.543		-64.0508
-61.4195	69.3418		-20.8329
-61.4334	67.4541		-31.7943
-41.1292	95.3411		-40.0027
-40.8244	91.5231		-52.6163
-60.9766	64.251		-42.581
-60.8206	59.3949		-52.7447
-60.927	52.9214		-61.3924
-57.0726	57.094		-67.5734
-56.6666	-86.7844		-61.4347
-57.8018	-97.0623		-62.1456
-59.5204	-106.521		-62.6162
-54.3522	-105.784		-67.2868
-61.193	-115.226		-63.3316
13.023	98.5068		-85.7664
11.358	86.4917		-98.7741
9.21074	73.6383		-107.949
6.934	60.4139		-114.337
4.82607	47.4037		-118.636
2.84837	34.0921		-121.355
0.833556	20.1105		-122.628
-15.7596	-6.00616		-117.577
-22.0128	-5.80558		-115.207
-7.00313	-32.6523		-108.878
-8.98138	-44.1556		-100.255
-10.403	-52.4121		-93.9093
-15.8992	-88.5095		-80.614
-17.369	-97.7308		-79.6356
-18.8831	-107.364		-78.835
-20.6053	-116.936		-78.1657
-18.7449	73.8763		-100.578
-20.4301	60.9808		-107.006
-17.3321	85.9057		-91.5697
-16.2292	96.6742		-79.3605
-21.9869	48.0446		-111.358
-23.6706	34.7785		-113.972
-25.2826	21.2322		-115.077
-26.9455	7.54722		-114.486
-28.2881	-5.47489		-112.225
-29.3624	-18.0421		-108.127
-30.3065	-30.1155		-102.079
-31.3747	-40.9913		-95.0769
-32.8055	-50.0424		-88.7816
-34.1222	-58.6541		-83.5252
-34.9695	-67.8401		-79.6756
-35.9353	-77.5632		-77.2493
-36.8937	-87.0519		-76.2335
-49.4701	-105.561		-70.8163
-51.221	-114.383		-70.9542
-40.8909	85.4435		-64.9692
-52.6477	61.2088		-73.388
-53.6485	51.2625		-80.0522
-54.4822	41.1193		-84.855
-55.5141	30.2817		-87.6681
-56.5098	19.477		-88.56
-57.39	8.38448		-87.5269
-57.5493	-2.90003		-85.3468
-57.4541	-13.6769		-81.9631
-57.3962	-23.5496		-77.5628
-57.6615	-33.0522		-71.8323
-60.508	-22.0661		-72.6323
-57.8532	-41.1987		-66.5063
-62.3801	-51.3774		-52.4126
-64.1755	-49.2689		-49.2206
-67.6327	30.4699		-62.0294
-70.1019	27.3826		-55.8995
-68.1754	22.9498		-64.9315
-69.1729	-0.158961		-64.6347
-69.1553	7.71405		-65.7895
-63.2482	-20.0146		-68.2044
-68.66	15.5784		-66.2165
-66.7913	-29.8574		-52.6559
-66.3385	-36.9415		-49.2138
-34.9876	-106.533		50.9643
-70.06	-59.2589		3.35898
-65.632	-78.6408		9.21473
-18.4054	-42.8117		93.4273
-21.5548	-43.097		91.3179
-24.693	-44.2204		88.4546
-14.4259	-52.7653		94.8677
-14.8423	-53.7006		95.0383
-15.2575	-54.7408		95.1099
-30.4383	-57.435		84.1236
-29.5245	-55.8149		84.2912
-28.6931	-54.3483		84.4841
-22.0745	-39.0946		90.3441
-42.9585	-44.7798		77.1966
-30.8204	-26.5551		83.1933
-33.2565	-30.9671		82.656
-35.1683	-35.5016		81.8501
-62.8946	-27.5276		58.9727
-12.3079	27.7138		71.7338
-72.3712	24.3662		-49.3882
-75.1958	24.4895		-30.1287
-76.1369	22.8177		-27.7405
-74.8808	-30.6845		-1.28587
-21.0341	17.0928		71.2947
-41.5633	50.6616		63.5323
-42.4696	25.8525		63.0372
-10.1327	-28.5433		94.3955
-39.8637	28.321		65.0418
-12.6275	-26.4837		92.8641
-76.0567	22.6704		-26.7092
-71.5366	-94.0081		-38.8603
-69.1406	-57.0586		-36.88
-67.1806	-51.0213		-42.2179
-66.21	-45.4662		-46.1266
-21.566	-21.2345		85.9929
-33.4333	-48.3535		78.9086
-19.966	-50.0152		90.298
-30.5746	-49.107		79.3514
-12.6021	-47.9485		91.9133
0.284602	-111.289		-77.7724
-1.12748	-120.474		-77.2263
-79.248	-25.2824		-25.7469
-79.9828	-23.7525		-27.2623
78.8584	-35.172		-4.47415
-79.2247	-9.32075		-6.97826
78.6052	-44.2197		-29.4574
-81.6276	-22.9433		-27.4931
92.2377	-12.5554		-20.3289
-83.953	13.6941		-21.6667
-84.1159	12.3616		-22.6925
84.3786	-25.3071		-16.5226
83.3638	-27.5765		-16.8401
87.4803	-22.1963		-19.8271
-80.51	-3.30732		-18.5201
-80.997	-4.02649		-19.4196
82.1805	-29.9758		-16.2572
-82.1905	-5.34245		-20.7963
89.9082	-18.801		-21.6454
-84.1015	9.75569		-23.6982
31.5661	17.8985		70.9874
27.4289	16.4958		70.3214
25.1209	14.6598		69.786
25.1748	13.4445		69.6246
25.7068	12.4997		69.7476
47.7687	11.2216		67.3902
48.1752	12.4996		67.3901
46.8	14.2117		68.7891
44.4859	15.9243		70.3578
41.107	17.8836		71.2786
36.5895	18.679		71.4512
34.0443	15.399		71.5161
35.6191	11.2424		71.3861
38.4906	10.7273		71.1842
40.9235	11.9432		70.962
41.5563	14.3204		71.0788
39.6917	16.1883		71.4724
36.8986	16.6503		71.6286
37.6914	13.5638		71.6319
33.8532	13.0904		71.4426
44.2559	11.5045		69.6133
29.9966	13.1204		70.6618
29.3966	15.4586		70.639
33.0677	10.2518		71.1688
44.8958	13.6574		69.6918
39.1501	9.1733		70.848
29.2438	16.7124		70.608
28.3124	16.1034		70.4177
30.5639	16.4955		70.8794
29.0213	17.3211		70.5492
36.6962	9.92665		71.1974
38.9298	9.74932		70.9818
36.9601	10.7235		71.3173
34.5358	10.6176		71.2816
36.3826	9.31943		71.1379
43.2614	14.6569		70.5733
44.3246	14.7353		70.1929
42.6305	15.354		70.8591
43.1221	13.8185		70.5236
41.8111	16.3055		71.1111
42.8511	16.9503		70.9962
40.4101	17.1307		71.3379
40.8446	15.4485		71.3119
38.5942	17.6705		71.479
38.9127	18.5043		71.4218
36.6748	17.7218		71.5216
38.3523	16.7096		71.5862
34.7855	17.3213		71.4588
34.2053	18.3655		71.3284
33.1637	16.6412		71.3305
35.4262	16.2727		71.6245
39.2502	11.7756		71.3123
39.5609	12.5394		71.3982
38.1121	11.8183		71.4568
40.0931	11.0447		70.9933
36.1222	15.473		71.7391
35.8151	14.6064		71.7509
37.2075	15.4287		71.7426
37.1242	11.5044		71.4662
36.5099	12.0884		71.5726
40.2043	13.1618		71.3595
39.828	13.9381		71.4957
41.4006	13.0082		71.011
39.9153	14.8421		71.5055
38.8896	15.1173		71.6413
38.1638	15.8042		71.6839
25.4845	15.3658		69.9236
25.0233	14.0324		69.6762
25.484	12.92		69.6846
46.5125	10.2451		68.2161
48.212	11.8842		67.1945
47.8006	13.3028		67.9657
45.6761	15.0756		69.6863
35.4941	12.4276		71.5824
35.5199	13.237		71.6793
34.3795	12.0496		71.4173
35.1317	13.984		71.6941
33.7161	14.1529		71.4928
45.2827	14.719		69.7189
45.8791	14.0665		69.2878
31.6402	14.2021		71.0989
29.4978	14.3278		70.6186
31.956	13.0431		71.0881
31.7032	15.2894		71.1403
32.8662	11.7946		71.1222
31.085	11.734		70.854
28.791	11.5579		70.405
26.9034	14.2083		70.0441
27.3102	13.3249		70.0625
26.7608	14.9767		70.075
45.4188	10.4935		68.8685
46.1665	11.4362		68.5766
43.68	10.4164		69.7286
44.5631	9.3601		69.3433
46.7147	13.4874		68.6254
46.6708	13.0186		68.5671
41.4941	10.1952		70.4399
42.4165	11.5276		70.3989
27.9747	12.4072		70.1887
31.8775	16.128		71.1493
26.6547	15.5091		70.1185
46.5373	12.2958		68.4823
44.6417	12.5605		69.6234
42.8838	12.6903		70.4344
42.0736	9.17596		70.0583
43.4522	9.65903		69.6958
44.619	9.8058		69.2594
-20.4731	27.1876		70.9243
-17.1225	24.3413		70.0694
-15.1167	21.5522		69.0088
-15.5709	20.4582		68.8661
-16.3714	19.7481		69.1007
-35.4611	22.9542		67.8796
-37.911	25.5523		65.6647
-37.8332	26.9347		65.6724
-35.7777	28.3869		67.3707
-32.8605	29.4731		69.285
-28.9863	30.1861		70.6077
-24.59	29.5074		71.094
-23.2836	25.5981		71.3335
-26.4393	21.9816		71.0218
-29.2378	22.4767		70.568
-30.8325	24.5383		70.197
-30.5021	27.0215		70.3135
-28.1341	28.1578		70.9006
-25.4609	27.691		71.2665
-27.3082	24.986		71.169
-24.051	23.2124		71.2469
-34.2763	24.9766		68.3663
-20.5087	21.9011		70.5248
-19.2334	24.0819		70.5474
-33.144	22.0049		69.0859
-24.4551	20.1091		70.9405
-34.0836	27.343		68.4706
-30.4321	21.1732		70.1549
-18.6923	25.2368		70.5054
-18.3572	25.7669		70.4586
-19.9421	25.5127		70.8193
-18.0695	24.275		70.2976
-27.9805	21.0266		70.7041
-27.9282	20.3056		70.6528
-25.6791	20.9901		70.9875
-27.8967	21.9222		70.8235
-30.0119	21.6781		70.3067
-32.0618	27.9278		69.6066
-32.201	27.0774		69.563
-31.1982	28.3319		69.9926
-33.1279	28.3285		69.0817
-30.1301	28.9582		70.3362
-29.4581	27.8305		70.6264
-28.5109	29.2617		70.7213
-30.9474	29.9012		70.1189
-26.6824	29.1898		71.0014
-26.7497	28.2271		71.1177
-24.9113	28.6317		71.1688
-26.7628	30.0464		70.9238
-23.3819	27.7108		71.2275
-24.2664	26.8731		71.363
-22.1912	26.5131		71.2061
-22.5822	28.5389		71.1156
-29.4717	23.7737		70.6671
-30.4791	23.3598		70.2722
-28.4391	23.4267		70.914
-29.414	24.6434		70.7578
-25.2011	26.319		71.4306
-26.1784	26.6534		71.3499
-25.2281	25.3647		71.4519
-27.7178	22.7557		70.9858
-26.9062	23.1255		71.1658
-29.7472	25.4353		70.6747
-30.8503	25.7027		70.2308
-29.087	26.0791		70.8627
-28.818	26.9495		70.8898
-27.7909	26.9173		71.1086
-26.8935	27.3308		71.219
-16.2219	23.1106		69.6605
-15.2576	20.9645		68.8899
-16.012	20.0581		68.991
-37.0169	24.2984		66.605
-38.1004	26.3246		65.4388
-37.1413	27.6437		66.3274
-34.3299	28.9673		68.4456
-25.8464	23.0644		71.2572
-24.9554	22.3469		71.1694
-25.5334	23.8641		71.3722
-24.8885	24.4978		71.4356
