1839
27.9228	5.19184		71.7677
30.3638	3.04033		71.7363
16.5687	-57.246		83.327
16.4676	-57.1442		83.0736
19.8311	-58.2381		80.4326
12.9085	-55.8493		86.5333
21.5234	-58.7829		79.1758
21.2553	-58.612		79.1684
-0.154282	-49.8736		99.3404
2.92043	-49.8371		98.7303
0.0781674	-48.7366		99.5763
-3.50604	-49.6902		99.7384
-0.452394	-50.72		98.9632
5.05943	-51.7293		96.7572
5.2991	-51.0043		97.3996
2.41146	-51.4285		97.7813
4.60149	-52.3412		95.9364
7.68788	-51.9747		95.5517
10.5363	-52.5416		93.8068
10.8763	-51.7063		94.4929
10.2112	-53.3644		92.7937
13.3818	-54.096		91.0156
5.46466	-50.0708		97.9141
8.2084	-50.1669		96.7922
5.68639	-48.9133		98.2772
10.505	-48.6549		96.1413
11.0718	-49.661		95.575
10.2682	-47.6227		96.4187
7.62491	-48.4186		97.666
16.558	-55.8319		87.1714
16.5559	-54.9815		88.6347
3.83824	-52.7423		95.0274
1.13986	-52.3038		96.2053
3.29932	-52.901		94.1892
6.9342	-53.2197		93.5627
10.1408	-54.1791		91.2527
9.85493	-54.5494		90.0981
22.5046	-57.8641		80.9129
16.6142	-58.1202		83.8575
16.5895	-58.0692		83.634
12.8501	-56.7743		87.4717
16.5903	-58.2602		84.1514
16.7501	-59.3476		84.6311
16.6568	-58.9412		84.596
13.1391	-58.1107		88.5224
9.9863	-57.3781		91.3303
9.93326	-56.7775		91.1479
6.78247	-56.8719		93.4758
10.2252	-58.1043		91.2729
3.02678	-54.6903		94.8693
3.12617	-55.4479		95.0727
6.49174	-55.2772		93.177
2.97714	-54.1363		94.5993
0.0124631	-53.8513		95.8076
-2.6289	-54.9492		96.7516
-2.7618	-55.9048		96.8423
-0.00818968	-55.4929		96.1959
-2.49663	-54.0834		96.5618
-4.914	-54.4387		97.0114
21.4478	-60.2066		78.4232
21.4586	-59.6252		79.0376
21.0357	-61.4664		77.8175
19.5918	-59.7563		79.9958
-2.60539	-53.4161		92.4252
-2.40657	-52.7676		93.722
-0.377284	-53.9852		91.9093
-2.93282	-54.4505		91.3332
-4.62032	-52.9766		92.6738
-2.91551	-57.0819		96.8266
-5.36803	-56.5473		97.1222
-3.03587	-58.2155		96.6988
-0.0812325	-57.6623		96.2171
-3.87459	-62.1491		95.6124
-0.683482	-62.5753		95.018
-3.51335	-60.6324		96.0941
-6.62607	-61.6255		95.9305
5.56315	-48.0569		98.4487
5.06102	-46.6941		98.6395
3.17057	-47.6522		99.1133
-2.37856	-53.3531		96.2807
-4.54533	-52.9815		96.529
-2.34598	-52.8747		95.9909
-2.33596	-52.6538		95.7319
0.033628	-53.1942		95.3544
-2.24595	-52.5548		95.3731
-4.35676	-52.2731		95.885
2.96215	-53.8937		94.3379
6.32422	-54.5393		92.7213
2.95215	-53.7668		94.0138
-2.22101	-52.5578		94.7274
-0.0292602	-53.0795		94.2923
-4.33023	-52.1474		94.9065
9.62233	-55.5676		90.3386
9.58239	-55.4919		89.9418
9.71627	-55.7563		90.5835
10.2311	-60.7976		91.0135
10.2318	-61.8962		90.6938
10.2663	-59.8166		91.185
6.89629	-60.7059		93.1109
3.22308	-60.377		94.7389
3.14511	-61.5568		94.384
3.29218	-59.3416		94.9691
-0.286995	-59.9342		95.836
-3.25603	-59.3736		96.4578
-5.90581	-58.842		96.7774
9.61965	-54.6084		89.2349
6.3382	-53.5338		91.6517
9.50826	-54.4855		88.6031
24.3601	-59.7123		78.9682
23.2834	-59.7277		79.0022
21.4995	-59.3684		79.6958
19.7669	-59.2211		81.2023
2.50106	-54.6831		90.9979
2.64757	-53.9928		92.2489
5.80145	-55.4383		89.5736
2.3781	-55.7255		89.9659
2.80883	-53.746		93.3179
6.11995	-54.4724		91.7161
2.9502	-62.9648		93.9532
6.75307	-63.2448		92.3307
10.232	-58.9019		91.2944
6.98229	-58.7391		93.4212
10.1463	-63.3454		90.2753
13.3823	-63.2224		87.6649
9.34827	-54.1764		88.3211
6.39156	-53.0483		90.0747
9.1517	-53.2724		87.9219
12.3133	-55.2986		86.1573
3.27203	-52.3217		91.446
0.771449	-51.7133		92.0654
4.05659	-51.5643		90.3142
2.99728	-52.6865		92.3505
9.17642	-50.9672		87.2393
6.81408	-50.2006		88.3903
9.63222	-47.6894		86.6356
11.6299	-51.8128		85.7915
19.8549	-64.2262		77.4071
18.0459	-66.9372		77.8057
17.9508	-63.6302		79.1783
-3.56042	-56.3152		90.3344
-1.26282	-56.8572		89.9104
-4.14009	-59.5381		89.5848
-5.48794	-55.9049		90.5426
4.47872	-49.5907		89.2533
2.0211	-49.0211		89.9027
4.7762	-46.3815		88.4855
1.71447	-57.5992		89.0389
0.970129	-60.8389		88.1335
4.99763	-58.4762		87.7085
24.4366	-60.4528		73.3408
24.4461	-60.4581		73.1981
21.2772	12.1156		75.0632
20.3708	10.6477		76.6972
78.1629	-27.0053		-46.4016
76.654	-31.1269		-45.5023
76.307	-26.1588		-49.6534
79.6588	-22.6465		-46.5582
79.6099	-27.7342		-44.7415
82.6778	-7.43852		-10.1007
83.5068	-4.87517		-14.387
82.1732	-4.96305		-5.29715
83.8646	-3.03819		-19.6111
84.5748	2.30507		-21.0421
83.3421	-8.04466		-20.5393
84.1327	-3.83701		-26.5768
68.2032	-49.1994		-36.3389
71.1202	-47.4317		-34.8832
66.5586	-53.0023		-33.6394
69.9953	-45.6945		-38.292
71.5508	-42.3896		-40.4733
68.4647	-43.895		-43.1338
73.3086	-38.8039		-42.4251
74.0924	-41.6305		-38.7522
81.1021	-27.9662		-43.9125
82.6954	-27.7891		-43.6221
79.7795	-31.8794		-42.8652
82.4196	-23.1634		-44.2624
79.9717	-45.9368		-33.6231
81.713	-42.2861		-35.828
80.6488	-46.4856		-32.4259
78.1933	-49.5169		-30.9857
86.1967	-37.308		-34.1677
86.3336	-36.7241		-33.4206
72.0403	-56.5458		-22.4991
72.4894	-56.8571		-21.8047
71.6235	-57.0591		-20.4686
71.2271	-55.5695		-24.5321
75.0996	-49.2014		-10.4083
74.682	-49.7455		-10.3344
74.0776	-50.6454		-10.4992
86.3717	-36.3304		-33.026
85.8152	-36.772		-32.0502
91.755	-22.7938		-37.3609
91.8846	-22.2145		-38.8895
91.4544	-24.0131		-35.6766
94.0802	-12.7725		-35.2639
94.6017	-11.5084		-35.4267
95.169	-9.45064		-34.4789
94.6561	-9.44611		-32.2568
95.4206	-9.05097		-34.8945
95.3461	-7.24639		-31.4729
82.0604	-27.3207		-11.5021
84.2398	-22.2294		-12.2576
81.7264	-26.4205		-10.1756
80.4729	-31.0918		-10.798
74.6474	-41.8103		-4.01981
73.7966	-41.9551		-1.27535
73.5179	-45.4308		-4.40171
75.8428	-37.6273		-3.63255
78.7717	-38.0955		-13.1495
78.7225	-40.1712		-13.6168
79.0886	-36.1795		-13.3261
83.2394	-8.56214		-20.5606
83.737	-7.5366		-24.0671
83.2768	-8.56361		-20.3444
92.5898	-2.908		-21.5758
93.7631	-1.58574		-24.754
91.8143	-2.37834		-22.7144
90.6941	-5.51588		-18.5047
93.2363	-3.72212		-20.6015
93.2782	-1.03641		-29.747
92.5757	-0.987879		-26.73
93.6088	-0.944016		-29.2759
93.3739	-2.52423		-33.3724
92.2466	-1.93574		-31.0506
90.5199	-16.7849		-43.469
89.6507	-17.0747		-43.6036
92.1328	-10.9007		-40.8484
91.6258	-16.7517		-42.9823
85.9634	-17.9098		-12.9925
86.0042	-19.2294		-13.6341
93.2884	-17.8437		-40.5148
94.8217	-12.8448		-38.4795
92.4313	-20.5215		-40.5975
93.3011	-17.9685		-40.875
95.1453	-6.11522		-27.5457
94.2545	-6.3019		-23.533
94.6476	-7.43115		-28.2233
95.4519	-5.14838		-26.9721
87.4653	-17.5618		-15.8455
86.6195	-19.1601		-15.2055
88.4165	-15.4224		-16.6436
93.0978	-16.9762		-37.8374
92.7139	-19.0628		-39.614
91.4639	-13.4158		-26.3476
90.7617	-14.6155		-25.5173
92.5064	-14.3286		-30.5053
84.3666	-23.8437		-16.8083
84.5432	-23.6296		-17.5216
85.1848	-22.3358		-15.7847
88.5974	-24.5366		-30.8636
90.9562	-22.452		-32.9154
88.455	-24.0185		-30.2492
88.2717	-25.5912		-30.9821
76.9489	-33.8152		-3.74717
78.3578	-29.4764		-4.68047
76.1731	-33.758		-1.19562
83.7311	-18.0399		-42.9827
82.451	-18.4036		-44.0514
84.6064	-13.3877		-41.0246
85.2095	-15.774		-42.1699
88.574	-11.3144		-39.7496
89.2078	-7.45351		-36.6728
91.8325	-7.1856		-38.0799
87.7818	-15.4303		-42.4992
88.4436	-17.794		-43.5082
86.2079	-22.9818		-44.0814
84.8566	-27.7769		-43.5375
75.9823	-41.355		-37.9796
74.5364	-44.1466		-36.0592
77.3192	-38.4292		-39.7671
78.5458	-35.3118		-41.4594
76.8219	-35.2164		-42.4126
85.3288	-36.5545		-31.0283
73.1047	-46.7423		-34.2513
71.4736	-49.987		-31.8064
74.3816	-46.7044		-33.8496
71.1224	-53.616		-27.161
70.6671	-53.5369		-27.4969
70.0959	-56.6758		-22.5024
71.6612	-56.6151		-17.6738
71.1291	-56.7594		-17.4713
70.5894	-56.831		-17.1618
88.3138	-26.385		-31.4402
90.3476	-25.5277		-33.7196
81.274	-25.64		-9.07014
80.6603	-25.0269		-7.82537
76.8931	-38.4835		-7.17856
77.1497	-38.7442		-7.84772
78.653	-43.7253		-13.2983
79.131	-45.9449		-14.8489
78.9817	-42.7226		-14.149
79.4099	-33.9024		-10.22
79.7173	-34.2425		-12.4087
89.387	-5.48965		-33.5413
86.2751	-8.70933		-36.1487
88.7036	-4.55288		-30.2121
85.0232	-10.1003		-37.8474
84.4985	-10.3359		-38.9023
84.9827	-7.7217		-33.6839
79.2564	-34.2519		-15.208
79.5225	-34.2498		-14.3421
92.8189	-15.4943		-32.8374
92.3693	-16.9233		-32.4462
85.0333	-23.0854		-18.9859
83.9633	-25.2477		-19.947
86.124	-22.1949		-21.6996
88.6013	-23.1691		-29.7742
90.9206	-20.0572		-31.1346
88.1158	-22.9415		-28.3858
31.1769	83.2232		58.8526
29.7192	76.4701		64.204
37.7677	81.0088		58.0986
32.6796	89.9953		51.9081
24.2266	84.8578		59.4278
27.9666	69.7991		68.5558
21.8033	70.8941		69.2968
25.9524	62.6918		72.4435
33.9086	68.3512		67.5124
43.2853	52.4247		70.5031
42.8079	47.8415		73.2322
39.6529	53.6081		72.0069
1.28385	-26.9406		106.787
1.78059	-25.8166		108.249
-0.329191	-26.6292		107.108
3.35542	-27.3846		105.523
4.2414	-16.7704		112.585
6.90013	-17.326		111.48
4.65149	-14.8495		111.93
1.79699	-16.279		112.959
3.88541	-18.5328		112.719
3.48484	-20.3286		112.356
1.01085	-19.91		112.777
2.9986	-22.1764		111.478
0.426425	-31.2225		101.374
-1.39995	-30.9598		101.554
0.130797	-38.9183		99.3297
2.53603	-39.0684		99.0374
-2.20695	-38.831		99.4722
2.43781	-24.0758		110.024
4.78657	-24.585		108.663
0.228291	-23.579		110.565
4.92333	-12.88		110.848
7.50165	-13.7237		109.854
5.23342	-10.464		109.009
2.58356	-12.249		111.136
22.0905	46.0545		79.2716
16.3263	47.293		79.9608
20.8623	42.8272		80.1667
26.9726	45.4428		78.5294
23.0988	49.9537		77.9803
10.6419	16.1967		83.7686
10.2468	13.9741		85.428
11.014	18.0703		82.6176
9.00299	16.724		83.8833
11.4471	19.9678		81.6918
13.3042	18.8894		81.2633
11.9585	22.033		80.9672
9.70939	20.4617		81.8484
-1.66619	-51.1283		92.4003
-4.12347	-50.6718		92.6962
-1.15268	-50.2951		91.4462
-2.07886	-51.7244		93.6845
-2.10928	-51.9796		94.7106
-4.2274	-51.6058		94.904
0.121839	-52.3589		94.2892
-1.96234	-52.0455		95.6977
-0.669423	-51.2727		98.4918
-0.997716	-51.6973		97.781
-3.82877	-50.8912		98.9306
-1.48418	-51.9438		96.9206
-4.08187	-51.5478		97.2039
0.271995	-47.7889		99.6136
-3.10499	-47.8116		99.9699
-0.736469	-48.4107		90.3624
-0.406082	-45.2023		89.3644
-3.66019	-47.7838		90.6234
43.1512	78.8213		57.0371
41.1751	72.9411		61.9882
48.0502	76.2826		55.6406
45.2003	84.8723		50.4665
32.891	45.0088		77.7101
31.5844	42.579		78.5969
37.8431	44.7764		77.0676
32.8959	49.0365		76.2778
31.7959	39.3359		79.1337
32.5196	35.7155		79.2224
36.6622	39.4283		78.3682
33.4537	32.8882		78.6165
29.9489	32.6568		79.3956
37.6594	33.3039		77.7731
37.7471	22.4248		71.5471
37.1105	23.753		72.2582
33.884	21.4064		71.3088
41.6595	22.7856		71.5384
39.2884	20.5635		70.7073
36.0447	25.3465		73.3515
39.8088	25.5704		72.975
32.6892	24.643		73.3845
66.3417	75.9531		34.0714
68.4343	80.4038		24.1842
61.7748	80.5909		36.7326
64.5239	71.0256		41.2598
52.5511	73.7096		53.6189
54.8247	78.8774		47.4869
57.3307	70.4863		50.7867
42.2529	43.9707		75.713
42.5231	42.1872		76.2668
47.3222	42.3354		72.8063
42.6973	33.4435		76.3039
42.7135	35.197		76.6483
42.491	39.1427		76.6752
43.87	25.086		72.4103
44.9128	23.6232		71.7274
48.4568	23.6777		71.3361
62.4736	66.5708		46.8437
67.7268	62.3202		41.8025
60.2972	62.1292		51.5762
52.9262	39.2293		68.0146
58.3347	35.4129		64.0682
52.115	19.9425		69.8173
52.1552	20.9143		70.0573
48.9643	21.3321		70.7085
54.5566	18.3559		68.4984
53.263	25.8349		70.1008
52.8173	23.9422		70.1664
57.2065	23.6598		67.9831
52.3732	22.1534		70.1691
57.8603	57.4686		55.8621
63.5487	53.1122		50.9607
72.6717	58.5652		35.3028
70.836	53.7624		40.4043
76.978	55.1058		27.6227
55.0012	15.4511		66.7272
56.2375	13.3709		64.8453
56.5669	16.4144		66.6262
57.9088	14.1697		64.6056
55.6716	16.0034		66.826
60.6202	21.1517		65.2091
63.5126	17.5837		61.5001
28.5203	27.3466		76.1261
25.9868	25.1673		75.3764
29.0969	25.5074		74.6875
27.695	28.7461		77.28
26.7755	30.1684		78.4103
24.536	28.3325		77.6909
29.6189	22.8842		72.9185
30.1844	21.0462		71.6577
19.5992	38.2281		80.7314
15.2909	39.8428		80.6967
55.4527	-77.5739		-9.64939
58.4282	-72.9035		-8.15377
55.0736	-78.0247		-16
83.7005	4.39741		-41.2509
82.4348	0.439232		-46.7552
83.4937	9.93623		-46.0719
84.8543	6.87726		-33.2591
83.9889	-1.19978		-36.0117
73.6841	-25.5709		-55.3432
71.6659	-31.1626		-53.6367
71.1565	-25.4559		-60.7686
75.7448	-20.0873		-55.5848
77.5673	-14.1523		-55.4229
75.6217	-12.2545		-61.7783
79.3074	-8.82634		-53.7756
79.4959	-16.3719		-49.282
64.1339	-46.8715		-46.9198
60.1534	-49.6314		-50.5011
66.7308	-41.6869		-49.54
24.5374	56.1494		75.4716
18.6831	56.6861		76.3829
29.7995	54.9807		74.6635
34.5462	54.2626		73.5609
36.6471	60.6149		70.1107
3.83983	-100.593		58.8803
1.63783	-101.822		53.3576
10.3013	-99.7012		52.596
-2.02658	-100.692		63.3944
33.2717	-91.4414		42.0961
26.8421	-93.8654		47.7633
39.1281	-88.9867		36.6964
35.1336	-89.4174		45.4916
68.9615	48.5485		44.8537
73.5938	44.1602		37.9425
38.977	67.0205		66.1672
81.0248	51.5526		18.3253
84.258	48.4089		8.58632
79.5711	45.5902		24.1522
47.0338	91.7884		41.0609
52.3029	88.4007		40.2038
48.3921	98.333		29.557
41.0257	94.677		41.851
73.9959	27.118		39.4013
75.7881	33.3099		34.5952
58.4679	11.9387		62.7258
68.1234	15.8043		54.7576
68.0352	10.6212		52.0848
66.6341	14.8083		56.5285
65.1496	13.9571		57.9886
-15.8907	-109.335		49.3934
-18.1156	-108.844		49.7412
48.3083	-81.8106		36.4809
50.6975	-78.2863		38.8892
43.2285	-83.7238		43.4594
45.8989	-84.8623		33.4351
4.8485	-44.6286		98.5746
6.76544	-45.1993		97.9996
4.65488	-41.9247		98.5558
20.779	-51.9013		87.5295
20.9854	-48.1055		88.9519
18.7089	-50.1829		90.0799
8.63792	-41.167		97.0867
5.96705	-40.0092		98.152
9.16979	-43.4534		96.9326
11.5939	-41.9322		95.5694
8.12057	-38.7528		97.2142
29.5736	-56.697		80.2816
28.484	-59.8226		78.7518
31.6912	-58.1897		78.7583
29.6875	-52.91		82.1491
70.2003	4.48013		45.0592
68.7374	4.73413		47.9183
69.4537	-2.15662		44.7721
71.4819	4.51815		42.0662
72.8527	4.80536		38.4523
74.5054	4.307		33.1183
61.2156	7.2718		58.0425
60.671	4.99779		57.6071
67.2244	4.8716		50.4083
83.3633	-9.4829		-40.8707
82.3716	-13.2373		-43.9215
82.1721	-7.37363		-44.887
84.1206	-6.88545		-37.0148
74.8788	-35.1427		-44.2499
72.5638	-35.3473		-47.2657
61.9274	-66.0791		-18.7997
64.8139	-62.2204		-16.7405
61.4395	-67.8153		-12.5894
58.5167	-71.1294		-20.9785
62.7485	-63.0451		-24.7192
81.1003	-17.8116		-45.7605
72.8749	-42.5015		1.90479
71.5814	-46.5411		1.4643
74.121	-38.2481		2.12848
71.9177	-42.965		6.27283
74.27	-14.0857		26.3199
75.6124	-5.96191		24.9171
72.9717	-21.9248		27.5898
75.8383	-16.1944		17.3897
61.8979	-0.261009		55.6445
60.7603	1.64193		56.9254
59.9133	-2.25396		58.0994
59.7569	3.37909		58.1283
58.2017	2.43516		59.6784
71.0078	-42.8808		12.5248
70.2473	-42.5715		19.2608
69.7245	-47.6164		11.9971
72.3594	-37.7804		12.4718
28.8268	-16.7473		81.8596
32.5047	-19.0996		80.2467
28.8446	-11.8427		79.9337
26.1989	-14.1074		83.3168
38.3689	-22.2852		78.1806
45.2349	-25.2296		75.4286
38.6061	-27.4704		79.3413
23.2854	-11.512		85.5508
20.3893	-8.49649		88.1632
22.7804	-15.2516		87.9472
24.3538	-22.4241		87.5164
23.3309	-20.2632		88.6573
18.9381	-24.6552		97.1189
17.4341	-23.7758		99.3401
18.352	-26.2945		96.6855
19.8373	-25.2531		95.4329
20.4209	-25.8539		93.9051
19.4651	-27.8635		93.7118
38.7082	-43.0582		79.9768
33.541	-41.1088		82.668
38.0922	-47.8171		79.5408
38.8895	-38.3004		80.233
38.5773	-32.7295		80.0377
3.65861	-34.889		99.1747
3.84588	-37.0578		98.8691
5.35504	-35.494		98.4563
54.3237	-61.426		56.4012
56.634	-56.7049		57.1968
50.6514	-59.5942		63.5352
51.4287	-66.3362		55.6938
25.1045	-46.4663		86.5586
23.0912	-45.5601		87.9509
27.2871	-47.5079		85.1977
37.1424	-52.3659		78.6558
35.8227	-56.6996		77.644
41.8432	-54.7198		74.856
32.9453	-50.3185		81.5546
4.22674	-39.3984		98.6877
47.8768	-71.496		55.0721
50.5036	-73.4454		47.7801
45.0171	-68.4153		62.5006
43.3051	-75.924		56.2327
61.4688	-42.0438		58.94
60.1776	-47.0997		58.5415
64.5022	-42.9526		51.5592
13.664	-94.6766		71.8067
15.0631	-91.9713		73.9264
7.94074	-95.6421		77.3831
27.6776	-85.2545		65.0284
32.8116	-82.7683		61.595
27.8566	-80.8615		69.0915
22.193	-87.0841		69.8938
61.9576	-19.369		59.6383
60.6628	-13.7324		59.9329
56.9125	-18.2619		65.1871
55.6405	1.34869		62.3666
56.201	-1.0846		61.9833
59.5163	-9.67065		60.2012
54.7461	-9.46049		64.8557
58.0883	-6.3547		60.9664
54.5238	5.28833		63.4359
-12.742	-87.402		95.9483
-15.3889	-87.0749		96.0868
41.7814	-65.4412		68.5259
38.8016	-68.8007		68.6353
44.2082	-61.566		69.0837
37.9185	-62.6593		73.4193
27.4194	-76.6543		72.4439
31.42	-74.4386		70.6056
26.0737	-72.5215		75.5491
22.8553	-78.3233		75.4982
50.4252	-16.5061		69.7195
51.4572	-22.0469		70.6157
49.3315	-11.5606		69.1002
46.5634	-57.2574		69.6602
52.2033	-27.6164		71.0857
-2.4688	-79.991		94.357
-0.420134	-75.4435		93.6035
2.54389	-80.2349		91.6454
7.90978	-80.2915		88.0271
13.0032	-80.1163		83.8588
8.94355	-75.9177		88.1963
48.4407	-8.0876		68.7017
47.5661	-5.43699		68.6997
41.5318	-6.4628		71.4707
57.0808	-3.63673		61.4375
52.8873	-3.94812		65.272
46.9295	-3.10654		68.6876
40.1542	-1.58574		70.9445
17.4668	-5.64239		90.9942
17.1021	-9.74561		94.2914
18.0418	-1.2735		87.2277
16.2072	-17.6028		101.266
16.3962	-16.0203		99.9349
13.4122	-16.0526		104.83
16.2351	-18.8157		101.747
19.7888	8.79065		78.316
19.2317	6.38164		80.4475
28.8243	-7.01582		77.4923
9.61635	10.8929		88.2147
8.00278	11.5108		88.2877
68.2323	-8.63538		47.1501
18.6738	2.88677		83.499
53.4135	-74.0897		40.5305
56.9193	-72.9601		32.2787
68.6957	-30.8458		44.4994
67.8123	-37.3996		43.8962
70.3803	-29.6609		36.4932
64.0221	-53.4156		42.2672
65.492	-48.4267		42.8563
61.7027	-53.0409		50.133
65.6206	-53.401		34.4882
66.8082	-42.9939		43.2947
68.3109	-42.7555		35.0903
2.86566	-96.1548		81.847
1.29103	-71.4581		93.012
-2.68145	-71.0005		94.351
5.43292	-71.7504		91.0305
9.55896	-72.1242		88.4476
35.3834	8.37825		69.8719
35.5929	-4.14028		72.6852
35.1144	-1.63781		72.0892
34.7078	0.31326		71.6086
-6.38351	-70.4975		95.1955
-9.53662	-69.8098		95.5478
16.2315	23.0442		79.2604
17.7057	21.9745		78.4149
17.6585	25.5397		78.8806
14.448	23.7189		79.9677
15.462	20.324		79.7426
27.3088	12.1944		68.9368
27.3	13.4056		69.0214
25.3612	12.6616		70.5423
18.9322	20.5927		77.43
20.421	23.025		77.0387
12.6561	24.4662		80.3913
10.5898	24.9314		80.5941
5.28541	-27.54		104.287
6.25131	-26.5109		105.33
9.81356	-17.883		109.387
10.1849	-16.3818		108.796
13.0888	-18.7444		106.014
17.6132	-31.8107		92.229
17.5361	-30.7246		93.202
14.844	-32.783		93.7362
10.2429	-14.7377		108.001
15.548	17.1181		80.1433
19.6421	28.3568		78.9049
21.1693	27.1216		78.0625
27.9979	14.8823		69.1847
22.4037	25.7109		77.0687
23.2072	24.2235		76.0268
23.8681	22.7478		75.0518
18.9735	-38.3803		90.3348
15.9033	-38.2049		92.3873
20.0264	-41.3351		89.9151
20.8585	-44.7001		89.3865
18.0149	-43.5851		91.3895
20.6152	-58.0667		79.4915
20.6227	-57.0356		79.2294
18.5877	-57.5914		81.1405
21.25	-56.8366		83.0436
19.17	-55.5838		86.2507
20.6435	-54.1895		79.0241
17.3469	-53.417		81.6836
20.4196	-50.9159		79.2723
13.1307	-37.9892		94.2295
10.4089	-37.4188		95.8978
13.8154	-40.3392		94.0376
14.8629	-42.839		93.5029
15.5787	-45.322		93.0906
15.7893	-56.6904		83.404
14.5968	-55.2659		84.0547
14.2889	-52.6301		83.9578
14.8234	-49.1835		83.5082
7.73389	-36.4617		97.3732
7.5475	-34.4916		97.5347
9.88251	-45.8721		96.5883
13.1493	-46.7005		94.6918
21.9101	-17.8616		90.4647
19.445	-15.6772		93.8737
5.72213	-7.0838		106.002
3.62296	-6.43553		106.208
16.6191	-13.2867		97.5721
7.45603	-24.7365		106.902
10.3389	-25.2477		104.244
13.2177	-26.1543		101.298
14.4038	-24.4142		101.909
15.7848	-27.1565		98.4032
17.2433	-27.9832		96.372
17.7756	-28.8706		94.9631
17.7416	-29.7729		93.9674
15.9799	-19.8899		102.252
15.6067	-21.1493		102.536
15.138	-22.7387		102.361
11.6161	-147.661		17.6142
7.01475	-148.071		21.1224
11.5935	-153.884		16.6846
15.8254	-147.031		14.0558
11.7682	-139.166		18.9259
12.4748	-127.414		20.6201
16.6324	-126.879		16.5159
13.6889	-117.145		22.0316
8.08914	-127.805		24.7678
19.673	-101.67		27.4946
23.8267	-100.623		22.6374
15.3584	-102.661		32.4079
17.6418	-105.453		24.4166
15.5938	-110.226		22.9442
11.2839	-110.775		27.9176
19.5467	-109.534		18.5121
35.4788	-71.9107		69.0842
37.2679	-75.6984		64.0979
32.8728	-68.2427		73.3705
38.5151	-79.6732		58.0921
38.151	-83.411		53.1766
37.0938	-86.5916		48.9897
30.6	-65.5089		75.8634
32.6243	-63.1208		76.0733
28.5525	-63.303		77.371
27.8225	-67.4417		76.3602
27.208	-61.9081		78.0919
25.6718	-63.2439		78.1238
27.8075	-99.4843		18.0549
30.8895	-96.1966		20.792
25.5473	-103.525		15.574
31.8901	-98.5622		12.5533
35.0567	-93.0811		23.9642
38.1259	-92.1223		17.7328
39.4751	-90.1786		27.0312
43.0837	-87.5097		30.4274
45.7221	-86.5026		23.5852
20.6264	-126.155		12.3596
19.8321	-137.838		11.3353
24.4423	-125.77		8.06672
21.8569	-115.966		13.162
19.6393	-146.384		10.3924
19.8109	-152.833		9.46081
23.2258	-145.722		6.4413
23.5249	-108.715		14.0883
69.4162	-42.4261		26.8456
68.1499	-47.9203		26.5468
70.6439	-36.285		27.2596
47.5367	-85.6112		16.6666
44.2993	-88.242		13.9135
48.9291	-84.611		9.59633
76.8789	2.70412		24.3172
79.213	-0.481381		13.4589
58.9454	-72.0513		24.2051
60.033	-71.0583		16.0695
66.7442	-53.1596		26.4272
67.5514	-52.7936		18.6741
71.8201	-29.1301		27.9758
72.8692	-30.525		19.6702
68.2884	-52.3251		11.6226
69.2336	-51.4366		5.19833
41.0958	-97.7989		-4.06588
39.3941	-102.434		-5.04925
43.1085	-97.9448		-9.001
42.9472	-93.7762		-2.76798
38.63	-97.7661		1.06897
37.7938	-107.722		-5.50535
45.1251	-90.107		-0.836296
43.2082	-90.5229		4.83973
46.7657	-89.875		-6.55129
47.4834	-86.8155		0.971976
77.2607	-17.9903		8.7504
79.1458	-10.5		5.98537
75.3288	-25.5606		11.229
81.1158	-2.63166		2.76475
82.909	4.8205		-0.0799792
84.6569	12.3641		-3.59527
85.5414	10.7073		-14.238
86.3414	19.8207		-7.59854
60.7663	-69.7612		7.94829
61.1464	-68.868		0.132452
73.7528	-31.97		12.397
74.5965	-33.2294		6.21063
28.2359	-125.343		3.40235
27.1143	-136.691		2.77572
40.9784	-91.2229		11.2502
37.9751	-94.4292		8.70101
26.6539	-144.937		2.03174
26.679	-151.092		1.00568
38.0239	-123.734		-14.9463
36.5155	-133.162		-15.8887
44.7269	-97.8926		-13.8773
46.0882	-96.5955		-19.0285
46.4569	-93.5763		-13.1587
48.4346	-89.368		-12.1493
35.5139	-140.255		-17.1101
34.7371	-145.876		-18.8264
61.1394	-68.6751		-6.86733
70.2083	-50.4534		0.794496
71.394	-49.042		-2.43314
68.8783	-54.0453		-0.514096
75.3423	-33.7289		2.13188
43.18	-104.1		-26.533
42.6986	-99.9896		-33.3779
45.2478	-98.0954		-25.7305
47.5747	-92.5317		-25.0733
48.3582	-86.4456		-31.2762
55.1437	-76.8613		-22.4553
66.6397	-59.9538		-15.6395
67.9573	-57.8295		-22.1972
32.7149	-129.659		-42.98
31.1995	-137.249		-44.0578
29.8628	-126.606		-49.8943
34.4486	-121.579		-41.8371
64.4007	-58.513		-29.5963
67.59	-55.3782		-28.1849
69.597	-54.0431		-27.6364
2.28233	-148.249		24.4183
2.59644	-139.841		26.2524
-2.47031	-148.335		27.3837
2.33942	-154.31		22.9906
6.24783	-111.07		33.5404
0.931828	-111.166		38.8912
4.42691	-117.577		31.7538
8.32122	-106.834		35.2322
16.0605	-98.5961		46.5791
12.9945	-100.611		42.3678
18.8608	-97.0665		50.2483
10.3597	-103.42		38.2666
4.987	-103.816		44.0682
3.37622	-127.792		29.0892
-1.51392	-128.154		33.0636
24.9564	-69.3221		77.3062
24.1822	-66.508		78.2859
21.0466	-95.7474		53.3298
23.7567	-64.6365		78.701
20.9698	-65.6435		80.3101
23.2422	-63.0653		79.0305
22.7768	-61.7062		79.2652
20.5698	-62.5785		80.7014
18.0711	-79.674		79.3172
17.5308	-84.0948		77.6462
16.5427	-88.5433		75.5828
16.3631	-58.5022		84.6715
12.9594	-57.3187		88.172
16.3766	-58.0848		83.4293
19.7584	-59.0144		80.6274
16.4224	-58.3483		82.8988
12.6436	-56.7539		86.6173
16.33	-58.7918		82.5165
16.0343	-59.956		81.96
12.5068	-57.52		85.3331
14.899	-62.4247		81.5933
13.0947	-65.2912		81.7339
11.4568	-60.7833		84.0711
-4.03111	-110.888		43.1914
-2.10441	-106.923		45.3261
-5.36879	-117.534		40.5518
-7.29508	-148.46		30.0478
-6.93332	-140.256		32.5052
-12.0131	-148.323		32.3177
-7.24466	-154.164		28.3015
-6.2061	-128.36		36.5484
-9.1177	-103.063		53.8916
-5.56033	-103.674		51.9324
-7.90376	-101.303		59.5566
-16.1271	-148.065		33.9736
-16.1678	-153.524		32.1429
-6.45506	-100.512		66.0728
9.36453	-55.5275		89.3253
9.16452	-55.7952		88.5132
8.94069	-56.3355		87.774
8.96441	-57.4065		86.8267
8.20679	-59.4959		86.0705
7.00902	-62.8553		85.4274
84.2342	31.5867		9.52187
86.4648	29.0114		-1.33949
85.794	38.6247		4.00254
81.3167	35.0483		19.9635
85.4424	9.02571		-24.0538
69.1106	-36.5553		-52.0249
65.7449	-37.9788		-56.6556
31.4062	-105.281		-53.3388
34.3029	-95.4855		-52.6942
33.8765	-108.698		-47.9326
29.0266	-115.225		-54.0741
28.6266	-102.611		-58.1345
27.2054	-123.994		-55.0321
25.7515	-132.401		-55.9041
24.2475	-121.869		-59.6044
41.5152	-94.4034		-40.702
38.689	-103.558		-40.8183
39.6384	-89.7711		-47.0449
44.8074	-86.4447		-39.7393
49.0094	104.138		15.981
54.9434	100.066		15.5696
49.1859	108.207		0.952815
42.5866	107.469		16.4568
41.6665	90.8733		-82.6893
44.8179	99.6664		-67.3305
48.247	87.5348		-81.0134
38.0646	80.0782		-95.2677
34.6487	93.7119		-83.8675
34.7208	68.3068		-104.225
41.1595	65.3777		-102.451
31.4024	55.3395		-110.822
28.0184	70.4196		-105.575
46.9301	105.86		-50.6408
53.4781	102.044		-49.2245
39.9643	109.101		-51.4711
48.3163	109.319		-33.0942
35.0793	116.258		-15.8917
27.4657	118.26		-15.731
35.4557	114.44		1.20032
42.2762	113.525		-15.8521
34.1321	115.4		-33.8157
28.2615	42.6335		-115.18
34.3278	40.0663		-113.364
25.0711	29.5333		-117.896
22.0203	44.658		-116.4
21.6447	15.9338		-119.131
27.6953	13.7677		-117.176
18.3343	2.56225		-118.762
15.6382	18.088		-120.417
9.01237	-34.1225		-106.471
14.6182	-35.9638		-104.541
6.72618	-45.178		-98.882
3.56982	-32.9222		-107.403
12.0652	-22.2495		-112.716
3.24491	-6.49839		-118.966
-2.95349	-5.13566		-119.05
6.05748	6.18746		-120.874
9.25792	-8.15358		-118.182
0.502429	-18.8111		-114.948
-3.79334	-89.6564		-80.0945
-1.55114	-80.5041		-81.4044
1.23949	-91.4107		-78.9469
-5.94405	-98.7841		-79.3774
-8.66634	-88.2453		-80.6764
-17.3997	-105.142		-79.3446
-12.6848	-106.55		-79.2127
-19.2571	-114.531		-78.7709
-21.974	-103.984		-79.276
-15.3297	-95.7797		-80.0438
5.32568	-53.9682		-92.6675
10.427	-55.5482		-91.3143
3.51699	-61.749		-87.9341
-0.176412	-52.3932		-93.4606
0.996988	-70.6751		-84.0395
6.31621	-72.8204		-82.5094
-4.01768	-68.871		-84.8458
-9.11853	-67.5362		-85.1052
-7.17141	-58.6624		-89.0026
-11.4093	-77.6136		-82.3585
-14.3221	-66.6474		-84.9569
69.9099	84.6605		12.2729
74.2127	78.1886		10.9563
71.0328	87.6509		-1.16497
65.3231	90.3146		13.7184
58.7166	55.007		-93.0295
63.6055	51.0112		-88.9469
55.629	43.2433		-99.2726
53.3834	58.6438		-96.6741
61.7247	65.7657		-84.3917
64.5287	75.2714		-72.8918
59.5906	79.8162		-76.0057
67.2162	82.3979		-59.222
69.176	69.9993		-69.418
69.4137	86.8593		-44.8682
73.921	80.2852		-43.1725
64.6486	92.5088		-46.3771
71.1246	88.646		-30.3281
71.4781	89.1078		-15.624
66.6504	95.2154		-15.4044
75.8869	82.3206		-15.7757
52.3212	31.4353		-103.643
48.958	19.2335		-106.359
46.7788	34.3471		-107.361
57.3704	28.3213		-99.5295
45.3486	6.97726		-107.649
50.4714	4.642		-103.529
41.7787	-5.37475		-107.242
39.8832	9.09051		-111.247
38.0585	-17.1999		-105.308
34.3503	-29.2954		-101.335
32.8306	-15.9315		-108.698
42.8154	-18.7549		-101.352
31.3107	-41.1131		-95.1356
36.17	-41.677		-91.5751
28.8536	-51.3583		-88.5072
26.0493	-39.5761		-98.7906
26.6234	-60.2276		-82.6261
24.2339	-69.0793		-77.4949
21.3995	-59.1118		-86.0689
31.2919	-61.199		-78.6121
16.4452	-96.0396		-71.5878
13.4323	-105.543		-72.0668
11.4555	-94.7282		-74.7514
19.374	-86.9236		-71.9008
20.9	-97.7616		-67.7899
1.62427	-110.941		-76.8237
-0.0334716	-119.576		-76.6749
-3.21621	-109.296		-78.0701
3.79992	-102.184		-76.9703
6.5201	-112.784		-74.9228
21.8191	-78.0626		-73.8244
26.5398	-79.1856		-69.5536
16.9819	-76.5809		-77.3341
80.0781	51.7439		-56.2249
82.4382	55.7101		-45.0797
82.855	44.5879		-50.4247
77.5907	45.607		-66.3029
76.8688	58.2077		-61.4015
84.1137	58.0891		-33.9727
86.419	49.9644		-28.7913
81.2588	65.8852		-38.0965
85.1422	59.3147		-22.9601
84.8851	60.5779		-12.2906
86.2878	53.0349		-7.4623
82.6415	67.9327		-14.6218
61.7911	25.3198		-95.1747
64.9485	36.2336		-90.7309
65.716	22.0255		-90.496
58.542	13.8484		-97.9007
67.8087	47.0182		-84.6036
70.5429	56.4591		-76.3916
71.6182	42.4908		-79.7914
47.5642	-20.219		-96.6491
51.6288	-9.00854		-98.4678
52.1207	-21.7455		-91.3655
43.6158	-31.4213		-93.1077
55.1025	2.23356		-99.0177
59.4471	0.166852		-94.1335
40.5944	-41.917		-87.7099
44.8851	-42.5257		-82.8681
38.1879	-52.2867		-80.7014
35.6485	-61.2459		-74.6211
39.7854	-60.2766		-70.8801
31.246	-80.5481		-64.1665
34.9249	-83.5398		-57.8496
28.2145	-90.0474		-62.9211
82.8903	15.8919		-51.1967
80.5847	10.0182		-58.356
81.7768	21.3523		-56.8834
77.8647	71.2918		10.3006
79.0261	74.2465		-2.58755
87.3927	27.1398		-12.1145
88.0598	34.5287		-17.3962
63.0497	-24.0737		-76.1855
59.7161	-23.7118		-81.1213
66.2835	-15.2893		-77.9539
66.0942	-24.7937		-70.8162
59.4533	-33.1244		-73.0327
68.9428	-6.24147		-78.9411
66.1412	-4.11696		-84.2573
71.6542	2.42179		-77.815
71.5662	-8.61907		-73.0082
74.468	11.2757		-74.8367
71.9542	15.0486		-80.4133
77.3262	19.4209		-69.7426
76.593	7.22048		-68.9704
49.6766	-55.8638		-60.9083
46.4038	-57.6386		-64.1856
52.6446	-48.9316		-65.0405
52.9577	-54.1551		-57.3785
46.8602	-62.977		-56.9154
62.4905	-39.1781		-61.0742
59.3939	-45.7629		-57.5592
59.3435	-40.3515		-64.9994
65.6805	-32.422		-63.7111
37.6245	-86.4946		-52.3434
40.9472	-78.0108		-52.7843
70.7753	-53.2411		-7.8367
72.0767	-49.78		-5.92817
68.7595	-55.7872		-5.5353
72.3935	-48.0211		-4.52597
80.1478	-23.621		-6.48619
81.7918	-18.7299		-8.72964
92.6105	-17.0325		-42.2833
93.9812	-11.2903		-40.052
93.1718	-17.5231		-41.5923
76.0785	-53.1348		-27.6863
74.56	-55.5314		-24.2757
94.6568	-6.47415		-36.6509
93.7598	-5.98294		-37.1155
94.7846	-3.10624		-32.6052
95.4053	-7.29088		-36.1092
88.3442	-9.17947		-15.7864
87.0453	-8.94221		-16.3953
94.4733	-1.49455		-28.368
95.2635	-2.36144		-27.6522
83.6142	-38.3084		-38.3163
77.699	-53.9333		-20.4612
77.267	-53.6		-17.8495
75.6429	-55.6548		-20.842
82.625	-16.355		-10.5064
91.1053	-2.31711		-23.7594
88.7813	-4.82538		-20.9868
89.8465	-2.99697		-25.2583
85.7863	-8.45145		-17.779
84.9731	-7.90582		-19.33
93.0723	-5.99856		-37.3031
84.1459	-8.06242		-20.732
85.622	-6.48848		-23.4461
87.3393	-5.083		-27.0938
84.8229	-6.7825		-28.0569
81.6593	-46.1986		-31.0271
81.7869	-47.5474		-23.5101
73.8874	-56.5109		-21.241
76.8214	-52.5252		-15.6389
78.4952	-49.9227		-15.7021
79.7969	-47.8243		-16.6363
80.5108	-46.4327		-17.5759
93.3163	-17.8345		-41.184
94.9137	-12.3583		-39.0402
93.6057	-4.38712		-20.1616
93.676	-5.04658		-19.8726
94.9723	-3.13858		-23.2822
93.5429	-5.63243		-19.7201
94.9744	-4.31293		-22.7929
93.1656	-6.65285		-19.8547
95.6787	-7.88894		-35.7517
95.8766	-4.79053		-31.7117
95.6956	-8.3942		-35.6084
95.6889	-3.16127		-27.1844
95.7937	-3.78947		-27.0632
95.6981	-4.34767		-26.7825
95.8262	-5.82034		-31.3265
95.5954	-8.73516		-35.2814
91.9958	-21.9161		-40.0357
92.6396	-7.89536		-20.3544
88.8663	-14.3746		-17.6764
94.1364	-8.87925		-28.8038
91.1066	-24.7166		-34.8857
91.5273	-22.8686		-34.6301
91.8382	-20.9996		-34.0891
91.9643	-19.4583		-33.2211
91.9094	-18.1475		-32.0006
91.2939	-17.0454		-29.4752
79.2765	-42.453		-15.3751
80.0886	-44.3301		-17.0178
85.8667	-20.4052		-14.5356
79.6619	-34.2843		-13.5666
80.7252	-45.7565		-18.0809
45.5498	22.4363		71.3022
57.0404	84.8868		38.6907
59.0388	90.475		27.7165
33.9549	97.3209		42.3586
34.9092	104.305		30.5452
26.3329	99.325		42.7257
60.2853	95.578		14.6786
61.0185	99.1637		0.308036
35.3927	110.223		16.8428
27.7374	112.283		17.0458
48.9309	110.097		-15.6633
55.3207	105.838		-15.4508
61.1386	100.943		-15.4603
60.6937	100.414		-31.5531
77.8151	39.3711		29.3334
86.4293	45.6422		-1.88766
87.7402	43.6231		-12.4745
79.503	75.4632		-15.7882
79.2746	74.7978		-28.4885
32.5925	111.746		-51.7586
30.4306	105.28		-68.8206
24.9861	113.711		-51.6232
59.2269	97.7749		-47.6048
57.0794	92.1669		-63.8208
87.5824	42.1045		-23.1058
86.6686	40.3311		-33.8061
77.7158	73.5256		-41.1165
75.6817	70.1413		-53.4934
84.7962	37.5599		-44.3595
82.5894	33.1775		-54.3051
80.0706	27.1923		-62.7819
77.8024	32.5168		-68.7421
25.0691	-100.297		-63.0949
22.2626	-110.02		-63.9403
20.3425	-119.235		-64.5324
18.6879	-127.754		-65.3379
15.8014	-116.603		-68.976
27.5376	96.1244		-84.2642
24.2786	84.638		-97.1344
20.2731	97.8239		-84.3632
21.2234	72.2363		-106.227
18.2216	59.2489		-112.669
14.226	73.8072		-106.258
15.3764	46.4582		-117.017
12.421	33.5974		-119.754
8.33468	48.1164		-117.014
9.2263	20.0508		-121.097
2.57284	21.4642		-121.154
15.1888	-10.0249		-116.723
21.081	-12.1353		-114.596
-2.21839	-31.5386		-107.963
-4.27249	-43.0683		-99.6255
-7.83514	-30.4849		-107.88
-5.74095	-51.3521		-93.5121
-11.3053	-50.4055		-93.2573
-13.3694	-86.7986		-80.9103
-18.1389	-85.6012		-80.8652
47.3786	62.1696		-99.9255
50.7378	73.6737		-90.9995
44.0389	49.7557		-106.325
54.0144	83.8798		-78.9322
40.6379	37.3388		-110.685
37.2936	24.5594		-113.351
33.8442	11.5404		-114.519
30.4485	-1.65458		-114.022
27.0502	-14.1559		-111.869
23.6522	-26.1936		-107.89
20.3775	-37.7915		-102.001
17.671	-48.3681		-95.1913
15.9174	-57.377		-89.0929
14.1611	-65.9027		-84.0225
11.6896	-74.7266		-80.3346
9.07219	-84.0248		-78.0586
6.49505	-93.0552		-77.159
11.3515	-114.572		-72.3057
9.74222	-123.258		-72.5394
73.1629	64.564		-65.6414
74.9996	37.9831		-74.3193
72.1064	28.4814		-80.9033
69.0526	18.8523		-85.6539
65.9984	8.49328		-88.4552
62.9935	-1.84796		-89.3636
59.8557	-12.4496		-88.3663
56.0284	-22.9938		-86.2182
52.1933	-33.0085		-82.8744
48.7495	-42.2293		-78.5255
52.3853	-42.1313		-73.71
45.7752	-51.263		-72.8699
43.1752	-59.0008		-67.6212
44.1456	-70.4944		-53.7618
46.7744	-69.346		-50.581
78.2089	3.87868		-63.5386
75.9272	-3.27707		-66.3838
79.6105	0.01206		-57.5481
68.6385	-25.173		-66.0119
71.3782	-17.8089		-67.187
55.8647	-41.3573		-69.3775
73.7034	-10.2961		-67.6335
56.3077	-52.2628		-53.9554
53.4469	-58.7894		-50.5143
-0.491418	-103.945		48.8342
50.2374	-83.6586		2.80134
35.5203	-97.9744		6.85326
11.0506	-50.6885		95.0899
14.0328	-52.2144		92.6227
16.6171	-54.2027		89.4754
3.20073	-56.2795		95.1835
3.29872	-57.1823		95.1865
3.29837	-58.2603		95.1282
17.3283	-66.1934		83.3166
17.2239	-64.5677		83.6465
17.0424	-63.1228		84.0587
16.2311	-48.3484		92.2159
34.4822	-60.2255		76.6596
29.8165	-39.7749		84.3215
29.8446	-44.3396		84.3038
29.6756	-48.6386		83.6313
58.6545	-51.9592		57.7698
30.3156	19.6186		70.8028
80.8686	-3.73231		-51.1686
84.1459	-4.91279		-32.2681
84.5308	-6.8733		-29.906
67.0565	-58.2392		-2.03845
35.1117	7.02767		70.2376
63.6287	31.5218		59.4933
7.82374	-32.9472		97.6997
57.0925	11.2502		62.9222
12.2787	-32.2029		95.6982
84.435	-7.00485		-28.8724
36.3375	-112.745		-41.3057
49.0151	-78.8038		-38.2999
49.2798	-72.351		-43.6068
50.2679	-66.7279		-47.4663
24.1195	-30.8018		86.6033
9.73709	-56.165		90.9533
21.4968	-59.3494		79.3821
2.98974	-52.8751		93.3079
-77.4823	-32.7054		14.0813
-77.2197	-27.8192		15.6324
-78.2388	-30.9841		7.2658
-77.482	-37.4247		12.5719
-76.5776	-34.1122		22.09
-76.0053	-103.343		-2.4621
-73.5268	-93.5624		-2.70576
-78.0967	-101.772		-6.96924
-79.097	-113.07		-2.87219
-73.3088	-104.815		1.93025
-81.6386	-120.072		-3.6105
-79.4384	-122.214		1.05593
-83.2169	-118.085		-8.31013
-83.6991	-125.528		-4.41973
-65.5738	-89.3178		7.02919
-69.2352	-87.6993		1.89904
-67.1405	-96.6161		6.58197
-61.8848	-91.3245		11.8902
-65.18	-83.6237		7.66194
-76.1491	-84.6693		-11.2955
-74.4506	-85.4872		-7.00214
-75.4603	-79.3309		-11.2601
-77.1346	-83.2584		-16.3307
-77.3742	-91.4537		-11.3247
-73.9867	-53.684		22.4908
-74.9131	-52.3742		15.4985
-72.4629	-58.2572		20.2995
-72.4386	-55.125		29.6863
-74.9782	-49.2875		24.6048
-58.7805	45.9505		25.8924
-63.3048	44.5712		14.31
-59.852	38.6205		29.2394
-53.3708	48.5575		36.4373
-58.0959	53.5542		21.0695
-65.8248	55.0124		-27.2001
-68.2598	48.2132		-22.1461
-65.1621	57.1574		-16.677
-63.0706	61.3724		-32.5822
-66.4988	51.6355		-36.7336
-25.2538	-107.199		48.6137
-24.5784	-102.823		50.9947
-28.2102	-106.197		47.3886
-27.2808	-114.096		46.2952
-22.807	-107.801		49.3519
-31.0173	-125.264		41.7441
-34.6248	-136.381		37.3487
-28.0065	-126.03		42.8071
-34.1813	-123.747		40.2913
-30.0782	-145.879		36.1112
-31.5919	-150.928		34.5208
-28.087	-138.284		38.7516
-33.5016	-144.882		35.6824
-75.5053	-40.9354		-29.5845
-74.9753	-33.4344		-33.7443
-74.1094	-47.43		-31.8191
-76.0558	-47.1214		-24.4615
-76.827	-34.4368		-27.3814
-74.843	-28.0064		-36.7526
-76.8836	-22.7929		-33.6371
-74.8364	-23.2586		-39.1726
-72.5218	-34.4596		-40.0428
-83.6446	-111.486		-24.69
-84.404	-114.263		-18.2205
-81.9933	-109.182		-31.4941
-85.1411	-117.893		-26.492
-25.2247	-126.889		43.3019
-22.2906	-115.553		47.7393
-75.321	-35.7837		30.0777
-75.4983	-40.9694		28.5592
-73.5823	-37.0023		37.6703
-74.9644	-30.246		30.9247
-75.6536	-50.8128		8.31778
-76.5723	-46.3323		9.72177
-76.1423	-50.1436		0.813782
-74.4904	-55.1884		6.67742
-24.8785	-84.2393		93.6672
-23.8296	-80.103		94.7448
-28.7102	-82.9821		91.4449
-25.8347	-88.1046		91.5256
-21.2083	-85.5121		95.0947
-32.5201	-81.2021		88.598
-31.7486	-76.8346		89.6388
-36.5841	-79.0922		84.6875
-33.0588	-85.6319		86.5641
-15.9814	-77.7763		96.8727
-17.0366	-82.1209		96.8837
-14.5309	-73.2242		96.2386
-19.2325	-76.839		96.1759
-26.468	-90.9919		88.6665
-22.942	-92.0211		90.0301
-29.9829	-89.9891		86.5632
-26.9811	-93.208		84.5656
-27.3994	-94.5044		79.4547
-27.3373	-95.1344		73.641
-23.6048	-95.8198		80.2597
-10.4248	3.87656		82.5114
-7.21314	5.59121		83.6026
-9.11907	7.62263		79.5168
-13.506	2.97078		81.2363
-11.6067	0.0265322		85.5919
-48.8678	-16.8384		78.0885
-50.824	-21.4819		77.563
-42.7035	-16.6657		81.5659
-47.0604	-12.1923		78.0262
-54.805	-16.6121		73.2133
-56.8635	-6.21009		67.2076
-58.801	-11.2667		67.0696
-51.2507	-6.95447		73.0751
-54.5608	-0.918176		66.9929
-61.7513	-4.98381		59.6542
-61.0458	15.6391		45.5574
-58.5027	16.8314		49.5286
-58.6105	23.4779		44.2838
-63.1661	15.1567		40.6904
-52.3668	-26.266		76.4676
-46.3923	-26.0764		80.9424
-58.1167	-26.4666		70.6091
-53.3792	-31.3359		75.5241
4.12692	2.51091		97.638
2.24855	2.33205		97.238
2.73992	-2.09584		102.152
5.39497	7.40065		92.5541
-6.01157	74.8338		66.1415
-6.59086	80.4614		61.7767
-11.5957	74.3115		63.9787
-5.53981	68.4051		70.805
-1.07889	74.7555		67.6846
-19.7204	-98.2443		68.4563
-20.0655	-97.5956		74.8283
-22.8942	-97.2989		68.0434
-19.2764	-99.1363		62.1755
-71.2061	-37.7352		45.2126
-70.8742	-31.8001		46.6387
-70.9849	-43.9277		44.126
-67.9471	-38.0953		53.1975
-19.6413	-93.0648		90.6577
-20.1224	-95.4238		86.0595
-18.9455	-90.2369		93.6846
-20.2045	-96.8404		80.6577
-50.4969	-76.3494		62.5195
-50.4557	-73.2718		65.8483
-54.8742	-72.3487		57.4724
-49.8216	-78.941		59.8359
-46.1384	-79.7162		68.5779
-54.1169	-80.5194		37.9643
-49.8967	-83.3823		43.7133
-56.6218	-76.6223		41.729
-58.0515	-77.5728		32.2059
-51.8802	-84.6264		34.0103
-19.1354	-100.887		56.0519
-19.5031	-103.937		51.96
-21.6847	-100.364		55.5495
-3.08054	-6.61088		104.121
-0.595329	-6.343		105.5
-1.60731	-2.55625		100.413
-6.06632	-7.33936		101.91
-4.21708	-9.73376		106.837
-24.2536	-15.6918		86.853
-19.9952	-13.5046		88.2817
-21.3793	-11.062		86.5229
-29.1428	-16.7065		85.6554
-38.0607	-48.2594		81.7005
-36.1374	-48.8169		81.8639
-36.5687	-47.7334		81.8996
-12.8411	-25.4433		97.6371
-14.6088	-24.9162		96.1473
-12.4149	-26.5009		97.203
-13.9935	-23.8188		97.7805
-13.2416	-29.4212		95.6714
-11.3518	-29.6291		96.8957
-12.8898	-28.5289		95.9148
-15.6263	-28.6244		94.0713
-14.0567	-30.6749		95.4215
-2.46874	-28.3912		103.605
-4.20741	-27.9185		102.876
-2.84543	-29.4381		102.295
-2.22976	-27.42		105.074
-18.1337	-26.917		92.3617
-19.0471	-28.2772		92.1489
-17.462	-26.0411		92.7875
-20.1227	-24.5532		90.8182
-6.19882	-18.2527		109.647
-6.00355	-16.5658		109.979
-9.04167	-17.7821		106.692
-6.39697	-20.1687		108.72
-3.70826	-18.8948		111.49
-35.1189	-61.1857		84.9307
-36.8868	-64.4725		84.0891
-31.4757	-63.1814		87.9791
-33.2746	-58.4662		85.7121
-38.071	-58.786		82.4592
-34.5918	-42.663		85.5795
-37.0611	-42.9634		84.2744
-32.0258	-42.3811		87.2154
-32.5425	-38.9022		87.7225
-4.00606	-33.5207		100.096
-3.55986	-31.7122		100.701
-5.72977	-32.9622		99.7952
-4.29646	-35.6984		99.7269
-0.0992465	1.81209		96.2839
0.892909	6.17122		91.5989
-3.22574	0.650117		94.6604
-16.9432	-16.1774		93.8663
-17.1205	-15.3697		92.7101
-17.4628	-17.4387		93.1953
-16.3202	-16.028		95.6622
-15.9216	-15.0456		95.6077
-6.3113	-29.4591		100.261
-4.87565	-29.8032		100.949
-6.08793	-28.4744		100.86
-7.87763	-29.5172		99.2312
-6.57802	-30.9349		99.7145
-5.70863	-27.6429		101.863
-5.38726	-26.6333		103.325
-15.4412	-15.4918		97.4639
-16.1464	-17.0133		96.7651
-15.0066	-14.6324		97.5864
-17.9544	-19.9138		92.6926
-17.8884	-22.4417		92.7081
-17.0895	-19.3379		94.5728
-5.29186	-43.5445		99.7013
-4.85145	-40.8109		99.5005
-7.79733	-42.2026		99.5822
-5.87896	-45.3808		99.9266
-26.0122	-28.3345		89.2652
-23.4444	-24.8452		89.2448
-28.3779	-27.6324		88.3248
-28.4996	-31.6026		89.1804
-23.4928	-29.28		90.482
-17.8867	-61.8926		94.5087
-21.6897	-60.9188		93.3221
-19.192	-63.8752		94.1949
-13.961	-62.9426		95.235
-16.7557	-60.4546		94.9399
-30.4006	-45.5535		87.1582
-29.5573	-44.1898		88.5231
-33.7324	-46.0698		83.9613
-31.133	-46.0275		86.2402
-14.6296	-13.9985		97.3966
-13.0737	-13.3098		99.4618
-14.4877	-13.0363		96.0277
-25.1931	-59.9464		91.5463
-24.1525	-58.4012		92.0897
-28.4941	-58.4545		89.2268
-26.3428	-61.8248		91.0644
-10.6879	-63.9208		95.4021
-9.84647	-62.4129		95.6759
-11.4876	-65.9401		95.3219
-47.0528	41.2662		57.1642
-47.2797	42.7002		55.4649
-50.3251	35.9677		53.411
-46.5243	40.0228		58.7753
-18.4172	62.309		68.3706
-17.9578	67.6515		64.8151
-25.6125	60.6929		64.281
-19.4328	57.4985		71.3081
-12.4131	63.1599		71.6139
-33.3631	58.7473		59.1249
-33.1164	64.2183		54.889
-40.4932	56.1974		53.07
-33.8985	54.255		62.6977
-22.7349	49.8151		74.0762
-21.4011	52.3647		73.47
-24.2287	46.9889		74.3769
-17.7336	50.1077		77.1413
-47.929	44.3293		52.5123
-52.4255	38.4655		47.2518
-41.614	48.5415		59.4475
-47.7941	47.3686		49.5577
-11.0109	37.7344		77.2907
-7.7431	35.9521		77.387
-10.281	39.1993		77.8398
-14.2718	39.1095		77.131
-11.7692	36.1442		76.564
2.62453	15.3484		82.4782
2.25144	13.1533		84.3004
5.27902	16.3358		83.446
2.90443	17.0269		81.3246
-0.166115	13.8422		81.1797
-25.8205	0.765981		79.0151
-19.7063	1.10286		80.1875
-23.5644	4.35272		77.4863
-33.2504	1.30872		77.3357
-28.4131	-3.30499		80.7092
-50.9003	18.8649		57.9033
-49.4657	15.0489		61.622
-48.3829	20.1788		59.5669
-50.8221	23.5191		55.8866
-53.1447	17.7494		56.2435
1.74016	10.1273		87.3619
4.38109	11.0926		88.0771
-1.17566	8.64861		86.3557
-25.4817	44.7933		74.4554
-26.0739	42.8893		74.5014
-20.1323	45.1096		77.1066
-31.1286	44.998		71.6564
-36.2702	44.5368		68.5753
-41.5421	42.0293		64.6555
-36.2196	42.4977		69.3531
-46.2678	27.8038		59.7835
-47.8634	28.0844		58.1359
-46.5693	24.3026		59.7394
-44.6202	27.6624		61.3088
-45.3798	31.7813		61.0204
-33.9789	31.7712		70.3397
-31.8734	32.6202		71.746
-35.9482	30.4067		68.579
-29.5295	33.249		72.7993
-26.7974	33.4599		73.5027
-29.2727	34.0046		73.1605
-31.9073	33.4509		72.0586
-26.2875	34.2156		73.8707
-23.7653	33.1983		73.8184
-20.8582	32.2504		73.7831
-23.1775	33.8577		74.1192
-20.0904	32.7742		74.0069
-18.1646	30.7385		73.5043
-15.8025	28.7922		73.0707
-13.711	26.4242		72.3503
-12.1715	23.9921		71.5237
-12.3472	26.6586		72.4383
-14.5273	29.0375		73.1825
-10.8713	24.1061		71.6479
-11.3357	22.0319		70.8686
-10.9853	26.6972		72.6085
-13.2831	29.4461		73.4369
-22.5836	34.6118		74.4873
-19.2766	33.4187		74.3385
-40.7107	26.0177		64.3262
-39.9021	24.9341		65.0577
-17.6921	39.8703		76.8961
-18.5041	38.4095		76.2698
-17.1191	41.6164		77.4116
-21.9234	40.4026		76.1737
-35.7944	36.511		70.442
-35.2558	34.9897		70.7026
-32.3518	37.3057		72.5147
-35.9843	38.3787		70.2635
-31.353	15.6137		72.629
-24.4957	14.2276		74.1222
-36.7499	17.4685		69.9392
-32.1053	13.9619		72.7361
-18.7441	13.9459		73.9633
-19.2866	12.2795		74.4452
-14.616	14.1936		73.373
-10.0021	16.3812		72.25
-11.0896	15.5331		72.6255
-9.42227	17.0741		71.9711
-29.9271	18.6828		72.5382
-23.8491	17.3764		73.6812
-34.9628	20.59		70.1694
-13.1737	17.3825		71.5735
-12.2323	17.6752		71.1975
-15.0348	17.0635		72.239
-11.4802	17.9208		71.0336
-10.7931	18.3077		70.9545
-4.15332	23.5512		74.2589
-2.57464	25.2644		75.4577
-5.35567	26.257		74.3064
-6.04231	21.8705		72.8472
-8.75657	18.3677		71.7626
-16.0886	31.6106		73.9612
-7.16964	21.4507		72.1547
-8.00816	23.6418		72.2473
-6.97118	19.7316		72.3145
-29.5648	20.0504		72.4979
-23.5266	18.6542		73.5309
-13.2225	18.2924		70.9768
-14.8418	18.2727		71.6336
-12.3517	18.3116		70.7368
-11.8339	18.5269		70.5339
-37.4471	29.0291		66.8534
9.13403	31.373		80.0738
9.52107	35.1442		80.2025
6.56714	31.4851		79.7884
8.8386	28.0099		80.1685
-13.5099	8.06113		76.739
-16.9294	7.47791		76.4832
-14.7549	5.66826		78.2701
-10.9465	8.96552		77.0402
-12.668	9.96292		75.6455
-8.16801	10.0248		77.6983
-5.3797	11.2952		78.6719
-7.28751	14.9452		74.2614
-7.24326	16.5558		73.3227
-5.23612	15.0857		75.4914
-0.046123	21.1628		76.9421
0.92957	21.9628		77.583
-0.593698	23.6569		76.4481
-12.3744	14.7658		72.9738
-12.0866	13.3438		73.786
-12.117	11.6958		74.6617
-15.2593	10.9052		74.7771
-27.085	-48.8873		85.8526
-22.8503	-49.0814		88.6672
-30.8823	-48.302		83.1538
-26.9845	-48.8115		85.5827
-32.8147	-48.0776		82.0264
-32.4638	-48.0484		82.0153
-6.73461	-48.54		99.7381
-6.85561	-49.5249		99.3116
-6.48089	-47.4208		99.9828
-9.6095	-47.2947		99.5094
-12.5823	-48.2671		97.838
-15.5421	-47.3739		96.8717
-12.5755	-48.8645		97.1369
-9.9255	-49.0245		98.513
-12.3868	-47.4921		98.4699
-18.6839	-47.0404		95.2695
-22.0376	-47.345		92.9325
-18.7753	-47.88		94.3369
-18.5662	-46.1766		95.919
-12.0944	-46.4399		98.9998
-11.7949	-45.2827		99.3342
-14.9775	-45.6932		98.0133
-16.7188	-43.4886		97.4408
-17.7785	-44.2739		96.9198
-13.5187	-43.9921		98.8225
-15.9843	-42.5693		97.7014
-26.0145	-47.6971		89.3682
-25.5116	-46.8981		90.776
-12.1712	-49.4994		96.174
-15.5433	-48.8006		94.9233
-11.8186	-49.8551		95.248
-9.31838	-50.2416		96.9017
-19.1927	-48.6055		92.9646
-19.167	-49.0214		91.9312
-33.2841	-46.8065		83.6552
-34.9272	-47.7989		82.0715
-27.4797	-49.6808		86.4571
-27.5132	-49.8092		86.7751
-23.0379	-49.9032		89.6509
-27.4299	-49.6429		86.183
-28.0697	-50.6257		87.3685
-23.8028	-50.9389		90.948
-27.8482	-50.3304		87.2629
-20.3764	-51.5094		93.4798
-20.9094	-52.0612		93.485
-16.8325	-52.2371		95.2329
-20.1106	-51.0479		93.283
-12.0834	-51.5771		95.9817
-8.96388	-52.0538		96.4913
-11.9477	-51.1179		95.6525
-16.0196	-51.0414		94.7775
-12.3458	-52.1402		96.2277
-7.08367	-53.9916		97.0987
-6.82741	-53.1392		96.8804
-9.42383	-53.4661		96.9742
-7.34058	-54.9428		97.2191
-33.3793	-49.4109		81.3493
-33.118	-48.8814		81.9304
-31.3278	-49.7851		82.7942
-33.5434	-50.7382		80.7686
-6.66973	-52.6052		92.7237
-6.45583	-51.9725		94.0069
-6.95336	-53.627		91.6438
-9.01989	-52.259		92.5243
-7.61332	-56.0194		97.2339
-10.0303	-55.3907		97.1175
-7.94469	-57.0862		97.1377
-9.13725	-60.8793		96.0986
-8.63455	-59.3892		96.5775
-11.8341	-59.9835		96.0471
-11.3512	-44.5951		99.4578
-8.99301	-45.1391		99.8513
-10.3959	-43.5172		99.5365
-6.63043	-52.4602		96.5899
-6.45155	-52.0541		96.3045
-6.3668	-51.8669		96.0472
-6.40893	-51.7454		95.706
-8.77526	-51.4044		95.9451
-11.88	-50.8837		95.3452
-11.8383	-50.7817		95.0145
-15.5863	-50.375		94.1066
-6.46625	-51.7318		95.0348
-8.76266	-51.3207		94.8878
-19.3344	-50.0579		92.2758
-19.4832	-50.2031		92.5873
-19.2908	-49.9977		91.8443
-22.165	-54.5167		93.2755
-22.6933	-55.5375		92.9732
-18.7758	-55.6152		94.9669
-21.7353	-53.6207		93.4355
-14.4908	-56.5194		96.1745
-15.0632	-57.6318		95.8479
-10.7061	-57.3712		96.8485
-13.9927	-55.5754		96.3821
-8.26968	-58.1677		96.9222
-19.0494	-49.1599		91.1011
-18.9313	-49.0787		90.4326
-15.2698	-49.3619		92.9819
-33.0271	-48.6347		82.5589
-31.2258	-49.2424		83.9569
-12.0778	-51.806		92.015
-11.8176	-51.12		93.2362
-12.5103	-52.7678		91.0547
-15.648	-51.307		91.029
-11.7596	-50.8212		94.3122
-15.3898	-50.3533		93.0488
-15.7228	-59.0189		95.4201
-19.9076	-57.976		94.2495
-21.2688	-52.7801		93.5247
-17.8723	-53.8148		95.2591
-23.3499	-56.9209		92.5665
-26.4782	-55.5208		90.2971
