1823
0.0347958	-92.8901		-28.5118
4.01816	-92.9035		-31.2907
-10.4297	-86.603		-30.4778
-5.54462	-91.5771		-28.1378
-8.22192	-89.5947		-28.3922
44.645	-84.4339		-32.9583
38.1086	-83.7049		-28.9518
19.8791	-90.9758		-50.8147
34.1786	-88.0693		-55.6369
40.0264	-87.2949		-54.1403
43.7417	-84.9079		-33.6392
38.5448	-85.1434		-31.6473
44.879	-86.107		-47.4482
46.6343	-85.9561		-48.1439
24.7854	-89.9248		-48.1947
34.9377	-85.3656		-34.2808
40.3067	-85.2925		-39.2483
38.3434	-85.1254		-36.6455
33.0604	-87.1906		-43.8824
19.4353	-89.8183		-45.7964
6.13906	-90.7773		-27.2025
13.7356	-86.2148		-25.9033
10.2115	-87.6327		-26.1212
18.8316	-86.0056		-25.0107
18.1284	-85.7716		-26.8799
26.5216	-85.5042		-28.9114
28.5562	-85.3609		-26.8178
7.06514	-90.7892		-30.2236
-31.901	-65.0482		-65.0427
6.82886	-54.3348		80.7149
7.35265	-58.5307		76.9741
13.6347	-51.1886		80.2301
8.76336	-49.3014		85.1328
14.6058	-48.7823		84.5771
48.477	-62.5095		43.8094
54.8259	-61.4933		45.0846
39.178	-48.376		62.8203
74.5244	-51.8203		55.3961
68.9096	-59.8876		45.5733
9.54538	-41.3318		96.1699
7.62039	-39.1423		97.7515
6.5486	-42.2326		93.9068
12.8416	-40.0532		101.553
12.6653	-44.165		94.9466
20.9667	-44.5649		96.3018
19.1504	-46.6036		92.1468
22.231	-44.4434		94.5653
109.932	-44.0602		-20.2469
100.434	-52.7742		-14.6385
-21.795	-64.4251		73.9986
-18.4458	-63.3274		73.9813
-74.5395	-36.1072		85.7462
-74.3808	-27.3417		81.9688
-76.8769	-33.5167		76.509
1.46176	39.7365		58.171
-6.40736	43.593		50.8441
-5.88021	32.2603		65.3041
5.97546	32.7092		65.2064
58.6784	-0.178834		79.2983
60.9739	7.17501		80.0435
25.917	30.1983		68.1647
17.0031	22.3027		72.2485
43.2385	-6.62214		79.4626
47.1227	-5.0438		77.7602
43.44	-3.53744		76.2794
40.083	1.6004		71.7971
37.3703	0.00151539		73.0484
32.1488	2.06338		73.0134
29.541	0.925461		75.4442
34.8463	-1.93124		76.0285
-35.2445	-9.62632		88.5797
-35.2835	-9.71564		87.6504
-33.6216	-12.4174		90.0539
-34.2243	-9.3931		89.3922
-31.1943	-13.2007		93.0449
-32.4093	-8.51358		90.5571
-34.6939	-5.31541		89.2191
-35.663	-9.71569		87.7035
-39.8959	-21.2455		97.8244
-37.4234	-12.1223		90.4373
-19.6656	-20.3419		100.473
-24.9625	-15.1017		97.0878
-34.7888	-12.2915		89.9709
-34.7097	-12.1671		89.6484
-38.8253	54.0738		12.1932
-47.4211	52.825		6.92454
-48.0509	50.2236		7.80494
-36.0127	66.2299		-2.16273
-39.38	67.5584		-3.72094
-33.0759	69.811		-6.49028
-45.1197	56.8037		7.33963
-39.1471	56.5338		10.1643
-7.15201	70.0268		4.90615
-3.22685	83.0014		-4.5961
-0.914503	83.7684		-3.32101
-27.5822	63.2071		2.74904
-31.5948	61.9065		2.71794
-15.5285	71.2703		2.80151
-11.4993	74.0552		2.15428
-14.921	73.4111		-0.625469
-19.0928	71.4984		-2.21376
-28.8979	78.0649		-14.6373
-44.9193	58.6705		-10.9772
-48.6015	55.9384		-5.53703
-23.6342	80.3725		-13.8956
-21.418	82.2087		-16.8981
-35.8496	70.9648		-8.38659
-33.7189	57.0092		11.3658
-29.8419	57.0525		13.1405
-23.1055	60.6136		11.971
-23.3286	62.3424		9.86364
-28.7296	59.1852		11.1251
-37.8262	63.5979		2.29329
-20.2268	68.4367		1.49757
-11.9379	84.866		-15.2716
-13.267	83.8477		-14.1222
-18.942	82.135		-14.0588
-15.186	82.6162		-12.7398
-7.37659	79.5696		-3.92714
-9.68199	83.5352		-11.1465
-7.78712	84.9679		-12.0881
-12.0574	81.4903		-9.49952
-76.6123	-19.1857		68.9896
-55.3472	42.7531		8.92743
-54.3514	39.1259		19.6236
-50.8536	45.4028		10.9631
50.8969	-6.93557		79.1555
-30.8537	-20.7102		95.2279
-28.2614	-21.018		97.7301
-69.2866	29.8011		16.1746
-74.9203	31.7181		3.88984
-75.4628	26.2159		14.3033
-18.3321	55.8228		22.0695
-21.001	58.625		15.5624
-83.425	28.3435		2.1731
-74.1569	34.7892		-8.8826
-122.432	17.4028		2.69022
-117.913	19.8941		-11.4105
-36.1726	-12.5474		90.6131
-35.2169	-12.2995		90.2122
-35.595	-8.81001		88.5343
-36.3123	-8.27715		88.5862
-38.1164	-21.3026		98.3005
-36.368	-21.0309		97.9611
-72.8405	-15.0594		74.6589
-68.2352	25.9911		-57.6333
-71.9007	30.484		-41.2543
-64.3413	33.1151		-49.627
71.8576	65.0964		29.7475
79.898	54.19		42.8694
85.9879	61.0501		27.6932
-21.2909	83.0832		-20.4741
-20.8517	82.1882		-22.2312
-30.9615	77.2362		-16.1297
-31.3874	76.3779		-18.0666
-38.9293	69.9756		-12.7148
-37.6675	70.9338		-9.97354
-15.475	67.9072		7.26436
-33.5022	59.4078		9.03637
-30.2905	75.1705		-20.1768
-3.4956	71.0503		0.850746
-8.96322	66.1895		8.7061
-35.4585	68.1388		-18.2343
-49.0326	59.5452		-2.17621
-45.1317	63.582		-0.28017
-42.1977	67.0962		-5.35305
-44.8962	64.7065		-8.28124
-44.8088	61.1243		3.94402
-41.5888	64.1151		1.79118
-50.6347	51.5529		-1.60789
-48.7822	57.2718		3.15331
-50.0786	54.2486		1.67684
-38.3256	62.0073		4.90059
-40.7858	59.3325		7.33863
-2.58161	78.7276		1.97696
-7.44127	73.3738		4.51667
-10.0686	86.6552		-16.6881
-15.6268	84.8774		-18.4351
-3.67014	78.89		1.43278
-6.28269	77.6134		0.541033
-8.06254	75.6962		2.68945
-3.13183	86.6569		-10.9807
-4.64851	85.6242		-10.4989
-23.9061	78.7314		-12.1051
-8.72415	77.4662		-1.87146
-15.0116	79.1476		-8.26516
-28.2186	75.0154		-10.6109
-29.3924	61.795		5.21465
-33.159	61.1933		5.12121
-25.4921	64.0496		4.71267
-24.8104	63.8906		6.57033
-16.2932	69.0026		5.90425
-18.3293	68.8639		3.81661
-11.5444	75.0427		-0.0545006
-61.3142	37.2771		-43.0854
-6.58701	-6.60975		91.2107
1.26929	-5.46514		90.1926
-8.85448	-1.78517		89.4146
-1.65045	-11.5531		93.6046
3.78902	-8.75309		93.3788
20.0339	33.8943		64.7072
25.6782	35.5801		66.2082
21.8046	11.503		75.1216
37.5314	41.2079		68.0342
48.3643	33.5572		74.5166
6.27411	-26.754		103.028
4.29209	-22.6022		100.623
3.89876	-25.8988		100.829
8.35711	-24.4731		105.066
12.4757	-14.7333		103.248
13.4498	-13.3301		101.726
9.57745	-12.2016		100.186
75.1687	74.8045		5.86278
63.0513	74.6959		13.3603
-37.829	-9.95149		85.8704
-34.4201	-9.11893		85.727
5.40954	-18.5013		101.037
9.53567	-38.3971		100.364
0.97427	-22.3987		98.6491
-6.95259	-87.417		-35.6928
-3.07974	-85.5758		-41.4641
-8.76088	-87.2366		11.4511
-18.5935	-88.1512		11.2527
-7.40398	-86.6899		-3.44378
-73.506	-92.5028		-13.0521
-75.0843	-90.1126		-3.55455
-107.522	-103.206		-4.398
-104.533	-104.022		-14.8351
-92.0808	-99.3127		-13.21
-94.8375	-97.6261		-3.31026
-62.3012	-86.4569		-3.06603
-64.7052	-83.0975		8.08129
-78.0071	-85.9082		7.10182
-72.5425	-92.4963		-22.7225
-60.3985	-89.0881		-22.9916
-61.4892	-88.8089		-12.968
-27.4427	-88.1652		10.1785
-29.008	-87.8399		27.2042
-37.3539	-87.099		23.2479
-36.1632	-87.1817		7.79263
70.2337	-67.8393		-12.9242
75.8889	-63.2496		9.50975
61.6873	-66.7318		20.6391
55.7126	-72.0243		-3.81744
58.7291	-66.6857		-53.7366
68.9887	-58.4432		-64.8808
78.2215	-61.0778		-45.5166
65.6566	-68.3309		-34.9265
-82.1423	-50.3834		52.6168
-93.6379	-53.8561		49.0307
-91.8522	-59.2152		45.1954
-80.7458	-56.4046		49.4803
-115.959	-61.2754		42.9343
-113.349	-67.8155		38.8439
-128.552	-65.8435		40.0885
-117.828	-55.2541		45.119
-130.771	-58.5794		42.6523
-13.5528	-79.9255		-43.7328
-24.8345	-82.9664		-33.4684
-26.6467	-76.8403		-46.95
-16.0753	-73.8483		-54.6169
-4.9099	-78.5758		-49.8908
-102.276	-102.067		-25.9219
-100.773	-96.4236		-38.4181
-95.0083	-49.0393		50.9069
-8.19383	-86.5764		27.4372
-19.2629	-87.6553		28.2425
-26.866	-86.8598		-6.353
-54.8832	-54.5673		94.5145
-62.8922	-55.7624		91.5861
-60.9708	-62.2435		86.4801
-52.2991	-61.1161		89.5854
-56.193	-68.6024		78.7815
-47.8696	-67.6671		81.4591
-47.0526	-53.5029		94.9959
-49.0813	-47.8539		97.1733
-57.3771	-48.656		96.502
-69.0485	-56.2605		84.501
-72.2473	-55.3882		74.1192
33.348	-36.3866		81.9259
28.4558	-42.8134		77.0191
36.1309	-37.7091		71.7915
39.5949	-32.5175		75.044
3.38165	-76.6313		56.0861
13.2769	-73.8992		55.0032
14.286	-63.8912		67.919
5.2337	-68.2303		68.5475
13.3169	-79.7704		40.4907
23.7822	-69.2708		54.4853
44.4108	-73.0509		19.5714
45.6943	-70.6211		28.0254
-3.664	-71.539		68.5477
-5.84736	-78.6989		56.0948
41.7943	-24.0405		90.6842
42.2461	-20.4805		91.6231
34.1382	-25.4443		101.231
34.0876	-29.1554		99.7787
105.423	-22.6		49.4971
95.1518	-26.6304		58.3648
94.8522	-35.1882		51.8616
104.374	-32.2714		42.6989
-77.3073	-47.0979		64.0504
-75.8522	-52.3224		61.974
-74.326	-49.3901		76.1875
-7.41205	-83.8911		41.8707
-18.687	-84.749		42.975
-65.949	-49.8707		92.9696
-71.3907	-50.2273		86.0987
-49.5539	-74.6598		66.63
-49.2048	-79.5608		49.3299
-42.0005	-79.7418		55.3325
-64.391	-74.5007		35.7793
-58.5173	-80.0554		23.9082
-48.2709	-83.0549		31.195
-55.5427	-77.7952		43.305
-83.1562	-45.5022		54.0502
28.0658	-33.3846		107.408
26.9209	-38.3235		101.796
31.8251	-34.4544		95.4611
16.963	-53.9541		75.2659
20.5646	-47.5982		80.4446
-20.6365	-67.5834		75.4103
10.8858	-45.9588		91.5133
8.10771	-45.6073		90.5476
3.74156	-43.4655		93.5993
3.65198	-47.6309		89.1116
5.6685	-46.2544		89.5076
9.17118	-36.3997		103.673
8.41341	-33.6576		105.68
5.82877	-33.6911		102.71
6.96695	-36.54		101.049
5.28416	-51.0582		84.7244
21.355	-36.8625		111.55
17.4293	-37.4718		110.444
18.246	-41.1761		103.852
22.0436	-40.8776		104.64
-34.1501	-70.4471		75.45
-28.2112	-67.6679		77.944
-33.8977	-64.1173		85.1546
-39.9019	-65.9262		83.0806
-9.06924	-65.022		79.1931
-7.87813	-61.277		83.1277
-1.2889	-35.216		100.504
0.0711079	-38.8663		99.0989
4.37568	-37.0665		99.7121
3.23453	-34.0903		101.201
38.3829	-29.9429		87.576
19.5046	-46.7702		87.9137
19.6889	-46.7197		90.1254
16.7625	-47.7101		88.7095
4.53806	-39.4901		97.4726
11.9114	-47.7523		88.3529
-12.0293	-38.6386		102.462
-9.0698	-44.186		100.107
-4.76867	-41.6295		99.3248
-7.09998	-36.9581		101.129
-0.691538	-56.2599		84.3506
-1.01195	-60.2247		80.8037
-33.8368	-58.2603		93.1099
-36.5274	-51.6137		97.7712
-40.5773	-52.401		95.8952
-37.8287	-58.6531		91.6851
-14.926	-60.7978		84.8994
-17.296	-64.3403		78.0707
23.729	-43.1792		93.4371
-30.4606	-62.9947		86.919
-38.919	-45.8224		99.7107
-42.3817	-46.7629		98.0115
57.983	-64.8443		36.4393
59.1239	-65.8556		30.8296
71.422	-59.5842		42.6869
86.1011	-39.112		59.8566
82.1291	-48.9086		50.1423
91.1766	-45.801		41.5005
75.0111	-58.508		37.7182
84.3743	-55.5435		28.0504
78.116	-50.4873		53.6521
81.8372	-41.3633		63.6554
63.949	-32.9497		68.0644
66.8115	-39.4835		65.5752
71.6227	-38.8513		68.1906
68.1605	-32.0894		70.9707
44.3187	-26.6096		79.9092
51.9772	-18.8064		80.1512
47.8801	-20.5305		83.6457
25.6233	-48.7069		73.0583
23.6334	-59.0443		65.9033
31.4897	-54.1561		63.8578
33.3674	-43.4596		69.5633
45.8872	-68.1101		34.5804
47.1317	-65.0527		39.9557
40.7012	-65.0205		45.0745
70.5826	-52.8277		56.1822
76.8635	-44.1451		63.4569
72.0141	-45.7056		62.3815
65.701	-59.6604		48.0257
56.7378	-63.3566		41.1511
51.9823	-57.8794		49.6792
66.9902	-46.5566		61.4066
57.5478	-57.3057		52.1885
60.6701	-53.2686		56.9085
58.6588	-27.7281		69.0025
53.1015	-25.9238		69.6818
52.3418	-29.6924		65.452
64.6409	-11.1841		78.9587
59.9734	-12.2643		78.9859
60.4568	-16.9043		77.5057
66.5963	-18.1378		77.2794
37.8153	-40.0557		67.2751
56.8507	-23.6715		72.3147
40.5204	-38.2696		65.7902
-20.1754	-57.0891		85.4918
-19.3895	-61.8791		78.4933
-14.2877	-46.23		100.044
-11.2127	-45.3774		100.314
-14.1494	-39.3199		102.906
-16.7424	-39.9677		102.734
-13.7657	-51.0229		96.5896
-17.5803	-46.5352		99.1005
-17.1765	-51.5221		95.2599
-14.4416	-56.5114		90.8074
-10.8247	-49.8875		97.3927
-11.958	-55.7324		91.793
-20.5918	-45.4724		97.8007
-19.8138	-51.4654		93.3579
-18.7357	-65.3047		76.3505
-21.4516	-57.9006		86.4953
-21.7981	-58.4436		87.2374
-23.1232	-59.581		88.0943
-24.534	-54.4717		95.5351
-26.5314	-55.9298		95.7679
-26.2662	-47.9152		100.502
-22.3626	-52.7249		94.5437
-23.4876	-46.4095		99.1341
-31.2753	-43.8638		103.158
-28.737	-49.2125		101.102
-28.3265	-42.9197		102.534
-20.3075	-62.568		78.3334
-24.3472	-41.069		98.3329
-23.0932	-45.6113		96.5641
-33.6521	-44.5635		102.967
-30.785	-50.2959		100.898
-32.9795	-50.9701		99.9335
-35.7495	-45.0639		101.948
-8.77987	-47.8685		98.1355
-25.1435	-41.8177		101.044
-22.6641	-45.9312		98.1338
-24.1266	-41.3758		99.8722
-21.7081	-52.0033		93.6497
-30.6117	-57.721		94.6752
-28.5241	-57.0055		95.5114
-20.1911	-51.2446		91.9792
-22.2061	-51.7033		92.1291
-18.7005	-50.0945		89.8562
-18.7391	-54.9354		85.4907
-22.5014	-62.816		77.6413
-26.019	-45.8053		94.0056
-27.2571	-41.1272		95.6898
-21.0265	-45.15		96.2247
-19.1277	-44.9167		92.815
-24.6856	-52.1443		89.9203
-12.7985	-59.7663		73.7527
-17.1061	-63.0109		70.3895
-11.8699	-46.5061		87.4197
-11.84	-51.1044		83.9043
-28.83	-65.2827		74.1137
-30.3303	-63.0177		78.779
-12.393	-41.6162		89.7854
-32.4802	-53.2655		88.8431
-33.7674	-47.8142		92.331
-24.4221	-65.2524		70.7258
14.4972	-80.7821		-56.0558
13.1707	-76.7635		-60.3428
22.9256	-75.2165		-62.7163
23.1416	-79.3309		-58.2338
33.7295	-80.5002		-22.3739
39.9343	-78.5498		-31.054
50.6837	-74.0222		-26.1033
36.5629	-78.5994		-15.0477
47.7815	-72.8907		-44.4645
40.9125	-76.4348		-39.5449
1.01709	-82.6058		-47.1182
-5.59083	-83.2605		-41.6967
3.60765	-77.6681		-55.7712
7.39405	-81.9124		-51.98
25.9078	-81.5247		-57.7173
15.8169	-84.0427		-55.21
0.148947	-89.0011		-43.0375
7.98921	-88.4042		-49.1745
-7.17744	-89.3188		-34.506
-9.1763	-87.9465		-30.5244
-2.46313	-90.1875		-22.8978
18.7876	-90.7836		-47.9488
32.4705	-88.4234		-54.3014
9.40991	-90.2119		-35.2606
11.373	-84.9815		-11.5646
3.03561	-86.1355		-11.1728
13.8159	-86.7443		-23.8571
9.97789	-88.0764		-23.8884
40.4392	-76.7219		-38.1484
26.9115	-85.355		-58.8317
50.4198	-84.008		-40.7421
50.6729	-81.8022		-42.5763
49.0301	-80.5273		-44.3225
39.9344	-87.3489		-55.2808
40.7799	-84.9091		-34.218
35.2658	-84.9498		-29.203
28.3092	-89.369		-48.3168
31.0648	-88.5029		-47.283
33.1499	-77.4607		-56.2653
36.5914	-79.0015		-53.9214
2.73906	-85.4754		-46.3529
22.6214	-87.3661		-40.8194
41.1498	-77.4549		-47.2532
39.5833	-76.593		-49.3795
42.6273	-85.6147		-41.4657
100.605	1.7132		58.9398
104.338	-11.9367		54.4569
115.361	-6.35612		41.1788
112.35	8.57508		44.8983
88.5104	-4.26064		68.6778
92.9485	-17.0164		63.6495
85.7493	-30.6143		66.1809
12.2392	-36.9597		106.922
11.7422	-33.7179		109.735
24.5727	-35.646		110.562
23.7125	-31.3641		112.856
20.0213	-32.8436		114.055
16.2671	-33.6011		113.139
27.6956	-29.2076		109.201
76.9959	-8.53968		76.641
72.4564	-9.91213		78.7296
75.4504	-22.6522		74.1633
81.5357	-20.6628		71.2698
48.1961	-16.903		84.7261
52.2819	-14.9783		81.3747
55.8529	-17.4329		78.3991
55.8674	-13.6288		79.708
-22.3725	-40.4564		98.084
-20.3592	-38.9945		94.7607
-22.1291	-40.7481		99.6102
-19.3717	-40.4954		101.733
-13.6846	-36.1425		91.4037
115.28	-18.4032		37.2027
81.6346	-33.558		69.1182
76.3932	-37.2691		69.6153
61.3334	-40.8163		62.9954
57.8839	-34.1812		64.7009
121.677	-24.3652		11.1129
113.037	-29.1234		31.1335
62.049	-47.6355		60.4484
100.471	-43.0875		32.1126
65.6301	-53.1377		56.7331
95.1799	-52.1689		17.1379
61.8408	-58.7962		50.129
62.731	-26.1729		71.8653
-28.3183	-85.6155		-20.4079
41.8155	-72.6834		-55.6791
48.1798	-65.6937		-67.7264
8.3947	-70.9511		-69.6444
21.9635	-68.8755		-74.0738
35.5778	-66.5662		-74.1656
33.3481	-73.465		-61.5477
-4.41308	-72.1571		-62.7871
-73.7766	-58.2959		57.8248
-69.3783	-67.2877		47.8049
-40.8639	-84.47		37.7732
88.94	-59.1112		-2.53654
125.391	-11.8307		15.2661
126.156	1.84127		18.4612
-31.9837	-84.0276		45.0147
-4.62628	-44.9591		97.7525
-6.36114	-56.4845		88.0586
0.113626	-41.7486		97.4204
-5.2246	-50.3874		93.8159
-0.654095	-46.5038		93.9386
-17.7186	-70.4147		73.3205
-10.5438	-68.706		75.0754
-14.1003	-84.9902		-30.8798
1.50538	-85.8273		-2.98305
10.6487	-84.527		-3.67167
40.6152	-76.4398		1.94138
25.4349	-80.7379		7.37549
44.0515	-62.1619		46.9255
12.1654	-83.8294		9.69671
1.32656	-85.7826		10.6588
26.9785	-40.7036		88.3191
17.3036	-45.1577		95.5949
14.6263	-47.1166		91.1215
-1.94866	-64.7072		76.6474
-16.0825	-79.938		56.6909
-12.9667	-73.9205		68.0634
-25.5406	-79.7199		58.5592
2.79628	-82.2652		41.0291
-34.0225	-77.3481		63.4806
-41.4629	-73.3437		71.1938
31.949	-64.56		53.9835
36.9957	-61.0838		54.1407
-21.0766	-74.4263		68.5323
-27.783	-73.2561		70.6527
-44.2358	-59.752		90.438
36.0863	-50.878		62.9737
24.473	-40.0495		103.93
14.0132	-82.3991		24.9583
2.38964	-84.8864		26.0439
59.4585	-20.6972		75.2172
-0.742931	-51.669		88.8983
-18.3415	-59.6273		79.6466
-11.9517	-55.6794		79.0302
-105.761	-82.7608		24.1159
-118.682	-88.8943		22.3921
-114.818	-95.3862		14.3881
-101.674	-88.8686		15.575
-69.3849	-79.0283		18.5555
-74.3091	-73.2888		29.3986
-85.8994	-74.8553		27.144
-82.0889	-80.9761		17.1635
-23.0035	-69.8167		74.0755
-54.5484	-83.2618		11.7816
-45.2084	-85.3245		17.4391
-98.0285	-93.7401		6.74042
-111.059	-100.232		5.52427
-44.0422	-85.7923		3.78227
-52.0155	-86.7911		-11.6178
-52.6422	-85.2063		-0.617105
-69.4834	-87.2009		-36.4343
-3.68892	-86.7044		-12.3841
-53.7141	-83.7317		-36.4458
-100.044	-88.0892		-50.6019
-83.8492	-82.7081		-49.9332
-109.528	-75.3374		32.2677
-122.452	-81.2783		29.6412
-78.0928	-65.2726		41.0733
-89.2148	-66.8383		37.5882
-24.4676	-65.9374		78.5636
-21.8011	-57.6342		85.379
-23.7581	-57.9572		84.1238
-125.825	-73.3396		35.7354
-31.3848	-58.7332		84.022
83.6346	-62.3247		-24.3279
-62.3121	-68.7562		-59.5677
-64.7071	-77.5055		-49.7893
-82.7847	-73.7956		-59.2511
-99.9749	-78.9383		-60.143
-43.9836	-73.7976		-51.2643
130.879	-4.06804		-13.8443
131.816	10.7731		-11.5701
113.387	20.6961		-79.9578
114.12	5.21163		-79.4457
90.8446	5.81378		-105.16
89.1401	20.6973		-106.058
64.2446	2.32211		-118.467
62.1713	16.2134		-119.438
127.76	1.87576		-47.0049
128.068	17.3144		-46.2905
125.254	32.6462		-43.7868
129.187	25.9815		-8.81479
37.6042	-3.21675		-123.292
35.6232	10.0209		-124.391
10.6418	-10.0953		-121.704
8.1836	2.95364		-123.115
-13.6808	-17.0803		-113.405
-34.8717	-24.5278		-98.179
-37.7953	-13.6711		-98.4165
-16.0963	-4.73449		-115.052
-19.0394	7.19891		-113.951
4.88283	15.664		-121.745
-70.4454	-26.0098		-77.9533
-68.5395	-36.7719		-77.5969
-86.6253	-41.5651		-74.4942
-88.4485	-31.5852		-74.2992
-106.311	-37.1836		-71.803
-108.821	-27.9246		-70.163
-90.2406	-22.0926		-72.8435
-50.5183	-31.4001		-85.527
-52.1153	-20.0639		-86.3332
-55.2163	-9.60932		-84.433
-72.9202	-16.3953		-76.4685
119.235	-32.0367		-19.2779
126.561	-18.4247		-16.4092
88.3118	-22.6037		-95.5023
64.8759	-25.8021		-108.184
65.187	-12.3554		-114.477
90.6235	-8.7901		-101.439
112.109	-9.06247		-76.9841
107.091	-23.2262		-73.0647
116.797	-27.7709		-47.0194
123.909	-13.3262		-47.2396
40.3713	-30.2438		-113.197
39.3402	-17.3986		-119.312
15.8545	-35.1539		-111.814
13.272	-23.422		-117.763
-7.90569	-40.1539		-103.779
-10.9633	-29.6508		-109.385
-28.2815	-47.6107		-88.7336
-32.1037	-36.6869		-94.5781
-48.4292	-43.1718		-81.8324
-82.9391	-62.7622		-67.6764
-84.895	-52.2559		-72.5066
-66.0392	-48.1779		-74.5471
-63.1316	-58.7577		-68.5571
-101.953	-57.3862		-71.4104
-103.968	-46.8867		-72.5271
99.3461	-37.0944		-67.0931
89.4863	-50.4332		-57.2512
77.5061	-47.761		-76.8648
83.9213	-35.3597		-87.6822
95.8055	-53.4726		-36.2229
107.151	-41.2269		-44.4386
63.1005	-37.6437		-100.159
40.5218	-41.4215		-105.395
17.9161	-46.2329		-103.379
-4.52176	-50.2303		-95.4869
-23.5467	-55.7454		-82.1055
54.3205	-57.9412		-78.997
-0.614132	-58.6016		-86.5636
19.4496	-55.0864		-94.3347
20.8185	-62.7817		-84.1935
3.86865	-65.3302		-78.0695
39.485	-50.9153		-96.3326
37.4027	-59.6117		-85.4444
59.5732	-48.32		-90.3624
-18.0225	-61.8367		-75.5014
-11.481	-67.2245		-68.9477
-25.828	-69.3023		-59.6689
40.468	-86.7063		-55.9207
40.4655	-84.6663		-56.8109
49.0592	-82.4354		-49.9516
48.6359	-84.6802		-49.0978
46.1453	-81.4307		-35.4294
46.0501	-83.6128		-33.7898
44.577	-79.1989		-37.8182
38.3402	-83.3294		-57.1542
47.2057	-81.5017		-50.749
28.5155	-89.0815		-56.3648
49.5747	-85.1777		-39.9846
47.6639	-85.6878		-48.6228
123.408	17.2946		21.7428
110.357	35.8816		-77.8205
-100.573	-68.4758		-67.2764
85.8393	34.7524		-104.337
58.6983	30.0503		-117.701
32.3617	23.6652		-122.757
-41.2703	-2.98923		-96.3445
-45.8879	36.9098		36.6628
-45.6651	42.9979		22.9327
-54.7377	32.7404		35.3574
-104.157	17.1226		11.294
-102.908	10.7092		19.1676
-137.901	5.15581		19.9659
-123.829	6.63789		20.2659
-123.591	13.1657		12.0148
-136.97	11.3073		10.9753
-90.1725	14.2217		19.2066
-101.632	1.88445		27.2427
-88.7222	5.90379		28.4556
-92.1132	20.3793		10.8384
-92.6929	25.0098		1.73211
-104.644	21.4052		2.34822
-61.7464	28.9565		33.0631
-68.1859	24.6463		30.0008
-67.2023	18.9912		43.6352
-60.8221	22.56		48.1082
29.7113	71.075		17.1043
16.1095	63.7876		25.1759
26.4174	53.3653		46.4605
39.016	61.6773		36.8842
16.4222	79.8961		-22.0411
23.3805	77.4755		-3.42947
36.8035	82.1048		-14.4162
28.3076	82.9135		-34.1868
-84.3296	-40.7195		54.348
-85.8398	-34.7144		53.5801
-97.2252	-37.8133		49.9151
-96.1222	-43.9838		51.2086
-120.648	-41.0104		45.0426
-119.347	-48.8549		45.8099
-132.714	-50.8915		43.5196
-51.1749	49.8019		-16.3158
-60.965	41.9617		-21.7477
-61.158	42.4705		-7.1673
-43.7556	55.5187		-21.4137
-51.293	48.0179		-28.6742
-135.355	15.2297		0.198778
-132.694	16.5044		-13.3914
-54.0533	25.4993		50.9888
-44.2777	30.1075		51.4989
-62.1638	34.336		18.1008
-59.678	-41.9286		96.663
-61.0618	-33.7923		95.0443
-70.1329	-35.4333		91.1339
-68.4146	-42.8699		92.8801
-61.0987	-23.2964		90.7817
-69.1704	-25.7596		87.532
-50.8842	-41.1487		97.9264
-73.363	-43.3951		86.4362
-76.0118	-42.7351		76.6126
25.0736	-7.51926		87.7177
31.5797	-4.4381		80.7083
25.3356	-0.11022		78.8715
17.2204	-2.20491		84.6882
-24.4284	15.8514		77.4607
-16.9802	6.41238		85.6714
-6.77309	7.6736		84.3211
-13.8098	17.1901		78.0204
-18.9641	29.4167		65.2659
-3.08806	19.3979		76.42
11.8424	44.9831		53.37
8.50399	50.1768		45.4832
-26.9252	5.25273		85.6775
-34.5281	14.0498		76.2772
40.0083	-17.5604		92.1248
32.2495	-21.9379		101.413
89.6083	26.3143		62.1409
82.5332	36.2633		59.9343
73.4731	29.8267		69.5756
79.3307	19.9466		71.9515
-78.6494	-41.4526		64.3605
-40.7876	22.7684		64.2821
-50.8096	18.0506		63.984
-67.3558	-12.7364		79.69
-64.7947	-1.36639		72.3237
-70.7511	-2.9324		66.0463
-80.9541	-9.66244		50.5044
-75.2865	-5.54491		59.2973
-73.4726	6.0725		50.119
-80.3837	0.587257		42.5519
25.5546	-24.7705		109.188
27.1532	-16.6074		99.192
21.4087	-18.8216		105.822
8.88694	-4.70631		89.4876
1.9868	0.259396		86.866
-38.2938	-7.39321		88.5102
2.58582	-16.3569		98.495
0.246778	-17.5483		97.2355
-2.15061	-22.7065		98.5102
-2.22534	-17.8635		96.3295
-4.75168	-17.56		96.2192
7.38762	-30.1106		105.067
5.1234	-29.9915		102.569
-5.76089	-11.6064		93.4877
18.4625	-27.545		113.616
16.2129	-20.7399		109.113
12.6503	-22.0577		108.116
14.6701	-28.4625		112.397
-51.4091	-12.2382		88.2919
-52.8473	-21.7972		92.922
-46.4739	-21.2335		94.9233
-44.5208	-12.4203		90.2082
-26.4904	-5.56919		92.2535
-22.7363	-9.6136		94.6325
2.53125	-30.2156		101.303
-2.39865	-30.8128		101.001
33.5187	-12.9252		91.0486
9.25799	-9.64583		96.2292
6.64012	-10.7305		97.197
9.74469	-10.7702		98.3688
0.907694	-26.9293		100.266
2.2138	-12.7958		96.3034
-8.2322	-31.267		101.942
-12.8129	-31.7605		103.203
-16.7405	-5.95485		92.7924
-13.8453	-10.3817		94.5474
-42.1618	-29.4238		99.9481
-46.1607	-31.0196		98.3166
-44.3102	-39.7958		99.1266
-40.1867	-38.8907		101.004
-28.4642	-14.4578		95.5055
-33.4438	-9.16348		89.9566
15.2133	-12.8925		100.205
-42.7011	-21.2912		96.6312
39.8194	43.2011		66.0005
25.8449	46.9429		55.8356
25.5319	42.9848		60.5158
63.6626	41.1079		63.2061
56.1249	36.1045		70.6573
65.597	25.7346		77.8716
51.7676	51.9884		52.7998
43.2184	46.1942		61.4772
62.1577	25.2338		80.1795
52.61	34.1833		73.5143
51.8724	9.01118		76.9421
56.572	8.67246		79.0706
55.3621	16.4053		79.3857
50.5332	15.8921		77.3928
39.2582	-8.94575		83.4642
45.9451	-13.7402		85.0893
50.0542	-11.5708		81.7275
11.5057	2.16656		83.2607
20.2275	3.84704		78.5317
12.4571	11.3872		77.8316
3.66703	9.91585		81.1242
12.5083	31.0672		66.2089
17.1232	36.4536		62.2998
13.869	40.3812		58.4663
44.3244	32.2956		74.8787
51.2272	23.8487		78.4937
57.0432	24.7832		80.1277
35.2868	38.372		69.5777
25.5313	39.2884		63.8093
46.2131	22.8878		76.7774
31.2385	31.3357		71.1133
36.7153	27.9994		74.1322
46.389	-0.658059		74.9454
49.7454	2.96321		75.4935
43.4531	4.12165		72.1756
62.1319	-4.08541		79.524
58.0063	-7.50704		79.4109
25.1407	4.44845		75.6827
50.9807	-2.00173		77.0821
28.1187	4.60585		74.0147
-31.1204	-20.3108		94.1345
-33.8873	-12.4188		89.2583
-18.2799	-32.7691		103.386
-15.1263	-31.9996		103.624
-20.8274	-27.032		102.369
-24.3747	-27.5943		100.973
-21.2457	-33.7865		102.34
-25.1336	-20.241		99.2856
-17.5542	-26.8805		102.943
-22.4322	-19.904		100.074
-26.7406	-28.0357		99.1287
-23.46	-35.4133		100.378
-33.0922	-20.8851		96.2643
-32.5586	-20.8122		95.2997
-34.6959	-20.9906		97.3846
-34.4212	-28.4021		102.313
-32.0018	-28.6437		101.777
-29.4591	-37.0717		103.247
-26.4319	-36.4649		101.689
-29.4176	-28.6595		100.429
-32.0992	-37.5484		104.016
-35.0541	-12.268		89.3068
-25.8714	-36.0755		99.0089
-34.3809	-37.8991		104.028
-36.5678	-38.3421		103.173
-14.6331	-27.8553		103.006
-25.4947	-36.2256		100.618
-28.6087	-28.6876		99.4567
-38.932	-28.4535		101.514
-36.7284	-28.3078		102.24
-27.1016	-27.8641		97.7049
-29.0673	-28.6258		97.8051
-28.7298	-21.2963		93.3712
-25.4789	-27.1286		95.3982
-37.1505	-13.0151		88.595
-28.8315	-36.1337		96.4597
-23.8599	-35.2166		98.7336
-22.6079	-32.8742		95.7919
-31.6953	-28.5166		95.6701
-27.6642	-9.2898		84.7482
-33.573	-7.58743		82.4766
-20.8854	-20.1153		90.9328
-18.0546	-25.4177		92.3002
-44.2718	-13.1725		85.8006
-43.6937	-17.6642		89.0849
-36.6575	-37.7698		94.7674
-35.1026	-43.016		94.1707
-15.6369	-30.6012		92.3659
-38.9476	-31.0946		94.1065
-40.9768	-9.65577		83.0276
-28.8843	69.4251		-23.9315
-20.9593	73.5058		-25.4568
-19.4971	71.9471		-31.1001
-28.4066	67.3049		-29.4795
-4.80721	63.4341		14.9791
8.5261	71.0918		4.96642
4.78663	75.6771		-12.5229
-2.42963	73.1056		-7.52897
-40.4729	60.5808		-16.7303
-45.9168	55.6593		-12.363
-35.1376	65.1436		-20.6421
-36.6005	61.4004		-26.0952
-19.6457	76.4271		-23.8066
-29.3146	72.3142		-21.7449
-44.0584	63.5501		-10.6802
-37.6431	69.4179		-15.5254
-49.6396	56.8342		-3.75191
-50.2562	53.2636		-0.974752
-29.4646	76.2648		-12.2592
-17.1445	83.7814		-17.2949
-29.3953	54.3094		17.3511
-37.1387	50.8192		17.0918
-29.381	61.4781		7.26543
-33.3612	60.5778		7.2836
-2.84009	72.5598		-6.20163
-20.8034	80.3191		-23.2225
2.96711	83.3576		-7.04059
1.82484	84.244		-4.55317
2.02288	82.1937		-9.31738
-10.5427	72.977		4.42246
-10.2812	87.0908		-17.7139
-20.6149	80.1237		-12.0091
-17.7143	80.449		-11.0763
-8.84031	78.3985		-20.0866
-11.2424	76.3516		-23.2263
-40.3757	63.4098		-14.7321
-13.639	66.0779		8.66694
-3.49475	76.9525		-14.093
-4.61075	76.2917		-16.5537
-5.75411	81.8329		-5.53169
-23.7852	72.8166		-6.67898
106.286	22.8541		48.1877
95.3472	15.5503		61.6319
83.784	8.9018		71.4158
71.0029	15.7599		78.6197
10.1492	-29.6341		108.568
21.6843	-26.2453		112.587
73.2244	4.47246		78.1012
67.1617	2.66759		79.6698
53.9574	-10.0277		80.046
99.1461	33.6689		49.6258
65.7418	15.3149		80.2714
59.927	16.7286		80.3624
44.4946	16.0455		74.9033
45.2614	8.97795		73.5099
90.6825	43.3934		48.2534
98.6675	52.6201		28.4364
41.2344	22.5193		75.3406
72.22	47.5771		53.8992
40.4147	30.4607		74.6467
61.641	58.8651		42.3871
32.9596	34.8668		70.5537
54.4527	2.06722		77.8762
-64.0985	37.8632		5.10104
-1.32411	76.7901		-23.4927
6.49739	79.2132		-36.3826
-18.2112	70.9477		-43.9219
-30.4421	63.9951		-40.6397
-9.55765	75.3899		-29.5051
-5.38505	76.0449		-43.3443
-41.3208	55.7906		-35.4081
-80.0193	-34.0967		62.8957
-81.0659	-21.6164		57.7769
-67.8387	9.2716		56.8539
51.0731	69.3247		25.7153
117.212	31.7817		25.1919
108.961	43.1447		27.6373
25.9326	32.5887		67.6423
-60.5157	10.6188		64.307
-9.96912	-27.8627		101.966
-18.3666	-14.9644		97.5607
-4.1567	-27.6028		100.735
-7.68364	-22.6176		99.5197
-13.7256	-21.7244		100.46
-30.3422	-1.97824		89.7058
-37.6654	-3.37892		88.0187
-52.9559	48.5655		-2.98253
-37.4813	46.752		24.147
-28.9508	50.6778		24.2073
1.59515	57.5354		30.1243
-12.9629	51.1537		34.692
16.8825	30.3407		66.7585
-25.7014	45.9276		36.2557
-36.1912	41.454		36.5193
18.4672	-10.3972		94.5334
5.29177	-13.51		99.0088
8.96995	-15.8743		102.527
-20.5634	-1.39986		90.5564
-44.2263	10.3674		75.9728
-36.6326	3.2754		84.824
-51.4592	5.14548		76.9291
-30.4318	26.3553		64.715
-59.4268	-11.7044		84.5219
-56.1666	-2.2892		79.9383
6.90822	21.7392		73.6946
12.6844	22.2305		72.6563
-43.5197	-0.166626		84.699
-48.1236	-5.16092		85.6953
-52.4728	-32.387		96.7528
17.746	11.66		76.1086
18.6074	-19.7857		108.344
-21.8615	39.1084		50.8192
-33.7279	34.5873		51.2396
55.0206	-4.13738		78.7736
-10.8164	-16.1863		96.9488
-31.6569	-14.388		89.6612
-24.0296	-14.3271		88.1833
-122.717	-20.443		38.4551
-123.062	-10.6208		33.5077
-138.152	-11.6657		33.3872
-137.412	-21.5954		37.7335
-88.9304	-3.54241		36.3341
-88.9326	-13.1626		42.9811
-101.241	-7.47564		34.1079
-100.377	-17.1647		40.2504
-41.7449	-6.63338		88.0141
-80.2287	9.79493		32.5867
-73.2906	14.4757		38.4818
-123.352	-1.78073		27.6967
-138.309	-2.70197		27.5521
-74.1851	20.7891		25.7765
-81.328	17.3614		21.4615
-83.084	23.2143		11.87
-101.067	24.1939		-12.1201
-43.3163	48.2663		15.3859
-86.0013	29.3909		-12.1905
-112.641	18.8685		-27.6233
-129.293	15.2065		-27.8009
-136.146	-32.0471		40.9052
-121.587	-30.9416		42.5132
-87.9048	-24.6189		49.6475
-98.7868	-28.2639		46.1729
-40.2961	-11.9011		90.3712
-32.8671	-20.6392		94.0627
-34.8693	-20.7136		92.7808
-134.511	-42.1194		42.8934
-41.6086	-23.9408		92.0882
42.8603	77.6705		6.1335
-88.3856	22.6788		-39.7303
-108.333	16.1857		-39.5434
-93.7059	24.3638		-27.6434
-125.729	11.9259		-40.139
-74.4806	32.4973		-28.4712
123.27	40.0544		-5.16901
114.547	51.8532		-1.59042
105.027	49.9512		-73.5762
81.3833	47.9792		-100.088
75.4571	59.9363		-93.3501
97.8624	62.0609		-67.0457
54.4673	43.4014		-113.431
49.4527	54.5508		-107.076
111.343	58.8368		-34.592
119.565	46.8381		-39.8605
28.1243	36.5368		-118.595
23.3121	47.3115		-112.275
1.19304	27.6894		-117.724
-3.08697	38.4802		-111.119
-26.5632	28.4804		-103.487
-22.6194	18.3379		-110.028
-43.9027	7.82291		-93.7477
-46.8425	17.5806		-89.0364
-75.8214	-7.13275		-73.8462
-93.6451	-13.2868		-70.3012
-97.1294	-4.5952		-66.4134
-79.5789	1.98042		-69.166
-111.505	-18.8781		-67.7842
-114.453	-9.93125		-64.4162
-58.0548	0.776418		-81.8097
-62.3244	10.0096		-76.5422
103.126	61.7319		1.20532
89.4782	69.7198		3.09155
59.9432	76.8194		-73.8156
68.2884	69.6348		-84.3288
43.3116	64.7382		-97.6694
36.9218	72.4985		-86.7581
78.0669	77.9744		-50.982
89.1591	71.0979		-59.4968
86.7596	76.1799		-24.3198
100.245	68.6934		-29.3451
13.1675	65.6223		-92.3215
18.115	57.5855		-102.97
-7.09423	48.5827		-102.082
-10.1705	56.5981		-91.8582
-32.2187	45.3871		-85.2097
-30.13	37.9572		-94.688
-50.2206	26.9273		-80.7834
-51.8553	34.9679		-70.8642
-66.0829	18.6819		-68.4275
-103.874	10.9109		-51.5673
-85.0492	18.09		-51.8717
-82.8576	10.8257		-61.7202
-100.802	3.73448		-60.2658
-117.877	-1.25895		-59.0867
64.9999	82.4419		-41.0284
50.5291	81.4096		-62.2331
39.842	83.5477		-48.2925
50.7941	83.9684		-28.0118
56.6776	81.36		-6.79447
71.8605	80.7251		-17.8026
8.45503	71.2711		-80.882
30.2446	77.6178		-75.0584
-33.5658	51.5887		-73.4371
-13.1373	62.8685		-79.6903
-51.2439	41.013		-61.2232
14.5763	80.6574		-48.9232
-33.5586	56.5118		-61.697
-32.2899	60.6441		-50.9256
-17.1015	69.5981		-55.5686
-15.3873	66.93		-67.8888
-1.41305	75.9665		-56.062
3.68465	74.5396		-69.0836
22.8146	80.2736		-62.3979
-57.7648	41.5275		-35.9812
-45.4504	50.7979		-43.6293
-48.9493	45.9		-52.3199
-9.55863	87.1089		-18.4693
-8.61946	85.8633		-20.0607
-0.857679	87.0391		-12.0899
0.550406	85.8333		-13.6755
-1.04388	79.1228		1.07327
-0.0273228	78.0866		-1.24984
-0.498804	76.4551		-4.45885
-9.80895	83.8696		-21.1415
-0.657415	84.4718		-14.9868
-21.0686	83.0888		-19.3709
0.594221	84.4346		-3.51472
-2.15353	87.1515		-11.3935
-121.798	6.36174		-50.8263
-66.2426	-64.619		76.0229
-67.8358	-62.4444		76.721
-65.5717	-65.9602		72.2334
-64.5717	-65.2192		78.401
29.4831	-76.5476		33.1165
30.3336	-75.2875		36.3005
26.1336	-77.7265		32.9591
32.9364	-75.9045		29.1457
31.7352	-73.7843		38.4879
35.55	-72.3864		36.6596
30.2349	-72.7974		42.2289
70.3419	-23.2688		75.6676
70.0941	-26.0872		74.556
74.2581	-26.6564		73.6623
70.4591	-19.9395		76.6202
66.5563	-20.9324		76.1565
49.3725	-24.6385		73.7766
48.177	-25.7408		73.0358
50.7833	-24.5176		72.6433
49.9446	-23.9531		74.5997
48.7214	-27.6757		68.4185
46.8362	-29.5623		66.352
50.4262	-27.5794		67.6942
51.0074	-25.7186		70.4217
47.1724	-27.951		69.3775
48.4303	-56.6161		52.583
46.5218	-54.6506		55.9382
49.9649	-57.4404		50.2856
41.7788	-33.2318		68.0476
42.6066	-32.5591		67.6404
41.0519	-33.3425		69.313
41.223	-34.6871		67.2346
-19.4927	-64.1513		76.0884
-19.371	-64.0839		76.325
-19.6681	-64.1608		75.6613
-19.4028	-64.1272		76.3918
-18.2224	-63.2762		78.7626
-18.9289	-63.504		77.4022
-18.4953	-64.1326		77.4308
-17.6416	-63.3033		79.3414
-18.1187	-62.0731		80.8269
-18.6333	-66.7678		75.6517
-16.0567	-66.2312		76.9155
-19.9853	-64.1872		74.8356
-19.2343	-63.7983		75.3843
-20.1688	-64.1724		73.3764
-20.2296	-64.2216		75.2032
-24.244	-62.8441		83.8697
-24.9733	-63.3221		83.5364
-21.6328	-63.8608		79.3321
-23.5393	-62.5391		83.7637
-26.9152	-61.7406		88.5714
-12.4608	-58.1683		88.9157
-11.0181	-57.4329		89.5852
-11.0372	-55.189		92.2544
-13.3174	-58.6221		88.5047
-14.0123	-60.3666		85.8293
-19.5423	-63.6881		77.3683
-19.5543	-63.7727		77.3426
-19.515	-63.7813		77.213
-19.9523	-62.5776		78.8475
-2.84133	-88.1811		-19.2873
-3.28744	-87.8339		-18.2608
-6.62803	-88.4258		-21.8022
-1.74922	-88.4581		-19.4739
6.56974	-91.9562		-33.9577
8.11822	-91.6153		-36.9599
7.96461	-90.5476		-32.7006
5.66329	-92.1068		-31.2381
5.34881	-92.7276		-34.5799
0.683739	-90.06		-22.1312
3.30049	-89.5109		-21.8295
0.329065	-89.6035		-21.2155
-0.545826	-90.8798		-23.7296
12.0619	-86.264		-27.0408
12.9457	-85.7743		-28.0209
13.8042	-85.7335		-27.1002
11.8793	-86.7978		-25.7569
10.7147	-87.0364		-27.2901
32.263	-85.5609		-31.8594
30.1226	-85.5387		-32.2293
33.0259	-85.531		-32.577
32.9275	-85.5659		-31.0441
43.0787	-85.1911		-38.0653
43.7873	-85.171		-37.1702
42.0669	-85.0852		-37.8318
44.075	-85.6268		-41.4847
13.9619	-87.1205		-34.8087
15.2839	-85.9689		-33.3991
10.5766	-88.0655		-31.5623
11.2419	-89.8238		-37.629
16.4122	-88.1514		-39.5054
33.201	-86.1132		-38.7837
34.3494	-86.1051		-39.3633
32.9522	-85.5688		-34.7128
31.7845	-86.3101		-39.6374
22.1656	-90.8426		-49.9974
22.42	-90.7544		-49.4273
19.0233	-90.991		-49.0025
23.2058	-90.7346		-51.1593
24.6257	-90.3245		-53.0612
26.8635	-90.0178		-52.327
23.7833	-90.3052		-53.9995
27.4343	-89.5331		-54.7224
9.53118	-91.338		-39.2116
11.5422	-90.893		-41.3992
8.5468	-91.9556		-40.0072
22.5676	-88.946		-45.4499
20.5568	-88.6976		-43.8478
22.3998	-90.0262		-47.526
23.8967	-88.6038		-45.3567
5.41708	-87.506		-18.4385
3.19161	-88.1155		-18.8522
5.87884	-87.8796		-19.5139
6.23253	-87.1144		-17.8408
7.84092	-86.6323		-17.2912
9.89114	-86.3643		-17.6317
7.69309	-86.42		-16.2975
16.8433	-85.3883		-19.2219
16.2953	-85.3488		-18.6516
16.5047	-85.7064		-20.1408
20.0055	-84.8763		-19.9791
15.512	-85.3325		-17.9953
15.6598	-85.0654		-17.0103
13.1298	-85.8166		-17.9024
9.25794	-88.7		-30.0806
8.45902	-89.052		-28.1479
21.0376	-85.4304		-28.8809
17.1223	-85.5248		-27.8597
20.3227	-85.3009		-30.2575
24.9718	-85.3707		-29.9143
22.3998	-85.6299		-27.9302
38.2302	-87.21		-50.0147
38.9404	-87.0875		-50.3882
37.8612	-87.2607		-49.3704
36.9155	-87.5415		-51.6407
33.2729	-88.4294		-51.9813
32.3726	-88.7639		-50.4073
31.549	-88.8239		-52.6655
34.451	-88.0401		-52.9789
35.2074	-87.9749		-50.2587
41.3865	-85.0562		-37.8721
41.365	-85.509		-40.6522
40.5283	-84.8586		-36.5104
41.0685	-86.061		-44.09
40.0258	-86.0476		-43.1598
40.5356	-86.6922		-48.3023
42.3411	-86.1325		-45.2516
58.8976	-50.8237		58.5413
58.0726	-53.0235		56.8965
59.3404	-48.2463		59.8562
-64.563	-68.0309		66.8559
-66.0668	-66.7706		63.5523
-62.6994	-69.7263		66.2011
53.8394	-57.4758		50.8525
55.6497	-56.3832		52.8861
52.334	-58.3175		49.319
56.659	-59.6265		48.4746
58.4872	-60.6588		46.853
59.5014	-58.0825		51.216
55.5845	-58.5038		50.0427
54.0866	-60.5368		46.6713
-16.0376	-86.6961		-11.8687
-14.8166	-86.508		-16.9179
-14.2503	-86.7747		-10.6861
-18.3774	-86.6518		-11.8715
46.0228	-32.4749		63.1128
45.416	-33.0367		62.9787
46.945	-32.2492		63.0722
48.5435	-30.8896		63.9802
50.6479	-31.5344		63.7881
47.0471	-31.1397		64.0422
51.2763	-22.9116		75.3134
51.4677	-22.3257		76.2352
53.3566	-22.2446		74.8485
-19.2537	-59.3192		84.2184
-19.7975	-59.8282		82.3947
-18.5848	-59.6578		84.5104
-19.1282	-56.9497		88.0634
-40.1809	-86.2001		-13.5332
-39.5949	-86.1433		-7.89887
-43.1567	-86.2911		-15.1285
-37.6547	-86.1306		-14.4886
27.8277	-81.321		-14.9092
20.9874	-82.8317		-11.025
26.9801	-82.0156		-17.5877
35.0206	-79.5129		-19.6713
29.1129	-80.5609		-10.514
-44.6893	-85.8266		-26.7767
-47.183	-85.7941		-28.1773
-40.4204	-85.0462		-27.7239
-46.3479	-86.5852		-21.7836
-79.7882	-93.5218		-28.6184
-87.9665	-96.0803		-29.2678
-77.9685	-89.8393		-36.0911
-71.336	-90.6437		-29.2693
-81.201	-95.3814		-22.5265
-19.8396	-64.1261		77.371
-19.9469	-64.2885		77.3092
-20.7046	-63.2085		79.2956
-20.1263	-64.5574		77.2388
-23.2192	-62.2116		84.0329
-22.5695	-62.0437		83.5132
-25.4584	-61.0246		88.7814
-60.9461	-71.0226		65.7233
-59.0951	-72.9779		59.3335
-58.9731	-71.2797		68.9153
-43.2414	-60.5373		-68.816
-40.5539	-57.5939		-72.9778
-41.0311	-63.2265		-65.7544
-46.4232	-60.6158		-68.0927
109.779	-42.1638		11.7275
110.935	-42.1111		4.33117
112.328	-38.2649		14.7755
106.546	-44.5208		14.8241
12.083	-90.9094		-49.0642
16.8384	-90.3813		-52.8084
13.1249	-91.3059		-48.2631
8.14696	-91.3122		-45.7266
11.7038	-90.1855		-50.1549
33.3069	-83.2668		-25.8722
29.1104	-83.8083		-23.9714
33.4002	-84.1479		-26.7318
37.4061	-82.6385		-28.2234
33.2248	-82.1023		-24.9077
12.3518	-87.0586		-21.9049
11.713	-86.9516		-20.644
9.8113	-88.0448		-22.9114
12.0139	-87.2646		-23.528
13.9871	-86.6142		-21.7994
6.11291	-88.6722		-21.3984
8.83866	-87.5953		-20.4127
6.4449	-89.2165		-22.9881
22.2504	-89.405		-56.1335
21.9291	-88.5744		-56.7701
28.1631	-88.1481		-58.0674
22.4855	-89.9576		-55.3843
21.6901	-87.5014		-57.2253
16.4599	-88.5541		-54.443
21.5707	-86.4049		-57.3973
27.4378	-86.1434		-58.9236
36.5636	-79.7353		-26.4062
38.5485	-79.1582		-28.5275
37.5417	-79.2731		-26.1726
35.1617	-80.3575		-25.0619
12.2634	-86.7098		-52.7029
12.1952	-84.8286		-53.178
16.384	-85.9046		-55.1791
12.0961	-87.9867		-52.1628
8.5165	-87.0389		-50.1104
7.4745	-92.3185		-40.7069
10.2399	-91.6953		-43.6409
5.77757	-92.7671		-38.245
6.37793	-92.311		-41.7614
-1.17875	-92.5106		-37.1109
-2.70086	-92.7947		-33.904
-3.00978	-91.4997		-37.7042
1.74419	-92.2004		-40.394
1.94293	-93.2321		-36.299
1.55787	-93.5127		-30.7873
-0.261303	-93.4366		-30.7995
2.54104	-93.4964		-32.6584
2.26928	-93.078		-29.4514
-10.7539	-86.8957		-23.1357
-11.8713	-86.6087		-23.3965
-9.81929	-87.4557		-25.1853
-9.27899	-87.1482		-18.898
-6.24764	-90.3098		-25.6713
-7.19006	-90.5901		-28.0588
-4.55172	-91.1398		-25.7194
-4.2551	-89.7145		-22.767
-7.36773	-89.5311		-25.5832
40.2146	-84.6583		-30.3075
41.643	-84.2595		-30.6093
36.5914	-84.4036		-28.7516
40.2188	-84.9157		-30.7273
42.489	-83.9501		-30.9505
45.7572	-84.0827		-33.5456
42.3631	-83.6055		-30.8768
22.807	-90.226		-54.7072
18.462	-90.9979		-51.455
28.1687	-89.0264		-56.8909
37.0299	-87.5774		-54.7278
36.0346	-87.6935		-54.2873
36.3144	-87.7638		-55.5405
38.7108	-87.31		-53.4064
41.1708	-85.0586		-32.6948
40.9897	-85.0629		-32.109
39.5053	-85.0251		-32.6478
42.7011	-84.9694		-33.9595
40.172	-85.0582		-31.127
36.9134	-85.1518		-30.4748
44.3317	-84.7316		-33.3232
22.4499	-90.5611		-48.7884
25.4004	-90.331		-49.5981
18.8451	-90.4593		-47.0358
37.6888	-84.9584		-33.874
39.276	-84.8507		-34.6818
37.5808	-84.9779		-33.3739
36.6529	-85.2402		-35.5581
39.9803	-84.8419		-36.0156
39.4517	-85.1491		-37.9919
17.5064	-88.8651		-42.3191
15.8256	-89.8247		-43.3043
23.4058	-85.7111		-26.9499
27.8942	-85.5502		-27.8527
23.5172	-85.6873		-25.8342
18.6235	-85.9481		-26.1096
33.4169	-85.5039		-32.956
35.2405	-85.3431		-32.6527
-38.4197	-64.4865		-64.4096
-34.3867	-63.0015		-67.5392
-37.8323	-66.2442		-61.9743
10.0676	-54.1287		78.9852
6.71731	-56.4261		79.081
11.4847	-54.0866		78.2396
10.4002	-52.5193		80.2651
12.0398	-49.8394		82.8249
11.0592	-50.4721		82.2883
14.5497	-49.5502		82.3092
11.7548	-49.1454		84.4852
74.3504	-55.1377		50.274
72.5337	-55.6604		51.2452
70.2204	-59.8008		44.2027
75.7496	-54.8799		48.7684
76.3212	-51.1208		54.7505
7.8052	-40.6854		95.7032
8.51534	-39.9912		96.8898
7.04902	-40.6272		95.6401
7.77628	-41.805		94.5235
11.9757	-41.8687		97.6373
11.3538	-40.5849		98.8108
10.9842	-43.0258		95.2389
13.4083	-42.3058		98.1778
50.9122	-57.7095		49.7284
51.5522	-57.3177		50.0722
20.9031	-45.5576		93.9734
20.0178	-45.9148		93.8458
20.7755	-45.9212		92.9789
21.8984	-44.333		95.9679
4.69118	-87.4186		-47.2621
2.15449	-87.2508		-45.2902
5.61291	-85.5131		-48.5841
4.08419	-88.8697		-46.2506
105.863	-48.584		-9.0912
108.839	-45.6442		-7.83156
102.349	-51.1253		-4.29565
105.395	-48.759		-19.0018
-25.8393	-65.383		72.5385
-23.9614	-65.1642		71.5885
-27.1819	-65.5792		72.1707
-25.4583	-64.9158		73.9741
-15.3938	-62.1124		71.9403
-15.4918	-61.5879		73.5287
-14.3477	-61.4741		71.6805
-17.2065	-63.1237		71.271
-75.7105	-32.9609		82.4794
-74.572	-32.4126		84.9041
-76.0224	-30.1514		79.7252
-75.8858	-35.8199		82.0759
-4.12893	38.7859		58.727
-1.47017	42.0988		54.721
-7.55396	37.9861		58.7059
-2.26875	36.6327		61.571
0.0915051	34.9387		63.4598
-0.0666256	31.4066		66.6547
3.82224	36.8476		61.4607
62.8732	1.38439		79.8646
60.3441	2.83023		79.6828
60.5645	-1.84659		79.5217
64.8202	-1.30566		79.6197
63.883	5.47474		80.1151
44.2309	-5.34779		77.8616
45.1732	-5.98831		78.4408
45.526	-4.32539		77.0209
42.5	-4.7701		77.4666
41.5436	-0.784246		73.8117
38.6648	0.816865		72.1794
40.2144	-1.8055		74.6555
44.7385	-2.13241		75.3179
43.057	0.390895		73.2952
24.0983	26.2873		69.9688
24.03	22.2566		72.2002
24.4792	28.7693		68.2554
32.318	0.138309		74.6422
30.7761	1.44936		74.2864
31.8062	-0.639709		75.8034
33.4017	0.205286		74.0544
-35.4894	-9.67062		87.8843
-35.3221	-9.73942		88.0829
-35.367	-9.74575		88.1562
-35.6931	-9.61287		87.4884
-33.5862	-10.7614		90.0945
-34.4868	-9.62685		89.138
-32.5749	-12.6114		91.5947
-33.0197	-10.6946		90.6896
-33.4585	-6.70282		89.7984
-36.0738	-9.4813		86.7209
-36.2466	-9.69266		87.0339
-36.3979	-9.11465		85.3571
-35.1662	-9.59458		87.1303
-38.0198	-16.9246		94.5009
-38.8236	-16.6259		94.1652
-38.9508	-21.3366		98.1892
-37.2628	-16.701		94.319
-36.7268	-12.3197		90.5105
-24.502	-17.183		98.4201
-22.7675	-17.2617		98.8706
-27.3588	-14.904		96.3197
-25.5446	-17.1282		98.1583
-21.2664	-20.0647		100.379
-35.1334	-10.5523		88.8777
-34.6944	-12.255		89.7984
-35.1791	-10.4078		88.7738
-35.1918	-10.475		88.8815
-44.092	52.4599		9.99748
-43.3546	53.4184		10.0858
-47.5952	51.6374		7.31734
-44.1186	51.5953		10.7044
-39.1955	65.6669		-0.665197
-37.9853	67.321		-3.30964
-40.6825	65.8856		-1.0688
-39.7835	64.2985		1.72522
-37.1744	64.7928		0.0960445
-42.4149	57.4816		8.61552
-43.9694	58.1886		7.32447
-42.4209	56.7907		9.14435
-39.7028	57.8435		9.00061
-30.9794	61.4096		3.97185
-30.0743	61.8364		3.03366
-32.5385	61.4253		3.88978
-31.2738	61.2473		5.33465
-29.2112	61.9074		3.94123
-13.7062	72.9257		1.88318
-13.0547	72.9585		2.70486
-13.1047	73.559		1.31541
-15.5775	71.9667		1.27615
-4.82037	80.4454		-2.55468
-4.11397	80.4495		-1.66565
-4.5157	82.5799		-5.36864
-5.61514	79.7648		-2.50666
-23.2889	67.7767		-1.10225
-20.7529	71.9717		-4.04615
-25.4769	66.5279		-1.32949
-23.7036	66.0688		1.74255
-19.827	69.727		-0.420187
-11.5894	78.1363		-4.73556
-12.9182	77.2388		-4.43958
-10.13	76.2922		-1.04836
-10.3261	79.335		-5.56735
-13.2572	80.5813		-8.97202
-42.6345	62.2555		-12.5434
-41.6747	64.0788		-13.1563
-42.2449	61.2424		-13.2973
-44.5374	61.0293		-10.7921
-26.7876	78.8075		-13.6827
-25.9534	79.6952		-14.6505
-29.4665	76.9486		-13.0994
-26.4722	78.6496		-13.1746
-24.7157	80.8222		-16.3606
-22.5679	81.4326		-15.5517
-22.0677	82.2629		-17.8398
-25.5184	80.7419		-17.3134
-36.8478	68.6742		-5.27147
-35.1113	70.1771		-7.17137
-38.0741	68.962		-5.86545
-34.474	67.7519		-4.22531
-25.0611	75.7918		-10.2611
-26.511	73.965		-9.14847
-23.7402	76.1652		-10.1517
-25.9452	77.3433		-11.7425
-29.0662	71.9651		-8.07022
-31.082	72.2392		-8.78929
-29.3796	69.781		-5.94504
-36.4795	55.8251		11.4376
-35.5267	55.6702		11.8856
-36.3816	56.7451		10.6755
-38.8121	55.5037		11.006
-33.8421	55.9078		12.3871
-33.7615	55.3005		13.1731
-31.9731	56.8637		12.228
-25.6457	60.241		11.2942
-22.7396	61.7352		10.8172
-26.1874	60.6568		10.5448
-26.0426	59.7198		11.7244
-26.6462	59.0651		12.2117
-28.9348	58.1928		12.1815
-26.2866	58.5695		13.0171
-34.8831	63.0232		1.8776
-33.5827	63.747		0.475309
-35.5543	62.1743		3.63953
-23.0143	66.0149		3.12342
-26.3309	63.7193		3.59216
-21.8446	66.503		4.23843
-19.6985	68.3527		2.65925
-27.8706	62.5918		4.18185
-27.7279	62.6708		5.07155
-11.1696	84.1048		-13.1961
-12.6232	84.32		-14.6978
-11.4492	83.7104		-12.636
-10.5337	84.5102		-13.4972
-16.2308	83.3014		-15.0939
-17.018	82.5039		-13.6463
-14.1735	83.2657		-13.4802
-15.1213	83.976		-16.0103
-17.9759	82.9996		-15.7651
-6.19074	79.4137		-2.6385
-6.69877	78.311		-1.58601
-6.70907	80.8044		-4.98751
-7.57723	82.3882		-7.92864
-8.37868	81.4965		-7.21543
-6.62824	83.5289		-8.80096
-8.75985	84.2127		-11.569
-9.28484	80.3844		-6.34463
-10.7621	82.3738		-10.0167
-7.91597	78.5522		-2.94785
36.8787	24.4132		74.3493
38.5884	22.0472		74.5752
34.8225	26.4284		73.6328
-76.5559	-25.914		75.7973
-75.9298	-23.3219		76.029
-77.37	-26.5172		72.1434
27.868	30.234		69.3398
25.898	30.81		68.0703
30.3259	29.3873		71.0512
28.9642	33.9518		68.8503
32.1145	32.9915		70.972
29.0972	35.9252		67.986
25.8428	33.8266		67.1295
28.6315	32.2163		69.3313
-53.6735	41.7942		14.3335
-55.606	40.5626		14.0498
-52.1268	42.3074		15.6286
-53.0213	44.1453		9.92798
35.4827	4.63292		69.6714
34.6725	4.66418		69.6825
36.3211	5.00138		69.7334
38.7975	4.12566		70.4545
40.1027	5.38897		70.7674
37.4723	3.39015		70.4458
47.0439	-6.53116		78.8886
49.1454	-5.89592		78.5013
47.6129	-7.32292		79.5207
-31.654	-17.4467		93.8797
-29.8461	-21.1418		96.5504
-31.2182	-16.9957		94.339
-32.6272	-16.3546		92.3267
-73.3659	29.6692		10.5185
-71.3663	31.3001		9.78974
-76.0317	28.7885		8.94941
-72.2274	27.8132		15.5715
-13.6946	61.0738		15.0282
-19.9458	57.3403		18.2445
-11.734	59.5129		18.8865
-7.07866	65.0758		10.9356
-15.055	62.1732		12.7667
-78.3826	31.9054		-1.84055
-79.5776	29.8161		2.83777
-74.5625	33.8656		-2.66845
-80.6113	31.1206		-3.31442
-112.073	20.8753		-3.36472
-120.445	19.0234		-3.75249
-113.457	19.2135		2.88101
-103.5	23.138		-4.34108
-109.574	21.8698		-11.529
-35.6316	-10.3392		89.0135
-35.5853	-12.3287		90.3319
-35.4393	-10.4497		89.0044
-35.8137	-10.2498		89.0099
-35.7599	-8.65181		88.5558
-36.8039	-9.84005		89.0558
-36.7456	-16.8994		94.4548
-37.2934	-21.277		98.2851
-36.1399	-16.3898		93.8998
-75.16	-21.1668		76.2586
-73.6823	-21.0317		78.9827
-74.7853	-16.3206		71.7252
-69.0554	29.5575		-49.3931
-71.7207	27.7309		-49.0307
-68.2119	31.546		-45.3586
-65.7165	30.2764		-54.0216
79.0188	60.2596		34.8768
75.2528	59.2261		38.4171
83.5504	57.1835		36.4862
79.3696	63.8637		28.0341
-35.3778	73.4012		-13.9811
-31.3954	76.8341		-17.006
-35.4462	73.0665		-15.2823
-38.6318	70.4441		-11.28
-34.6067	73.928		-12.9928
-11.0549	69.4373		6.54478
-14.7538	67.0192		7.94974
-10.4476	68.1248		6.96603
-7.44282	71.9109		4.68115
-11.5012	70.4947		6.11473
-30.6171	60.249		8.95727
-30.9905	59.377		9.96897
-28.9738	60.6949		9.08319
-31.1673	60.8399		7.54178
-33.3956	60.1089		8.12449
-36.7621	58.2037		9.33567
-33.7714	58.3416		10.078
-36.9015	59.3806		8.14842
-26.5828	80.0921		-19.7562
-26.5853	80.3511		-18.8433
-21.063	82.8461		-21.3003
-26.5039	79.5277		-20.6895
-26.2157	78.7449		-21.544
-30.9642	75.8481		-19.2301
-20.7595	81.2473		-22.935
-25.7816	77.8881		-22.142
-6.53939	68.5238		5.11797
-7.91662	67.8014		6.39847
-5.44575	68.5779		5.26177
-4.75645	69.8662		3.22515
-33.4643	71.6194		-18.8661
-32.617	70.31		-20.0291
-36.5907	68.9849		-16.8377
-34.2016	72.3181		-17.9024
-29.7642	74.029		-20.9337
-39.2363	68.967		-6.47194
-36.8359	71.0007		-9.02843
-40.2707	68.8092		-7.54241
-40.6792	67.5205		-4.28387
