1835
-12.9493	-46.2981		101.397
-14.0657	-43.2358		102.649
-14.413	-46.8651		100.612
-16.34	-44.9767		101.11
-7.46451	-42.1389		102.262
-10.2108	-40.0008		103.06
-11.5777	-43.4023		92.8726
-8.77889	-40.3032		91.2687
-13.4778	-41.0983		93.379
96.8842	33.829		56.0629
92.2915	30.3809		61.6814
99.1773	28.6677		54.1908
101.554	37.4921		48.8072
69.4335	10.5541		76.2877
66.972	8.13171		76.8516
73.0702	7.37963		74.8516
71.6557	14.0826		75.676
65.4918	4.64179		76.6855
63.9407	1.2162		76.143
68.9128	1.96855		75.267
62.6837	-1.38413		75.1805
59.9028	0.611364		76.4736
65.7988	-3.13482		73.9649
55.9489	-12.0529		68.3368
56.7959	-10.3557		68.9587
52.6002	-10.4062		68.8823
59.036	-14.3486		67.479
55.5331	-14.7979		67.5187
57.7572	-8.1989		70.0116
60.6227	-10.4242		68.8622
54.81	-6.60699		70.7463
111.463	17.3522		29.7658
115.092	20.0963		19.3618
110.953	23.9254		32.9551
107.621	14.2447		37.4578
101.025	23.7498		51.6717
105.358	26.6089		44.8769
102.57	18.1619		48.248
75.7129	4.26993		73.0816
74.7955	2.2308		73.1892
78.3407	-0.0415225		69.6172
69.1009	-5.2611		72.0779
70.4041	-3.84789		72.6184
72.7155	-0.795095		73.0326
62.9954	-13.2478		67.5844
62.1686	-15.5132		66.8502
65.2297	-17.02		65.7449
103.813	11.795		43.5818
104.741	5.05551		37.6883
99.8433	9.55008		48.8439
79.9616	-5.96702		64.0302
81.3635	-12.154		59.0425
64.6524	-22.8756		63.7867
65.6519	-21.778		63.8813
63.3863	-19.9179		65.3332
65.3944	-25.5409		61.9581
71.1936	-17.309		63.4264
69.24	-18.7972		63.5665
73.0135	-21.4131		60.2792
67.1	-20.4512		63.7995
95.4732	7.41491		53.6271
96.5717	0.12988		47.6367
105.563	-1.09745		30.3187
101.509	-4.07893		35.7259
105.968	-6.44109		21.865
63.726	-28.2682		60.3328
63.4528	-30.3234		58.2831
65.6066	-28.0615		59.7938
65.3582	-30.334		57.5976
64.595	-28.0913		60.2202
73.8391	-25.4319		56.8233
72.9533	-29.7618		53.1197
54.5465	-1.84239		73.9105
51.4059	-1.59257		73.9888
53.332	-3.45604		72.6333
55.2148	-0.490485		75.0149
55.6314	1.12142		76.2957
52.7028	1.60456		76.3984
51.4521	-5.89189		71.1274
50.064	-7.95589		69.9666
54.8948	13.0128		80.4842
52.8533	16.9286		80.9763
-0.349464	-94.3725		-12.0713
4.9007	-92.6488		-10.4485
-0.818006	-94.3009		-18.8701
75.1141	-46.687		-48.3253
71.396	-48.6333		-53.7986
78.3408	-41.8082		-53.2825
77.8873	-46.0586		-40.3135
71.8981	-51.695		-42.9203
47.5343	-63.2054		-61.6615
42.3606	-66.4482		-59.6821
45.4942	-61.2597		-67.0875
52.6845	-60.1429		-62.1196
57.9403	-56.5966		-62.1515
57.4525	-53.5245		-68.5614
62.7736	-53.5635		-60.6446
58.192	-59.9159		-55.9459
26.2849	-74.4252		-51.9377
21.3334	-73.9692		-55.3816
31.6825	-71.8568		-54.9244
69.4124	26.5207		76.7773
65.1638	30.415		77.9729
72.906	22.4312		75.3904
76.1494	18.8621		73.7687
81.8609	23.825		70.6368
-47.2956	-85.2254		54.1832
-49.2194	-82.3775		46.1985
-42.5622	-87.0703		47.8439
-51.1663	-82.9845		58.1154
-22.8911	-94.4423		39.1358
-28.2391	-92.9753		44.7122
-18.2401	-95.5505		33.9926
-20.1106	-94.4554		42.5603
97.0886	-7.3575		40.3781
96.9423	-14.1061		32.4838
87.4047	27.1795		66.4377
106.135	-11.452		11.928
106.023	-15.4057		1.72688
101.441	-15.949		17.8827
106.421	42.1523		38.7381
108.503	36.1212		37.4008
110.634	46.9948		26.7099
103.412	48.2342		40.0565
85.1041	-29.416		32.9253
90.7422	-24.8444		28.3561
64.4173	-32.2049		55.786
74.4301	-33.5821		46.6965
70.4882	-37.5236		44.4401
72.7817	-33.4845		48.3602
71.1663	-33.3527		49.8876
-64.64	-74.6401		36.8729
-65.8524	-73.2785		37.1537
-7.21582	-95.3091		34.3926
-3.0116	-94.0092		36.5943
-11.3158	-94.5088		40.5935
-11.2609	-96.1257		31.3787
-2.31062	-42.3491		100.014
-1.48769	-44.0064		99.3338
-0.830797	-39.9917		99.3014
2.06668	-59.9608		87.3761
4.58828	-56.8026		88.2492
2.24036	-56.6439		90.5093
2.17465	-41.88		96.9147
1.36504	-39.1161		98.0401
0.885328	-44.2662		97.4656
3.2532	-44.7651		95.1617
3.59655	-39.4006		96.2871
3.5953	-67.87		79.5608
0.806932	-69.901		78.7069
3.69727	-69.6816		77.7997
6.26711	-65.127		80.6675
67.842	-44.1084		38.5112
67.2192	-42.661		41.1099
63.5708	-48.8789		39.013
68.5865	-45.2169		35.7492
69.537	-46.2344		32.2362
70.1734	-47.9419		26.9726
63.6805	-36.8251		50.8418
61.966	-38.2957		50.642
66.5256	-41.3531		43.4479
65.9144	-57.4687		-47.6995
62.6258	-59.5994		-50.6939
66.2175	-54.763		-51.763
68.3025	-56.1831		-43.8491
42.4716	-72.1004		-50.1154
40.4597	-70.6417		-53.0729
12.1504	-89.1571		-21.9819
16.9025	-88.0328		-19.9352
10.5819	-90.4218		-15.2934
6.27186	-90.8913		-24.1945
14.8016	-87.0875		-28.3656
58.6251	-62.2931		-52.4226
36.6531	-79.5032		-1.10765
32.8445	-81.5503		-1.25412
40.5815	-77.268		-1.23717
35.6312	-79.5956		3.70313
57.9858	-62.1746		21.4327
64.3146	-56.4765		19.4205
51.9332	-67.0142		23.4199
57.4934	-63.8437		12.6649
59.9461	-42.5158		49.3351
60.1981	-40.7142		50.3463
57.2107	-43.2044		52.4116
60.3644	-39.1393		51.4119
58.6522	-39.2864		53.2538
34.9655	-79.4868		10.5819
34.5093	-79.2574		17.9642
30.7119	-81.9077		10.4472
39.6084	-76.8054		9.94405
30.0989	-34.5658		78.7533
30.5079	-38.5114		77.1869
31.7511	-31.0065		77.9609
29.7966	-31.1871		80.9324
31.0861	-44.1802		75.393
32.2768	-49.8729		73.2401
27.7383	-48.0942		76.5687
29.5552	-27.6863		84.1066
29.8116	-23.8674		87.4987
27.8961	-30.2267		85.8741
25.0499	-36.6247		84.2667
25.773	-34.3191		85.8245
22.0818	-34.7176		95.0087
22.0792	-32.8984		97.8227
20.2004	-35.7868		94.3381
21.7064	-35.9904		93.0312
21.179	-36.934		91.2468
18.6599	-38.0607		90.6505
17.517	-59.8918		77.1455
16.3158	-56.1514		79.6114
14.2445	-63.6107		76.8988
20.8419	-56.2516		77.3225
24.2865	-51.9842		77.0784
3.38689	-33.5028		98.1412
2.00264	-35.3834		98.2308
4.09853	-34.9311		97.2589
13.5249	-81.8506		53.3293
18.7669	-79.1062		54.3183
12.8314	-78.302		60.7919
7.63058	-84.719		52.4945
7.98774	-57.8757		84.5413
7.43427	-55.7718		86.2961
8.62871	-59.793		82.9937
10.6334	-66.8159		76.3553
6.9899	-69.7985		75.8625
11.3339	-70.474		72.5417
9.84328	-63.8591		79.4135
0.699189	-37.5076		98.6287
1.30788	-87.4414		51.8449
0.813246	-90.3503		44.8534
2.54453	-83.2911		59.6301
-4.74866	-88.9497		53.1975
31.6945	-70.9617		56.9801
27.4717	-73.8336		56.3895
33.7006	-73.7287		48.7963
-37.2249	-90.7713		70.4993
-34.3208	-89.9348		72.6763
-41.8382	-89.5845		75.6702
-20.9754	-89.5612		63.5633
-15.9512	-89.725		59.4397
-17.4735	-86.7154		67.7954
-25.9467	-89.0406		68.9535
47.4972	-55.7626		56.676
50.2688	-51.5091		56.3207
44.1233	-52.1812		62.5904
55.9064	-39.0206		56.7887
54.943	-40.8826		56.7355
52.0836	-48.1433		56.1599
48.5469	-45.5869		61.1722
53.1695	-45.1554		56.4945
57.2497	-35.7205		57.6548
-51.61	-78.6055		93.072
-52.8194	-76.9097		93.8762
3.1686	-79.2125		66.1506
-1.17292	-80.8191		66.6395
7.62494	-76.957		66.6052
3.3904	-75.3003		71.6046
-14.1384	-83.3798		71.5625
-9.91212	-82.8812		69.3402
-11.2343	-79.5157		75.3502
-18.208	-82.9425		75.2756
40.7991	-47.4381		67.2283
37.9213	-51.4382		68.4116
43.261	-43.8661		66.1089
12.1277	-74.4272		67.1451
34.7325	-55.4346		69.1826
-37.9695	-75.803		93.5522
-33.5174	-72.3612		94.2832
-34.4952	-77.7819		90.8906
-30.734	-79.7492		87.4835
-26.7759	-81.2338		83.6222
-26.706	-76.5228		88.6369
44.8174	-41.3283		65.3854
45.7723	-39.1072		65.1698
41.3088	-35.9967		68.6548
54.1249	-42.93		56.5363
50.7011	-41.2185		60.8678
46.6921	-37.3134		64.965
42.6495	-32.1621		68.2437
30.035	-20.0759		90.8473
28.298	-22.7978		93.9144
32.0432	-17.3183		87.2359
24.9018	-27.7614		100.556
25.6803	-26.7414		99.2075
24.0724	-25.1244		104.46
24.3601	-28.5921		100.958
37.0304	-11.2913		78.5468
35.7449	-12.7401		80.6911
33.3601	-27.7971		76.5689
33.5266	-3.54293		88.9277
32.7362	-2.11076		89.1015
59.1477	-52.9059		42.0746
34.0408	-14.7845		83.6843
1.82089	-92.2472		38.0447
4.35096	-93.1665		30.4765
45.2696	-68.7837		40.5193
40.0144	-72.5611		40.2831
46.3832	-69.8121		32.478
25.5265	-81.238		39.7614
30.3248	-78.561		40.0135
24.5244	-79.304		47.4465
25.9115	-82.6395		32.5348
35.2244	-75.6654		40.122
35.421	-77.1649		32.3128
-45.7925	-88.4		79.5843
-29.8986	-69.375		95.0495
-32.5546	-67.246		96.5662
-26.7643	-71.5743		92.8037
-23.4266	-73.6736		89.8662
44.5924	-22.032		68.0877
38.519	-30.148		70.9655
39.4201	-28.2491		70.4273
40.0986	-26.8004		70.0358
-34.8081	-65.3626		97.5404
-36.7687	-63.2468		98.2052
44.883	2.46487		78.7466
44.7589	0.83229		77.9345
47.0523	3.85163		78.5442
44.6107	3.92469		79.4484
42.7388	0.669224		79.1967
41.5871	-13.4206		68.352
42.3851	-12.4366		68.394
40.7952	-12.015		70.1516
44.1901	-0.870578		77.0933
46.6918	0.324358		76.5938
44.0925	5.52546		79.9881
43.0678	7.13861		80.3933
10.0728	-29.0094		103.262
11.798	-28.8733		104.607
20.6403	-24.8675		108.946
21.7839	-23.8395		108.436
22.4024	-26.9861		105.464
13.9475	-40.2064		88.562
14.8843	-39.1748		89.7092
11.5179	-39.1238		90.4082
22.7399	-22.5286		107.729
40.6191	-1.90562		79.6944
49.6888	5.08493		78.5893
49.9091	3.18706		77.5812
43.819	-11.6489		68.4159
49.6901	1.27203		76.3992
49.0123	-0.414298		75.2556
48.1935	-2.00277		74.2867
10.2187	-46.2489		87.3852
8.54819	-44.2614		89.7305
8.55738	-49.5577		87.9115
6.62262	-53.4014		88.1611
5.63741	-50.4795		90.6397
-3.73956	-64.5018		81.3395
-3.1963	-63.4951		80.7439
-4.77636	-63.1677		83.2868
-1.90236	-64.0613		84.5933
-1.8827	-61.9281		87.5153
-1.43813	-60.957		79.6917
-2.7592	-58.6388		82.7545
0.73979	-57.7164		79.086
7.10547	-42.2696		91.9521
5.88481	-39.8902		94.0671
5.82346	-44.7704		92.4766
4.50745	-47.8342		92.8214
3.11841	-50.5092		93.2603
-6.01177	-61.3359		85.6952
-5.71736	-59.2433		86.0254
-3.97553	-56.2936		85.2624
-1.23005	-53.2731		83.9988
4.98293	-37.2005		95.912
6.3153	-35.3992		95.7119
-0.406843	-46.9786		97.73
0.801023	-50.1047		95.6378
26.5606	-31.6129		88.3327
26.7956	-28.3735		92.6643
23.4686	-14.3835		106.131
22.2577	-12.6593		106.49
26.8195	-24.9354		96.9534
14.1938	-28.4308		106.356
15.7772	-30.1752		103.443
17.3142	-32.3135		100.024
19.5612	-31.6573		100.83
18.1105	-34.667		96.4162
18.0269	-36.4054		93.888
17.0004	-37.663		92.0112
15.9426	-38.4698		90.7024
23.6532	-29.2015		101.417
22.6466	-29.9141		101.67
21.2896	-30.7911		101.457
-71.9278	-125.139		12.1212
-75.2792	-122.879		15.5968
-75.5944	-130.629		11.4174
-68.7239	-127.016		8.59962
-66.8164	-117.667		13.1561
-59.4966	-107.449		14.619
-56.6106	-109.559		10.9219
-52.8501	-98.7374		16.1351
-62.3956	-105.179		18.2698
-39.9733	-90.4304		23.2613
-36.9927	-92.5159		18.8341
-42.9585	-88.3434		27.0971
-44.1828	-91.4763		19.9273
-47.8977	-93.8735		17.794
-50.3905	-91.2854		21.689
-45.1449	-96.2312		13.9171
-5.56345	-82.2143		67.3923
-7.7326	-86.0937		61.8368
-3.93175	-78.1996		72.318
-10.3436	-89.7822		55.334
-13.6563	-92.32		50.1272
-16.826	-93.8398		45.9491
-2.79411	-75.0969		75.4404
0.26597	-73.8123		75.1912
-1.81939	-72.6594		77.3388
-5.84596	-75.8027		76.4064
-1.4798	-71.1067		78.4794
-3.50794	-71.5447		78.9778
-33.8548	-94.4663		14.3923
-29.2284	-94.2339		17.5161
-37.8604	-95.8998		11.6668
-30.4578	-96.4048		9.12009
-24.1715	-94.9434		21.3285
-21.8226	-95.773		15.2723
-19.2868	-95.7952		24.8017
-15.0669	-96.2656		28.4414
-13.042	-96.6353		21.877
-53.648	-111.484		7.10686
-60.76	-121.295		5.90843
-50.9269	-113.631		3.05306
-47.1841	-103.38		8.34828
-65.7812	-128.676		4.98313
-69.3238	-134.407		4.09536
-62.9785	-130.206		1.074
-42.0725	-98.5206		9.8204
35.0829	-78.3116		24.9996
30.4078	-81.0642		25.2812
40.2348	-75.1612		24.7522
-11.5897	-96.7321		15.3724
-15.5059	-96.5472		12.1804
-9.96116	-96.5065		8.16087
70.8152	-50.1582		18.2922
70.2594	-53.0661		7.5053
6.17616	-93.4872		22.9414
7.5646	-93.1823		15.1791
25.806	-83.7195		25.4412
25.7099	-84.3663		18.1761
46.1904	-71.1836		24.6478
45.2001	-72.7227		16.6539
26.4432	-84.2748		10.3471
27.6992	-83.8568		3.20261
-23.4312	-101.406		-7.221
-27.352	-103.994		-8.54683
-22.0003	-102.701		-12.2777
-19.739	-99.3936		-5.5985
-25.2325	-99.8785		-2.0598
-31.5363	-107.243		-9.33861
-15.9743	-97.9716		-3.29674
-17.6687	-97.2255		2.50314
-14.558	-98.6419		-9.23062
-12.2791	-96.9236		-1.13067
57.1045	-65.0875		3.95183
63.435	-60.1154		0.527237
50.5273	-69.8368		7.24655
69.9932	-54.7458		-3.2567
76.1273	-49.5782		-6.52336
82.2879	-44.2235		-10.3868
81.5623	-45.0618		-21.1506
88.328	-38.8413		-14.6757
8.7899	-92.3783		6.77391
9.59369	-91.572		-1.58058
44.821	-73.6127		9.18476
44.513	-74.3862		2.69932
-48.1448	-115.724		-1.44699
-55.2448	-124.744		-2.4171
-19.6414	-96.646		8.93931
-23.7088	-97.0427		5.86885
-60.2271	-131.539		-3.3092
-63.6619	-136.815		-4.43033
-40.535	-120.463		-19.7263
-46.9915	-127.348		-21.0166
-20.7226	-103.614		-17.3157
-18.9047	-103.339		-22.6381
-16.8942	-101.257		-16.3428
-12.9115	-99.1752		-15.0785
-51.7726	-132.613		-22.4446
-55.5294	-136.732		-24.3079
9.73696	-91.1152		-9.1215
29.0786	-83.4674		-1.68872
30.9458	-82.9642		-5.32531
25.5761	-85.18		-2.8762
44.6625	-74.7858		-1.63847
-25.5089	-107.408		-30.7156
-23.4856	-103.617		-37.5586
-20.404	-103.859		-29.6568
-15.3235	-100.863		-28.7945
-11.0207	-96.3337		-35.0766
0.0546646	-93.233		-25.738
19.8254	-87.4578		-18.8881
22.2873	-86.3841		-26.0165
-48.609	-121.404		-47.9513
-54.1923	-126.695		-49.1681
-49.1993	-116.978		-54.6784
-42.5483	-115.859		-46.6203
19.0432	-84.3998		-33.6592
23.5948	-84.019		-32.3815
26.0672	-84.2585		-31.9564
-78.599	-120.388		18.8813
-73.1955	-113.073		20.1186
-81.9107	-117.847		21.8776
-82.2923	-125.776		17.8826
-53.0702	-88.316		25.8485
-55.5736	-85.3095		29.4882
-58.1882	-93.3321		23.9249
-49.7854	-86.5661		27.7435
-38.4645	-88.9584		42.0445
-41.97	-87.0143		36.5873
-35.5204	-90.5518		46.7753
-46.0779	-86.01		31.2722
-48.9869	-83.3543		35.4048
-65.218	-102.482		22.0343
-68.4257	-100.192		25.542
-9.08828	-76.4164		77.8033
-7.09724	-73.6621		79.3427
-33.0318	-91.7365		50.6104
-5.84287	-71.8167		80.1013
-8.52593	-71.6812		82.243
-5.01449	-70.2492		80.6553
-4.39215	-68.8772		81.0343
-6.54963	-68.691		83.0013
-22.6499	-82.4918		79.2397
-26.5992	-85.6099		77.0571
-30.7217	-88.3315		74.6254
-6.83881	-63.6131		87.2295
-8.6858	-62.02		90.9994
-6.58277	-62.8745		85.851
-4.82524	-64.9825		82.8353
-6.72469	-63.0632		85.37
-8.27668	-60.5548		89.1929
-7.11911	-63.3703		85.0069
-8.37136	-64.2954		84.4492
-8.87691	-60.9612		88.0861
-11.3717	-66.2071		84.0993
-15.1338	-68.4381		84.3625
-13.0752	-63.7821		86.8668
-58.0188	-82.1745		32.517
-55.2594	-80.6372		34.582
-63.6307	-88.0721		30.834
-85.3399	-115.332		24.6366
-79.794	-108.321		26.2242
-88.5911	-112.68		27.0563
-88.9715	-120.331		23.4645
-71.5032	-97.9648		28.701
-56.6637	-75.3871		42.7946
-54.8929	-77.4884		41.1435
-55.1	-77.949		51.4885
-91.3844	-110.255		28.8916
-95.0079	-114.896		27.7038
-53.9862	-81.211		60.6915
-9.87405	-57.9441		92.3163
-10.1414	-57.9932		91.6474
-10.6347	-58.2726		91.0218
-11.7568	-59.3123		89.9801
-14.709	-61.3059		89.2295
-18.3965	-63.9713		89.0036
95.0051	-29.4864		2.5911
94.6403	-31.9989		-8.48419
100.617	-24.1228		-3.07955
95.4888	-25.676		13.3222
80.0566	-45.464		-31.048
36.8697	-69.1903		-57.755
33.217	-67.9996		-62.3116
-35.4342	-100.504		-57.6149
-27.3148	-94.4012		-56.8108
-35.4909	-104.88		-52.3289
-43.2144	-107.084		-58.5271
-36.0634	-96.549		-62.286
-49.8398	-113.104		-59.65
-55.9318	-119.081		-60.6616
-50.9862	-109.462		-64.0425
-21.0472	-98.2419		-44.8258
-28.6912	-103.84		-45.1393
-19.7135	-93.2266		-51.0996
-13.7196	-93.93		-43.7156
113.773	51.8886		12.7619
115.972	44.9345		11.817
115.488	55.8023		-2.53373
110.714	58.5313		13.8015
94.0646	51.1928		-86.7472
102.834	55.4515		-71.3823
97.3597	44.3808		-85.6216
83.8816	45.432		-99.2925
90.1296	57.8416		-87.3386
73.5162	38.5118		-108.218
76.9568	32.1121		-106.975
62.5704	30.4723		-114.778
69.3736	44.3927		-109.018
109.268	58.1737		-54.6196
112.221	51.005		-53.7611
105.648	65.0995		-54.8585
113.5	59.0994		-36.9565
108.173	71.852		-18.4002
103.304	78.125		-17.6062
108.354	69.2673		-1.10952
112.255	65.2306		-18.9701
105.856	72.7327		-36.4712
52.0231	22.4016		-119.09
55.4283	16.5135		-117.757
41.2496	13.9495		-121.743
48.1822	27.9272		-119.797
30.0596	5.15064		-122.884
33.7051	-0.412107		-121.414
19.194	-3.63019		-122.404
26.4781	10.6409		-123.671
-10.2704	-28.1729		-109.571
-6.86327	-33.1559		-108.05
-18.6836	-36.0459		-101.679
-13.9262	-23.8463		-110.083
-0.756563	-20.1455		-116.065
1.4687	-1.68939		-121.494
-2.68611	3.20972		-121.057
11.4236	6.93428		-123.499
5.33442	-6.75207		-121.211
-8.07592	-10.1773		-117.354
-53.7264	-66.1689		-82.2088
-46.4132	-60.1284		-83.5268
-50.8582	-70.6016		-81.4323
-60.9598	-72.2315		-81.5127
-56.6695	-62.1264		-82.4176
-73.7741	-70.5115		-80.754
-70.9543	-74.4519		-81.007
-80.9579	-76.967		-80.223
-76.6293	-66.8704		-80.3059
-66.4542	-64.2136		-81.4307
-25.0379	-42.5366		-95.2304
-21.9406	-46.9263		-94.2472
-31.1274	-47.8884		-90.2966
-28.4538	-37.9289		-95.5986
-38.4711	-53.6835		-86.2406
-35.5977	-58.6262		-85.0913
-41.3092	-49.2228		-86.6666
-44.506	-45.1003		-86.5209
-37.6883	-38.9738		-90.5271
-52.3639	-51.9166		-83.7191
-48.0346	-41.2985		-85.9481
118.076	23.2558		7.05692
117.332	15.3466		5.28612
119.983	25.7459		-6.69328
118.063	30.6506		8.9721
85.037	12.479		-98.9489
86.6492	6.03599		-95.2366
75.021	5.2554		-105.144
82.8554	18.8797		-102.179
94.501	18.7976		-90.3426
103.196	24.0537		-78.8458
101.913	30.9246		-81.5535
110.463	27.331		-65.177
103.801	16.7516		-75.753
115.746	28.7187		-50.808
115.327	20.5357		-49.5205
115.381	36.2953		-51.8907
119.008	28.2322		-36.234
120.399	27.5031		-21.3798
120.382	35.4212		-20.6986
119.644	19.2781		-21.9623
64.9031	-1.98023		-109.436
54.5783	-9.59502		-112.054
62.1173	3.95922		-112.741
67.1725	-7.80064		-105.681
44.0878	-17.1811		-113.209
46.8708	-22.4004		-109.431
33.6304	-24.9568		-112.641
40.8987	-11.957		-116.414
23.4116	-32.2854		-110.485
13.0691	-39.9269		-106.228
19.9297	-27.9245		-113.538
26.3383	-36.6185		-106.812
3.44579	-47.8208		-99.684
7.00487	-51.3666		-96.3841
-4.7521	-54.7926		-92.7182
0.148693	-43.2505		-103.043
-11.9274	-60.7354		-86.5415
-19.215	-66.5268		-81.1659
-15.3923	-56.5783		-89.6978
-8.82037	-64.4683		-82.7473
-41.7313	-83.5961		-75.0822
-49.8635	-89.4239		-75.5914
-44.8583	-79.4736		-77.9356
-33.8908	-78.0391		-75.3821
-39.2687	-87.7466		-71.5468
-62.4125	-86.5912		-79.7168
-68.9479	-92.566		-79.6435
-65.2151	-82.3406		-80.5992
-55.3954	-80.8365		-79.8304
-59.6763	-91.057		-78.1701
-26.5864	-72.3649		-77.3501
-23.558	-76.2247		-73.2956
-29.4925	-68.1763		-80.5955
101.71	-5.47033		-63.3987
106.597	-4.45431		-52.2986
99.6738	-13.3281		-57.7708
95.4302	-8.23552		-73.432
102.965	2.04138		-68.3469
109.964	-4.30028		-41.2031
106.894	-12.6751		-36.1845
112.404	4.05112		-45.0957
112.099	-4.68894		-30.1608
113.242	-4.24671		-19.3555
109.78	-11.6437		-14.6356
116.005	3.31062		-21.4759
69.0074	-13.157		-101.623
78.4757	-6.56805		-97.2708
70.2638	-18.4627		-97.1898
59.1992	-20.2361		-104.235
87.7167	0.000121117		-91.2005
96.1362	5.43552		-83.0278
88.1429	-6.25478		-86.653
29.3104	-40.9156		-102.339
39.4792	-34.324		-104.451
32.0955	-45.1835		-97.2438
19.2656	-47.6412		-98.4582
49.2129	-27.3964		-105.197
51.5383	-31.9668		-100.548
10.41	-54.4085		-92.7118
13.4887	-57.72		-88.0091
2.12698	-61.4835		-85.3447
-5.39638	-67.2801		-78.925
-1.51991	-69.1593		-75.3202
-20.6852	-80.3212		-68.0745
-19.6196	-85.1064		-61.8435
-28.8363	-86.0964		-66.8303
81.486	-36.3285		-58.4973
75.6708	-39.1077		-65.5782
83.8601	-30.8906		-64.2183
115.814	7.43364		4.23837
117.807	9.92706		-8.93383
93.7462	-33.1402		-19.3838
98.8355	-27.0961		-24.8081
39.6279	-54.4256		-82.4165
37.1105	-51.867		-87.2631
47.7194	-49.3212		-84.5038
41.6949	-57.1248		-77.0951
31.0881	-59.5705		-78.8636
55.5115	-43.687		-85.7201
54.4751	-39.996		-90.9625
63.1523	-38.5051		-84.7678
56.2547	-47.5148		-79.822
71.0553	-33.3289		-81.934
71.2354	-28.4438		-87.4291
78.6324	-28.8745		-76.9582
70.3787	-38.222		-76.0983
9.06527	-72.0712		-65.5222
5.36446	-71.3542		-68.7424
15.7622	-68.2601		-70.0344
12.7377	-72.8567		-62.0503
2.39489	-76.0992		-61.2061
29.8058	-66.7506		-66.6528
23.1686	-70.1834		-62.7247
26.5112	-65.5826		-70.49
36.6276	-63.2523		-69.6716
-19.2949	-89.2564		-56.3782
-11.5359	-84.5194		-56.8088
27.5858	-85.3335		-10.9591
30.9654	-83.7054		-9.12381
24.2693	-86.1005		-8.24634
32.4262	-82.7089		-7.70266
55.09	-69.3665		-11.6572
59.5977	-66.4102		-14.3321
68.7224	-68.9664		-49.9374
73.5648	-65.4566		-47.8372
68.8825	-69.7463		-49.2785
32.0903	-87.5695		-32.7061
29.2729	-88.6236		-28.901
77.2813	-62.3344		-44.4872
76.8551	-61.3818		-44.885
79.6554	-60.077		-40.4327
77.39	-63.4709		-43.9922
70.9624	-62.3809		-22.505
70.0328	-61.3182		-23.0277
80.5736	-58.9776		-36.1399
80.6914	-60.1861		-35.4538
47.7655	-80.2562		-44.7322
32.9471	-89.5767		-25.1338
32.7751	-89.1616		-22.2895
30.1085	-89.566		-25.3108
61.7849	-64.9217		-16.3269
77.3947	-57.9444		-31.1015
73.9463	-58.7297		-27.9861
75.8608	-57.589		-32.4916
69.2558	-60.0266		-24.3319
68.8811	-58.9542		-25.8567
76.2944	-60.9922		-45.0215
68.0625	-58.4351		-27.1934
70.2056	-57.8754		-30.1427
72.41	-57.5219		-34.0565
69.2047	-57.2265		-34.71
41.1593	-85.5434		-36.8214
40.445	-87.077		-28.9023
28.0404	-89.0982		-25.536
33.09	-88.1986		-19.8891
36.1751	-87.2902		-20.2022
38.6413	-86.486		-21.3659
40.1429	-85.82		-22.4874
68.7968	-70.1219		-48.8641
73.6683	-66.9472		-46.8787
78.304	-61.4408		-27.608
77.937	-62.0048		-27.2894
80.1238	-60.9972		-30.9573
77.4481	-62.39		-27.0974
79.3699	-61.9546		-30.3915
76.4617	-62.9526		-27.1847
77.2446	-64.1391		-43.6417
79.5116	-62.1315		-39.5784
76.9326	-64.5745		-43.4776
80.5502	-61.1011		-34.9828
80.2399	-61.6715		-34.8343
79.8012	-62.0904		-34.526
78.8123	-62.9671		-39.1519
76.6349	-64.8159		-43.1309
65.0905	-72.6095		-47.4892
75.2	-63.5635		-27.6218
67.9816	-66.5489		-24.3543
75.5453	-64.539		-36.3619
62.7238	-74.5844		-42.056
64.2627	-73.43		-41.8583
65.7269	-72.2051		-41.3576
66.8361	-71.1444		-40.4983
67.66	-70.1765		-39.2595
67.9262	-69.125		-36.6223
41.7411	-82.184		-20.1287
41.1551	-84.0034		-21.8981
61.6965	-69.6108		-20.6368
47.5094	-76.3634		-18.5209
40.7448	-85.4137		-23.062
61.5457	-17.1283		66.4898
110.003	30.3363		35.4139
114.16	34.0436		23.8735
99.3452	54.7699		41.148
103.533	60.1658		28.8531
94.4007	61.1063		42.1052
117.39	38.0176		10.422
119.286	41.2182		-4.25135
106.659	65.1784		14.797
101.775	71.5459		15.624
115.471	58.3706		-19.3555
117.949	50.9936		-19.7064
119.551	43.4583		-20.2439
117.953	44.2323		-36.5018
96.2275	-20.5109		23.1337
105.411	-18.2408		-9.05058
104.648	-19.87		-19.8384
118.205	11.4658		-22.3355
116.922	11.8815		-35.1644
101.354	71.759		-54.5238
94.6867	68.8629		-71.6617
96.4684	77.9875		-53.751
114.256	43.9435		-52.6366
108.19	41.6957		-68.9086
103.072	-20.1955		-30.5469
100.738	-20.2765		-41.2743
114.227	12.6099		-47.8065
109.863	11.8978		-60.1741
97.0375	-20.6038		-51.7924
92.0913	-22.0838		-61.6865
85.9746	-24.7778		-70.0913
87.2848	-18.7336		-75.9636
-37.4962	-92.4175		-67.0853
-45.5526	-98.5433		-68.0209
-52.5727	-104.844		-68.7331
-58.935	-110.766		-69.6373
-54.6422	-99.8608		-72.8742
85.8905	64.1575		-87.1368
75.5359	57.6465		-100.012
81.1002	69.9743		-86.6293
65.0029	50.0526		-109.105
54.3132	41.7977		-115.531
60.3454	55.602		-108.55
43.9103	33.4844		-119.862
33.4657	25.0819		-122.548
39.2645	39.1333		-119.265
22.4868	16.1902		-123.812
17.9987	21.4074		-123.31
9.04017	-11.9751		-120.233
12.6051	-17.4012		-118.574
-17.7361	-19.1708		-110.176
-26.1785	-27.6604		-101.541
-21.59	-14.8989		-109.625
-32.2263	-33.7459		-95.1952
-36.0378	-29.6585		-94.4759
-59.4608	-58.1563		-82.2753
-62.4428	-54.3658		-81.8379
80.0774	25.5794		-104.954
90.2893	32.2757		-96.0682
69.4619	17.9871		-111.304
99.8214	37.7855		-84.0223
58.9075	10.3082		-115.591
48.2764	2.19958		-118.16
37.4378	-6.12834		-119.226
26.6264	-14.7184		-118.604
16.339	-22.8165		-116.29
6.29188	-30.6304		-112.101
-3.33231	-38.2354		-105.896
-11.8641	-45.3779		-98.7506
-18.69	-51.7783		-92.3896
-25.2369	-57.7325		-87.1173
-32.5306	-63.433		-83.2743
-40.2283	-69.3783		-80.923
-47.7369	-75.1033		-80.0147
-56.9452	-95.4641		-75.8977
-63.418	-101.529		-76.2245
103.78	9.69956		-72.2971
88.2535	-12.2792		-81.3905
79.7433	-17.7415		-87.8929
71.1202	-23.3197		-92.5343
62.1252	-29.5975		-95.2038
53.245	-35.9904		-95.9443
44.141	-42.6096		-94.7198
34.5268	-48.8035		-92.2351
25.248	-54.6065		-88.5144
16.7841	-60.0201		-83.7799
19.7787	-62.3679		-79.0433
8.81909	-65.6003		-77.7327
1.95746	-70.3319		-72.1345
-4.408	-80.4811		-57.8566
-1.64698	-81.2718		-54.6869
69.7194	-42.2094		-70.6579
63.2809	-46.3278		-73.3637
68.5552	-46.5173		-64.6138
43.5706	-59.2218		-72.3204
50.4184	-55.0081		-73.7827
23.0686	-64.0621		-74.7876
57.0277	-50.4578		-74.4509
16.5952	-73.5453		-58.7101
10.2019	-77.0421		-54.9184
-52.0996	-80.5137		38.9308
-8.31047	-96.3092		1.03581
-27.5775	-98.2103		3.6493
-3.15848	-52.4772		96.9034
-1.88688	-55.5187		94.2781
-1.5285	-58.8322		90.973
-16.3275	-57.2347		100.619
-16.9198	-58.2873		100.74
-17.5887	-59.276		100.725
-11.9299	-71.4703		85.5406
-10.7373	-69.9728		86.2322
-9.80258	-68.6074		86.8576
1.74043	-53.3884		92.9824
3.54452	-72.1078		75.3097
15.213	-53.177		81.1396
12.2778	-57.5869		81.4923
9.18377	-61.5579		81.3763
23.3582	-76.5339		55.206
48.8853	-9.34999		69.231
67.351	-50.6676		-58.147
69.7201	-55.0148		-39.0362
68.8069	-56.9687		-36.5742
21.2951	-87.0685		-4.29333
43.6422	-22.8879		68.5503
82.6255	-18.8029		53.3082
7.56648	-34.3182		95.709
62.9128	-32.176		56.2905
10.5705	-36.7409		92.9031
68.66	-57.0903		-35.4575
-35.9084	-109.834		-45.8707
-5.78644	-90.5025		-42.2148
-1.57404	-85.3893		-47.6252
2.71629	-81.4488		-51.6167
18.6794	-43.2507		82.7381
-10.5716	-60.0375		94.3831
-3.85041	-66.1191		81.3181
-12.3352	-51.3339		97.0657
-70.6833	12.4217		23.3391
-67.6792	16.337		24.4925
-70.6821	15.1651		16.1584
-73.3874	8.5892		22.037
-70.2262	9.78911		31.4972
-111.965	-40.0138		1.57122
-103.794	-34.0837		1.68955
-113.166	-37.2842		-2.49892
-120.798	-45.566		1.06703
-110.212	-42.9829		5.39761
-127.48	-49.3891		0.378534
-126.653	-52.6237		4.6273
-127.914	-46.6165		-4.00543
-132.776	-52.2807		-0.364585
-93.4936	-36.2001		10.4321
-96.1319	-32.5457		6.1255
-99.3205	-40.6834		9.52614
-91.0012	-40.1253		14.3065
-89.7101	-32.3183		11.6396
-101.419	-25.2073		-5.83891
-100.064	-27.176		-1.78743
-97.6257	-21.6162		-5.45855
-101.89	-23.1155		-10.7557
-106.586	-29.5895		-6.23337
-78.7244	-7.27407		32.1917
-79.3166	-5.09811		25.0605
-80.1939	-11.2449		29.5789
-77.8371	-10.2978		39.054
-76.9813	-3.67785		34.4082
-10.7973	68.1692		28.8785
-15.4293	70.6213		18.0008
-16.2011	62.4654		32.1193
-4.55354	66.1463		38.8171
-5.49942	74.5223		24.2703
-11.8462	83.732		-22.5344
-17.8116	79.2179		-17.3062
-9.65353	84.3787		-12.1491
-5.91103	87.6778		-28.1113
-14.8018	82.0124		-31.9842
-69.4981	-68.3999		36.5386
-66.5156	-66.0873		38.6021
-71.0966	-66.421		35.7975
-76.2643	-74.861		36.5146
-68.1853	-70.1311		36.9921
-86.9819	-83.0075		34.9679
-97.491	-90.4499		32.788
-85.2047	-85.2074		35.6473
-88.4042	-80.0864		33.9121
-100.417	-100.897		32.0282
-104.962	-104.212		31.2193
-93.7271	-95.624		33.4876
-102.4	-98.1465		31.9309
-76.6165	10.1595		-22.8938
-72.0754	16.3658		-27.2361
-79.4871	4.40483		-25.4688
-80.3022	4.93544		-17.5497
-73.711	15.9344		-20.4302
-68.9916	21.0366		-30.3771
-67.3623	26.1869		-27.0006
-66.3428	25.1796		-32.9195
-71.1632	14.7772		-34.0195
-125.515	-40.1298		-20.0489
-127.33	-42.2915		-13.5951
-123.318	-38.8171		-26.9665
-130.927	-44.0177		-21.9509
-83.73	-87.3927		35.8808
-73.7049	-78.5225		37.507
-69.2438	7.20093		39.1012
-72.4858	2.95015		37.9326
-67.6071	4.86885		45.7814
-65.7063	11.9288		39.4313
-79.5807	-2.64546		17.4496
-77.7539	1.18554		19.1294
-80.1226	-0.824604		9.40101
-81.1688	-6.42241		15.3491
-57.7454	-69.17		93.6721
-53.9456	-65.4588		95.8395
-59.8534	-65.3076		92.4298
-60.6169	-71.8585		90.9362
-55.665	-72.4062		94.3089
-61.8686	-60.0662		90.4053
-58.3724	-56.3794		92.2696
-63.7019	-54.3194		87.3495
-64.7625	-63.2337		87.875
-46.1292	-67.4362		97.8061
-50.0677	-71.204		96.6287
-42.4573	-63.8831		98.2604
-47.9898	-64.8036		97.6856
-62.3336	-72.9897		88.2296
-60.4686	-75.8532		88.7792
-64.4755	-69.2829		87.0683
-64.0446	-72.8207		84.236
-65.3387	-71.5354		78.6337
-65.5905	-69.6716		71.6107
-63.4435	-74.5364		78.6794
10.0057	4.0648		82.3494
14.0849	3.38387		83.9762
12.7961	5.78727		79.7723
6.58952	5.08781		80.8317
7.09561	2.45002		84.7464
-34.1187	6.23476		79.0939
-37.9326	3.5765		78.8492
-28.6618	3.29436		82.0276
-30.1353	9.20944		78.9231
-39.1866	10.0367		74.6101
-35.4285	21.0682		68.7637
-39.8051	17.7442		68.6965
-30.8101	16.3056		74.4388
-30.1727	24.4336		68.6674
-38.7633	26.6812		61.3598
-29.5153	44.2763		48.0602
-25.7394	43.6731		51.8595
-23.2187	48.744		46.7436
-32.2707	45.0002		43.6519
-41.3942	0.692951		78.2492
-36.1725	-2.47583		82.2448
-46.4234	4.2313		72.8942
-44.6305	-2.60688		77.8446
26.0807	-6.32569		98.2057
24.2281	-5.20273		97.9803
23.2482	-8.84752		102.658
28.8706	-3.70218		93.5767
53.306	60.6333		68.0655
56.2828	65.6172		63.6377
47.9471	63.4766		65.712
50.1487	54.744		72.6983
57.7581	57.6711		69.7212
-61.7126	-73.3029		63.3128
-61.8823	-75.3924		71.7727
-63.3335	-70.9439		63.1031
-61.5378	-71.1694		54.1955
-65.1364	2.59506		52.3103
-61.2704	7.96243		52.8016
-68.9132	-3.10687		51.6711
-61.914	0.680656		58.5261
-58.8672	-78.2043		88.7632
-60.6742	-78.0972		84.2402
-56.9614	-77.2787		91.5951
-61.6869	-76.9926		78.4851
-72.0602	-40.5788		66.9625
-70.1766	-38.3069		70.3671
-73.1197	-34.7182		62.1873
-73.0645	-42.8259		63.797
-70.9173	-46.5853		72.4698
-77.031	-38.9376		41.0441
-75.1246	-43.8663		45.2761
-76.9775	-35.3923		46.1191
-78.8107	-33.8787		36.3913
-77.2087	-42.4741		35.3558
-61.8946	-69.1262		45.008
-63.7928	-69.0415		39.0728
-63.2552	-67.4257		44.6082
16.1599	-8.21021		104.926
18.7383	-9.77504		106.121
18.7161	-6.1381		101.188
12.778	-6.48315		102.647
14.1078	-9.82194		107.616
-12.1032	-0.85726		84.83
-7.26993	-0.93803		85.8716
-7.26914	1.69265		84.0877
-16.7921	-0.819511		84.4916
-42.691	-24.0672		88.1046
-41.7152	-25.5526		88.6326
-41.3236	-24.4		88.4827
-4.8579	-15.39		96.3475
-6.95205	-14.2028		94.6114
-5.17286	-16.6179		95.9331
-4.94162	-13.1986		96.4859
-8.2133	-18.7283		94.6249
-5.93058	-19.8844		95.9783
-7.33078	-18.191		94.7232
-10.5231	-16.9091		92.9357
-9.72105	-19.3961		94.6897
3.38245	-25.0348		102.834
2.34682	-23.4904		102.23
2.32295	-25.5054		101.616
4.47103	-24.5276		104.47
-12.2841	-14.4096		91.1941
-13.7417	-15.0318		91.2635
-11.1479	-14.0437		91.4689
-13.0155	-11.3556		89.5337
8.02316	-15.1328		110.208
9.23167	-13.9852		110.596
5.7467	-12.4121		107.271
6.59822	-16.485		109.206
9.74473	-17.5871		111.874
-50.0636	-37.7051		90.9463
-53.7018	-39.7819		89.4417
-48.9254	-42.2712		93.4904
-46.9	-36.1056		92.2086
-50.4474	-33.5114		88.69
-36.3728	-21.364		90.7477
-38.2289	-20.4208		89.5467
-34.1227	-22.411		92.3023
-32.4388	-19.4141		91.7193
-1.59777	-27.9757		99.7694
0.0420532	-26.7841		100.129
-2.62362	-26.3893		99.4816
-3.43853	-29.6014		99.8725
21.4892	-3.9475		97.1488
24.0053	-1.48529		92.7997
17.6478	-2.61718		95.4259
-4.52611	-4.93623		92.4384
-4.68764	-4.27055		91.0249
-6.02278	-5.83204		91.6275
-3.00931	-5.02193		94.6716
-2.1059	-4.52498		94.6761
-0.566357	-23.0343		99.5791
0.370114	-24.394		100.313
0.361702	-22.4204		100.162
-1.96422	-21.9652		98.5096
-1.85064	-24.1143		99.1578
1.27722	-22.1317		101.153
2.27881	-21.7142		102.603
-1.04928	-5.17079		96.8271
-2.91652	-5.87065		95.892
-0.13299	-4.81591		97.0508
-8.10937	-7.93668		91.0441
-9.5052	-10.5173		91.1465
-6.14946	-7.53477		93.2382
-9.63156	-35.1766		102.24
-7.50622	-33.2702		101.23
-11.0258	-32.6938		102.153
-11.1953	-36.2891		102.932
-19.6347	-12.3897		89.243
-15.8875	-10.0759		88.2426
-21.2701	-10.9918		88.4196
-23.7425	-14.7478		90.6697
-18.0186	-14.0268		90.3467
-37.7722	-50.0364		100.073
-40.0823	-46.4164		99.1773
-39.9784	-51.8334		99.1004
-35.5963	-53.5526		100.303
-35.9339	-48.6475		101.082
-34.7473	-25.5933		93.0487
-32.9768	-24.5878		93.8842
-37.9285	-24.5845		90.4407
-35.7225	-25.7388		92.424
0.492041	-4.60606		96.835
3.11525	-5.31879		99.2826
0.565395	-4.02313		95.2978
-42.1903	-42.8419		97.6666
-40.5005	-41.7989		98.5275
-43.7395	-39.1829		95.6477
-44.3018	-44.4225		96.7202
-33.6293	-56.532		100.081
-31.8656	-55.2674		101.041
-35.6383	-58.2207		99.2611
0.486508	54.8107		58.4641
0.248063	56.069		56.9145
-6.03107	52.2368		55.0215
0.938705	53.5497		59.881
34.9316	56.7127		69.338
38.3641	61.5365		66.0199
28.0664	59.6275		65.248
31.7931	52.677		71.8471
40.63	53.8479		72.9838
20.3157	62.3503		60.5067
23.2933	67.1597		56.5653
11.9106	64.1269		54.8005
18.1832	58.5655		63.8197
26.3665	47.9697		73.5863
28.3209	49.3062		73.3197
24.2212	46.6384		73.5392
31.3204	45.3103		77.4815
-0.505546	57.8981		54.1282
-8.49064	56.0026		49.1382
8.80889	58.0453		60.8069
0.358469	60.5247		51.3525
30.2247	29.4332		76.676
31.7322	26.1346		76.8582
31.8704	30.0986		77.4026
28.1321	32.6858		76.2592
28.281	28.6112		75.7611
30.0806	4.89697		83.3569
28.3694	3.26924		85.3899
33.5712	3.73261		84.0108
31.5325	6.19409		82.0212
25.926	5.55123		82.101
-4.84054	10.0145		78.4936
0.252088	7.28643		79.4608
-1.09073	11.041		77.2372
-10.7311	13.7187		77.458
-9.05269	8.55616		80.0377
-15.1816	39.7105		60.0996
-16.1633	35.3144		63.6898
-11.6752	38.9845		61.5017
-12.0567	43.4285		58.0471
-18.4737	40.459		58.5286
26.3306	1.09646		88.6026
29.419	-0.014503		89.2241
22.4483	1.90654		87.5674
22.3865	45.6458		73.4122
20.9505	44.2603		73.3699
26.9985	42.5046		76.5528
18.1072	49.0953		71.0044
13.3015	51.8129		68.2809
7.25246	52.5849		65.0002
12.3055	50.1381		68.7658
-5.12201	43.3028		61.2034
-6.45878	44.7214		59.7157
-7.40076	40.9888		61.3561
-3.86763	41.7141		62.6771
-2.08361	45.6279		62.0329
6.59519	36.3658		70.511
8.6884	35.5811		71.7014
4.40634	36.9084		69.1379
10.7735	34.6873		72.5609
12.807	33.3632		73.109
11.5804	35.3606		72.7986
9.29356	36.4355		71.8895
13.7886	33.8698		73.3353
14.9468	31.58		73.3027
16.7996	29.2968		73.2515
15.9198	31.9122		73.4768
17.862	29.4191		73.3618
18.2966	26.6496		73.0516
19.2119	23.8207		72.7008
19.6686	20.9007		72.088
19.7696	18.2307		71.4351
21.1116	20.4445		72.1015
20.5366	23.4036		72.7007
21.1174	17.7324		71.5597
19.4512	16.3152		70.9676
22.433	19.7963		72.2186
21.9411	23.1296		72.8339
16.9503	32.3118		73.675
19.0527	29.6135		73.548
-1.96521	37.0684		65.6874
-1.9985	35.594		66.4552
25.3934	35.8645		75.7629
23.6309	34.8742		75.0696
27.1548	37.0039		76.4716
22.2383	39.2778		74.887
9.03224	43.3342		69.9457
8.20301	40.8262		70.4164
12.257	41.5725		71.7286
10.1723	46.0063		69.5115
-1.20625	22.4939		73.1591
3.28377	17.288		74.332
-4.21816	27.574		71.0351
-2.73634	21.9292		73.2478
7.91796	13.9789		74.2267
6.6318	13.3964		74.6541
11.5927	12.1874		73.6798
17.0469	11.5192		72.4841
15.5191	11.4737		72.8903
18.0322	11.7499		72.1383
1.59103	23.7482		73.0167
5.45248	19.1128		73.8835
-0.875524	28.4648		71.234
14.8102	13.565		71.8838
15.838	13.3405		71.4746
12.9484	14.2151		72.5384
16.6729	13.1858		71.2725
17.5811	13.1717		71.1511
27.4734	15.0672		74.3293
30.1151	15.8134		75.5445
27.9358	17.6586		74.21
24.5542	14.3832		72.949
19.4802	12.4324		71.9232
20.8509	26.4379		73.2812
23.0691	14.3824		72.2407
23.7264	16.4308		72.2726
22.0794	12.864		72.4436
2.67637	24.5282		72.9475
6.45065	19.8887		73.6971
15.343	14.2489		71.2582
13.8274	15.0065		71.9152
16.1331	13.8619		71.0141
16.7293	13.7842		70.7803
2.49758	37.1271		67.7688
44.4043	13.4823		80.334
46.1603	16.3959		80.5344
42.2651	15.1067		80.0958
42.9511	10.8152		80.334
9.13815	8.25117		76.8088
6.09078	9.49305		76.5088
6.88739	7.29487		78.2168
11.7252	7.61837		77.1853
10.7913	9.0841		75.7556
14.7374	6.95254		78.0239
18.3008	6.42012		79.2705
18.5597	9.68123		74.4413
19.7359	10.701		73.4531
20.6504	9.03521		75.6947
30.3134	11.4974		77.2723
31.8802	11.5827		77.9464
31.2589	13.6915		76.7153
13.8719	11.5971		73.2413
13.237	10.7876		73.9525
12.2184	9.87212		74.7944
9.23104	10.8492		74.8956
-34.6851	-30.1944		92.2054
-31.5053	-32.5611		94.6815
-37.2855	-27.8633		89.873
-34.6248	-30.2012		91.9312
-38.6722	-26.7071		88.784
-38.397	-26.8618		88.7041
-14.0197	-38.5084		103.424
-15.1303	-39.5868		103.247
-12.9416	-37.623		103.414
-15.8337	-35.9006		103.233
-20.1462	-36.0163		102.161
-22.4303	-34.3431		101.336
-21.2235	-37.316		101.52
-18.2684	-38.0688		102.636
-18.9068	-34.954		102.594
-24.8943	-32.4822		100.141
-27.9707	-30.6091		98.343
-26.1188	-33.5734		99.3492
-23.8154	-31.4789		100.636
-17.6035	-33.9444		102.844
-16.4295	-33.0901		102.928
-19.9145	-32.2846		102.107
-19.9138	-29.739		101.437
-21.4247	-29.9201		101.198
-17.2208	-31.3553		102.426
-18.628	-29.3167		101.43
-32.2272	-29.171		95.2147
-30.7687	-28.3744		96.399
-22.0576	-38.789		100.616
-24.58	-36.5772		99.7286
-22.3917	-39.5603		99.9059
-19.9032	-40.7544		101.215
-27.5799	-34.3471		98.0899
-28.2018	-34.7942		97.251
-38.0961	-25.4664		90.3072
-40.0753	-25.3797		88.8649
-35.5869	-30.7703		92.8787
-35.7719	-30.8944		93.2439
-32.6102	-33.6291		95.8327
-35.5223	-30.7419		92.6112
-37.1278	-31.5279		94.1107
-35.1115	-34.9346		97.7294
-36.6266	-31.3118		93.9155
-33.1527	-37.8648		100.228
-34.1403	-38.1404		100.335
-30.6246	-40.6883		102.05
-32.2909	-37.3751		99.8313
-25.5157	-42.4652		102.151
-23.4678	-44.9969		102.644
-24.4653	-41.5906		101.272
-28.2976	-39.5143		100.993
-26.7379	-43.3286		102.902
-24.2024	-49.1815		103.907
-23.1205	-48.2368		103.455
-25.671	-46.856		103.871
-25.1871	-50.02		104.144
-39.9587	-27.4906		88.0801
-39.4083	-27.1736		88.7104
-38.6284	-28.836		89.5444
-40.973	-28.5836		87.4316
-20.87	-45.5553		97.9958
-20.2101	-45.1359		99.1541
-22.1631	-46.6324		96.7568
-22.5621	-43.7491		97.9779
-26.1145	-50.8306		104.184
-27.5896	-48.3031		104.244
-26.9993	-51.5133		104.047
-30.2276	-54.046		102.153
-28.8704	-52.9753		103.125
-31.8202	-51.244		102.443
-15.4955	-32.6949		102.875
-13.7256	-34.3245		103.132
-13.967	-32.3053		102.67
-21.9544	-47.1196		102.744
-20.8224	-46.0681		101.845
-20.2372	-45.4836		101.157
-20.0756	-45.1524		100.644
-21.8245	-43.5379		101.124
-23.9535	-41.1484		100.647
-23.7521	-40.9848		100.173
-26.6561	-38.5709		99.6652
-20.0715	-44.9926		100.033
-21.6178	-43.2058		100.002
-29.6708	-36.1101		97.9537
-30.2235	-36.3296		98.5005
-29.4845	-35.9968		97.4637
-36.8248	-39.5961		100.239
-37.8042	-40.1129		99.8621
-34.6585	-42.4887		101.974
-35.9561	-39.1089		100.411
-31.6954	-46.0729		103.393
-32.812	-46.617		102.894
-29.3268	-49.5564		103.887
-30.74	-45.6499		103.656
-27.8724	-52.1924		103.711
-28.4005	-34.8842		96.7179
-28.3395	-34.8732		96.1244
-25.2944	-37.2431		98.4048
-39.1579	-27.0402		89.395
-38.1212	-28.474		90.7832
-24.7865	-41.4877		97.6203
-24.0066	-41.1065		98.6844
-26.1211	-42.3571		96.5636
-27.4367	-38.9337		96.7877
-23.7115	-40.9826		99.5719
-26.4242	-38.4877		98.5915
-34.1984	-47.5209		102.111
-36.9656	-43.9519		100.877
-35.0245	-38.6462		100.461
-32.7569	-41.5573		102.295
-39.0499	-40.8884		99.2836
-40.4874	-37.6139		97.1538
-27.8716	-34.806		95.5982
-30.6534	-32.7199		94.0165
-26.4368	-34.1806		94.4687
-25.063	-36.832		96.7015
-22.4677	-39.1171		97.4552
-22.5652	-39.6434		98.5501
-21.8857	-37.6274		95.6949
-20.4404	-40.9512		97.5451
-23.7482	-32.3243		92.7708
-26.0049	-30.729		91.8537
-20.6538	-29.5156		91.1729
-21.6194	-33.8381		93.3714
-43.248	-31.133		86.9641
-41.9269	-32.5417		88.5667
-45.7015	-34.4352		87.0896
-24.7782	-49.0192		95.6997
-28.3564	-51.8219		95.4187
-26.3679	-47.1586		95.7931
-19.6524	-35.3624		93.7096
-16.4787	-32.5891		92.0936
-17.6844	-37.0004		93.827
-28.5611	-44.7228		95.5694
-32.1755	-47.6562		95.1055
-31.2123	-42.1		94.8889
-41.6254	-25.5113		82.0172
-41.9124	-25.3744		81.0817
23.7351	8.37066		77.4262
23.0996	7.16079		79.0199
-53.333	52.0879		-34.2143
-54.5271	52.7025		-32.2838
-50.2732	55.7075		-34.3617
-51.9838	51.4283		-37.8235
-56.103	48.4519		-33.3305
-35.7456	61.2869		1.67129
-33.0595	61.5582		6.20018
-34.1349	63.9051		-2.6219
-33.023	65.8767		-7.87549
-34.368	66.6252		-14.6987
-37.2198	62.8432		-8.56859
-28.757	69.5117		-9.48069
-66.6646	29.956		-24.4512
-64.7323	33.7101		-26.3231
-68.8357	26.0553		-21.7935
-66.4322	33.1883		-22.5948
-62.8708	37.1964		-28.4577
-63.2904	39.5338		-26.355
-60.8289	40.9616		-30.3456
-62.9176	34.1557		-31.5656
-55.3713	53.7721		-31.2056
-51.8684	57.4884		-31.6145
-58.0166	50.3896		-30.1518
-55.9418	55.2703		-30.674
-66.9076	41.9114		-22.5355
-68.2933	41.8337		-21.2471
-65.0192	42.1214		-24.2011
-69.2969	41.7909		-20.068
-67.2196	45.6286		-22.2198
-71.2422	37.8706		-17.4819
-69.9778	41.9247		-18.719
-64.9721	51.9868		-20.1195
-62.7498	56.4048		-23.3326
-64.4718	52.2899		-19.3739
-73.3729	27.0666		-9.36192
-72.6762	28.8223		-12.5023
-72.3661	27.2403		-11.6471
-73.4008	26.0656		-7.31147
-73.791	27.1849		-8.55824
-68.1996	32.3711		3.02119
-68.3958	31.7463		3.04394
-68.884	30.4484		2.7527
-64.1166	52.4634		-18.9908
-64.1397	51.568		-18.0648
-55.3782	65.0967		-23.2859
-55.0822	65.7255		-24.8281
-56.1374	63.9619		-21.5756
-47.5855	72.1072		-21.3686
-46.7458	73.2606		-21.5209
-45.1436	74.7061		-20.5971
-43.0545	75.5973		-17.6876
-44.9456	75.2022		-20.9979
-44.7068	73.9467		-18.4536
-52.61	50.1749		1.55957
-49.3667	55.0204		0.755489
-54.9898	46.566		2.30503
-51.6084	50.1747		2.76483
-60.674	34.3148		9.14161
-57.775	37.6931		9.40199
-63.1587	31.3239		8.855
-60.1765	33.0392		11.8573
-60.2531	41.5407		0.152936
-58.7745	42.9186		-0.105286
-62.0371	40.4384		-0.205573
-37.6191	62.478		-8.48891
-37.6255	62.4897		-8.28179
-37.1889	63.9508		-11.9666
-37.2044	74.105		-8.53392
-36.8431	76.2703		-11.6157
-38.1637	74.1377		-7.41046
-38.3704	70.5949		-5.60219
-36.446	73.8144		-9.82608
-36.5157	76.7871		-16.6774
-35.904	75.7687		-13.8033
-36.9207	75.5499		-18.0594
-38.1425	76.5935		-20.1501
-36.5451	77.0508		-16.1601
-50.0548	68.0838		-29.9041
-50.5087	69.0119		-29.2561
-45.4722	72.1999		-27.3264
-49.9171	67.1705		-30.1572
-46.5408	59.0094		-0.0221806
-47.716	58.421		-0.561254
-52.0839	69.5205		-26.4807
-48.2764	73.2014		-24.4698
-52.2286	69.5225		-26.8348
-54.0091	67.3706		-26.5552
-41.6628	75.4674		-13.8662
-41.1042	74.0316		-9.9965
-40.9147	76.1738		-13.307
-42.6267	74.432		-14.5383
-47.1259	60.9324		-2.66411
-45.7878	63.0445		-3.45843
-48.0532	59.2246		-2.04475
-51.0047	69.3993		-23.8693
-52.7994	68.2236		-25.5976
-51.1242	54.8643		-3.68695
-50.1396	56.2908		-2.62788
-51.0795	55.2397		-4.39544
-54.8208	60.3542		-17.1311
-54.3322	63.9007		-18.9375
-55.5845	59.5183		-17.241
-54.2569	60.4058		-16.5656
-55.1565	40.8653		9.14906
-54.5831	39.85		11.6314
-52.271	44.7013		8.06055
-47.9192	61.149		-30.3897
-46.5659	63.5297		-29.4612
-44.0942	64.0683		-28.5411
-47.714	59.9898		-31.6324
-44.0647	68.5742		-26.7521
-47.5194	66.134		-29.4092
-41.8753	73.4424		-24.8129
-40.7495	70.7115		-23.7807
-49.972	65.6679		-30.2073
-53.468	61.0486		-30.8437
-56.93	57.2496		-30.2731
-63.8898	41.2386		-25.2979
-62.1876	44.2726		-27.0577
-65.3972	38.1534		-23.4222
-60.2542	47.2733		-28.7453
-59.4401	45.9327		-29.9749
-63.6259	51.0719		-17.1123
-66.745	35.2015		-21.6749
-68.4849	31.6188		-19.2758
-72.7772	25.8739		-4.48416
-72.6276	25.293		-4.39952
-72.3714	24.6964		-4.14119
-72.5429	25.3073		-9.71096
-56.33	59.2077		-17.6494
-56.7693	61.8531		-19.6789
-50.6724	50.0461		3.75665
-49.7849	49.6602		4.87815
-59.2401	38.6916		5.99943
-59.6324	38.8843		5.37422
-65.0001	38.4059		0.391839
-64.3583	39.3919		-0.534369
-67.2741	37.9097		-0.934926
-56.8179	43.9716		2.9384
-57.3813	44.407		0.789152
-38.8607	71.4555		-20.7499
-37.458	70.8632		-17.5848
-40.3873	67.3103		-23.619
-41.1213	65.6956		-25.4425
-38.6703	66.2988		-21.3655
-41.1894	65.2652		-26.5622
-49.1537	69.2078		-18.9829
-50.1522	68.0068		-18.5777
-50.9517	56.1838		-5.82683
-50.9119	58.0383		-8.43319
-53.5577	60.9166		-16.1155
-53.0191	60.3952		-14.8083
-52.0954	64.8654		-17.2927
80.0239	55.9846		60.5679
84.2313	61.2156		53.1071
74.4388	60.7269		60.9255
75.6149	51.02		66.4804
71.2702	45.9693		71.2654
66.4007	50.5777		71.2196
66.3581	40.5678		75.3072
46.0497	50.5834		75.4347
49.7236	46.8597		77.1008
42.1108	46.8786		77.7559
5.69798	-24.0512		106.423
4.26712	-22.4174		105.404
6.86591	-23.2546		108.303
14.1806	-17.4085		112.99
12.8289	-18.5734		113.087
15.5262	-16.0938		112.398
12.3618	-15.3259		112.232
11.3798	-19.7546		112.688
9.89194	-20.9055		111.769
1.24865	-26.0123		100.753
-5.4419	-31.4636		100.398
-6.895	-29.6482		100.383
8.31891	-22.0792		110.241
6.72482	-20.2506		109.238
16.894	-14.8309		111.368
18.5066	-13.2688		109.556
14.9878	-13.0392		110.745
52.6293	26.5819		80.901
55.7678	29.997		80.2949
49.0512	31.0239		80.5825
50.2168	23.8937		80.9846
35.7141	2.58125		84.0188
37.2616	3.87683		82.6974
33.7784	1.07455		86.0548
38.7247	5.21326		81.723
40.1286	6.77484		81.0184
36.5593	6.38736		81.7185
-18.55	-42.7883		97.3339
-18.7897	-43.7212		98.9412
-17.7393	-41.3083		95.6894
-18.7526	-43.9088		99.9351
-18.634	-43.7295		100.431
-20.3131	-42.0613		99.8717
-16.1875	-40.5506		102.888
-17.1698	-41.6188		102.299
-18.0205	-42.8067		101.427
-12.1797	-36.9341		103.264
-15.5888	-38.9403		93.7199
-12.5062	-36.1475		92.0108
69.4341	64.4254		60.7309
72.9582	69.7393		53.7834
64.3042	67.5313		60.097
65.7964	59.4749		66.1133
46.328	35.8893		80.1805
48.761	38.2488		79.8488
43.3918	40.588		79.5728
42.6548	33.2604		80.0618
39.3855	32.128		79.5511
35.852	31.4236		78.763
36.5594	36.5776		79.0082
33.6494	30.853		78.0954
31.5341	34.4381		77.6462
35.4251	26.9673		78.4093
22.2639	26.3308		73.5198
20.2993	29.8429		73.7565
23.5084	22.7482		73.0875
23.8018	26.8512		73.9614
19.5311	26.5147		73.1339
25.8015	27.4349		74.676
27.2614	24.1278		74.6065
23.8599	30.8373		74.6249
51.9381	85.1698		40.1557
49.1188	80.3798		47.4958
58.8199	83.2899		42.0798
53.8716	90.2782		30.1817
59.2671	70.3192		58.7085
53.4087	73.0468		56.4933
62.1033	75.3859		52.3267
39.9608	44.8521		78.5284
35.5285	47.7802		77.4465
36.7876	42.3683		78.787
28.979	38.3244		77.2226
31.2966	39.3881		77.9231
34.244	40.6863		78.5428
21.5021	33.7471		74.5038
18.3063	36.4591		74.0099
19.4408	33.2055		74.0671
46.651	75.8309		53.1908
44.1363	71.26		57.9593
39.4504	78.6107		48.7504
29.8408	50.6164		72.844
24.051	53.4943		69.3905
12.8529	36.9069		73.0192
10.178	38.3401		71.9482
15.4734	35.0388		73.6711
14.0084	37.8557		73.1068
18.966	42.868		73.199
15.4789	46.2841		71.3379
17.2083	41.0147		73.1381
15.3935	39.1969		73.1258
41.4752	66.4435		62.2087
34.0708	69.3658		57.7914
32.6893	81.5369		42.8414
26.5745	84.2924		35.638
29.7185	76.9256		47.9018
7.01634	37.1987		70.6571
4.68754	37.6566		69.2322
7.48895	39.382		70.499
4.98339	39.6141		69.0772
7.33361	38.0935		70.6998
11.3457	48.3337		69.1528
6.35239	48.6186		66.5051
32.4867	22.832		76.769
34.2528	23.086		77.6206
30.5282	22.0012		75.7354
32.4956	19.5982		76.5492
36.4766	23.0974		78.5116
36.4006	19.9531		78.3887
27.9568	20.7474		74.3718
25.7899	19.9695		73.3549
48.1806	20.7233		80.8094
-81.5392	-0.357138		1.56575
-82.4786	0.219547		-4.99066
-78.9205	4.17393		3.60776
-28.0475	72.6055		-29.8237
-32.6798	69.1887		-24.2656
-25.7707	73.8004		-21.8151
-23.4759	75.9672		-34.9387
-31.3833	70.2178		-35.3186
-50.7417	50.3475		-44.0011
-46.9675	55.03		-44.1882
-49.9575	49.0618		-49.8768
-54.4729	45.3968		-42.3223
-42.6387	59.6759		-44.032
-44.9349	59.2667		-37.448
-38.6516	63.705		-42.3678
-40.6535	59.9287		-50.816
-63.7579	29.4704		-35.954
-60.8099	34.8978		-38.4425
-64.5888	25.202		-40.1002
60.6562	35.3121		78.3639
56.7815	39.1626		78.3808
53.2093	43.1879		77.8569
57.9118	49.1293		74.6357
-69.1613	-59.7577		59.0791
-66.8926	-64.6951		61.8961
-71.1929	-53.8588		54.2738
-68.5114	-59.5982		50.0185
-76.6076	-32.273		50.3945
-75.6126	-30.1683		54.2149
-77.9722	-26.4984		45.5387
-75.0184	-38.8632		55.0578
26.3822	72.1092		52.2706
19.0458	74.3897		45.8747
62.059	54.438		70.6591
20.4276	87.0383		26.9257
16.0984	81.942		32.7367
15.1244	89.4007		17.7449
77.015	75.6615		43.9387
82.7524	71.782		43.7157
80.7377	81.2917		32.0447
71.1746	78.6413		43.9825
2.92762	64.988		47.3146
7.39193	70.7301		42.8589
2.57034	39.5494		67.515
1.21013	52.1946		61.056
1.46916	50.2123		62.3822
-3.90983	49.2447		58.7882
1.70869	48.0298		63.6523
-67.0304	-71.8572		37.1885
-76.3706	-14.9853		46.5919
-78.1557	-18.1273		43.1073
-74.9549	-21.3153		52.9787
-74.319	-11.8753		49.2036
-12.2418	-31.3881		102.053
-10.1895	-30.0688		101.19
-13.7683	-30.2787		101.845
-30.5775	-23.4723		94.4729
-26.7625	-24.1469		96.7232
-26.7752	-21.4987		94.9313
-11.8266	-26.3747		99.6007
-9.37909	-24.9328		98.5953
-14.4537	-24.7528		98.6123
