1826
-23.6831	-81.5839		89.2336
-24.8366	-91.0024		85.732
-17.0717	-92.6229		89.3318
-32.6018	-78.2071		82.6712
-33.5151	-86.8308		79.5588
-13.9892	-73.9561		92.7359
-17.5832	-97.3558		82.7793
-18.3491	-99.5692		72.4162
-12.4727	2.09955		86.271
-11.523	10.1023		80.5785
-17.3796	6.63327		78.1544
-19.2227	-2.34527		83.427
-58.7033	-27.8806		67.3847
-46.9367	-26.4738		77.7476
-44.2831	-17.2449		78.299
-56.5571	-18.1517		69.4751
-66.8179	-16.8266		53.3115
-53.9588	-7.90686		69.0127
-64.9524	17.6543		43.7487
-68.7253	17.6009		34.3804
-48.162	-35.8359		75.835
-59.6341	-37.2143		64.6096
0.028903	9.64135		92.878
-1.30428	-1.0009		99.812
-21.1361	79.9473		62.1858
-32.5753	78.1539		57.1779
-33.5051	67.2608		65.5866
-22.8072	67.8223		70.9458
-17.9279	-102.494		59.0707
-67.6399	-38.2089		49.2769
-67.0415	-49.6112		48.1853
-44.7281	-79.7398		70.0827
-55.0225	-72.0282		61.3087
-55.0197	-78.5216		54.6344
-47.2011	-89.9132		37.912
-52.3244	-83.507		47.6183
-60.4323	-75.4735		35.2621
-54.4576	-83.5331		27.2795
-2.96332	-9.76851		105.863
-7.32812	-2.90675		96.1532
-8.84426	-10.4406		101.215
-21.2558	-13.1697		87.418
-29.7301	-16.1519		83.3915
-32.9452	-53.7963		79.3836
-15.4688	-24.6107		92.0618
-14.8461	-26.9815		90.2021
-11.4877	-31.7214		90.6646
-15.058	-29.1923		88.8412
-16.1375	-31.1563		88.2827
-4.09538	-27.907		99.0607
-4.44463	-29.7502		95.618
-21.405	-29.0959		85.9627
-4.10836	-18.5243		109.154
-9.98676	-17.081		103.645
-9.78915	-20.5929		102.516
-4.38876	-22.0653		107.6
-37.1438	-64.9831		78.5807
-29.8335	-69.5296		84.2406
-26.8106	-63.1975		85.5642
-32.4907	-59.8134		80.7002
-33.0289	-42.7964		81.7209
-28.1219	-41.4884		84.1059
-4.88092	-32.0447		93.9224
-5.92772	-35.588		93.2452
-6.05526	6.38319		90.0139
-18.3726	-15.6189		92.0166
-18.7225	-18.4579		92.2227
-17.768	-16.0773		93.41
-7.6946	-31.6043		92.6605
-18.2587	-22.9462		90.4502
-7.51562	-39.1384		93.5557
-8.88401	-42.5904		94.307
-30.4292	-34.3568		83.0689
-25.1174	-34.4781		84.9751
-18.9744	-61.362		90.881
-19.8385	-65.2794		90.017
-12.6147	-66.3455		92.3773
-12.0524	-62.6886		93.1935
-25.2449	-47.9547		85.6162
-29.3949	-50.3217		81.4392
-14.4943	-12.4836		95.3624
-24.951	-59.5999		86.816
-55.3363	42.8308		58.9415
-61.5875	31.392		48.1508
-59.2388	28.7164		53.5087
-44.9962	63.7938		57.1339
-44.5814	54.6641		65.18
-33.6333	57.5344		74.5011
-55.5839	57.6375		45.6101
-55.6454	47.3715		54.3008
-34.3006	54.0188		77.3581
-44.5475	50.6099		68.3905
-18.3043	36.3196		76.9862
-16.497	40.4206		79.6336
-25.2182	43.53		78.206
-26.3096	39.2612		76.1119
-5.78305	14.2506		84.1447
0.373903	17.9703		87.4891
0.517469	22.5589		85.3155
-26.4271	-5.51278		81.2019
-23.4513	4.13783		76.9355
-36.4762	1.74566		74.4783
-40.7437	-6.97447		76.5637
-54.3635	10.8061		59.3895
-56.5836	17.1943		55.5029
-61.136	16.6729		50.2259
-46.2284	42.2227		69.5218
-35.5918	43.9829		75.6635
-35.225	49.4964		77.3553
-53.6744	36.273		63.0535
-56.3869	26.8425		57.4437
-35.5216	39.2957		73.9723
-47.8125	28.9423		65.7897
-43.3583	33.0707		69.5163
-9.13779	25.5059		76.5362
-12.3531	30.9326		76.5506
-14.7647	26.2169		72.9075
-2.70879	38.2838		83.0338
-0.264532	32.2451		83.3096
-21.7982	8.7177		74.6931
-7.06771	28.7348		79.0857
-21.3867	11.7185		73.244
-20.4534	-50.6855		85.1229
-26.4159	-51.5909		81.3629
-10.145	-47.2049		94.2127
-9.63824	-44.6603		94.5429
-14.8352	-46.7276		92.5707
-14.9069	-48.4573		91.7147
-10.2314	-48.8838		93.4072
-19.9734	-47.3029		89.2982
-14.3266	-44.4923		93.0139
-19.6075	-45.2442		90.039
-14.8302	-49.796		90.109
-9.51251	-49.9963		92.2709
-21.2012	-51.9617		86.9012
-20.8497	-51.7148		86.1617
-21.8657	-52.8419		87.7699
-17.2126	-54.6139		92.3969
-16.3121	-53.0736		92.0288
-10.5889	-53.6114		94.3842
-9.84213	-51.7749		93.2234
-15.3366	-51.5972		91.0692
-11.1992	-55.5515		94.96
-26.8661	-52.6111		81.2977
-9.3323	-51.5321		90.696
-11.6661	-57.6549		94.9667
-11.8512	-59.6985		94.3886
-12.6916	-42.5584		93.3334
-9.56105	-51.2509		92.342
-14.883	-51.1362		90.2213
-18.4917	-58.3765		91.8204
-17.94	-56.4251		92.3443
-14.5053	-49.9613		88.6797
-14.5655	-51.4834		88.7745
-18.8485	-49.3077		84.6805
-14.1007	-48.6748		86.7946
-27.1255	-54.4343		80.4967
-9.54708	-53.3361		88.8115
-9.27291	-50.0989		90.512
-9.68108	-48.5314		87.8906
-14.965	-53.1982		87.1218
-28.5089	-44.5137		76.1484
-32.3156	-48.4953		73.7497
-17.5136	-43.5316		82.5623
-12.8854	-43.3051		84.3471
-31.3461	-59.5066		76.6489
-27.2816	-60.2513		80.0448
-10.3669	-59.2469		87.6603
-6.30901	-59.6271		88.2698
-8.5046	-43.2798		85.2351
-15.5959	-59.2692		86.0144
-33.2914	-55.4216		74.0135
-78.9523	-6.24805		-42.9014
-79.2458	2.50204		-43.909
-75.7472	3.39949		-48.7751
-75.325	-6.47024		-47.7091
-76.4691	12.0461		-0.401124
-75.2999	27.2879		-9.3777
-75.5611	26.1936		-27.9205
-77.4036	18.5508		-23.7883
-77.3907	-20.3234		-36.23
-76.2321	-27.2767		-32.0444
-78.3754	-13.6309		-39.9458
-74.0349	-16.2252		-44.6472
-81.8129	4.73021		-42.6881
-82.2588	-5.67086		-41.4327
-82.9146	-22.7735		-31.5945
-84.4	-14.5842		-36.2782
-80.9865	-30.5847		-24.7036
-78.9003	-32.5671		-21.5275
-88.3728	-4.69871		-33.1461
-89.058	9.45451		-37.4697
-77.7438	-13.8297		-0.880183
-77.2326	-22.2136		-1.89325
-81.1361	-10.785		-11.7515
-81.7197	-14.7474		-12.2493
-77.4615	17.9102		-22.3901
-85.6497	5.01112		-43.0452
-84.3653	27.161		-24.3452
-86.2221	26.349		-22.254
-83.0769	25.9898		-26.5434
-83.6264	10.6984		-13.4011
-89.3264	16.9119		-37.4036
-88.6208	4.7602		-32.2434
-88.1383	7.48091		-30.9597
-80.6896	15.1222		-37.8259
-78.8679	12.2752		-40.8448
-80.4266	-19.2702		-34.8335
-80.0565	5.20248		-8.55243
-79.2138	19.2174		-30.9443
-78.3566	18.0381		-33.4561
-86.6317	18.6483		-23.9765
-85.0033	-1.01658		-26.336
-6.51309	93.6679		52.694
-8.31173	80.3176		64.8381
-9.86977	66.6459		73.8769
-21.7031	57.3773		78.3885
-4.20527	-25.7012		103.561
-3.84009	-14.6642		108.526
-9.37063	54.0006		80.7298
-8.69705	47.4389		82.1769
0.764071	26.9157		84.106
-19.9524	91.7766		50.8566
-22.0302	52.136		79.9758
-23.9367	47.5114		79.4954
-27.9524	34.3472		73.3622
-20.252	31.0877		73.4352
-31.8905	88.424		46.6215
-30.943	99.7595		27.9255
-35.9699	34.7781		72.2486
-44.7637	73.9864		48.6716
-45.462	37.7224		69.5084
-55.1934	69.3182		35.425
-51.2908	32.6214		64.5663
-10.5064	34.4994		79.3085
-71.8025	-51.1761		-15.0398
-75.6151	21.4313		-39.6303
-71.2304	29.838		-51.2655
-70.8055	4.5918		-60.5594
-70.0053	-9.22616		-57.9503
-75.6504	13.6444		-46.3886
-70.8115	18.1216		-59.0806
-68.1437	-22.3514		-53.0911
-25.5667	-100.54		55.8865
-37.3109	-95.7119		48.1292
-63.8384	-69.1297		42.1307
-63.6359	64.2769		16.7942
-3.64448	108.014		31.5037
-18.0107	105.107		30.3991
-49.7003	23.6491		62.3709
-64.022	-61.8181		50.0876
-10.8677	-38.9784		92.8479
-22.2833	-40.0429		87.3942
-9.0591	-35.3093		92.4283
-13.6704	-35.4318		90.6202
-16.1629	-39.2937		90.754
-38.2793	-43.9588		79.3802
-37.9631	-51.2259		78.1552
-75.1153	-36.6929		-22.9936
-75.6111	-24.346		5.4554
-76.2869	-15.0284		6.38804
-73.4527	15.0645		16.7128
-74.476	-0.606861		19.5096
-51.3473	14.2829		60.8131
-74.5025	-14.241		19.304
-73.8849	-25.5777		18.3949
-13.8394	-6.7407		91.4674
-17.2281	-21.1096		93.3196
-14.8633	-20.1412		96.6735
-37.0229	-34.7452		81.0456
-58.8596	-47.8166		63.4427
-47.8161	-45.7338		74.1702
-56.3017	-57.1034		64.8294
-67.6374	-27.3157		51.2271
-42.0932	-71.8189		74.9727
-50.571	-64.8186		69.0844
-50.1715	2.06479		67.5779
-47.143	7.25598		67.371
-46.4056	-53.571		73.8436
-42.7317	-59.6514		75.31
-21.6606	-72.2555		89.7027
-33.7009	6.58546		73.458
-9.72904	-14.1602		103.149
-71.911	-14.4356		35.5474
-71.797	-26.4948		34.5459
-4.35144	31.1605		81.4878
-19.2635	-35.0158		87.7807
-24.2115	-50.0281		81.6434
-22.9451	-43.7542		79.6406
-47.3727	-131.034		22.6996
-55.2873	-126.728		15.5246
-59.186	-140.97		13.5365
-50.9406	-144.718		20.0641
-51.5036	-92.134		20.7171
-44.5733	-97.8369		29.5985
-51.2756	-105.348		18.0331
-43.6774	-109.884		26.6099
-36.0424	-55.8321		78.4101
-59.7183	-78.1791		15.1608
-63.9673	-70.3504		20.5361
-61.9442	-122.831		7.81567
-65.9285	-137.042		5.8967
-65.945	-67.7209		6.65453
-63.8063	-75.4716		2.53822
-67.0256	-74.3772		-8.09911
-67.3452	-89.6797		-33.1235
-76.6644	-28.7588		-4.12592
-66.832	-73.8307		-32.399
-62.3628	-101.867		-48.2583
-64.7811	-118.634		-49.8653
-41.6948	-148.15		25.6645
-38.2088	-134.889		29.3111
-34.6622	-103.611		39.4063
-34.0393	-114.521		35.4193
-30.0229	-56.7634		81.5607
-20.6262	-52.0557		85.1803
-20.9953	-53.5546		84.2242
-32.3368	-150.996		30.0819
-21.6271	-59.7992		83.3668
-68.4689	60.6027		-4.63333
-54.0489	-77.7225		-57.307
-55.2816	-98.5073		-58.4569
-60.7074	-82.3438		-46.9619
-57.3855	-116.114		-60.4771
-61.0757	-61.5943		-46.8264
-0.440898	118.066		2.49951
-15.4421	114.737		2.31662
1.26545	108.799		-66.9153
0.945007	87.9463		-95.1463
-13.5343	86.8934		-91.9132
-13.834	106.718		-64.0902
-1.42431	62.3928		-110.791
-14.7114	61.8667		-107.636
-14.1833	116.074		-30.68
1.02751	119.041		-32.1654
-3.6583	36.1633		-118.094
-16.447	35.6227		-114.885
-5.80815	8.33168		-119.354
-18.4804	8.25584		-115.793
-19.9512	-17.2982		-109.9
-7.99543	-17.2562		-113.567
-10.3954	-41.2528		-99.1377
-21.3522	-40.3541		-97.0084
-13.5737	-76.7243		-81.8982
-15.4202	-95.4552		-79.739
-25.5119	-95.3933		-78.2629
-24.3728	-76.7635		-79.8034
-17.5316	-113.991		-78.6617
-27.4887	-113.33		-77.6473
-12.2293	-57.2319		-88.5331
-23.4317	-57.7339		-85.9705
-29.5602	108.314		1.4297
-42.5618	99.2205		-0.16587
-39.2653	78.5386		-78.8138
-27.0841	83.7541		-86.2389
-28.3821	59.8317		-101.551
-40.4369	56.5913		-93.5934
-39.5651	94.3467		-54.7125
-27.0667	102.034		-59.9118
-41.7941	100.336		-27.746
-28.6122	109.717		-29.1938
-41.4716	32.6349		-100.933
-29.7657	34.4387		-108.784
-31.1058	8.0538		-109.759
-42.0262	7.97386		-102.05
-41.8261	-16.5524		-96.7184
-31.9451	-17.1897		-103.93
-33.0804	-40.1045		-91.5361
-43.5214	-38.8089		-83.9824
-34.7317	-58.0702		-80.5462
-45.7964	-96.0385		-68.1876
-45.4549	-76.0646		-67.4123
-35.488	-76.5628		-74.9786
-35.9394	-95.7217		-74.5967
-37.8674	-113.293		-74.7825
-51.0921	83.9243		-47.9296
-49.8796	71.338		-70.0008
-59.4802	61.9928		-58.6411
-61.332	71.2705		-37.7687
-62.7469	74.7905		-16.049
-53.312	88.5117		-24.4443
-51.2421	30.1124		-91.8368
-50.5202	52.0607		-84.4022
-51.004	-15.7483		-87.022
-51.924	7.28182		-92.1732
-51.3326	-36.2116		-75.9902
-66.0497	38.1128		-62.34
-58.6017	-14.2251		-76.8891
-64.809	-11.8382		-67.3266
-65.9574	5.4608		-71.1843
-59.5645	6.39892		-82.0987
-65.7583	22.112		-70.5853
-59.0713	26.6252		-81.9409
-59.0037	45.8889		-73.9207
-61.1601	-42.687		-53.3466
-62.8588	-27.7333		-60.5124
-57.3192	-32.515		-68.2491
-88.8655	17.5906		-38.0257
-86.9687	18.0326		-39.1982
-87.4651	25.2406		-30.5147
-85.4402	26.1347		-31.6163
-84.5536	21.7026		-16.3038
-82.6447	22.3554		-18.2092
-80.4607	21.4375		-21.0955
-85.3852	16.2469		-40.052
-84.3625	24.5677		-32.8616
-89.2775	5.70803		-39.9161
-87.1278	25.2689		-21.4854
-88.2305	24.0723		-30.0767
-48.2333	-114.243		-68.991
7.555	-98.7216		77.6074
4.48429	-99.4464		77.6216
10.2979	-98.6325		74.3263
8.17779	-97.3513		80.1399
71.1465	-15.409		50.4243
69.4805	-14.4895		53.6738
71.1135	-18.793		49.8371
72.4709	-11.29		46.7971
67.8938	-12.8179		55.9434
68.0629	-8.58646		54.4418
65.4751	-14.1751		59.3064
18.6661	38.9967		84.2093
21.0847	37.9481		83.7916
22.9986	42.2755		83.4982
15.8025	40.0438		84.3314
15.6547	35.5541		83.5962
14.1408	19.0768		80.3002
14.7694	17.7914		79.7421
14.8034	20.6258		79.527
13.5883	19.634		80.9422
17.8203	18.5282		76.1814
19.3548	16.4116		74.4536
18.5894	20.1069		75.7159
16.5118	20.831		77.8058
17.1845	16.9758		76.9048
50.1666	9.05675		68.2275
46.7405	7.79109		70.5564
52.0453	10.2338		66.74
20.1114	10.1679		76.1918
20.0212	11.2232		75.7194
19.4432	9.37955		77.3386
21.4741	9.09897		75.73
16.6324	-57.7333		82.026
16.5122	-57.5864		82.2691
16.7799	-57.8725		81.6003
16.5073	-57.6527		82.3257
15.7304	-56.1646		84.3116
15.893	-56.944		83.1725
16.5813	-56.8654		83.3683
15.9624	-55.6882		84.8236
14.5647	-55.3428		85.6001
19.4356	-58.0677		82.3336
19.973	-55.5931		83.4224
17.2416	-58.1214		80.7977
16.792	-57.2826		81.4202
18.274	-58.2408		79.4502
16.8968	-58.4398		81.1808
12.7938	-59.8014		87.2681
13.0675	-60.6026		86.9668
14.9707	-59.1292		84.5824
12.7055	-59.1954		87.3067
10.2458	-60.1908		89.7891
12.3438	-49.0872		90.7931
12.0198	-47.6783		91.2526
9.52763	-47.1632		92.7579
12.5227	-49.9156		90.5055
14.6144	-51.2572		88.69
15.7906	-57.548		83.1248
15.8808	-57.6037		83.1107
15.9014	-57.58		83.0056
14.4475	-57.2692		84.1336
77.718	-45.2695		-4.65039
77.0688	-45.6011		-3.83242
76.9033	-48.698		-7.56748
78.4106	-44.3718		-4.57643
87.0963	-37.403		-16.1128
87.8669	-35.7125		-18.7719
86.1704	-35.6424		-15.0235
86.4372	-38.4209		-13.6681
87.4192	-38.7807		-16.7003
81.2309	-42.6182		-6.35248
81.6938	-40.0331		-5.74212
80.5371	-42.8061		-5.64155
81.7665	-43.9809		-7.88479
82.994	-30.4943		-9.92282
83.0594	-29.476		-10.8179
83.1961	-28.6915		-9.72263
83.1928	-30.9549		-8.55696
83.2305	-32.042		-10.2622
90.5338	-11.6443		-11.1414
89.8071	-13.561		-11.8621
90.8912	-10.9034		-11.7159
90.6514	-11.0832		-10.2443
94.9861	-1.38566		-15.4037
95.0789	-0.775902		-14.4485
94.5006	-2.27292		-15.3587
96.2591	-0.487887		-18.4309
85.7044	-28.7469		-16.7321
84.9427	-27.1695		-15.4136
84.7667	-32.3521		-14.057
87.5519	-32.1369		-19.2977
88.2732	-26.6893		-20.5769
92.4413	-10.6761		-17.4991
92.9354	-9.60226		-17.8687
91.2343	-10.884		-13.7686
92.2468	-11.9961		-18.51
94.5056	-21.9865		-29.0018
94.4221	-21.7471		-28.4429
93.3313	-24.9426		-28.5393
94.984	-20.9425		-29.9623
95.4659	-19.3932		-31.6407
95.8678	-17.2828		-30.6431
95.3103	-20.1024		-32.6657
96.0649	-16.4477		-32.9483
88.5239	-34.2017		-20.7341
89.2381	-32.0887		-22.5722
88.8349	-35.2977		-21.4875
92.2188	-21.1103		-25.0227
91.0042	-22.9223		-23.8893
93.4584	-21.5752		-26.802
92.3844	-19.7733		-24.7848
80.1749	-37.4849		-2.57964
79.9276	-39.7373		-3.22614
80.8562	-37.1532		-3.44237
80.0435	-36.6185		-1.95477
80.1502	-34.9857		-1.25018
80.7597	-32.9897		-1.26309
79.7433	-35.0837		-0.377916
82.8106	-26.1861		-1.73151
82.4841	-26.6988		-1.29496
83.0997	-26.5751		-2.60126
83.6761	-23.0706		-1.99053
82.0714	-27.4384		-0.814782
81.7477	-27.245		0.0982161
81.5687	-29.8049		-1.05316
84.6035	-33.8699		-12.7608
84.2908	-34.8347		-10.9482
85.8909	-21.9171		-10.2426
84.3691	-25.5576		-9.9114
85.7288	-22.4554		-11.7418
87.4396	-18.2766		-10.5663
86.4174	-20.8307		-9.02228
97.0403	-5.98786		-27.2149
97.2458	-5.27733		-27.4852
96.8428	-6.37587		-26.6446
97.1482	-7.22938		-28.906
96.6964	-10.8668		-29.6154
96.3939	-11.897		-28.1737
96.5502	-12.5506		-30.4616
96.9453	-9.59069		-30.4747
96.6854	-9.02117		-27.7555
94.2473	-2.87551		-15.5229
95.0832	-2.93572		-18.1074
93.5627	-3.63972		-14.4119
96.0301	-3.25458		-21.3386
95.5046	-4.23671		-20.6352
97.1004	-3.77776		-25.3229
96.7202	-2.07346		-22.2131
46.9804	21.9953		72.9781
49.4075	20.4107		72.0402
43.9818	23.3025		73.5001
14.471	-98.6309		69.6136
13.4784	-99.6767		65.8994
17.1237	-97.6304		69.5689
53.4523	13.8981		67.6384
52.7796	16.3062		69.1673
54.0485	11.9985		66.4209
57.7312	15.2364		66.2664
60.0316	16.2129		65.1599
56.9843	18.4385		68.2783
55.6363	14.8671		67.2775
57.9224	12.3867		64.7156
69.8931	-57.1438		-0.125046
71.112	-55.6558		-4.6841
70.4611	-55.614		1.26393
68.916	-59.2621		-0.486629
22.9695	14.6302		71.734
23.3348	13.8329		71.6399
23.0995	15.5644		71.7481
22.125	17.6213		72.5744
23.7631	19.4462		72.6474
21.6994	16.1565		72.5519
12.9828	21.0222		81.5971
12.3021	21.1525		82.332
13.2852	23.1609		81.3375
11.6211	-54.6002		87.2041
11.9879	-55.338		86.0386
12.0716	-54.2353		87.5389
9.06605	-53.1886		89.2452
59.9484	-78.6755		-4.83677
59.033	-78.5149		0.519444
59.1051	-81.2676		-6.63076
61.1164	-76.316		-5.4678
82.7118	-14.779		3.49679
80.9361	-21.7646		6.33588
83.4169	-15.707		0.897144
84.3473	-7.31095		-0.219648
81.8666	-13.4905		7.85551
60.3243	-81.7715		-17.8588
59.5603	-83.9188		-19.4579
61.5217	-77.5741		-18.3972
59.3586	-83.8321		-13.1881
53.3857	-116.405		-22.0448
52.5309	-124.842		-23.1668
52.4274	-112.918		-29.7619
54.3616	-107.551		-22.251
53.1518	-118.745		-15.9575
16.0899	-57.9912		83.1764
16.2068	-58.1577		83.1515
14.7005	-58.1062		84.5332
16.3959	-58.4279		83.1418
12.493	-58.6946		87.4502
12.5999	-58.2907		87.2078
10.0146	-58.5138		89.9557
19.3114	-96.6445		69.5475
24.1277	-96.0689		64.2161
19.3186	-94.9563		72.6759
46.1604	-68.3227		-62.265
45.3716	-64.5434		-66.3762
48.8282	-67.5317		-58.55
44.8819	-71.2682		-61.9968
67.4229	72.9624		33.4908
69.3786	74.4722		26.5921
63.7925	76.5841		35.8509
67.9805	68.964		36.5399
90.7418	-31.2344		-29.6721
92.6464	-26.5208		-32.5728
91.3405	-30.4728		-28.6735
89.0914	-35.1383		-27.0627
90.1348	-31.2502		-30.9179
87.9958	-10.0638		-5.66304
86.6838	-14.1802		-4.43838
88.9418	-10.2815		-6.29774
89.2624	-5.96366		-7.34778
86.7817	-9.72707		-4.96636
82.9757	-30.8057		-4.73324
82.4441	-31.4049		-3.67714
83.0438	-33.4577		-5.91863
83.2888	-31.1207		-6.26968
83.1889	-29.1453		-4.43927
81.9538	-37.157		-5.02577
81.8832	-34.2934		-3.83585
82.8204	-36.9875		-6.35777
94.3156	-21.0594		-35.0763
93.5549	-20.9957		-35.9062
95.6603	-15.1067		-36.2414
94.7722	-21.0933		-34.2107
92.5648	-20.7719		-36.6004
91.1339	-26.0716		-34.572
91.553	-20.43		-37.0135
93.7078	-14.9359		-37.5925
86.0513	-5.64369		-6.39644
86.5115	-3.5341		-8.16374
85.9598	-4.60481		-6.16209
85.9237	-7.2629		-5.17003
87.6783	-29.2121		-33.9586
86.0924	-28.4867		-34.783
88.8921	-25.0303		-35.8209
88.642	-29.9125		-33.2227
86.1546	-32.8727		-32.0338
88.8812	-36.3826		-22.2288
89.8424	-33.4736		-24.6934
88.2323	-38.2278		-20.0756
88.6526	-37.3307		-23.4031
85.2031	-44.5333		-20.1587
84.3326	-46.1873		-17.3331
83.6868	-45.784		-21.2132
86.5894	-41.584		-22.8563
86.8885	-42.0071		-18.7639
86.0526	-42.7249		-13.6141
85.3029	-44.3598		-13.9315
86.7215	-41.7366		-15.1918
85.7143	-41.9771		-12.3428
74.1514	-51.7604		-9.79032
73.5013	-52.6459		-10.2704
75.3744	-51.0162		-11.4502
74.2355	-50.7607		-5.54091
79.4184	-48.86		-10.7706
79.6933	-49.7074		-13.0826
80.8225	-47.6286		-10.3462
79.1523	-46.9713		-7.82991
78.2536	-49.6		-11.0251
92.3132	-4.13975		-8.50706
92.519	-2.66901		-8.64738
90.5887	-7.39434		-7.64211
92.5964	-4.22261		-8.8485
92.5991	-1.76341		-8.90061
94.239	1.25516		-10.8304
92.2683	-1.7312		-8.91875
95.01	-20.9294		-33.48
93.5563	-25.3369		-30.9293
96.2547	-15.4864		-34.9443
97.7476	-6.98613		-31.8294
97.425	-7.95174		-31.5477
97.7959	-7.67072		-32.6708
97.8814	-5.41964		-30.3602
93.3703	-3.31701		-10.5901
93.2154	-3.51803		-10.0419
92.751	-4.81661		-10.8257
94.0253	-1.83677		-11.5777
92.7685	-4.30682		-9.21746
91.6032	-7.3296		-9.10206
94.2592	-0.306155		-10.7052
94.1589	-21.6746		-27.8779
95.1432	-18.8678		-28.2034
92.4668	-24.9972		-26.8206
92.2384	-6.37796		-12.3239
92.8289	-4.85926		-12.8614
92.1397	-6.50471		-11.8581
92.3842	-7.35281		-14.0374
93.2804	-4.14858		-14.0343
93.6768	-4.65756		-15.949
89.7797	-25.8314		-22.9036
90.1809	-27.6816		-23.9089
86.7065	-19.9952		-7.86717
88.3495	-15.8056		-8.01238
86.562	-19.9266		-6.78073
85.0182	-24.4867		-7.83144
91.0673	-10.5171		-12.031
91.5233	-8.81028		-11.4712
50.6974	-65.7329		-56.6883
51.5136	-61.3486		-59.3619
52.035	-66.0157		-53.9863
24.7225	-27.3936		85.4854
25.4297	-31.3787		85.0488
25.6063	-25.7975		85.4696
22.739	-26.8679		86.0268
20.0399	-24.7362		87.7446
20.3184	-25.8406		87.1548
20.8438	-21.845		88.555
18.917	-25.0507		88.6129
60.5705	33.0689		67.8367
60.3635	30.9173		68.531
64.7428	27.5959		63.2053
60.9616	34.8096		66.7241
55.8732	36.5971		71.4618
6.83222	-30.128		93.0118
6.411	-29.6626		93.908
6.44001	-30.8486		92.689
7.87989	-30.0932		92.4801
9.28607	-27.1983		96.7392
7.87667	-27.7133		96.9274
10.15	-27.6817		94.8545
10.1524	-26.2017		97.913
52.7332	10.9917		66.4724
52.5496	11.7958		66.7116
16.6585	-19.0626		97.0735
16.6042	-20.0537		96.954
17.0601	-18.8676		96.3708
15.7154	-18.4966		98.4465
84.5881	-36.6387		-29.8693
83.1627	-38.9751		-28.4444
83.4957	-34.9574		-31.3415
85.4496	-37.8362		-28.7237
76.7737	68.1333		14.4626
74.6838	71.8995		15.4409
77.0645	63.7283		19.1208
78.841	68.1515		4.94232
18.8474	-63.3763		78.0178
19.6325	-61.7415		77.4731
19.3775	-64.2113		77.318
17.5239	-62.8883		79.3548
20.0208	-53.0089		77.7401
18.3562	-52.9676		79.142
20.7455	-51.8035		77.0368
20.3532	-55.0078		77.3906
-28.7618	-95.1432		75.9898
-29.034	-93.9539		78.3327
-31.1982	-94.3241		72.6756
-26.045	-96.4263		76.2326
-67.8526	-0.298468		47.0526
-68.446	3.83622		42.9096
-68.4879	-3.50006		46.5164
-65.9141	0.203062		50.8379
-63.8183	1.61848		53.5196
-61.5265	-0.0910439		57.3512
-63.2711	5.90058		51.7911
-7.9861	42.2876		82.2854
-9.80387	40.5218		81.5985
-5.21348	37.9951		82.3533
-5.0789	42.716		82.748
-11.7161	45.5647		81.8537
-6.12476	21.1307		79.6499
-5.43103	21.5278		80.3663
-6.49441	22.7649		78.9041
-7.09906	19.9232		78.97
-10.2101	21.5411		75.2472
-12.6077	20.0033		73.2577
-9.8321	19.7403		76.0196
-8.31139	23.3608		76.9997
-10.796	23.4123		74.7105
-45.1018	19.3395		64.897
-42.1072	17.3464		67.6022
-46.6281	20.6956		63.3257
-14.7444	13.5348		74.7826
-16.6292	12.6782		74.2057
-14.2109	12.5271		75.9435
-14.3904	14.6529		74.3324
-29.293	-52.1766		79.4656
-29.1433	-52.0465		79.7242
-29.162	-52.1221		79.7826
-29.4443	-52.287		79.04
-27.9526	-50.8844		81.8267
-29.1006	-51.3634		80.7654
-26.3342	-50.475		83.244
-28.0132	-50.3968		82.3079
-31.9629	-49.4293		80.6637
-29.8841	-52.4662		78.2157
-29.6587	-52.8266		78.6203
-30.7521	-52.4135		76.8455
-29.2747	-51.7129		78.8657
-25.6239	-55.0186		85.3199
-26.165	-55.765		84.9408
-23.3843	-55.841		88.0469
-25.3973	-54.4841		85.3387
-27.7859	-53.9969		82.2779
-22.3329	-45.7937		88.1092
-21.7348	-44.4689		88.5786
-24.8686	-47.2649		86.0984
-22.6578	-46.5489		87.8237
-19.2311	-44.4441		90.3234
-28.407	-52.1978		80.6393
-26.8551	-52.3133		81.8178
-28.5296	-52.197		80.5143
-28.5044	-52.2273		80.6228
-79.1293	-27.6886		-10.067
-79.7275	-26.6673		-10.0222
-78.891	-31.0937		-13.01
-78.5882	-28.0684		-9.25756
-85.9176	-17.8901		-21.6919
-86.1815	-16.0807		-24.3182
-86.5054	-19.1493		-22.3175
-85.6063	-19.0206		-19.2744
-84.6837	-16.3983		-20.5294
-82.5354	-24.208		-11.9783
-83.343	-25.3099		-13.5735
-82.0856	-24.4859		-11.3587
-82.0189	-21.6183		-11.2436
-80.7005	-12.1142		-15.2411
-80.5116	-11.1204		-16.087
-81.2473	-13.5621		-15.6237
-81.0469	-12.5195		-13.9159
-80.5225	-10.3147		-15.0147
-83.979	7.89402		-16.4049
-84.0134	8.46741		-15.5063
-84.1451	8.69591		-16.9783
-83.6454	5.86524		-17.1241
-85.9659	18.8822		-20.6926
-85.9725	19.496		-19.7322
-86.8683	20.0402		-23.7698
-85.6832	17.9088		-20.6376
-82.0841	-2.60786		-19.9493
-83.9463	1.34829		-23.1361
-81.7122	-5.06262		-20.3058
-81.5686	-3.69871		-16.9799
-82.738	1.23977		-19.0673
-85.7908	11.9665		-23.4309
-85.5824	10.4196		-23.1899
-84.7491	12.4865		-19.2991
-86.1279	13.5832		-24.2607
-87.2658	11.5005		-28.2389
-80.8178	-21.8503		-32.9033
-81.8783	-20.2892		-33.6694
-79.6077	-21.823		-33.3691
-80.9	-24.1079		-31.313
-89.2107	-1.28052		-34.5499
-89.4055	-0.161169		-35.5118
-88.7236	-4.41871		-34.0742
-89.1053	-1.06731		-33.9878
-89.4605	1.44633		-37.1777
-89.4474	3.59139		-36.1779
-89.3492	4.44152		-38.4645
-89.4115	0.721669		-38.1973
-86.4055	-14.4715		-26.2595
-86.5607	-12.2672		-28.073
-86.9103	-15.461		-27.0418
-85.0813	-12.6931		-24.7491
-86.9904	-0.945044		-30.4673
-86.2497	-2.98065		-29.3097
-86.8778	0.392477		-30.2176
-88.2092	-1.11774		-32.3045
-85.7271	-6.07912		-28.3194
-86.4674	-7.78333		-29.3678
-84.554	-7.24947		-25.9531
-79.8375	-19.5191		-8.02732
-79.4973	-18.7258		-7.41152
-80.3851	-19.0566		-8.89766
-80.2356	-21.7504		-8.77084
-79.269	-17.1158		-6.68345
-78.927	-17.2975		-5.81664
-79.4176	-15.0449		-6.67643
-79.9285	-7.9778		-7.04894
-80.0944	-4.75771		-7.25826
-80.2586	-8.29025		-7.93321
-79.7376	-8.55048		-6.61602
-79.5147	-9.36232		-6.1416
-79.5266	-11.7735		-6.41985
-79.1938	-9.24786		-5.21915
-82.8726	-15.0283		-18.1923
-82.6525	-13.5293		-19.4379
-82.8504	-16.0254		-16.4221
-81.6745	-3.13877		-15.4983
-80.9867	-7.01465		-15.1851
-82.0047	-1.96291		-14.3019
-82.395	0.747305		-15.8154
-80.7094	-8.87149		-14.6755
-80.9754	-8.77641		-13.811
-88.3543	14.8464		-32.6587
-88.6379	13.6599		-34.3672
-88.273	14.4258		-32.0854
-88.3897	15.584		-32.9282
-88.9363	10.02		-35.104
-88.9316	8.95511		-33.6701
-88.6256	11.8167		-33.2242
-88.8644	11.3142		-35.9529
-89.1108	8.34822		-35.9634
-85.5557	17.2646		-20.7979
-85.1021	16.3656		-19.6631
-86.2565	17.3903		-23.4229
-87.0862	17.2879		-26.7039
-86.8168	16.2104		-25.9887
-87.4647	18.5954		-27.5953
-88.0392	17.0155		-30.7431
-86.437	14.945		-25.0637
-87.619	14.4639		-29.2066
-85.3535	15.3961		-21.2239
-39.3229	31.6997		70.4757
-36.1706	32.2575		71.294
-42.0033	30.6573		69.2673
-35.1016	-93.0356		67.9322
-37.3621	-91.458		67.7977
-34.331	-94.0638		64.3025
-47.0593	24.7714		64.326
-48.0063	22.8832		63.0063
-45.8886	27.173		66.0337
-50.6381	27.6386		63.3535
-49.5416	30.7978		65.3285
-52.4871	28.7684		62.2775
-50.9654	24.1208		61.6821
-48.9468	26.3988		64.0367
-74.2758	-40.6061		-5.64319
-73.7834	-42.8163		-5.97869
-74.5426	-39.0645		-4.28676
-74.9096	-38.9311		-10.0902
-18.4939	19.2611		69.5936
-18.9431	18.5336		69.4965
-18.5929	20.2403		69.629
-16.3349	22.0668		70.8283
-17.4332	24.126		71.0427
-16.0377	20.4		70.8704
-4.4627	22.798		81.1815
-4.32683	24.9702		81.0087
-3.7185	22.8193		81.9679
-23.0535	-50.6291		85.0166
-20.1847	-50.0757		87.1937
-23.3946	-50.2419		85.2501
-23.6923	-51.1517		83.8267
-69.2309	-62.9415		-9.57279
-69.7997	-60.4605		-10.3296
-68.8831	-65.6519		-11.1889
-68.6382	-62.8163		-4.31366
-77.6154	3.08998		-1.51129
-77.4622	-4.10115		1.1545
-76.6899	4.16297		2.89542
-77.5287	10.7302		-5.07819
-78.3983	2.33655		-4.15629
-69.406	-66.2189		-22.2146
-69.2531	-68.2677		-17.5532
-69.6183	-61.9521		-22.8889
-69.043	-68.5086		-23.7108
-70.4524	-101.48		-25.4794
-71.5107	-109.96		-26.5235
-71.0898	-103.679		-19.3465
-69.3341	-92.6147		-25.8235
-68.3225	-98.4597		-33.156
-28.8057	-52.5707		80.6776
-27.3003	-53.0776		82.2175
-28.6373	-52.4356		80.7062
-28.9521	-52.6996		80.6466
-30.4539	-52.144		79.9128
-29.8127	-53.436		80.522
-25.0699	-54.0869		85.4889
-22.7325	-54.3243		88.1961
-25.098	-53.6769		85.1496
-39.2001	-89.9788		67.6966
-38.8903	-88.7653		70.4143
-43.5058	-87.6517		62.5978
-50.7173	-57.1457		-65.1777
-50.136	-60.286		-64.8466
-53.3162	-55.7355		-61.6534
-48.915	-53.6981		-69.1929
-47.5169	85.3319		30.0164
-49.1289	81.546		33.0269
-43.4787	88.0509		32.5698
-48.5361	87.2263		23.0564
-87.5074	-11.1026		-35.1592
-88.2048	-6.10531		-38.0607
-86.8633	-11.255		-36.3592
-86.8689	-15.2533		-32.5542
-87.9714	-10.2282		-34.1915
-81.4124	8.87407		-10.7814
-81.0474	4.56982		-9.59515
-80.1997	8.92447		-10.0206
-81.727	13.1474		-12.4443
-82.3466	8.87748		-11.4669
-80.9629	-12.4245		-10.1451
-80.6215	-13.1243		-9.09588
-80.8238	-10.7645		-9.82252
-81.27	-12.6592		-11.682
-81.5589	-14.9795		-11.3826
-81.4076	-18.811		-10.4938
-80.7084	-16.0531		-9.29597
-82.1433	-18.4542		-11.8494
-88.5342	-0.42907		-40.5538
-89.0257	-0.357963		-39.7205
-88.5076	5.65699		-41.7002
-87.7419	-0.540124		-41.3361
-86.7019	-0.547403		-41.9696
-86.5466	-6.01238		-39.9538
-86.5166	5.38003		-42.9372
-85.6309	-0.445299		-42.3196
-78.6017	12.7214		-11.3061
-78.8554	11.1299		-10.1177
-78.3088	13.7143		-11.0306
-78.5388	14.8892		-13.0619
-83.9005	-9.83257		-39.2101
-82.1667	-9.48037		-39.9358
-83.3005	-13.7202		-37.279
-85.0198	-10.2974		-38.5401
-84.092	-5.5039		-41.0602
-87.1561	-16.5025		-27.7945
-87.3488	-13.4705		-30.2271
-87.0857	-17.4731		-28.9547
-87.0232	-18.433		-25.6708
-85.4548	-25.1989		-25.7027
-86.6016	-22.3878		-24.375
-86.0316	-22.044		-28.3793
-84.2073	-26.7386		-26.6801
-85.1208	-26.9948		-22.9085
-86.2099	-23.2782		-19.2735
-85.7948	-22.6402		-17.9597
-86.548	-22.1582		-20.8559
-85.8528	-25.0532		-19.5512
-76.7582	-34.562		-15.1336
-76.825	-33.5983		-10.9802
-77.7057	-33.5828		-16.7995
-76.2998	-35.5458		-15.5844
-81.6589	-30.2846		-16.1047
-81.7026	-31.3227		-18.5239
-80.3101	-31.554		-16.4524
-81.4342	-28.6109		-13.5757
-82.9914	-28.8336		-15.9036
-84.2514	15.6128		-13.7142
-84.5316	15.5929		-14.0745
-83.289	12.06		-12.8298
-84.1398	17.0933		-13.8352
-84.0191	17.9917		-14.074
-83.699	17.9457		-14.0729
-84.8982	21.302		-16.0333
-89.0211	14.0272		-37.3072
-88.8921	15.5834		-35.8289
-89.1712	13.3706		-38.1577
-88.9277	13.0155		-37.0227
-85.019	16.6391		-15.8319
-85.3032	18.2286		-16.8256
-84.7194	15.0388		-16.0628
-84.9349	16.4103		-15.2843
-84.7013	15.5461		-14.4556
-85.2516	19.7801		-15.9443
-84.2031	12.3414		-14.3417
-88.8608	-1.05662		-33.4118
-87.9771	-4.66401		-32.3273
-89.201	1.89919		-33.7444
-84.9508	15.8045		-19.2794
-84.7137	15.0134		-18.0986
-84.4812	13.401		-17.5608
-84.432	13.256		-17.0921
-82.1554	-1.08267		-13.158
-82.8638	3.35754		-13.2795
-81.4708	-5.82692		-13.1489
-82.0449	-1.04676		-12.0707
-84.2213	9.1098		-17.2919
-84.3306	10.8753		-16.7242
-84.3846	8.7905		-19.0399
-54.8288	-53.5525		-59.9149
-56.3175	-53.4947		-57.3204
-54.5295	-49.1511		-62.5917
-27.3846	-23.6372		84.242
-25.0367	-23.7501		84.9846
-27.7947	-22.0994		84.2127
-29.4706	-26.6114		83.5484
-21.5589	-22.3673		87.0585
-20.4813	-22.6781		87.945
-21.8199	-19.7216		87.6586
-22.1995	-23.327		86.3606
-50.5317	45.8465		64.8579
-50.9107	43.866		65.3093
-45.0735	48.5712		68.9997
-50.4604	47.5098		63.8611
-55.2056	41.1619		60.2463
-7.97192	-27.5972		94.5597
-8.16146	-27.0281		95.2666
-8.71368	-27.9261		93.5099
-6.90019	-28.0784		95.0685
-8.35642	-26.3244		96.4091
-9.34038	-25.7207		96.3732
-7.20335	-26.2845		98.0925
-47.0839	21.5664		63.0285
-46.7249	22.4428		63.3386
-16.1015	-16.1202		96.0025
-14.8415	-15.5972		97.3279
-16.5661	-15.9692		95.318
-16.3251	-17.1167		95.8907
-56.0428	82.6709		10.6214
-57.3408	83.135		1.03854
-57.5684	78.4459		15.2594
-53.3248	85.8776		11.6965
-32.1001	-57.3161		75.744
-30.8631	-57.1342		77.0741
-32.6357	-58.0266		75.1409
-32.5154	-55.5669		75.058
-30.6684	-47.1398		75.2206
-31.5835	-48.9503		74.8033
-30.7247	-45.9233		74.6909
-29.1817	-47.407		76.6711
-10.6896	-25.0704		96.0212
-11.1884	-23.9411		97.0863
-11.9273	-25.506		94.1558
6.80269	-28.1612		96.845
5.92726	-27.9304		98.4465
6.32877	-28.8227		95.5741
5.94594	-29.3329		94.7976
4.91039	-29.6352		95.2289
-9.34634	-28.389		92.5733
-10.4493	-28.2058		92.0376
-9.18579	-29.1524		92.235
80.3098	-45.488		-23.4681
78.5506	-45.8416		-23.2884
81.2599	-42.4943		-26.1005
81.403	-45.9629		-22.805
78.8015	-48.5114		-20.0829
68.7787	-55.773		14.6101
67.4293	-57.0226		22.5309
67.1681	-60.2922		13.4744
70.1899	-54.2319		7.79613
70.3036	-51.0012		15.7983
48.5509	-121.731		-2.25216
49.4405	-111.514		-2.20669
45.7958	-122.379		2.05948
48.0319	-132.091		-2.92321
50.7654	-120.826		-6.69652
47.8872	-139.624		-3.84832
47.8345	-145.576		-4.8019
49.8802	-138.132		-8.51436
45.2251	-141.106		0.776221
44.1087	-104.96		7.51191
45.412	-99.2438		8.39912
40.4534	-105.847		12.1899
43.1842	-112.584		6.83442
47.5686	-104.533		2.53511
53.9983	-103.847		-10.538
53.1222	-110.675		-10.754
55.0862	-102.833		-15.6321
54.8601	-98.5653		-10.3704
52.4299	-104.078		-6.24902
59.15	-75.1504		25.7394
61.116	-71.4681		27.4913
57.2361	-76.9858		33.7584
56.9556	-78.5354		23.3119
60.4601	-73.664		17.7972
80.042	23.7117		25.5624
81.4848	31.1915		20.8988
76.2022	27.5653		36.2612
78.9685	16.4492		28.7552
83.2647	21.2137		13.9523
86.6581	30.7702		-27.2086
85.8389	27.464		-36.7392
85.808	37.6922		-32.5155
87.1647	32.892		-16.7081
87.0481	23.5416		-22.243
-3.89327	-114.943		46.1534
-7.00436	-114.811		46.9594
-4.00101	-121.099		44.0379
-0.00752711	-114.841		44.7881
-3.30072	-110.496		48.624
-3.91968	-131.656		40.3091
-3.92388	-142.537		36.4508
0.0116506	-131.189		38.8499
-7.39922	-131.453		41.3772
-11.6791	-149.721		35.417
-7.88716	-149.873		34.9679
-11.3036	-142.267		37.8732
-15.2882	-149.259		35.5376
-11.741	-154.755		33.877
65.1614	-62.3492		-29.0843
68.2866	-56.6805		-26.9608
63.9253	-68.4016		-23.7882
61.9536	-68.0268		-31.2379
66.7894	-55.12		-33.3861
68.2805	-49.9738		-36.4973
64.0664	-55.3065		-39.738
69.7053	-45.5013		-38.9836
71.859	-45.7255		-33.4337
51.8128	-131.791		-24.8254
50.9911	-138.443		-26.8415
50.7171	-129.041		-31.6375
51.8872	-134.731		-18.3717
-10.6498	-131.353		41.9035
-10.077	-120.871		45.5755
-13.7039	-130.951		42.0511
65.9241	-58.3087		30.7824
67.5243	-52.8312		31.1173
64.2586	-58.9966		38.367
64.4163	-63.1474		29.9687
61.7158	-72.1945		10.0929
59.6706	-75.7912		8.54252
62.6298	-71.5199		2.25822
63.7018	-68.3443		11.2715
0.256689	-88.9923		91.4181
-3.79326	-89.1331		92.5908
-0.348478	-93.0762		89.4788
4.77734	-89.0205		89.3658
1.10392	-84.4434		92.2685
9.61757	-88.3795		86.7596
9.08453	-92.3916		85.007
14.8478	-87.384		83.2994
10.0486	-83.8471		87.7165
-5.32779	-79.7889		94.041
-2.03091	-79.8552		93.4681
-4.77141	-75.0978		93.5038
-8.44965	-79.6133		94.1605
-6.2421	-84.7064		93.986
-0.56652	-96.1183		86.6868
-0.401885	-98.3739		82.8573
3.97044	-96.001		84.8817
-4.49274	-96.0933		87.824
0.190154	-99.9373		77.9382
-4.0608	-100.046		78.6424
0.599475	-100.963		72.3352
18.6995	1.53243		83.4344
18.6581	-2.8749		86.2766
21.2125	-0.88369		82.383
18.6477	5.45866		80.7866
16.3919	4.35959		84.5567
49.8696	-34.1892		76.0964
56.3741	-36.1133		69.88
50.214	-28.8609		76.1425
42.8959	-31.4681		80.5695
49.2294	-39.0388		75.7893
62.9973	-26.4992		63.1836
67.0008	-26.3385		56.584
62.5748	-20.5623		63.8204
57.2307	-24.8216		70.03
62.4725	-32.0599		63.1024
73.3838	-5.42468		44.1176
75.2385	-6.4468		39.1932
73.5371	2.61381		43.2968
71.2794	-3.79372		48.1777
48.4578	-43.6096		74.9982
47.3102	-48.132		74.1808
54.1633	-45.5572		68.9861
42.3067	-40.9737		79.5322
5.2399	4.18894		97.2026
5.54515	9.88317		93.4873
3.50618	4.67578		97.2939
4.91386	-1.16226		100.625
7.10017	3.40982		96.6575
41.8334	66.6091		66.2934
36.4383	68.0952		68.0805
40.7987	60.7959		70.3714
47.456	64.4563		63.8715
43.083	72.0764		62.1562
-7.8547	-102.177		66.9882
-8.31601	-103.864		60.1137
-4.18867	-102.342		66.5283
-7.6613	-100.989		73.4166
-11.383	-101.853		67.0329
62.0917	-59.0792		45.8793
59.283	-58.5218		53.3042
60.0393	-64.8425		45.7603
63.9189	-53.2127		46.2125
-7.85198	-96.1961		88.1436
-7.6811	-93.4353		90.8869
-10.8135	-96.1521		88.0048
-7.73961	-98.5191		83.9286
-7.62533	-99.9734		78.9758
-10.9601	-99.737		78.9544
32.6053	-90.4344		64.6833
26.3513	-91.4211		69.9646
31.5557	-92.9341		61.8997
38.535	-88.3977		59.9668
33.0151	-87.1092		67.8463
37.3897	-94.9325		38.9708
34.1121	-97.9		34.2611
42.0237	-92.3237		33.4549
40.2165	-92.5507		43.3951
31.7266	-97.3642		44.212
-9.04014	-106.372		53.8216
-5.89287	-106.758		53.2813
-12.0118	-106.014		53.8346
-9.74253	-109.929		49.7026
8.84658	-7.71985		102.16
8.92839	-11.4978		104.659
11.3231	-8.98992		100.05
9.06015	-2.93119		98.816
6.55373	-6.70465		103.439
25.8622	-23.0896		85.7772
29.6204	-25.5378		84.6264
24.9911	-18.0622		86.1319
22.7254	-19.8956		87.4439
18.6759	-58.9386		82.3812
20.7827	-58.8802		81.987
10.9506	-28.3187		92.9946
12.8229	-26.8303		93.8718
10.0687	-29.2836		92.187
12.695	-28.1758		91.7421
9.44806	-32.3848		90.3997
9.68255	-33.76		90.2266
11.7811	-32.2742		89.1861
9.53084	-31.4451		90.6384
7.68006	-32.1407		91.4154
0.84078	-29.6403		98.0294
1.01344	-28.6955		100.203
-0.742388	-29.4852		98.2967
0.796315	-30.6893		96.3048
2.53245	-29.6781		97.1783
14.4764	-31.5025		88.1443
17.3624	-30.1021		87.3239
14.331	-30.4525		88.5614
14.6825	-33.0079		87.9093
8.28313	-21.0821		107.116
5.81737	-21.2602		109.027
7.74779	-22.9444		106.049
10.9326	-21.12		104.059
8.68352	-19.3861		107.505
16.92	-69.8591		83.9261
20.128	-68.6694		81.9997
15.4558	-66.8453		84.8573
13.1839	-70.5901		86.3379
18.2733	-73.3743		83.0364
21.0408	-52.4053		84.4758
21.8115	-48.2114		85.299
19.2864	-51.2153		85.7242
22.7535	-53.4255		83.5179
0.522846	-34.7124		93.8481
0.135541	-36.3867		93.6938
2.07513	-34.5501		93.61
0.70286	-33.058		94.3812
-1.41127	-34.6642		93.9288
9.19329	2.16509		95.5693
11.4664	0.25635		94.0881
9.35345	7.16159		92.3161
18.8224	-20.1188		92.1747
18.1635	-18.599		93.8072
18.2567	-19.6228		93.7167
18.8575	-21.6563		91.2886
19.3214	-19.7125		91.2037
3.59138	-31.4786		94.1813
3.40853	-32.9283		93.5317
4.78887	-31.6758		93.3218
3.79351	-30.5634		94.86
2.37325	-31.6158		94.7353
3.86052	-29.72		96.0756
4.06141	-28.8068		97.9708
17.5302	-18.9857		95.2897
17.3346	-18.0786		95.5435
17.7825	-20.5226		94.5107
18.2002	-24.2824		90.1095
17.8316	-23.1017		92.0221
16.6804	-26.9737		89.3325
-1.3981	-42.0856		94.5737
-1.46703	-43.9364		95.0801
0.863117	-41.8563		94.4632
-1.05449	-39.8979		94.0356
-3.70494	-42.1699		94.5557
20.668	-35.2638		85.915
18.0014	-35.2255		86.7715
21.0314	-39.49		85.9902
23.0818	-35.5429		85.3346
20.1813	-31.297		86.1718
1.76375	-66.0451		92.3242
1.59166	-64.4749		92.8381
-1.41477	-65.8019		92.9205
1.94956	-68.0365		91.922
5.22382	-66.1874		91.2125
16.0914	-53.4644		86.4848
16.1227	-54.2925		85.99
17.6632	-55.4677		84.2171
16.7845	-51.6115		87.0363
17.1653	-17.3339		95.4501
17.3476	-16.2676		94.4331
15.8803	-16.4468		97.3928
8.5143	-66.0957		89.653
8.94581	-68.1118		89.0765
11.5536	-65.5388		87.7794
8.10495	-64.4796		90.2827
-4.02219	-65.467		93.1578
-6.48751	-65.115		93.2196
-3.98478	-67.4252		92.8584
-4.19443	-64.0049		93.625
67.451	21.4786		58.1255
66.3664	20.5064		59.9106
68.8832	15.5157		53.6749
68.3778	22.8359		56.1582
50.9341	51.2484		68.4839
45.0673	53.828		72.0054
50.2872	46.7119		71.7794
56.8629	47.6801		64.5639
52.253	56.2076		64.5246
62.5476	43.4379		59.6392
61.6349	39.2408		63.3268
67.5984	38.5142		53.4723
63.9126	48.5873		55.1609
50.2881	39.6048		74.9198
50.1305	41.8926		74.336
44.5167	42.3601		78.8964
50.6216	37.1662		74.979
69.739	24.3503		52.9208
70.7767	27.5164		49.8695
65.8918	31.0381		60.0727
72.0253	17.9201		47.2485
30.9369	33.8126		80.1571
31.2288	31.8343		78.5909
35.0874	33.8624		79.5348
30.7688	35.9473		81.653
27.2065	33.1466		80.2263
10.6114	17.7223		85.0511
12.9546	15.1086		83.1958
10.8974	19.7567		84.0792
8.02534	19.5932		86.4826
10.1537	15.1931		86.6389
32.5276	-7.79387		79.6693
33.6628	-12.719		81.1712
39.7643	-10.2002		77.8693
31.3507	-3.61259		78.3568
26.6779	-5.04978		81.0125
63.8652	-1.26096		57.5725
66.1739	-2.54705		55.2894
65.0599	2.99633		56.0129
61.3901	0.643233		59.7104
61.4307	-4.28222		60.9222
9.73087	11.7377		89.0399
11.9875	9.28121		87.722
7.55623	13.6382		89.9049
50.9533	34.8926		74.9352
55.8645	32.3263		72.1929
45.463	36.5846		77.7962
50.7608	32.7345		74.8265
59.9389	28.9901		69.059
59.1674	27.0412		69.5676
63.2392	24.4513		65.2304
61.4675	8.60221		60.4642
61.8468	12.9293		61.9936
59.3438	9.162		62.3166
60.6887	4.95729		60.2297
63.354	8.33607		58.6415
50.0285	17.0771		70.2726
51.3981	15.1933		68.929
48.3574	18.6049		71.4087
46.4162	20.0062		72.2014
44.1217	21.2042		72.6423
46.6336	20.9828		72.5822
43.9388	22.2334		73.0399
48.8322	19.5339		71.7388
41.2422	22.124		72.7953
38.2058	22.3876		72.8188
40.9313	23.0737		73.1596
37.661	23.2756		73.1407
35.0623	21.995		72.7096
32.0992	21.0476		72.4434
29.003	19.6699		72.1212
26.0941	18.1302		71.9189
27.75	20.5338		72.4325
25.0268	18.9155		72.2392
30.9043	21.9105		72.7113
24.0577	16.8038		71.7865
26.5222	21.2318		72.846
29.8729	22.8691		73.1443
40.7089	24.1568		73.6377
37.1536	24.3559		73.6097
54.0493	9.31257		65.6839
54.5962	10.297		65.5902
52.8516	8.61315		66.3342
39.7449	33.4144		78.4061
45.0631	32.2452		76.6362
39.8844	35.2306		79.3666
39.6231	31.3274		77.2114
55.1833	21.5303		70.4776
53.474	20.1603		70.7403
56.8212	23.3482		70.2348
52.0959	23.9108		72.5215
42.5479	3.27824		72.8463
48.2235	2.93624		70.191
35.5383	4.4565		74.548
42.9311	1.63743		72.9991
29.5948	6.34781		74.7781
25.6658	8.44892		74.3176
29.4626	4.90048		75.3365
22.3643	12.1993		73.2779
21.9367	13.2312		72.9474
23.1692	11.1634		73.4899
41.9276	6.42332		72.5475
47.0054	6.37703		70.5106
35.8285	7.29233		73.8268
25.0961	11.6667		72.4832
26.8359	10.5453		73.0099
24.2143	12.3278		72.1868
23.5573	12.8873		72.0541
22.994	13.5805		71.9863
19.9279	22.3945		75.7377
19.3707	25.1786		77.3316
20.5108	19.5539		74.0401
21.8776	24.3539		75.7226
21.5844	14.7078		72.7626
33.4815	23.9164		73.4202
21.1257	18.398		73.2747
20.5164	16.8505		73.3952
22.4679	20.2078		73.341
41.9018	7.76298		72.3982
35.8687	8.5622		73.5403
25.1632	12.4353		71.877
24.3216	12.8234		71.7547
26.9972	11.6749		72.3618
23.7284	13.3347		71.638
52.179	13.298		67.6212
8.5476	34.2195		84.1676
5.18078	34.5804		84.2177
7.81575	31.4789		84.109
11.3302	33.5652		83.7744
9.42943	36.9584		84.3648
22.4404	4.21196		77.9847
22.4067	6.12073		76.8425
20.5806	5.9693		78.3322
22.9475	1.35377		79.5248
25.4744	2.13473		77.6356
18.85	7.83761		78.9462
17.0638	10.0578		79.8901
20.0288	12.3909		75.1387
18.3659	13.5951		76.4479
20.3769	13.8674		74.089
15.7951	22.7283		78.9347
17.0706	24.7347		78.558
15.1191	23.9748		79.8356
23.9586	9.94396		73.912
23.2298	8.97809		74.7924
22.7286	7.6924		75.7277
25.0217	5.77111		75.8393
12.0197	-55.5304		85.5765
11.9194	-55.4639		85.3542
14.4872	-56.5843		83.5858
9.29328	-54.1371		87.4306
15.9476	-57.119		82.5959
15.7201	-56.9707		82.5566
-1.52893	-47.2294		95.3891
1.0328	-47.3164		95.1304
-1.48746	-46.0082		95.4361
-4.42348	-47.0679		95.4096
-1.71036	-48.354		95.1749
3.00936	-49.6573		94.0436
3.25152	-48.7256		94.4275
0.707015	-49.3773		94.5367
2.58971	-50.4189		93.5531
5.02584	-49.7895		93.5134
6.93765	-50.0655		92.7447
7.18029	-49.066		93.2138
6.70939	-51.115		91.99
9.40906	-51.1957		91.0793
3.35826	-47.5384		94.7172
5.42001	-47.6688		94.2198
3.40056	-46.2619		94.8576
6.93146	-45.99		93.8815
7.30286	-46.957		93.7385
6.79461	-45.0034		93.839
5.06874	-45.6966		94.4775
12.4588	-53.3841		88.1955
12.5923	-52.0665		89.2576
1.892	-51.077		92.875
-0.440284	-50.7453		93.3982
1.37946	-51.4123		92.2427
4.35075	-51.4397		92.1117
6.60462	-52.1937		90.8404
6.48799	-52.7544		89.9315
16.8436	-56.034		84.0888
12.0799	-56.471		86.244
12.0071	-56.4063		86.0208
9.23058	-55.2349		88.4047
12.1275	-56.6417		86.5488
12.5138	-57.8371		87.0995
12.3609	-57.386		87.0089
9.79314	-57.1916		89.7397
6.89485	-56.8502		91.9606
6.77173	-56.0783		91.6851
4.26849	-56.4881		93.4604
7.16684	-57.6814		92.0143
1.11338	-54.0592		93.739
1.24794	-55.0632		94.2431
3.92547	-54.5468		92.7084
1.08037	-53.23		93.1363
-1.62222	-53.5855		94.298
-3.99175	-55.5246		95.5125
-4.02743	-56.6019		95.7248
-1.60368	-55.6734		95.2435
-3.95415	-54.4591		95.1332
-6.28085	-55.3036		95.5036
16.1053	-58.5656		81.9258
15.9558	-57.9574		82.5006
16.0934	-59.8679		81.329
14.3655	-58.1066		83.2432
-3.7881	-52.7904		90.2774
-3.69354	-52.1185		91.3529
-1.82551	-53.1444		90.1222
-4.00079	-53.949		89.3458
-5.59961	-52.5335		90.248
-4.01583	-57.7855		95.7804
-6.48896	-57.5832		95.7684
-3.97011	-58.8969		95.6679
-1.54992	-57.8665		95.5285
-4.22681	-62.5033		94.2844
-1.54264	-62.6291		94.0957
-4.11238	-61.1149		94.9353
-6.70801	-62.3153		94.2549
3.23698	-45.3565		94.8605
2.69945	-44.0047		94.7641
1.07057	-44.9951		95.1507
-3.82985	-53.392		94.559
-5.95118	-53.2		94.5652
-3.74993	-52.5246		93.908
-3.71642	-52.1148		93.4263
-1.52619	-52.3925		93.2254
-3.62561	-51.9272		92.944
-5.66393	-51.8988		93.3777
1.09187	-52.8361		92.6645
3.75135	-53.3358		91.7136
1.05449	-52.6687		92.2631
-3.57818	-51.8958		92.2765
-1.57127	-52.2006		92.1113
-5.53269	-51.6603		92.1753
6.27327	-54.1749		90.4109
6.22756	-54.051		90.01
6.41038	-54.5197		90.7841
7.51957	-60.5217		91.7873
7.69664	-61.5923		91.403
7.39647	-59.5616		91.9906
4.69279	-60.5053		93.312
1.64563	-60.1536		94.476
1.64262	-61.3313		94.0723
1.60145	-59.1293		94.7074
-1.5354	-59.9985		95.1862
-4.02575	-59.9507		95.3974
-6.62244	-59.7871		95.3687
6.38913	-52.9495		89.2682
3.77996	-52.0614		90.5994
6.28376	-52.8895		88.6813
18.7691	-57.7911		82.5008
17.6668	-57.9428		82.552
15.9378	-57.6889		83.1442
14.5193	-57.5343		84.4196
0.586008	-53.607		89.7402
0.739002	-52.9116		90.7242
3.22097	-54.1431		89.0728
0.467469	-54.7661		88.8888
0.903358	-52.6467		91.62
3.53009	-53.1924		90.7532
1.51246	-62.815		93.5032
4.76607	-63.0594		92.3918
7.25093	-58.5938		92.0872
4.55311	-58.487		93.6285
7.87593	-62.9797		90.8742
10.7108	-62.4798		88.9827
6.07006	-52.5558		88.2489
3.65073	-51.6496		89.0844
5.80152	-51.4116		87.4045
8.65155	-53.5773		86.9194
1.17094	-51.105		89.7101
-0.922315	-50.6404		89.8293
1.70911	-50.1227		88.3601
1.03645	-51.4539		90.6508
5.86088	-48.8713		86.1129
3.95583	-48.2743		86.5895
6.56561	-45.585		84.9621
7.94096	-49.6024		85.3824
16.0027	-62.6561		80.6524
15.7269	-65.4729		80.2999
14.0195	-62.1536		82.1
-4.35495	-56.3786		88.5188
-2.41181	-56.7025		88.4291
-4.42269	-59.9226		88.2608
-6.01812	-56.1519		88.4818
2.1189	-47.8298		86.8864
0.158083	-47.4064		87.0365
2.54146	-44.5641		85.7333
0.0526762	-57.1994		88.0749
-0.0725493	-60.866		87.6
2.75939	-57.9021		87.4239
20.7494	-58.5285		76.7008
21.5424	-58.3674		75.8519
16.3973	15.5991		78.1995
15.5966	14.2508		79.7992
83.5029	-20.0119		-40.5813
82.2911	-24.2481		-39.7695
81.7659	-19.3218		-43.9475
84.6375	-15.5466		-40.6561
84.9217	-20.6124		-38.8217
85.3018	-0.388246		-4.06413
85.9474	2.26589		-8.31157
84.5763	2.00443		0.753235
86.2202	4.15597		-13.5223
86.4873	9.54464		-14.8959
86.1237	-0.868907		-14.5099
86.7151	3.42532		-20.4915
74.7702	-43.0189		-31.1394
77.4373	-41.0031		-29.5019
73.2611	-46.9568		-28.5457
76.3968	-39.3632		-32.9769
77.8206	-35.9279		-35.058
75.0396	-37.6886		-37.9041
79.4031	-32.1947		-36.8975
80.193	-34.948		-33.1738
86.4029	-20.7063		-37.8862
87.9747	-20.3776		-37.4899
85.3453	-24.7164		-36.9169
87.3382	-15.8168		-38.1675
86.1184	-38.693		-27.6566
87.7109	-34.8953		-29.7464
86.7755	-39.1748		-26.4127
84.4446	-42.4262		-25.1383
91.7228	-29.5394		-27.8015
91.7727	-28.9542		-27.0534
78.2149	-50.0249		-17.0835
78.6363	-50.2926		-16.3644
77.6883	-50.5822		-15.0989
77.4873	-49.1193		-19.1712
79.9916	-42.5324		-4.86696
79.5867	-43.1143		-4.82277
79.0287	-44.0684		-5.03143
91.7583	-28.5633		-26.6606
91.1833	-29.0605		-25.7266
96.2906	-14.5955		-30.6612
96.4434	-14.0059		-32.1876
96.0119	-15.8353		-28.9874
97.6922	-4.44059		-28.4499
98.1115	-3.13529		-28.5814
98.4639	-1.04478		-27.6085
97.8676	-1.09632		-25.4135
98.6956	-0.623054		-28.0083
98.3396	1.14521		-24.6014
86.0397	-20.1592		-5.46347
87.934	-14.8923		-6.08139
85.6368	-19.3131		-4.16887
84.6261	-24.061		-4.86916
78.9376	-35.329		1.48824
77.9817	-35.5758		4.18293
77.902	-39.0154		1.02376
80.0447	-31.0786		1.96709
83.3175	-31.1586		-7.34833
83.3878	-33.2238		-7.82103
83.5513	-29.2201		-7.49856
86.0671	-1.36049		-14.5189
86.5531	-0.27602		-17.9868
86.1013	-1.35957		-14.3002
94.9689	5.12877		-14.9045
96.08	6.56147		-17.9948
94.1697	5.5933		-16.1095
93.2439	2.3516		-11.9511
95.6554	4.37502		-13.8761
95.6781	7.09193		-23.0453
94.8934	7.06065		-20.0934
95.9881	7.2193		-22.5274
96.0181	5.65121		-26.6479
94.7724	6.10577		-24.4311
94.8293	-8.71095		-36.8572
93.9898	-9.08793		-37.0508
95.8063	-2.7359		-34.158
95.914	-8.57278		-36.2943
89.3816	-10.434		-6.71159
89.517	-11.7388		-7.34231
97.5566	-9.5193		-33.7225
98.5711	-4.42195		-31.6059
96.928	-12.2626		-33.8547
97.5979	-9.63572		-34.077
97.912	2.22769		-20.698
96.9258	1.93491		-16.7478
97.5495	0.880261		-21.3946
98.1149	3.21431		-20.108
90.8911	-9.93748		-9.47015
90.1533	-11.6095		-8.87996
91.6978	-7.71925		-10.2125
97.1733	-8.6952		-31.0735
97.0438	-10.796		-32.8678
94.8204	-5.38213		-19.7246
94.1899	-6.64042		-18.93
96.0716	-6.16206		-23.7997
88.2438	-16.4797		-10.6511
88.4239	-16.2478		-11.3555
88.9482	-14.9032		-9.55952
92.9895	-16.6707		-24.393
95.2713	-14.3577		-26.2808
92.7835	-16.1777		-23.7938
92.7499	-17.7469		-24.5296
81.0705	-27.194		1.9334
82.3626	-22.7544		1.09212
80.2648	-27.2377		4.44312
88.1496	-10.6177		-36.826
86.9387	-11.0946		-37.9886
88.5375	-5.92831		-34.833
89.4111	-8.22053		-35.9193
92.2646	-3.49642		-33.2988
92.4389	0.375224		-30.2015
95.0735	0.894578		-31.4386
91.9505	-7.63828		-36.0797
92.8522	-9.92104		-37.0354
91.0887	-15.2718		-37.7331
90.1111	-20.1605		-37.2652
82.0277	-34.5001		-32.275
80.6816	-37.4164		-30.4512
83.2385	-31.4613		-33.9743
84.3119	-28.2443		-35.5876
82.6223	-28.3079		-36.6584
90.6251	-28.9019		-24.743
79.335	-40.1377		-28.7408
77.7943	-43.5218		-26.4055
80.595	-39.981		-28.2541
77.4215	-47.1775		-21.8004
76.9752	-47.1426		-22.1635
76.2953	-50.3293		-17.2292
77.4848	-50.1578		-12.3252
