1822
16.1308	-28.0906		90.2832
16.2002	-28.8462		88.9831
16.146	-19.4445		99.7749
15.5796	-20.6959		99.9514
14.9062	-22.1705		99.5441
-3.45128	-148.966		11.6678
-8.01141	-148.895		14.9519
-4.00671	-155.327		10.4631
0.763329	-148.777		8.32136
-2.59333	-140.232		13.3863
-1.03348	-128.08		15.7788
3.09798	-128.166		12.0301
0.750641	-117.538		18.0196
-5.29056	-127.858		19.4947
7.8993	-104.256		25.3398
12.5001	-104.127		20.6622
3.24706	-104.304		29.625
5.0945	-107.245		21.9904
2.93688	-111.058		19.9002
-1.37111	-110.466		24.304
7.18841	-111.338		15.7047
25.2025	-78.5813		68.2809
26.4399	-83.3682		62.4088
22.8961	-73.7025		74.1559
27.2151	-88.0873		55.8365
26.634	-91.9399		50.7825
25.5143	-94.8335		46.712
20.8261	-70.039		77.9589
22.7938	-67.2893		77.8341
18.8779	-66.9756		80.6187
18.2238	-72.0795		78.7404
17.4768	-65.2195		82.0006
15.9291	-66.632		82.2118
16.8956	-103.773		16.271
20.7214	-101.131		19.6574
14.0519	-107.111		13.4061
21.2785	-103.392		11.1437
24.9573	-99.0869		23.5883
28.3198	-98.3336		17.5249
28.9256	-97.2896		26.9929
32.036	-95.4899		30.5375
35.472	-94.4783		24.2312
7.17466	-128.064		8.19622
5.49984	-139.858		6.3238
11.0939	-128.275		4.13515
9.19133	-118.04		9.87579
4.61475	-148.526		4.85381
4.25934	-155.068		3.55695
8.26862	-148.225		1.07935
11.5266	-111.428		11.508
65.3255	-53.3643		27.8086
62.9245	-58.5591		27.8803
67.7527	-47.6865		27.6937
37.7134	-93.5625		17.7983
34.4748	-95.505		14.5563
39.311	-92.5182		10.7756
79.945	-8.99652		23.51
81.87	-11.7963		13.1333
49.2325	-82.3287		25.9638
51.1534	-81.2446		18.2195
60.432	-63.6379		27.8168
61.4442	-64.2284		20.8332
70.3039	-40.8462		27.8573
71.1185	-43.0028		19.9663
62.577	-63.6171		13.5661
63.8598	-62.3015		6.89251
30.6616	-103.406		-4.98202
28.538	-107.582		-6.46755
32.73	-103.572		-9.97239
32.833	-99.8309		-3.21349
28.1378	-103.239		0.117857
26.4416	-112.442		-7.45288
35.2979	-96.7115		-0.779343
33.2897	-97.1045		4.9503
37.0399	-96.3807		-6.63696
37.8638	-93.95		1.50168
77.6376	-29.4785		8.82517
80.4885	-21.5986		5.99503
74.5881	-37.3708		11.5326
83.4165	-13.3097		2.85474
86.1186	-5.50209		0.201337
88.8188	2.42512		-2.99268
89.4766	1.43874		-13.4353
91.4499	10.2701		-6.5937
52.432	-79.6861		9.97684
53.227	-78.2574		1.81406
71.9184	-43.9211		13.033
72.5672	-44.6502		6.9936
15.0213	-128.401		-0.331755
12.9518	-139.567		-1.84009
31.0611	-97.7475		11.2961
27.7971	-100.227		8.13484
11.7938	-147.765		-3.17008
11.3109	-153.905		-4.61511
25.3287	-127.723		-18.3791
22.972	-136.771		-20.1046
34.4613	-103.481		-14.9375
36.0791	-102.096		-20.1604
36.5666	-99.5526		-13.8021
38.9003	-95.781		-12.3776
21.3359	-143.598		-21.8889
20.0746	-148.962		-24.0613
53.5283	-77.4892		-5.56439
65.0965	-61.0079		2.30285
66.5873	-59.4002		-1.0865
63.1649	-64.3374		1.0548
73.2121	-44.8044		2.94248
32.6409	-108.589		-28.6132
32.7384	-104.045		-35.4393
35.2743	-103.017		-27.289
38.1182	-97.8973		-26.1644
39.7123	-91.5474		-32.2738
47.2213	-83.598		-22.3756
60.4999	-68.6327		-14.6901
62.3423	-66.0735		-21.5706
20.0448	-131.522		-47.544
17.8019	-138.782		-49.1871
17.6402	-127.768		-54.4708
22.55	-123.796		-45.7971
58.9363	-65.7304		-29.2908
62.4976	-63.0515		-27.7821
64.6695	-61.9637		-27.2144
-12.6572	-148.586		18.0341
-11.5434	-139.896		20.1199
-17.3058	-148.197		20.8
-13.1937	-154.826		16.4429
-5.86562	-109.468		29.0039
-10.009	-108.239		33.1101
-7.98534	-116.184		26.4893
-3.78824	-106.183		31.1327
4.48127	-102.846		43.4029
1.47418	-102.975		38.77
6.90992	-102.773		47.241
-1.543	-104.128		34.2553
-6.02779	-103.549		38.5738
-9.71019	-127.223		23.3504
-14.2569	-127.058		26.8291
15.5935	-74.2252		79.4651
14.6927	-70.4798		81.5898
8.8435	-102.573		50.5423
14.0521	-68.0243		82.7436
11.5369	-69.1892		83.8844
13.4554	-66.0991		83.5042
12.9901	-64.5247		83.9786
11.0034	-65.3426		85.1332
8.6931	-87.4242		78.2455
7.77967	-92.4453		76.0232
6.45151	-97.0708		73.4507
8.20483	-60.6203		87.5809
5.80326	-59.7722		89.5138
7.98108	-59.83		86.6774
10.3976	-61.1107		85.1348
7.87467	-60.0525		86.3055
5.48999	-58.4269		88.0287
7.65394	-60.5437		85.8885
7.17517	-62.0055		85.0977
5.07809	-59.0043		87.1881
6.0662	-65.2279		84.0056
4.78004	-69.1611		83.1335
3.45347	-63.5682		85.3997
-13.906	-106.966		36.4184
-12.0661	-104.153		38.7253
-16.3671	-114.816		33.7662
-22.0341	-147.854		23.281
-20.7357	-139.388		25.8322
-26.6413	-147.269		25.4089
-22.6331	-153.722		21.4713
-18.5944	-126.837		29.8894
-17.6965	-100.748		46.1399
-14.7011	-101.669		44.5781
-17.3152	-101.583		52.9415
-30.6601	-146.617		26.9669
-31.3838	-152.193		25.1272
-16.4803	-103.428		60.6608
2.82327	-56.8469		89.8023
2.64471	-57.0023		89.1804
2.34305	-57.4492		88.5852
1.99868	-58.8885		87.5775
0.890285	-61.9911		86.4865
-0.34322	-66.1551		85.6353
91.0441	21.6286		10.9519
92.7938	19.3623		0.0459051
93.4211	29.1087		6.03028
88.8204	25.0976		21.6822
89.1866	0.444881		-23.15
67.153	-42.1942		-52.1921
63.6891	-42.9113		-56.9977
21.4441	-106.581		-56.6361
25.3486	-97.2475		-55.3299
23.422	-110.606		-51.2156
18.0535	-116.123		-58.0535
19.0632	-103.287		-61.494
15.3594	-124.567		-59.6226
13.0692	-132.691		-61.0675
12.7187	-121.836		-64.2379
32.3362	-97.8833		-42.6995
28.5684	-106.569		-43.4556
31.1281	-92.617		-49.0394
36.4288	-90.4811		-41.1722
63.4828	99.578		23.1627
69.1227	94.7974		22.5298
64.0787	104.397		7.50558
57.2659	103.661		23.8278
55.0622	91.7329		-78.9752
59.088	99.5063		-62.9455
61.2967	87.5533		-77.3993
50.3429	81.8723		-92.2761
48.3266	95.4334		-80.0661
45.7484	70.8403		-101.943
51.8767	67.0858		-100.242
41.0266	58.5009		-109.268
39.2589	73.7826		-103.249
61.7786	104.724		-45.6708
67.9456	100.073		-44.3797
55.1236	108.811		-46.3894
63.4451	107.232		-27.5984
50.7236	114.921		-9.6509
43.237	117.789		-9.40513
50.7981	112.248		8.02236
57.7059	111.349		-9.71891
49.8034	114.991		-28.0981
36.491	46.2886		-114.297
42.2814	42.9534		-112.534
31.8474	33.602		-117.659
30.4571	49.0804		-115.469
26.8889	20.3693		-119.541
32.7121	17.4257		-117.627
22.0567	7.28045		-119.782
21.0976	23.2665		-120.769
8.40361	-29.1398		-108.867
13.782	-31.7397		-106.914
4.67583	-40.4783		-101.413
3.09016	-27.2689		-109.806
12.9118	-17.2021		-114.776
5.85866	-0.126717		-120.453
-0.226309	1.94286		-120.499
10.1264	12.3967		-121.804
11.718	-2.50024		-119.712
1.68758	-12.3656		-116.94
-11.3721	-85.0991		-83.8554
-8.07798	-76.1126		-84.7385
-6.56569	-87.5167		-82.7265
-14.5456	-94.0311		-83.6057
-16.0722	-83.0846		-84.408
-26.7159	-99.0676		-83.9716
-22.1491	-101.033		-83.8926
-29.6165	-108.287		-83.9067
-31.1734	-97.3819		-83.8524
-23.5989	-89.8956		-84.177
2.10573	-49.5649		-95.2553
7.00725	-51.8133		-93.8953
-0.724533	-57.4904		-90.6327
-3.22116	-47.3186		-96.0266
-4.35655	-66.3953		-86.9931
0.681687	-69.2679		-85.4722
-9.15182	-63.9584		-87.7673
-14.1196	-62.0344		-87.9844
-11.0777	-53.1259		-91.6308
-17.6078	-72.0287		-85.6228
-19.2452	-60.5663		-87.7949
82.7766	77.6498		18.1808
86.4533	70.6577		16.3614
84.0686	81.191		4.30382
78.7038	83.8307		20.0506
68.2796	54.2082		-91.0306
72.7048	49.4261		-87.029
63.9064	43.0272		-97.921
63.3604	58.6527		-94.6048
72.4433	64.2769		-81.7553
76.2475	72.9726		-69.6277
71.8114	78.2627		-72.6078
79.6623	79.1862		-55.3998
80.3041	66.9593		-66.3181
82.3021	82.7387		-40.5843
86.1024	75.499		-39.1588
78.1339	89.0561		-41.8716
84.1847	83.6329		-25.6626
84.6005	83.3294		-10.5611
80.3829	90.0529		-10.0317
88.3117	75.9577		-11.0788
59.2921	31.7422		-102.914
54.5623	19.9903		-106.24
54.0907	35.4911		-106.61
63.9663	27.8193		-98.8216
49.5637	8.14551		-108.117
54.3842	4.98376		-103.964
44.572	-3.89126		-108.258
44.3641	11.0862		-111.736
39.4574	-15.4752		-106.792
34.2732	-27.4714		-103.209
34.4196	-13.407		-110.263
43.9803	-17.8258		-102.745
29.7132	-39.4267		-97.2428
34.4326	-40.7916		-93.5311
25.8862	-49.9047		-90.7327
24.7037	-37.0417		-101.017
22.457	-58.9676		-84.9468
18.8977	-67.9377		-79.9707
17.4492	-57.0064		-88.5201
26.9071	-60.7687		-80.7688
7.93639	-94.4055		-75.2291
3.89424	-103.513		-76.2832
3.17445	-92.302		-78.4782
11.8842	-85.6296		-75.0302
12.102	-96.9		-71.342
-8.3649	-107.236		-81.5839
-10.9516	-115.696		-81.9213
-12.9974	-104.951		-82.8104
-5.23975	-98.7182		-81.2375
-3.71608	-109.767		-79.6892
15.3641	-76.9214		-76.5685
19.837	-78.8965		-72.1253
10.7884	-74.6314		-80.1909
89.1129	46.592		-53.7158
91.8939	49.7399		-42.2519
91.0404	38.7012		-48.1587
85.9597	41.2074		-64.2005
86.653	53.7724		-58.6829
93.836	51.3672		-30.9083
95.2003	42.5483		-26.1015
91.8563	59.8262		-34.6928
95.0176	51.9042		-19.7101
94.9683	52.6489		-8.82364
95.5301	44.5204		-4.43413
93.5283	60.5179		-10.7352
68.0147	24.0627		-94.4797
72.3889	34.4708		-89.4733
71.5237	20.0429		-89.8215
63.4681	13.0197		-97.7623
76.4362	44.7043		-82.7658
80.1922	53.498		-74
79.7038	39.4557		-78.0503
48.4852	-20.1481		-97.9013
53.9008	-9.19545		-99.3172
52.7793	-22.5578		-92.4619
43.142	-31.223		-94.6852
58.6921	1.7726		-99.4054
62.744	-1.09303		-94.4492
38.7444	-41.8131		-89.4803
42.8575	-43.2671		-84.4277
34.9231	-52.4639		-82.57
31.1474	-61.6083		-76.5659
35.2966	-61.3945		-72.5845
24.2417	-81.203		-66.5203
27.4028	-85.0748		-60.0345
20.1298	-90.4037		-65.7636
87.645	9.57537		-50.0653
84.6706	4.31694		-57.499
87.2338	15.6041		-55.6158
89.4113	63.264		15.1633
90.6946	66.7418		2.00278
93.4323	18.0288		-10.6744
95.0035	25.9023		-15.5198
63.1569	-27.1381		-76.81
59.9576	-26.0685		-81.909
67.5049	-18.4828		-78.3494
66.0145	-28.5735		-71.2829
58.3708	-36.1212		-73.8306
71.2802	-9.56087		-79.0523
68.8065	-6.76536		-84.4447
75.0247	-1.17274		-77.5885
73.533	-12.6437		-73.0395
78.8681	7.29221		-74.223
76.8568	11.723		-79.7809
82.6509	14.9172		-68.7325
80.4433	2.58686		-68.3807
45.4295	-58.8578		-61.9114
42.0378	-60.0181		-65.4201
49.3824	-51.9083		-66.0043
48.8189	-57.7811		-58.1578
41.6264	-65.9824		-57.9906
60.3751	-43.4433		-61.5988
56.3358	-50.0213		-58.1126
57.1673	-43.9986		-65.7014
64.4951	-36.7573		-64.157
29.6229	-88.7392		-54.4085
33.8779	-80.6509		-54.3845
65.3847	-63.0224		-6.61128
67.2201	-59.8705		-4.70227
62.8832	-65.5842		-4.14672
67.8125	-58.2751		-3.28635
79.5251	-34.0259		-5.99273
81.8678	-28.9411		-8.2847
93.2862	-25.4779		-42.0908
95.3721	-19.9316		-39.7175
93.7814	-26.0927		-41.4119
71.43	-61.6658		-27.3892
69.4464	-64.2461		-23.8002
96.6242	-15.3427		-36.193
95.7952	-14.7214		-36.63
97.1423	-12.22		-32.076
97.273	-16.2905		-35.6809
89.7726	-19.1323		-15.3875
88.491	-18.7051		-15.9832
97.0123	-10.8618		-27.8398
97.6938	-11.8681		-27.1419
81.33	-46.518		-38.3061
72.7499	-63.2684		-19.8792
72.2424	-63.1231		-17.1534
70.4122	-64.7693		-20.2051
83.0342	-26.4215		-10.0768
93.4932	-11.7232		-23.2568
90.7884	-14.2906		-20.5114
92.1389	-12.2094		-24.7226
87.2707	-17.9932		-17.3269
86.5128	-17.2509		-18.8367
95.1305	-14.6628		-36.8056
85.6618	-17.2071		-20.2042
87.3794	-15.5231		-22.8967
89.3223	-13.9691		-26.5223
86.5258	-15.4041		-27.4269
78.121	-54.9057		-30.8745
77.8816	-56.9271		-23.1448
68.5066	-65.4452		-20.5736
71.8892	-62.219		-14.8449
73.994	-59.7474		-14.9756
75.6719	-57.6735		-15.9689
76.6298	-56.2367		-16.974
93.8754	-26.4744		-41.0054
96.1669	-21.2056		-38.7392
95.7738	-14.3497		-19.7286
95.7422	-15.0615		-19.4294
97.3035	-12.9553		-22.819
95.5187	-15.6624		-19.2712
97.1409	-14.2082		-22.3095
95.0024	-16.6613		-19.4232
97.4732	-16.9619		-35.3397
98.0343	-14.1125		-31.2252
97.4258	-17.5081		-35.2027
98.0229	-12.7564		-26.6809
98.0526	-13.4283		-26.5562
97.8848	-14.0191		-26.2862
97.8558	-15.2069		-30.8567
97.2803	-17.8713		-34.8825
91.9877	-30.5942		-39.902
94.3085	-17.8463		-19.9361
89.6229	-24.3513		-17.2982
95.7379	-18.3501		-28.3748
90.6659	-33.7332		-34.7142
91.3352	-31.915		-34.4317
91.8867	-30.0859		-33.8576
92.2035	-28.5975		-32.9568
92.3056	-27.3514		-31.7048
91.8016	-26.3632		-29.1377
75.9166	-52.2743		-14.6952
76.496	-54.1095		-16.3931
85.7389	-30.4988		-14.127
77.4581	-44.1506		-12.9068
76.9525	-55.52		-17.5076
49.8462	13.3432		71.1561
70.1502	78.1922		46.6857
72.5021	84.067		35.0225
47.3209	93.1366		51.6186
49.0381	100.656		38.9015
39.5772	96.0115		52.1726
74.1119	89.6865		21.3562
75.1365	93.9247		6.43815
50.2016	107.251		24.3734
42.5917	110.196		24.6918
64.0654	107.126		-9.6577
70.0684	102.087		-9.60904
75.4263	96.4775		-9.82633
74.9542	96.7709		-26.385
86.2925	29.8345		31.7718
94.8633	36.6135		0.665861
95.8166	34.9867		-10.0895
91.2037	68.589		-11.479
90.8614	68.5923		-24.4792
47.9888	112.315		-46.5805
45.2358	106.843		-64.2461
40.5362	115.139		-46.3702
73.2584	95.0417		-42.901
70.5744	90.4042		-59.6702
95.4476	34.065		-20.8103
94.3132	32.9829		-31.6186
89.1615	68.1262		-37.3874
86.7752	65.5629		-50.1185
92.141	30.9919		-42.3472
89.4486	27.3688		-52.5571
86.2705	22.0751		-61.3709
84.6672	28.0687		-67.2119
15.8815	-100.235		-66.5618
12.0603	-109.539		-68.0363
9.19245	-118.463		-69.2149
6.67763	-126.706		-70.5533
5.01465	-115.034		-73.6989
41.4409	98.6794		-80.3797
37.0017	88.0969		-94.0142
34.3162	101.208		-80.4223
32.6349	76.4043		-103.855
28.2374	64.0056		-111.021
25.7713	78.7715		-103.839
23.9808	51.6656		-116.04
19.5912	39.192		-119.41
17.0808	54.1234		-115.988
14.8702	25.9902		-121.392
8.33261	28.1609		-121.41
17.4623	-5.10896		-118.291
23.1288	-7.97982		-116.198
-2.56032	-25.1927		-110.351
-6.12203	-37.089		-102.122
-8.0898	-23.5052		-110.24
-8.6937	-45.651		-96.0409
-14.1788	-44.0905		-95.7406
-20.6256	-81.0826		-84.5929
-25.2772	-79.3376		-84.4959
57.7476	63.0374		-97.7866
62.3348	73.8003		-88.1716
53.059	51.2428		-104.88
66.6762	83.1258		-75.4244
48.2912	39.3625		-109.9
43.5246	27.0402		-113.206
38.616	14.3856		-114.996
33.7193	1.48812		-115.096
28.8781	-10.762		-113.477
24.0302	-22.7294		-109.926
19.2937	-34.3919		-104.315
15.1977	-45.1621		-97.6454
12.2394	-54.4278		-91.6307
9.36035	-63.1383		-86.6929
5.7849	-71.9529		-83.2655
2.06561	-81.1085		-81.3697
-1.53793	-89.892		-80.9249
0.858937	-112.279		-77.0567
-1.647	-120.758		-77.7905
83.6759	60.833		-62.7136
82.5359	34.2256		-72.6637
78.5863	25.3102		-79.7551
74.4498	16.1946		-84.9925
70.2093	6.2395		-88.2739
65.9937	-3.80841		-89.6125
61.5811	-14.2272		-88.9944
56.4461	-24.5926		-87.1634
51.329	-34.5051		-84.0616
46.6566	-43.7187		-79.8683
50.1945	-44.3826		-74.8347
42.4358	-52.8883		-74.2953
38.7436	-60.7505		-69.0924
37.9418	-73.4408		-55.0181
40.6041	-72.8431		-51.627
81.5944	-1.32468		-62.9604
78.4635	-8.14923		-66.0857
82.4478	-5.79305		-56.9905
68.4257	-29.5706		-66.3406
72.1158	-22.3218		-67.3447
53.6645	-44.3064		-70.2873
75.3873	-14.9351		-67.5811
52.31	-56.512		-54.5271
48.5273	-63.029		-51.129
-10.645	-102.819		42.1907
40.8215	-91.4134		3.78661
25.005	-103.22		5.75369
6.13869	-49.7613		94.8801
8.43033	-51.6028		93.0818
10.6033	-54.2265		90.6214
-1.60388	-58.9444		94.6399
-1.62199	-60.101		94.7208
-1.72733	-61.2584		94.6881
8.65148	-70.4335		85.3562
8.51808	-68.3619		86.2118
8.36476	-66.5329		86.9497
11.0373	-47.9086		92.346
24.7801	-63.905		77.769
25.0363	-40.3232		80.4812
23.9355	-45.5905		82.0218
22.7334	-50.6457		83.089
52.0725	-55.1001		53.8615
35.3	14.0816		71.7029
83.1625	-10.1627		-50.6268
86.1061	-13.0936		-31.6326
86.2153	-15.3283		-29.2727
60.6989	-68.1939		-0.449532
37.6961	0.733376		68.8821
72.289	23.7995		62.3521
8.06828	-30.2753		94.0523
58.8271	3.53106		59.5077
11.7109	-30.5916		91.0863
86.0804	-15.5405		-28.1985
25.3086	-115.324		-44.619
41.4097	-83.5149		-39.2062
42.5548	-76.6894		-44.4553
44.306	-70.8739		-48.2437
21.154	-30.3		81.7664
3.06488	-58.787		91.6984
11.8727	-61.7397		84.1681
-1.41191	-52.7754		92.1723
-79.5534	-27.0783		17.5721
-79.0041	-22.2375		18.6121
-80.1892	-24.5763		10.5066
-79.8959	-31.66		16.4248
-78.4645	-29.3318		25.4718
-86.1737	-94.1468		-4.78529
-82.7051	-84.7673		-3.94955
-88.119	-92.2064		-9.07911
-90.3026	-103.454		-6.12287
-83.589	-96.0425		-0.659797
-93.6024	-110.135		-7.46396
-91.616	-112.694		-3.0338
-94.9738	-107.793		-11.9725
-96.271	-115.332		-8.73401
-74.3077	-81.8005		6.02366
-77.8331	-79.6479		1.28416
-76.5131	-88.7549		4.66031
-70.6575	-84.3346		10.3418
-73.3881	-76.2943		7.47486
-84.3486	-75.4579		-11.5701
-82.7773	-76.6122		-7.2933
-83.0665	-70.3364		-10.9508
-85.1424	-73.7543		-16.6381
-86.3027	-81.9585		-12.3467
-77.5641	-47.744		27.2782
-78.7787	-46.176		20.1649
-76.9603	-51.7999		25.1113
-75.4919	-49.9341		33.7151
-77.8008	-43.9034		29.0842
-54.8102	51.5748		25.8406
-58.9459	51.277		14.7391
-56.8843	43.9287		28.2139
-49.4741	53.0967		36.4379
-52.9625	59.6396		22.1485
-58.4835	64.5356		-24.7224
-61.8663	57.5968		-20.0509
-57.9088	66.0567		-14.2557
-54.812	70.9874		-29.7668
-59.2547	61.7078		-34.3299
-32.3327	-101.892		40.421
-31.2323	-98.6149		42.9805
-35.6089	-100.947		39.3351
-36.2751	-110.032		38.2225
-29.8749	-102.61		41.0361
-42.1583	-121.712		34.309
-47.52	-132.816		30.2855
-39.2476	-122.78		35.3244
-45.1287	-119.845		32.9323
-44.2615	-143.026		29.0208
-46.446	-147.97		27.4595
-41.2196	-135.473		31.5851
-47.5669	-141.625		28.6384
-78.4007	-31.5866		-28.1065
-76.9577	-23.8525		-32.3628
-77.7383	-38.025		-30.6509
-79.7196	-38.0477		-22.8099
-79.007	-25.1259		-25.6896
-76.1842	-18.2068		-35.4531
-77.7045	-12.9647		-32.1836
-75.62	-13.2538		-37.9413
-74.5397	-24.6928		-38.9993
-94.5998	-100.505		-27.9758
-95.7143	-103.456		-21.6274
-92.6321	-98.0941		-34.7536
-96.7596	-106.62		-30.4148
-36.6147	-123.94		35.8155
-31.5609	-111.932		39.7061
-76.6439	-31.3855		32.8381
-77.1874	-36.3181		32.1282
-74.2304	-32.4272		39.0972
-76.0355	-25.5821		32.9328
-79.5256	-44.23		12.4258
-79.8924	-40.0604		13.8947
-80.0439	-42.9725		4.30435
-78.9533	-48.2965		10.5199
-33.7685	-87.9338		90.6745
-31.9314	-83.9693		92.0176
-37.3794	-86.2906		88.3578
-35.1108	-91.6017		88.3233
-30.1319	-89.3476		92.2298
-40.953	-83.9364		85.2696
-39.4749	-79.7748		86.4236
-44.4953	-81.4351		81.1393
-42.0264	-87.7518		83.2516
-23.1027	-81.9272		94.4926
-24.9638	-86.6852		94.3527
-21.0349	-76.7053		93.5628
-26.3794	-80.6723		93.6912
-35.9121	-94.4144		85.2079
-32.4875	-95.8131		86.5654
-39.3859	-92.7456		83.1183
-36.5708	-96.4768		80.7487
-36.8402	-97.5769		75.0436
-36.423	-97.5537		68.579
-33.143	-99.3349		75.9299
-7.00718	5.23518		81.9359
-3.98879	7.20797		84.3025
-6.1172	8.31244		79.5629
-9.8049	3.98212		79.8879
-8.20491	2.05895		83.7163
-45.6901	-10.1544		70.4234
-47.8266	-14.8138		70.0139
-39.2947	-11.0937		74.1676
-43.4704	-5.45878		70.6654
-51.9238	-9.02781		65.6408
-53.5964	2.47924		60.7047
-56.0242	-2.68615		60.1451
-47.499	1.04434		66.2541
-50.6676	7.2457		61.3805
-59.3319	4.04129		53.842
-59.5089	21.6675		42.7098
-56.0016	23.1138		46.783
-56.5843	28.5932		41.9148
-62.2866	20.636		38.2475
-49.7055	-19.7537		69.3724
-43.4971	-20.6726		74.0478
-55.9414	-19.4287		63.7254
-51.2676	-25.4817		69.0465
8.09559	4.65919		100.461
6.21405	4.54779		99.9796
6.56413	-0.136257		103.699
9.46226	9.56712		97.321
1.59343	73.7282		77.5658
1.92965	79.9219		72.8181
-4.47075	74.1256		74.689
1.25039	66.5058		82.4929
7.00085	72.9095		79.5789
-28.9681	-99.9887		62.5101
-29.479	-100.876		69.8457
-31.9207	-98.6724		61.8996
-27.9544	-98.6354		54.9426
-71.3074	-32.9039		44.7734
-70.7278	-26.6077		44.9867
-71.6314	-39.3534		44.4894
-67.8141	-33.0573		50.3994
-28.8822	-97.2571		87.1992
-29.5987	-99.5587		82.2128
-27.824	-94.3942		90.5982
-29.7594	-100.77		76.2762
-57.0169	-75.9724		57.8573
-56.6131	-73.0939		61.1923
-60.5423	-70.897		53.409
-56.6323	-78.4403		55.0926
-53.3701	-80.7589		63.7548
-61.2649	-76.2992		36.3925
-57.1792	-80.2451		40.4278
-63.0741	-73.0296		40.068
-65.2664	-72.2629		32.126
-59.4209	-79.9146		31.9128
-26.6175	-98.0388		47.9924
-26.184	-99.5782		43.7601
-28.9773	-97.4144		47.4381
0.454604	-4.45393		104.496
3.04943	-4.30399		106.124
2.10952	-0.434202		101.695
-2.64158	-5.02312		101.608
-1.02409	-7.56019		106.71
-21.8344	-13.4198		80.9247
-17.7293	-11.9091		82.7862
-19.0501	-9.13527		81.0978
-26.2283	-13.3478		79.3293
-36.0556	-45.4471		82.95
-34.2113	-46.2425		83.4891
-34.4526	-45.0688		83.4034
-10.5103	-21.9858		93.6185
-12.2492	-21.7182		91.6564
-10.2109	-22.9049		93.222
-11.4517	-20.56		93.6136
-11.5581	-25.6708		91.5246
-9.60722	-25.6279		93.1438
-11.0452	-24.883		91.7728
-13.852	-25.1519		89.5061
-12.522	-26.8871		91.3822
-0.435447	-25.0744		101.332
-2.10111	-24.3575		100.52
-0.718356	-25.7822		100.095
-0.339864	-24.3797		102.856
-16.0957	-23.6469		87.4159
-17.1182	-24.8045		87.3316
-15.302	-22.9009		87.8452
-17.8018	-21.4206		85.5457
-3.95567	-15.9833		108.754
-3.63032	-14.3636		109.278
-6.40362	-15.4145		105.036
-4.23278	-17.7354		107.557
-1.57825	-16.78		111.171
-38.5913	-60.8822		83.3195
-41.4663	-64.8173		81.6757
-35.8965	-63.7216		85.5496
-35.976	-57.7366		84.7763
-40.4581	-57.5475		81.5956
-32.4473	-39.6863		85.5502
-34.578	-39.8947		84.2885
-30.2522	-39.352		86.9624
-30.7131	-35.8443		86.218
-2.32239	-29.3616		97.7261
-1.51524	-27.6428		98.4225
-4.16226	-28.6447		97.2147
-3.27053	-31.5146		97.3525
3.65154	3.97158		98.7328
4.79529	8.42862		95.633
0.38602	2.94299		96.2293
-14.0518	-13.801		89.0965
-14.4058	-13.2276		87.6774
-14.6827	-15.1508		88.2084
-13.0983	-13.2814		91.4099
-12.6539	-12.3436		91.5024
-4.33701	-25.1705		97.5921
-2.78909	-25.7555		98.5414
-3.9968	-24.3859		98.2204
-5.98728	-25.1262		96.2155
-4.74513	-26.6488		96.9944
-3.57834	-23.8628		99.2697
-3.29821	-23.2109		100.726
-12.0191	-12.743		93.7656
-12.8984	-14.1765		92.6613
-11.5238	-11.9365		94.0862
-15.2862	-17.3202		87.525
-15.3376	-19.5748		87.5907
-14.2116	-16.5524		89.8224
-6.44508	-39.2575		98.0593
-5.45239	-36.5303		97.5724
-8.70293	-37.8387		97.729
-7.34601	-41.0171		98.4132
-23.5817	-24.6687		84.3688
-20.9655	-21.4439		83.8339
-25.792	-23.8467		83.1468
-26.1113	-28.0471		85.2852
-21.3246	-25.6181		85.8297
-23.0627	-63.0988		91.7368
-26.4932	-61.6173		90.6538
-24.2373	-65.427		91.165
-19.4778	-64.591		92.3757
-22.1904	-61.1424		92.5301
-29.0938	-42.5043		87.5361
-28.5481	-40.6468		88.1674
-31.5927	-43.4551		85.3969
-29.609	-43.1877		87.0326
-11.1667	-11.3292		93.9783
-9.49174	-10.6737		96.868
-11.1267	-10.4023		92.4654
-29.5554	-60.2675		89.2006
-28.5084	-58.5169		90.022
-32.292	-58.2856		87.434
-30.828	-62.5564		88.4426
-16.3925	-65.7914		92.5873
-15.6163	-64.2		93.1938
-17.2583	-67.9848		92.2531
-41.1503	43.6694		58.6846
-41.8151	45.4153		56.7214
-44.8215	39.3362		53.4233
-40.1991	42.2015		60.4704
-12.9299	62.1749		77.6373
-11.8989	68.189		74.4049
-20.1131	62.3295		71.9504
-14.2087	56.7419		80.0348
-6.67194	61.5706		82.2765
-27.8231	61.6926		65.0543
-27.2858	67.4941		61.3
-35.5424	59.7509		56.6708
-28.4215	56.4072		68.3154
-17.6629	48.1831		81.2343
-16.3936	50.9542		81.2679
-18.9666	45.3007		80.7639
-12.3568	47.4608		86.0078
-43.1212	47.4217		53.2942
-48.5316	42.27		46.1904
-36.1939	50.8752		62.8839
-43.5531	50.6481		50.1583
-6.03599	32.4788		84.3524
-3.3609	31.0606		84.5732
-5.30498	33.2838		85.6973
-9.08099	33.9922		83.5284
-6.88971	31.505		82.1058
6.30361	17.6478		89.076
5.97965	15.4838		90.4277
9.45782	18.6668		90.9616
6.45787	19.3263		88.1016
2.97197	15.9019		85.9638
-21.5585	2.89135		75.3108
-15.6339	2.45601		77.3354
-18.9674	5.1592		74.8185
-28.6462	4.66629		72.9327
-24.4627	0.034647		75.7767
-45.1637	24.1335		56.29
-43.7871	20.0537		59.1935
-41.7254	24.7538		58.1757
-44.6515	28.7126		55.1647
-48.359	23.6049		54.2217
5.58603	12.3798		92.7397
8.47245	13.2837		94.1767
2.34947	10.8411		90.3985
-19.9034	43.1226		80.1388
-20.3105	41.1422		79.4628
-14.5935	42.2122		84.4602
-24.7954	44.7078		76.6538
-30.0337	45.2962		72.5054
-35.2413	43.3991		67.4551
-29.8214	43.0382		72.7332
-39.0235	31.0734		59.3591
-41.0021	31.9414		57.8687
-39.2983	28.2282		58.8691
-36.9461	29.9661		60.6492
-38.0475	33.987		61.186
-25.7697	29.5134		68.5723
-23.8136	29.85		70.0145
-27.5846	29.0508		66.8908
-21.8426	30.1047		71.1142
-19.6318	29.8498		71.7068
-21.6795	30.7785		71.7583
-23.8925	30.6388		70.6032
-19.2289	30.409		72.3339
-16.9739	29.1281		71.9503
-14.3768	28.1078		71.935
-16.4702	29.6126		72.5303
-13.7299	28.5252		72.4773
-12.0698	26.8774		71.6436
-10.0643	25.27		71.1233
-8.40239	23.4756		70.5003
-7.3615	21.9964		70.0272
-7.25754	23.8109		71.0264
-8.9462	25.4406		71.5703
-6.37753	22.4033		70.5696
-6.90188	20.7836		69.643
-6.18267	23.9605		71.6472
-7.88617	25.7703		72.3224
-15.9818	30.2341		73.3634
-13.0711	29.0708		73.3512
-32.2518	26.5144		62.8224
-31.4797	25.2163		63.365
-12.6291	35.6419		82.3778
-13.258	34.3705		80.4017
-11.9281	37.1959		84.1307
-16.6144	37.3808		80.6465
-28.4196	35.8168		71.3859
-27.5214	33.6178		70.6845
-25.0972	35.8782		73.7751
-29.0384	38.3182		72.1488
-24.9342	14.5859		69.2433
-18.8979	12.5687		70.9452
-29.7213	17.3757		67.0279
-25.9968	13.6271		69.4089
-13.8832	12.4149		71.6527
-14.5241	11.2115		72.2119
-10.3729	13.1556		71.7499
-6.4571	15.899		71.1833
-7.43957	14.9233		71.4641
-5.90434	16.6876		70.914
-23.0414	16.8885		68.8929
-17.7924	15.051		70.1485
-27.3036	19.4818		67.2237
-8.79553	16.2019		70.01
-8.00594	16.6415		69.7941
-10.2887	15.5419		70.306
-7.38921	17.0156		69.7311
-6.80928	17.5327		69.72
-1.37034	23.6129		76.549
0.222539	25.0496		79.8433
-2.06883	25.2398		76.9965
-3.12973	22.228		73.2293
-5.33888	18.0824		70.8113
-10.3238	27.5954		72.9821
-4.02802	21.52		71.9275
-4.43894	23.1158		72.2577
-3.99304	19.952		71.8033
-22.5259	18.1409		68.7238
-17.3202	16.1848		69.8348
-8.73057	17.0392		69.3681
-10.0378	16.6579		69.643
-8.02678	17.2214		69.3126
-7.59471	17.5091		69.1858
-28.9289	28.4728		65.2954
13.7435	29.1581		90.2273
14.571	31.4738		90.7154
10.4682	29.2055		89.7332
13.3964	27.3545		89.9514
-9.84618	7.9697		76.0065
-12.5236	7.22976		75.2835
-10.7526	5.80424		77.3829
-7.79757	9.06223		76.6369
-9.24161	9.74077		74.7982
-5.51745	10.4648		77.7772
-2.88193	12.3428		79.6435
-4.68263	15.2037		73.6605
-4.48483	16.8206		72.5452
-3.02063	15.8392		75.4877
2.58103	22.3445		81.7533
3.67172	23.1469		83.4303
2.11935	24.1929		81.7408
-8.609	14.0052		71.6472
-8.61083	12.8614		72.5474
-8.778	11.3788		73.6308
-11.2229	10.3858		73.3822
-26.9944	-46.4457		86.0774
-24.1149	-46.8246		87.7635
-29.4039	-45.8918		84.5471
-26.8748	-46.4162		85.8427
-30.9714	-45.6777		83.6428
-30.6831	-45.653		83.5455
-8.65249	-44.2865		98.3697
-9.03005	-45.5469		97.9732
-8.20565	-43.058		98.5646
-11.2567	-42.9508		97.8975
-14.4426	-44.837		96.0294
-16.8053	-44.3082		94.9692
-14.6248	-46.158		95.1528
-12.1297	-45.6482		96.7639
-14.0173	-43.4836		96.7402
-19.2955	-43.8395		93.638
-22.3365	-43.7561		91.6959
-19.7403	-45.2241		92.6126
-18.9697	-42.5188		94.3072
-13.5229	-42.1008		97.2411
-13.0134	-40.8353		97.539
-15.9	-41.5769		96.226
-16.9603	-39.2797		95.6385
-17.9375	-40.0894		95.2191
-14.3737	-39.6386		96.9397
-16.1983	-38.3708		95.8102
-26.16	-44.393		88.751
-25.4972	-43.0674		89.8948
-14.6567	-47.4551		93.9765
-17.4745	-46.7918		92.818
-14.635	-48.1436		92.9975
-12.1274	-48.11		94.8878
-20.5161	-46.4436		91.1603
-20.7895	-47.0759		90.1825
-31.2391	-44.301		85.2294
-32.7997	-45.2766		83.7854
-27.5169	-47.3813		86.689
-27.6767	-47.5762		86.9855
-24.7328	-48.1552		88.6549
-27.4379	-47.324		86.4387
-28.7238	-48.7541		87.6016
-26.6815	-50.3353		90.0519
-28.3148	-48.3389		87.508
-23.9778	-51.5762		92.3537
-24.7201	-52.26		92.3442
-21.1758	-52.3197		93.9023
-23.4158	-50.8165		92.0871
-16.3014	-51.3205		94.4055
-13.5066	-52.3255		95.0853
-15.5752	-50.3376		93.7997
-19.493	-50.551		93.2709
-17.2065	-52.3176		94.8388
-12.4224	-55.7046		96.0582
-11.8589	-54.5307		95.7957
-14.8934	-54.4548		95.8124
-12.9158	-56.7989		96.1571
-31.6987	-46.9841		82.8233
-31.35	-46.4388		83.4985
-30.0337	-47.4142		84.0967
-32.1813	-48.4132		82.042
-10.6191	-51.9421		91.2624
-10.3364	-51.3167		92.4944
-11.152	-53.3289		89.9227
-12.6941	-51.3243		91.0099
-13.3248	-57.9166		96.1037
-15.9769	-56.5126		95.9432
-13.7529	-58.929		95.8988
-14.9643	-62.5281		94.0936
-14.4829	-61.0397		94.9626
-17.7777	-61.0034		94.0859
-12.4941	-40.0768		97.6358
-10.3088	-40.6635		98.1729
-11.4352	-39.0188		97.6874
-11.2728	-53.2313		95.3408
-10.6844	-52.077		94.7485
-10.3879	-51.4945		94.2854
-10.3389	-51.2478		93.9229
-12.5432	-50.6993		94.0473
-15.2193	-49.8809		93.3614
-15.046	-49.7141		92.9993
-18.2388	-49.204		92.2589
-10.347	-51.1418		93.3809
-12.3486	-50.461		93.1389
-21.453	-48.7587		90.6831
-21.925	-49.1611		91.1164
-21.2582	-48.6015		90.2726
-26.3976	-54.7784		91.932
-27.0151	-55.7038		91.4432
-23.7107	-55.7541		93.4866
-25.8556	-53.9496		92.2119
-20.3228	-56.7493		94.7668
-20.8709	-57.8154		94.2438
-16.7849	-58.3949		95.486
-19.7932	-55.8927		95.0719
-14.1116	-59.928		95.5316
-20.8203	-47.2519		89.6314
-20.6774	-47.213		89.1415
-17.5743	-47.6476		91.2189
-31.2411	-46.1983		84.1922
-29.9218	-46.8371		85.3299
-15.2968	-50.6336		90.4696
-14.9544	-49.9678		91.5612
-15.9752	-51.9056		89.2992
-18.2601	-49.9309		89.5848
-14.898	-49.7219		92.4403
-17.8687	-49.0705		91.3385
-21.3992	-59.3225		93.4809
-24.8786	-58.1142		92.274
-25.2815	-53.1011		92.3563
-22.5503	-54.1013		93.9776
-27.7082	-57.0041		90.7915
-30.0996	-55.2532		88.9994
-20.2563	-46.9515		88.775
-23.1578	-46.5647		87.3277
-19.2261	-45.7772		88.0143
-17.325	-47.2087		89.8748
-14.477	-47.7862		90.7642
-14.4909	-48.2451		91.6171
-14.4162	-46.4176		89.4635
-12.166	-48.2832		91.1203
-17.7242	-43.0064		86.9168
-20.067	-42.7057		85.975
-16.4246	-39.3409		85.979
-15.5053	-43.2883		87.6295
-33.4743	-51.7132		81.0841
-31.7859	-52.1588		82.3907
-35.0378	-55.731		80.2998
-12.1722	-56.2063		88.6399
-13.7923	-59.9746		87.8849
-14.2866	-55.4935		88.5004
-13.404	-43.643		88.1437
-11.9743	-40.0098		87.2615
-11.243	-44.0767		88.5052
-17.0298	-54.706		88.0915
-18.7063	-58.6425		87.2311
-20.109	-54.055		87.3495
-35.0324	-45.9985		76.6659
-35.8048	-46.0413		75.2865
-0.439528	16.925		78.7238
-0.0515747	15.6056		80.7393
-77.4447	16.5454		-39.1563
-78.9894	16.4441		-37.3721
-76.5654	21.2096		-39.1599
-75.567	16.7023		-42.5853
-78.1465	12.0043		-38.3934
-70.337	32.9892		-2.8556
-68.5743	34.5506		1.73541
-69.7981	36.0852		-6.93004
-69.3048	38.3947		-11.9751
-70.1654	38.4278		-18.768
-71.3883	33.6821		-12.9456
-67.2507	43.6796		-13.2305
-79.2401	-9.38211		-29.7674
-79.1812	-5.14517		-31.6212
-79.5383	-13.8783		-27.1375
-80.8297	-6.49574		-28.0565
-79.0271	-1.17256		-33.7208
-80.7713	0.605005		-31.7738
-78.8899	3.12688		-35.5652
-77.2229	-3.78565		-36.6761
-80.372	16.9119		-36.4139
-79.133	21.8832		-36.6407
-81.1101	12.6501		-35.4799
-81.663	17.8864		-35.9917
-85.5018	0.736103		-28.3733
-86.8073	-0.0614414		-27.2088
-83.7824	1.90732		-29.8743
-87.7876	-0.636398		-26.1182
-87.6175	3.74268		-28.2256
-87.8622	-5.02685		-23.5581
-88.5893	-0.894848		-24.8434
-88.984	10.3175		-26.2173
-88.8751	15.2765		-29.3569
-88.7771	10.8279		-25.4557
-85.429	-15.4497		-15.2489
-85.3008	-13.5566		-18.3792
-84.3627	-14.7649		-17.444
-85.2063	-16.3414		-13.1882
-85.9465	-15.5753		-14.4829
-84.8754	-8.41579		-2.98415
-84.7497	-9.04584		-2.94535
-84.5149	-10.3938		-3.2007
-88.5956	11.155		-25.0561
-88.2787	10.3653		-24.1149
-86.7591	26.4842		-28.9786
-86.654	27.2018		-30.4964
-87.033	25.0922		-27.32
-83.6609	36.4296		-26.6308
-83.4891	37.8452		-26.7397
-82.9078	39.8868		-25.7317
-81.8268	41.6738		-22.7124
-82.9418	40.4167		-26.1199
-82.3663	39.4257		-23.5652
-79.654	14.8134		-3.9812
-79.0827	20.6331		-4.67226
-80.0711	10.4995		-3.30643
-78.9102	15.3186		-2.73736
-79.9444	-2.95229		3.40546
-79.0502	1.42233		3.70904
-80.6543	-6.77993		3.10036
-79.2224	-3.82218		6.11507
-82.0169	3.54077		-5.58091
-81.3622	5.47035		-5.77094
-83.0096	1.70522		-6.02203
-71.5701	33.1335		-12.8895
-71.6005	33.1367		-12.6869
-71.5845	34.6532		-16.2777
-76.905	43.2825		-13.2164
-77.3556	45.332		-16.2269
-77.8571	42.8041		-12.2031
-76.4715	39.6765		-10.3813
-75.9888	43.4436		-14.4009
-76.8423	46.0093		-21.1394
-76.1005	45.4257		-18.2618
-76.4576	44.7804		-22.507
-77.8088	45.0614		-24.6919
-77.0445	46.2103		-20.6478
-82.9456	31.8408		-35.1362
-83.87	32.3898		-34.5651
-81.2683	37.6667		-32.3071
-82.3452	31.141		-35.343
-78.4758	25.5058		-5.32473
-79.1541	24.4039		-5.92183
-85.7644	31.9904		-31.982
-84.4913	37.0496		-29.7769
-85.8567	31.9171		-32.3442
-86.3599	29.1764		-32.1541
-80.9301	42.2258		-18.8388
-80.1136	41.2396		-14.967
-80.6863	43.2021		-18.2417
-81.1878	40.8532		-19.5558
-79.6449	26.8842		-7.98651
-79.4295	29.3857		-8.70795
-79.6843	24.9404		-7.41018
-85.0332	32.4084		-29.3114
-85.8307	30.5151		-31.1358
-80.0778	19.6763		-9.11747
-80.0183	21.3752		-8.05111
-80.1497	20.0309		-9.81448
-84.5831	22.644		-22.7255
-85.7048	25.9395		-24.5796
-84.8268	21.54		-22.87
-84.1773	22.9729		-22.1252
-78.2394	5.48192		3.51785
-77.5333	4.88052		5.98384
-77.4177	10.2632		2.53263
-77.6453	27.0162		-35.2119
-77.755	29.7226		-34.2612
-75.9713	31.4333		-33.1457
-76.7511	26.1502		-36.3816
-78.3361	35.2824		-31.5116
-79.8475	31.4664		-34.3688
-79.0261	40.5371		-29.538
-76.8196	38.7633		-28.3547
-81.6523	29.8344		-35.3508
-82.3352	24.0997		-36.145
-83.5248	19.0711		-35.7495
-82.2456	1.74779		-30.8382
-82.0599	5.23789		-32.5499
-82.2571	-1.69114		-28.9911
-81.6701	8.81866		-34.1665
-80.1665	8.10577		-35.2699
-87.6931	10.1973		-23.1189
-82.1852	-4.9328		-27.256
-82.2286	-8.92496		-24.8816
-84.8847	-16.2165		-10.3545
-84.4742	-16.6462		-10.2378
-84.0037	-17.0223		-9.93882
-83.7991	-16.5324		-15.4715
-85.2799	20.8949		-23.3242
-86.7397	22.947		-25.4492
-78.129	15.6871		-1.69955
-77.279	15.8096		-0.52555
-80.4172	1.5617		0.277011
-80.7815	1.53198		-0.364982
-84.6832	-1.57156		-5.57604
-84.5012	-0.38492		-6.46847
-86.2764	-3.13832		-7.01699
-80.4845	7.34077		-2.73057
-80.955	7.43843		-4.86567
-75.8566	40.3249		-25.2217
-74.6666	40.4939		-21.9777
-74.8561	36.0339		-28.0757
-74.5223	34.3016		-29.8874
-73.1003	36.0245		-25.6906
-74.2318	33.9141		-30.9799
-83.8258	33.1181		-24.3383
-84.1397	31.5742		-23.9908
-80.3529	20.9195		-11.2254
-80.9547	22.5537		-13.8198
-83.8667	23.7617		-21.6415
-83.2787	23.5768		-20.2998
-84.4109	27.8898		-22.8006
28.2625	82.8794		70.9098
29.7623	90.1875		63.1694
20.7781	84.2904		70.9252
26.5898	75.7316		76.9489
25.1239	68.5746		81.7943
18.3265	70.3491		81.5508
23.3031	60.9341		85.9267
-0.725303	60.4752		85.3995
4.65615	58.8808		87.3256
-2.88811	55.0146		87.7606
-0.251666	-23.5885		104.925
-2.00766	-22.9903		103.677
-0.300518	-22.5004		107.048
1.87813	-14.2813		112.982
1.33461	-15.9062		113.013
2.46867	-12.4141		112.417
-0.566041	-13.546		111.755
0.779207	-17.5625		112.492
0.24789	-19.1703		111.391
-1.0636	-26.5483		99.2149
-4.3901	-34.0757		97.3248
-6.52734	-33.149		97.0058
-0.166981	-20.8508		109.517
-2.28209	-20.2323		108.002
3.1613	-10.5674		111.435
4.07371	-7.95298		109.56
0.758007	-9.97627		110.312
17.158	42.3327		91.9025
18.626	46.8276		91.2446
10.9246	43.9819		91.44
15.9981	38.7544		91.8732
11.5991	18.9614		91.5865
11.9332	20.8695		90.7366
11.23	16.6619		92.8286
12.2581	22.6143		90.1743
12.5735	24.2342		89.8925
9.92579	22.3103		89.528
-9.90871	-48.8545		91.2399
-9.85069	-49.681		92.5161
-9.74734	-47.4433		90.0495
-9.86427	-49.847		93.3938
-9.8531	-49.679		94.1097
-11.9067	-49.1096		93.1215
-9.38967	-46.6311		97.3942
-9.66441	-47.7398		96.5455
-9.78046	-48.8352		95.4221
-7.89935	-42.0912		98.5569
-8.84294	-44.6761		88.7231
-7.40237	-41.0461		87.7476
14.4047	85.1797		70.3844
15.2894	92.069		63.0351
8.28242	85.5667		69.3705
13.3987	78.5929		76.028
5.78335	46.6738		90.8748
7.34944	50.2449		90.5187
0.717052	49.3856		89.9827
3.072	42.2563		90.4723
-0.0539703	38.8002		89.4009
-3.0788	35.807		87.8728
-4.60603	41.2542		88.5719
-4.52755	34.3016		86.7512
-7.77168	36.3136		86.1353
-1.07667	32.682		87.2684
-9.41294	27.9694		74.002
-12.4482	29.5923		74.3361
-6.74165	26.1061		73.4013
-8.75893	28.9201		75.9136
-11.2067	27.1567		72.1478
-7.87516	30.0111		78.5737
-5.23609	28.4968		78.4414
-10.8701	31.5709		78.4739
-9.93957	96.1679		46.4727
-10.623	90.4601		54.3436
-3.13747	97.7447		49.1591
-9.95223	101.815		35.8377
2.49473	85.7793		67.5282
-3.88913	85.6352		64.7165
2.90539	91.9341		60.6668
-4.29091	51.7993		88.4723
-9.30004	52.8141		86.5133
-6.36393	47.8264		88.4326
-11.466	38.9605		85.3638
-10.2568	41.0285		86.5653
-8.1848	44.3154		87.7867
-14.0193	32.8319		77.9412
-17.7543	34.0372		76.8021
-14.9475	31.8244		75.8872
-10.9566	85.1648		60.5242
-11.226	79.8512		65.7355
-18.3071	84.5098		54.8647
-15.4099	53.3725		80.927
-21.5538	53.7698		75.9189
-21.8723	32.583		73.3161
-24.6066	32.6031		71.8456
-18.819	31.9365		74.0581
-21.6733	33.715		74.3533
-20.9488	39.2127		78.3642
-25.2878	40.8378		75.9018
-21.1891	37.1832		77.0979
-21.5039	35.2059		75.6183
-11.4026	74.1678		70.3539
-19.0566	73.8939		64.5433
-25.1792	84.0727		47.466
-31.2051	83.6004		38.7683
-25.9008	78.7524		52.7245
-25.9844	30.2679		69.0618
-27.8698	29.7288		67.2528
-27.1489	32.2728		69.9599
-29.0342	31.4376		67.8692
-26.3579	31.0974		69.5309
-29.4927	40.8887		72.6622
-33.5667	39.2203		68.4623
-1.14575	29.5252		84.1928
0.0168524	30.3044		85.921
-2.06201	28.3286		81.4992
0.433956	27.7926		83.2784
1.66275	31.1572		87.4666
3.11193	29.5014		87.0415
-3.3345	26.894		77.813
-4.37254	25.6143		74.7685
15.0397	35.3085		91.4115
-80.6004	-43.3262		-3.5989
-80.8954	-43.3132		-10.2266
-80.729	-38.0613		-1.65056
-66.1876	46.9175		-33.1916
-69.0295	41.5746		-28.0533
-65.5952	48.9962		-25.123
-63.4182	52.1832		-37.9176
-67.3355	43.2507		-38.8624
-73.2949	16.4801		-48.5695
-72.3374	22.4254		-48.5825
-71.34	15.8546		-54.3085
-74.2481	10.3041		-47.0509
-70.9255	28.6136		-48.1959
-73.3891	27.0097		-41.8572
-69.6586	34.0739		-46.3131
-68.6291	29.9371		-54.7795
-75.1339	-8.20379		-40.9165
-74.9733	-1.99982		-43.3521
-73.2551	-12.2613		-44.9528
20.611	53.6935		89.0863
14.9958	55.2142		88.9658
9.67521	57.1014		88.3143
11.2005	64.651		84.9629
-43.7098	-91.8379		55.7501
-39.005	-94.8462		59.2545
-48.6647	-87.6862		50.1193
-41.6013	-92.4208		48.6875
-64.3031	-69.9948		43.2848
-64.5745	-67.6853		46.3878
-68.1237	-65.0677		39.4302
-59.8955	-75.5608		47.3518
-26.7497	73.1345		57.0915
-33.7464	71.7809		48.6737
12.463	71.8603		80.7641
-37.0879	83.0166		28.672
-38.8313	76.6226		34.1503
-41.9554	82.4507		18.4446
16.5816	99.8364		52.6211
23.6545	99.3084		52.864
17.9129	107.194		40.0993
9.90795	99.5686		52.1984
-43.2615	56.0252		46.4403
-41.7868	63.0892		43.0185
-30.5639	30.4394		65.7394
-39.2627	40.6684		61.8753
-37.9789	38.9177		63.1973
-41.5777	36.6524		57.9818
-36.587	37.1502		64.2169
-27.6335	-103.418		41.2996
-72.089	-53.4414		40.5145
-72.1498	-57.1151		37.5141
-68.218	-58.7249		45.5824
-71.881	-49.6733		42.6251
-10.3523	-37.3151		97.411
-9.20012	-35.1035		97.0066
-12.1359	-37.0853		96.9326
-27.4193	-38.4617		88.6615
-24.3832	-37.3795		90.6214
-25.4356	-34.8526		89.1063
-12.1114	-32.8714		95.2783
-10.6669	-30.7113		94.8505
-14.7679	-32.788		93.9373
-13.4212	-34.8694		95.6147
-9.68275	-32.7294		96.142
-36.3857	-39.9102		83.2264
-35.1494	-36.1528		83.5555
-38.9254	-40.3786		81.5889
-37.245	-43.2745		82.6073
-48.4021	34.1461		50.0136
-50.6089	34.975		46.6671
-50.8762	28.6433		49.4085
-45.8676	33.4718		53.073
-52.9843	35.8888		42.59
-55.8433	36.2038		37.2122
-34.791	28.9557		61.7906
-35.3921	27.3117		61.0958
-43.6546	32.6802		55.5184
-72.8773	34.2944		-33.0301
-72.0514	36.6344		-29.1023
-70.9513	35.9656		-37.1194
-74.0507	30.7281		-36.2011
-78.5366	7.38581		-37.2834
-76.7806	6.35563		-40.526
-81.0675	-29.3319		-12.2809
-80.6491	-25.6194		-18.3064
-80.729	-35.1821		-14.9051
-81.1065	-31.7575		-5.91134
-81.5435	-24.7402		-9.8953
-75.3459	26.1819		-38.1978
-78.6024	-5.13144		9.26834
-77.8747	-6.5045		13.611
-77.7907	-0.618818		9.36228
-79.2655	-9.42896		8.92907
-65.7324	19.4967		31.1036
-68.6155	19.1047		22.9623
-68.0484	11.838		32.5119
-62.8458	27.8125		29.7394
-39.4209	25.1373		59.2495
-38.5262	22.0266		60.9002
-37.3542	25.4705		60.2037
-35.6805	25.6873		61.006
-34.7152	23.6667		62.0791
-76.7905	-7.58103		19.7814
-75.8159	-2.1784		19.4365
-77.646	-12.541		19.5181
-75.3918	-8.43599		26.3272
-16.7049	-4.23117		80.4667
-13.3022	-2.8363		82.2622
-14.3508	0.0115395		79.5328
-20.8505	-4.79337		78.736
-27.3538	-3.83616		76.3075
-29.8443	-7.98891		76.8141
-34.538	-2.3737		73.6917
-9.84128	-1.7012		85.1859
-11.0827	-5.35209		86.7754
-6.30419	-0.10022		89.0458
-15.4403	-11.9289		85.3073
-13.6343	-10.0813		86.7041
-11.798	-15.3592		95.5304
-12.7295	-15.6778		93.5443
-12.0356	-17.1003		94.7725
-10.4328	-15.1134		98.0067
-13.476	-16.0224		91.7055
-13.6793	-18.068		91.0239
-37.196	-21.7479		77.742
-35.1321	-16.9205		77.3737
-39.3641	-26.6143		78.0669
-32.2303	-22.4598		80.2432
-32.2708	-12.2329		77.1136
-5.66903	-28.4563		96.6171
-7.30672	-28.4637		95.722
-6.82996	-30.5252		96.46
-63.4585	-32.5524		56.4278
-63.902	-39.3971		56.175
-58.1634	-32.0029		62.9018
-62.6716	-25.8145		56.8436
-28.4729	-31.7707		86.0546
-30.8159	-31.7837		84.8395
-26.0673	-31.6555		87.3047
-41.0383	-31.7601		78.3639
-36.5262	-31.8186		81.4479
-46.4054	-31.6609		74.3314
-42.2658	-36.6983		78.6447
-8.05739	-32.7354		96.6475
-63.9831	-46.3514		55.8499
-62.7854	-52.8085		56.829
-58.9473	-44.4713		62.7657
-68.0242	-46.8698		49.7335
-58.3089	-7.92332		59.0527
-63.8254	-7.90016		52.0477
-60.2446	-13.6231		58.0873
-49.5639	-85.046		70.6849
-45.6863	-88.0992		76.717
-49.2517	-82.1893		73.1967
-55.5043	-69.6119		64.7221
-52.0882	-74.3773		69.7
-52.9826	-65.8616		69.2629
-58.1468	-64.4703		61.566
-47.4571	11.3887		61.724
-41.8097	9.04284		66.4656
-43.684	14.6876		62.3804
-32.9399	20.843		64.1572
-34.5204	19.7812		63.9231
-40.8986	16.6426		62.7533
-38.3116	17.8525		63.3193
-36.3648	13.5826		66.6748
-30.0027	22.7212		64.9412
-26.5047	-90.7047		93.0621
-53.6345	-42.9845		69.0314
-47.9167	-41.816		74.7421
-53.1528	-37.5518		69.0292
-53.4442	-47.9685		69.5091
-49.8562	-61.8078		73.3372
-47.4105	-65.8108		76.1789
-45.7902	-57.6725		77.3473
-51.418	-57.3131		71.6501
-35.9949	6.9788		69.8641
-33.1562	9.3372		69.8266
-38.8085	3.53024		70.1658
-52.4262	-31.6038		68.8902
-41.1678	-0.789858		70.4905
-29.9072	-79.1869		92.2299
-33.6182	-77.2235		89.9814
-27.6707	-73.7787		91.5822
-37.4914	-74.9841		86.9699
-35.0786	-70.0327		87.2682
-41.0476	-72.3251		83.4935
-30.8662	10.8882		69.6748
-23.9272	8.37546		72.2302
-28.9507	11.8519		69.6629
-36.275	18.8399		63.6324
-32.6276	15.5591		66.9032
-27.4048	12.7502		69.5289
-20.9185	10.5568		71.5863
-2.89171	1.44971		93.0494
-1.77951	5.5134		90.1019
-4.35193	-2.5724		95.5371
-7.28872	-10.0951		100.799
-7.81533	-11.1493		101.062
-4.77338	-9.66129		104.716
-6.6872	-8.58411		99.7497
0.00928783	14.1488		82.5544
-0.286416	12.0572		84.677
-12.3386	2.96701		78.6917
10.5786	13.5437		94.7505
-52.0764	23.1518		51.1818
-0.953877	9.00587		87.3008
-71.5429	-45.7068		44.1813
-75.1163	-42.374		37.5545
-63.9182	4.97282		46.6604
-67.1439	5.11191		40.1463
-66.1735	-1.97881		46.0999
-69.9656	-20.3544		45.1593
-72.9005	-20.3947		39.279
-66.3234	-19.9715		51.0648
-69.0364	-14.2491		45.316
-67.8088	-8.21138		45.632
-70.934	-8.61388		39.3739
-42.584	-90.564		80.6465
-25.7525	-69.0068		91.0337
-29.337	-67.4332		89.5733
-22.223	-70.4424		91.9907
-32.7924	-65.9548		87.7067
-12.8947	16.0299		69.9786
-17.3672	7.0097		74.1145
-16.2371	8.59152		73.4203
-15.3673	9.94513		72.7729
-18.8505	-71.7585		92.4912
8.53015	25.4637		88.3932
8.24916	23.6208		88.2237
10.515	25.6374		89.2923
8.15333	27.1236		88.5229
6.71236	25.0066		87.1353
-6.24839	18.4071		69.8107
-5.94525	19.5809		69.9161
-4.23817	18.3049		71.9747
5.04661	24.0785		85.352
4.60424	25.969		85.6915
12.9691	25.8165		89.8259
-3.55052	-22.3774		102.198
-3.89269	-21.2625		103.791
-3.14285	-12.8679		109.386
-5.81178	-12.3586		105.569
-2.66238	-11.2624		108.899
-14.615	-21.6618		88.5136
-12.7204	-23.5676		90.3112
-13.864	-20.8667		89.6786
-1.8572	-9.65776		108.243
7.01691	21.0087		87.7429
7.85195	28.9325		88.908
5.72814	28.4067		87.8098
-5.92883	20.9892		70.2108
3.98357	27.8294		86.3518
2.55035	26.9737		84.4644
1.46011	26.0277		82.3843
-19.1996	-26.7147		87.4617
-21.32	-29.2341		88.1704
-16.5804	-27.8181		89.5359
-23.5502	-31.8831		88.6918
-20.6026	-32.0955		90.4222
-29.8715	-45.4289		83.5464
-28.2437	-45.8314		84.6455
-29.2805	-44.4771		82.8531
-29.8324	-43.6986		86.618
-27.7871	-42.9333		88.4168
-28.0386	-41.6745		81.5056
-26.7098	-38.1495		80.1604
-25.2016	-42.0938		83.3822
-14.1445	-28.5596		91.4972
-15.8907	-30.5166		91.8694
-11.6596	-28.7796		93.1671
-17.8598	-32.45		92.12
-19.4653	-34.4057		92.3892
-26.1606	-46.2357		85.8153
-24.3861	-45.1662		85.6502
-22.5568	-42.4059		84.8057
-21.3056	-38.7211		83.6528
-9.38941	-28.5772		94.5978
-8.318	-26.7942		94.5216
-15.0372	-36.8599		95.7479
-18.1381	-36.5062		94.113
-11.4166	-8.17105		89.0157
-8.53273	-7.08362		93.4414
5.17925	-4.49841		106.904
-5.55021	-5.98183		98.0377
-4.18559	-19.5369		105.926
-6.21997	-19.0196		102.805
-8.45523	-18.6765		99.5839
-10.5449	-18.5372		96.4483
-8.64974	-16.9097		100.49
-11.9441	-18.781		94.1538
-12.8184	-19.4694		92.2301
-13.3819	-20.1216		90.8172
-8.09873	-12.2242		101.438
-8.32808	-13.5778		101.61
-8.5947	-15.1922		101.228
-76.1121	-125.769		14.8154
-71.6131	-118.453		16.2087
-79.725	-123.04		11.8294
-79.4346	-131.086		13.8417
-72.0549	-128.477		17.7068
-65.7159	-108.14		18.1138
-61.6896	-110.563		21.4378
-61.039	-98.942		19.9333
-69.503	-105.636		14.7725
-58.3052	-83.8559		27.3678
-58.2388	-88.1486		23.8015
-54.2623	-86.7799		30.9923
-62.3119	-80.7486		23.4642
-58.9638	-92.649		21.6414
-62.9357	-90.0983		18.0198
-54.6985	-94.8416		25.4751
-52.9524	-52.6835		70.0397
-47.8749	-50.1161		75.3424
-57.1675	-55.7221		64.5483
-61.0003	-58.6652		58.4372
-63.2202	-61.9331		53.5679
-64.375	-64.8329		49.6421
-43.4009	-48.0315		78.9789
-42.7424	-51.1365		79.5563
-39.6515	-46.5349		81.3236
-43.2823	-44.7988		78.8937
-37.6478	-45.8087		82.3384
-37.1581	-47.7972		82.5965
-66.0853	-77.5177		19.4495
-69.7866	-74.2548		14.6985
-66.1412	-82.0305		16.3382
-67.0861	-73.0803		23.0911
-68.642	-68.7633		27.4639
-70.3217	-64.631		31.2686
-71.6141	-65.6513		21.6213
-71.6043	-60.6746		34.537
-74.3489	-57.5595		28.6021
-73.0899	-102.97		11.3444
-78.614	-113.151		9.86707
-68.8763	-93.9232		12.7721
-76.7011	-100.612		7.69302
-82.9992	-120.462		8.69835
-86.0904	-117.94		5.25255
-86.5729	-125.818		7.65365
-66.8159	-87.2462		14.3385
-73.4065	-8.58661		32.9701
-72.0446	-2.32492		32.9714
-74.424	-14.3233		33.034
-76.1037	-55.5223		22.4082
-77.3158	-53.8107		15.4224
-75.0085	-59.2818		18.9988
-59.4525	36.464		29.2321
-63.4862	35.5684		19.2642
-77.5982	-40.3057		30.8068
-79.1823	-38.2036		23.3573
-75.2622	-19.9954		33.1223
-77.1051	-19.1424		26.4406
-70.095	4.81403		33.108
-72.698	4.01902		25.7453
-78.3676	-17.5238		19.3301
-79.2091	-15.4879		12.7876
-78.317	-67.9821		-0.506841
-75.8854	-69.5399		4.3153
-77.7567	-63.7319		1.29786
-80.3882	-66.7343		-5.25181
-79.2473	-72.7031		-2.00362
-80.5438	-77.9764		-2.98159
-77.6249	-59.6622		3.79628
-77.8011	-55.8392		6.15882
-79.237	-58.2496		-1.85894
-75.8629	-61.2688		9.32967
-70.8754	18.9697		15.0105
-72.8902	10.7789		17.6118
-68.7149	27.0276		12.3078
-66.377	35.4455		9.34434
-64.0865	43.3164		6.88462
-61.7471	51.278		3.90425
-59.4017	59.1425		0.4939
-63.5991	51.1207		-6.34903
-80.0115	-35.9648		15.2641
-80.5027	-34.1614		7.23187
-74.4839	3.9199		19.0371
-75.9007	3.82571		13.1519
-80.2659	-98.1538		3.64045
-85.1256	-108.203		2.4165
-73.9857	-63.2887		15.513
-73.2231	-67.3615		12.1536
-89.016	-115.354		1.32857
-92.2762	-120.486		0.101501
-89.3991	-90.706		-13.275
-92.9244	-99.3489		-14.8505
-82.0208	-65.5274		-10.006
-81.2532	-61.0673		-8.84693
-82.7915	-63.353		-15.0204
-80.7344	-56.5865		-7.37854
-95.7309	-105.753		-16.5098
-98.0126	-110.736		-18.5942
-80.8933	-33.2424		-0.0235081
-79.8085	-13.6105		8.32244
-80.3041	-17.3617		7.01395
-80.328	-11.3647		5.06349
-76.7995	4.15498		9.21448
-84.5551	-70.502		-23.4248
-83.1881	-64.4541		-22.0914
-82.4121	-66.5899		-30.3286
-82.2758	-58.6472		-20.9222
-80.1886	-52.434		-27.0663
-80.7375	-41.6713		-16.8921
-81.9535	-21.9709		-8.6165
-82.4646	-18.7108		-15.2871
-89.5972	-95.9417		-42.4583
-86.9141	-88.2769		-40.751
-85.9953	-94.1064		-49.657
-92.1881	-103.069		-44.0602
-80.1438	-20.2728		-23.1732
-81.2978	-16.0691		-21.4614
-82.3506	-13.9349		-20.7477
-83.0319	-12.9427		-20.5234
-67.7928	-131.026		20.3912
-71.1425	-136.23		19.0247
-63.4974	-133.492		22.7654
-63.4141	-123.597		22.1758
-49.8222	-96.7432		29.7877
-49.3942	-92.9897		31.8444
-52.0216	-103.131		27.5496
-44.878	-98.3411		33.7867
-53.1601	-83.9156		45.0296
-54.6843	-82.0571		49.0985
-51.1732	-86.3431		40.0197
-49.79	-89.5496		35.17
-45.0514	-92.009		39.24
-57.209	-112.724		24.9111
-52.8836	-115.286		28.0683
