1832
-9.54699	-57.7917		99.7569
-8.80007	-55.1487		98.7881
-15.6696	-54.4558		96.1149
-10.1184	-60.1958		100.067
-27.4559	-52.782		84.4768
-8.31078	-54.3743		96.3068
-10.519	-62.2944		99.6899
-10.7135	-64.1373		98.444
-12.1545	-42.5318		100.002
-8.50401	-54.2973		97.9533
-15.2077	-53.7423		95.338
-18.9346	-62.2773		95.2851
-18.4706	-60.4477		96.4686
-14.8857	-52.1123		93.8934
-14.9579	-53.9669		93.7938
-19.5733	-50.7972		89.2631
-14.3505	-50.3915		91.9743
-27.408	-54.8448		83.2266
-8.50161	-56.4429		93.5127
-8.25651	-52.4413		96.3129
-8.95761	-50.2717		93.4758
-15.262	-55.9344		91.3457
-27.945	-44.8635		79.4977
-31.0867	-49.2567		75.9249
-17.663	-44.0208		87.573
-12.7146	-43.853		89.7604
-30.0215	-61.3026		77.6563
-26.5657	-62.3909		81.4568
-9.34295	-62.9292		90.3974
-4.13771	-63.4342		90.9899
-7.7106	-43.7925		90.8605
-15.363	-62.5964		88.4855
-31.6975	-56.8443		75.1873
-79.7345	-7.19531		-40.9151
-80.3308	1.6999		-41.7809
-77.0428	2.93214		-46.7947
-76.2841	-7.08211		-45.9072
-75.652	9.33338		2.18715
-75.4163	25.5165		-6.83886
-76.5953	25.1909		-25.3943
-78.0233	17.1804		-21.2504
-77.4802	-21.6831		-34.3786
-75.9452	-28.8626		-30.2419
-78.8161	-14.7788		-38.0416
-74.5693	-17.0385		-43.003
-82.8968	3.82393		-40.4525
-82.9967	-6.75735		-39.3385
-82.7821	-24.4783		-29.5647
-84.6941	-16.028		-34.1811
-80.3575	-32.6675		-22.6527
-78.1025	-34.788		-19.4517
-88.8552	-6.29709		-30.7473
-90.1293	8.21885		-34.9134
-76.7028	-17.2662		1.90439
-76.2321	-25.6245		0.860761
-80.5809	-13.4776		-9.14154
-81.1428	-17.4692		-9.65459
-77.9982	16.4582		-19.865
-86.8287	4.07969		-40.7211
-85.3248	25.7906		-21.5741
-87.0771	24.8271		-19.4373
-84.1046	24.7202		-23.7981
-83.5662	8.48496		-10.7052
-90.6218	15.7639		-34.7375
-89.3377	3.24223		-29.6934
-88.8724	5.96117		-28.3674
-81.8702	14.1988		-35.3949
-80.1089	11.4914		-38.5159
-80.4942	-20.7667		-32.8588
-79.5827	2.68556		-5.90872
-80.1922	18.1128		-28.4237
-79.4201	17.0475		-30.957
-87.3445	17.0363		-21.2172
-85.2865	-2.77517		-23.8453
-7.97542	93.1288		54.0316
-9.07986	79.4047		65.0433
-10.5507	65.4727		72.4824
-21.3716	53.4801		76.9887
-3.65518	-24.9291		106.341
-3.6861	-13.8615		110.193
-10.3919	50.8149		78.7189
-9.83815	42.4798		80.2493
-1.74273	21.0079		79.4729
-20.7667	90.9455		52.4416
-21.8441	46.2839		79.138
-23.8508	39.6406		79.2871
-27.7824	29.8831		75.1624
-21.1544	27.1742		73.9052
-32.1516	87.361		48.4828
-32.5834	99.2649		30.5652
-34.7016	30.5895		75.0776
-43.6139	72.4309		50.2977
-40.8491	32.2672		73.6329
-54.2522	67.7764		37.5532
-46.7661	29.2081		68.5225
-12.0199	28.9614		77.5339
-69.8806	-53.4549		-13.4349
-77.041	20.8257		-37.2514
-73.4274	29.9047		-48.945
-72.6183	4.75839		-58.8656
-71.2833	-9.27211		-56.5373
-77.143	13.2059		-44.2003
-72.9805	18.3633		-57.0777
-68.8043	-22.6667		-51.9276
-18.9947	-101.64		50.5068
-29.6976	-97.407		43.3341
-55.3757	-71.9676		40.7717
-63.5631	62.7718		19.3288
-6.32391	108.218		33.8084
-20.1838	104.937		32.9115
-47.1521	24.0169		64.8308
-56.4631	-65.6654		48.8962
-10.2671	-38.8288		99.3517
-22.5889	-40.5247		93.0643
-8.43105	-35.0807		98.4772
-13.4772	-35.7369		96.4793
-16.2542	-39.518		96.8238
-36.846	-44.762		82.4291
-36.9399	-51.5946		80.5223
-74.1949	-38.7456		-21.1425
-74.5042	-28.3495		8.38679
-74.9676	-19.1002		9.32676
-71.6895	11.6239		19.2119
-72.1804	-5.30029		22.4587
-48.9303	15.5117		62.858
-72.5253	-19.5341		22.5623
-72.4938	-30.9577		21.6058
-13.8818	-8.82113		91.9426
-17.229	-23.555		96.1926
-14.7952	-22.2152		99.4793
-35.222	-35.8596		83.7758
-53.5454	-51.6125		63.902
-44.4414	-48.0791		75.391
-50.2883	-61.1951		63.6351
-63.4956	-30.5268		53.3025
-37.1093	-75.4141		71.8612
-44.3573	-69.0118		66.5038
-47.0555	2.73334		69.028
-44.6056	7.82614		68.6994
-42.9308	-56.0948		74.3457
-39.5024	-62.5549		74.9258
-20.4391	-75.4583		87.3806
-32.9014	5.87834		73.4702
-9.46228	-14.5987		105.198
-68.8354	-18.6718		38.6385
-69.2513	-31.428		37.3639
-5.97388	25.3912		78.1709
-19.4437	-35.6046		93.0052
-24.8178	-50.5816		85.3711
-22.9547	-44.0962		83.9797
-41.2461	-132.937		17.8386
-49.228	-128.995		11.5706
-53.5539	-142.961		9.23929
-45.2515	-146.434		15.0673
-44.2499	-95.3903		18.6638
-36.5995	-100.845		26.2451
-44.4751	-108.405		15.0983
-36.4894	-112.613		22.4943
-35.1768	-56.6569		80.17
-53.4857	-80.5681		15.2625
-57.7793	-72.6611		21.5365
-56.1814	-125.235		4.61934
-60.5156	-139.165		2.2126
-61.3847	-70.203		7.72969
-58.9249	-77.9075		2.87286
-63.1036	-76.6523		-7.72843
-64.5145	-90.9931		-34.183
-75.605	-31.9751		-1.48603
-64.5293	-75.1797		-32.5989
-60.1134	-102.384		-50.2504
-62.2628	-119.075		-52.5249
-36.1021	-149.492		19.9288
-32.2699	-136.257		23.4827
-26.956	-105.329		34.513
-27.0455	-116.007		29.9962
-29.9447	-57.4833		83.959
-21.6154	-54.032		89.331
-21.7264	-55.7107		87.6891
-26.9639	-151.935		23.6533
-21.44	-62.5723		85.3267
-69.4503	59.514		-1.82404
-53.0254	-77.6559		-58.6134
-53.7035	-98.414		-60.6302
-58.9478	-82.9077		-48.0712
-55.4876	-115.942		-63.3159
-60.0516	-62.1654		-46.9958
-4.47251	119.247		5.38113
-19.1062	115.471		5.38304
-4.43462	112.033		-64.2515
-4.8884	91.927		-93.1545
-19.2301	90.3265		-89.6305
-19.3306	109.4		-61.1601
-6.94504	66.6794		-109.557
-20.134	65.6411		-106.118
-19.0058	117.799		-27.466
-4.06247	121.282		-29.1737
-8.56555	40.5358		-117.629
-21.2936	39.4986		-114.141
-9.90288	12.6067		-119.698
-22.5218	12.0313		-115.846
-23.0844	-13.7993		-110.679
-11.1867	-13.2861		-114.629
-12.4942	-37.9762		-100.834
-23.3756	-37.4976		-98.3845
-14.1862	-74.3404		-84.6907
-15.4186	-93.2284		-83.183
-25.3009	-93.5538		-81.3829
-24.7566	-74.8168		-82.2487
-16.9497	-111.855		-82.7157
-26.746	-111.559		-81.37
-13.5852	-54.488		-90.6628
-24.5818	-55.4523		-87.7798
-32.7356	108.636		4.58096
-45.1895	99.158		2.99873
-44.2023	80.7757		-76.1746
-32.4739	86.5965		-83.7388
-33.5401	62.9941		-99.7716
-45.2035	59.1365		-91.604
-44.1875	95.9376		-51.5784
-32.2067	104.179		-56.8316
-45.6296	101.101		-24.4289
-33.0021	110.95		-25.8769
-45.7725	35.2781		-99.6543
-34.4053	37.6997		-107.758
-34.9866	11.24		-109.504
-45.618	10.5504		-101.495
-44.4763	-14.256		-96.8423
-34.8627	-14.3098		-104.385
-34.8649	-37.836		-92.5441
-44.9961	-37.1732		-84.5767
-35.5543	-56.3747		-81.9881
-44.8433	-95.2632		-70.6513
-45.058	-75.31		-69.0603
-35.5365	-75.1767		-77.0318
-35.4163	-94.3693		-77.3879
-36.8781	-111.966		-78.1767
-55.0204	84.925		-44.827
-54.2235	72.966		-67.3
-63.0414	62.9366		-55.9266
-64.3353	71.575		-34.7567
-64.8785	74.4074		-12.9849
-56.4371	88.7752		-21.2145
-55.116	32.1558		-90.3367
-54.7888	54.0028		-82.265
-53.2915	-14.1167		-86.7506
-55.1149	9.20159		-91.297
-52.5301	-35.1435		-76.1585
-68.979	38.797		-60.0506
-60.5148	-13.2144		-76.2235
-66.3962	-11.3767		-66.2721
-68.2357	6.18384		-69.7463
-62.3202	7.72246		-80.9422
-68.5294	22.9528		-68.7425
-62.4421	28.0876		-80.265
-62.657	47.2171		-71.6891
-61.1446	-42.92		-52.9495
-63.658	-27.6182		-59.7878
-58.2988	-31.9375		-67.9801
-90.2013	16.4998		-35.3727
-88.3673	17.0539		-36.5847
-88.6844	23.99		-27.7212
-86.7298	24.9996		-28.8656
-84.9368	19.8594		-13.5223
-83.1249	20.6618		-15.4855
-81.0586	19.9182		-18.4537
-86.7706	15.3328		-37.5069
-85.6656	23.5059		-30.1445
-90.3433	4.5195		-37.4535
-87.9273	23.6573		-18.637
-89.4055	22.762		-27.2635
-46.8554	-113.466		-72.0795
9.67163	-99.7968		69.2587
6.87266	-100.556		69.4126
11.9935	-99.5406		65.8527
10.4518	-98.4932		71.9648
67.2562	-12.0547		51.6602
65.5576	-10.89		55.048
67.1331	-15.5819		51.2032
68.9572	-8.51571		47.5187
63.99	-9.05228		57.3503
64.5759	-4.74989		55.6278
61.3805	-10.1948		60.8386
17.3398	33.8825		81.9414
19.7586	32.6383		81.6769
21.3361	36.8441		81.6976
14.3419	35.4608		81.9424
13.7372	30.7637		80.9639
12.4896	14.4734		77.4468
13.3766	13.6886		77.1461
13.0833	15.9476		76.8022
11.805	14.7858		77.8688
16.9869	15.5375		74.3652
18.9738	14.5213		72.9949
17.7076	17.0479		73.9981
15.101	16.727		75.5529
16.3969	14.073		74.9786
47.4865	13.2396		68.129
44.2172	11.655		69.9978
49.2086	14.4929		67.0174
20.1632	9.28296		74.2675
19.9696	10.2192		73.8962
19.5023	8.32144		75.2744
21.6256	8.65462		73.8219
23.8152	-56.4026		82.7237
23.7286	-56.282		82.9829
23.8871	-56.5252		82.247
23.7389	-56.3392		83.0456
22.8371	-55.1911		85.476
23.0744	-55.7668		84.0596
23.8091	-55.604		84.2459
22.9759	-54.7416		86.1343
21.3585	-54.8655		87.3376
26.6941	-56.5457		82.7736
26.9195	-54.1093		84.2785
24.0926	-56.7598		81.3073
23.8242	-55.9702		82.0186
24.5699	-56.8199		79.682
23.904	-57.0265		81.6799
19.3018	-60.7601		88.7048
19.5552	-61.5732		88.1925
21.9991	-58.4754		85.4296
19.2743	-60.0483		88.8156
16.4822	-63.252		91.8424
17.7959	-49.5716		94.5445
17.3867	-48.0937		95.1301
14.6742	-47.6788		97.0935
18.0418	-50.4442		94.1743
20.2927	-51.3624		91.8475
23.0339	-56.378		83.9509
23.1107	-56.417		83.9349
23.1647	-56.3726		83.8146
21.5362	-56.4871		85.213
76.3211	-43.0478		-7.7941
75.6982	-43.4534		-6.95656
75.5251	-46.3598		-10.9754
76.9911	-42.1211		-7.67737
85.343	-34.0993		-19.3518
86.0506	-32.2319		-22.0127
84.3783	-32.417		-18.1458
84.7346	-35.2767		-16.878
85.6978	-35.442		-20.0187
79.7239	-40.1295		-9.4516
80.1195	-37.5316		-8.70762
79.0449	-40.3879		-8.71221
80.274	-41.3931		-11.1056
81.0814	-27.5867		-12.5977
81.111	-26.4829		-13.5051
81.2243	-25.7381		-12.3402
81.2971	-28.1001		-11.2383
81.3622	-29.1397		-13.0263
88.1535	-7.99937		-13.3851
87.4636	-9.95232		-14.1639
88.498	-7.20771		-13.9556
88.2581	-7.45735		-12.4545
92.4289	2.76287		-17.5222
92.513	3.354		-16.5337
91.9568	1.84139		-17.4924
93.6848	3.82155		-20.6011
83.7157	-25.3638		-19.6089
82.9157	-23.8471		-18.1859
82.8911	-29.1924		-16.9966
85.6432	-28.6106		-22.3982
86.2266	-23.0052		-23.5033
90.0483	-6.69942		-19.8833
90.522	-5.57568		-20.2358
88.8424	-7.09637		-16.059
89.8788	-8.01159		-20.9512
92.3342	-17.6597		-32.0232
92.2474	-17.4423		-31.4429
91.2222	-20.7131		-31.6381
92.7859	-16.5491		-32.97
93.2234	-14.9046		-34.6229
93.587	-12.7898		-33.5449
93.0752	-15.5899		-35.6858
93.7505	-11.8591		-35.8521
86.6579	-30.591		-23.9662
87.3108	-28.3459		-25.7679
86.9916	-31.6466		-24.7873
90.033	-17.0139		-27.8994
88.8605	-18.9427		-26.7912
91.2803	-17.3679		-29.7475
90.1686	-15.6615		-27.6115
78.5474	-35.1908		-5.29525
78.3754	-37.4504		-6.06342
79.2069	-34.7768		-6.18222
78.3914	-34.3505		-4.60753
78.438	-32.7245		-3.80742
78.9645	-30.6646		-3.74602
78.043	-32.8928		-2.89703
80.7463	-23.602		-4.01343
80.4353	-24.1622		-3.57401
81.0548	-23.9435		-4.93143
81.5025	-20.3613		-4.19655
80.0484	-24.9608		-3.09495
79.7094	-24.8241		-2.13627
79.6414	-27.3902		-3.41835
82.777	-30.8027		-15.7169
82.5016	-31.8789		-13.8867
83.7305	-18.6968		-12.6864
82.3044	-22.4866		-12.4426
83.5835	-19.178		-14.2391
85.1925	-14.9074		-12.9324
84.2273	-17.6205		-11.4249
94.5375	-1.43431		-29.7056
94.7276	-0.698285		-29.9611
94.3509	-1.85277		-29.1361
94.6625	-2.63033		-31.4639
94.2839	-6.30219		-32.2976
94.0126	-7.40285		-30.866
94.1687	-7.98227		-33.2102
94.5001	-4.97514		-33.1279
94.2438	-4.49744		-30.3488
91.7131	1.22601		-17.6709
92.5491	1.28368		-20.3187
91.0415	0.387763		-16.5461
93.4952	1.10257		-23.632
92.9887	0.0616627		-22.9353
94.5629	0.743474		-27.7166
94.1628	2.35411		-24.5005
43.8734	22.9723		74.0565
46.0215	21.9755		72.9971
41.2193	23.5819		74.6048
15.6479	-99.08		60.9558
14.5991	-99.9132		57.4245
18.0269	-97.9473		60.8108
50.4282	17.6497		68.2809
49.4447	19.2039		69.8921
51.1835	16.2435		67.0062
54.5318	18.9361		67.3538
56.7595	19.8248		66.3145
53.0861	21.0147		69.6907
52.4997	18.5304		68.2217
55.1022	16.7996		65.5883
68.7778	-55.4459		-3.76455
69.8628	-53.6715		-8.36994
69.385	-54.0045		-2.22333
67.7713	-57.5363		-4.29034
22.7082	14.1417		70.3829
23.0617	13.555		70.2645
22.8159	14.9905		70.4471
21.7775	16.3815		71.3484
23.1468	18.2338		71.6705
21.453	14.976		71.2153
10.904	15.8438		78.2818
10.1315	15.8926		78.8443
10.9616	17.8301		78.0204
17.8063	-55.2763		89.7408
18.4171	-55.7223		88.166
18.2359	-54.8541		90.1881
14.8316	-54.8373		92.5154
58.1652	-76.5931		-10.276
57.1735	-76.5709		-4.92444
57.2541	-79.1179		-12.2656
59.4233	-74.2014		-10.7182
80.2022	-12.143		1.73503
78.5805	-19.5578		4.53506
80.9785	-12.9536		-0.990805
81.7718	-4.24235		-1.95513
79.2366	-11.0488		6.27616
58.6597	-79.216		-23.4579
57.902	-81.3142		-25.1745
59.8883	-75		-23.7202
57.6016	-81.4328		-18.9635
52.5032	-113.734		-29.2973
52.0982	-122.107		-30.6246
51.5677	-110.065		-36.6582
53.111	-104.894		-29.1676
52.2239	-116.251		-23.4741
23.3264	-56.8066		83.9557
23.4501	-56.9611		83.8936
21.7239	-57.4156		85.5731
23.6497	-57.221		83.8156
19.0372	-59.7007		89.1054
19.198	-59.0332		88.831
16.33	-61.736		92.3429
19.9933	-96.7585		60.7793
23.9153	-95.2738		55.3755
20.2775	-95.3245		64.0188
44.6535	-64.6838		-66.541
43.7911	-60.7622		-70.4344
47.2865	-63.9398		-62.8875
43.4346	-67.6828		-66.3716
64.1029	74.8772		33.5006
65.9583	76.7839		26.6902
60.4883	78.2497		35.9639
64.748	70.7451		36.402
88.7486	-27.12		-32.9973
90.5377	-22.1716		-35.7919
89.3441	-26.3693		-31.9595
87.1971	-31.2326		-30.4744
88.1254	-27.1076		-34.2532
85.5344	-6.70193		-7.68098
84.2945	-11.0176		-6.51308
86.4889	-6.86441		-8.3521
86.7406	-2.40476		-9.32559
84.309	-6.43106		-6.94368
81.091	-28.1566		-7.28727
80.5806	-28.8479		-6.20831
81.2464	-30.79		-8.61831
81.4126	-28.3799		-8.89973
81.2453	-26.4706		-6.92536
80.2899	-34.6452		-7.83833
80.1252	-31.8042		-6.48156
81.1395	-34.363		-9.2198
92.0777	-16.4971		-38.1551
91.3054	-16.4305		-38.9767
93.29	-10.3896		-39.1467
92.5447	-16.547		-37.2876
90.3031	-16.2165		-39.6502
88.9909	-21.6981		-37.7682
89.2829	-15.8986		-40.0315
91.3233	-10.2433		-40.4652
83.5155	-2.24866		-8.27738
83.9489	-0.0045017		-10.0488
83.4036	-1.19905		-7.99531
83.407	-3.94096		-7.07058
85.5886	-25.0302		-37.2022
83.9698	-24.3275		-37.9823
86.7065	-20.69		-38.947
86.5785	-25.7264		-36.5015
84.1493	-28.8599		-35.3706
87.0592	-32.706		-25.5941
87.9365	-29.624		-27.9992
86.4708	-34.6906		-23.4646
86.8406	-33.6214		-26.8308
83.5684	-41.165		-23.7941
82.7682	-43.0039		-20.965
82.0466	-42.4339		-24.9174
84.8659	-38.0144		-26.4322
85.225	-38.6203		-22.2721
84.4663	-39.6366		-17.0021
83.7502	-41.2998		-17.3941
85.094	-38.5285		-18.5927
84.121	-38.9627		-15.6532
72.757	-49.4008		-13.4062
72.1022	-50.2817		-13.9421
73.9444	-48.5218		-15.0778
72.9277	-48.637		-8.97211
77.9772	-46.2321		-14.2729
78.2223	-46.9571		-16.7033
79.3687	-44.9587		-13.7851
77.7313	-44.5126		-11.1589
76.8205	-47.0175		-14.577
89.7851	-0.377778		-10.5148
89.9642	1.13398		-10.6223
88.0984	-3.79697		-9.68436
90.0776	-0.438365		-10.8749
90.0286	2.06939		-10.8577
91.6305	5.27535		-12.7778
89.7	2.08552		-10.8673
92.7866	-16.4027		-36.5403
91.4415	-21.0082		-34.0887
93.9064	-10.8013		-37.8534
95.243	-2.26409		-34.4316
94.9405	-3.26382		-34.1696
95.3026	-2.92601		-35.3104
95.352	-0.72489		-32.8929
90.8437	0.573079		-12.6389
90.6916	0.344131		-12.0864
90.2475	-0.969335		-12.9074
91.4746	2.13987		-13.6183
90.2555	-0.504793		-11.2596
89.1385	-3.63563		-11.2018
91.6846	3.67839		-12.6995
91.9827	-17.4005		-30.8587
92.9088	-14.5075		-31.109
90.3625	-20.869		-29.875
89.7625	-2.52629		-14.4691
90.3272	-0.937018		-14.9847
89.6657	-2.67567		-13.9936
89.9279	-3.44897		-16.2502
90.7664	-0.156775		-16.169
91.172	-0.593471		-18.1438
87.7051	-21.9793		-25.8721
88.1452	-23.7953		-26.9733
84.4928	-16.8094		-10.2221
86.0369	-12.4585		-10.2672
84.3388	-16.7976		-9.09496
82.9232	-21.4631		-10.3079
88.6667	-6.79671		-14.2675
89.091	-5.06202		-13.6541
49.1137	-62.1463		-60.9995
49.8466	-57.6237		-63.4757
50.4442	-62.4868		-58.3542
25.7665	-28.6953		86.2636
26.7656	-31.486		86.2402
26.3951	-27.5696		85.9135
24.0352	-28.4282		87.115
21.3848	-26.8366		89.0826
21.7787	-27.8224		88.6028
21.9415	-24.628		89.0171
20.2572	-27.1078		90.4119
55.2783	33.8719		69.418
54.911	31.8518		70.4593
60.4155	29.8151		64.5175
55.9943	35.5142		67.8939
51.0448	35.829		72.2931
8.27169	-30.1024		97.7631
7.70309	-29.4799		98.6183
7.94661	-30.7291		97.6012
9.51512	-30.2773		97.1057
10.3711	-27.4802		99.9926
8.85962	-27.6228		100.544
11.5356	-28.2753		98.372
11.0836	-26.6361		100.599
49.8729	15.2605		66.8726
49.662	15.9285		67.1308
17.1839	-20.7705		98.6304
17.1879	-21.8153		98.5938
17.6479	-20.7387		97.8777
16.0397	-19.786		99.9817
82.6722	-32.8094		-33.3072
81.3005	-35.2806		-31.9374
81.5249	-31.0965		-34.7111
83.5745	-34.0286		-32.2117
73.2949	71.221		14.3916
71.1647	74.8644		15.4838
73.7074	66.6707		18.9203
75.2573	71.6468		4.86606
24.1964	-62.5004		77.2351
24.9132	-60.6195		76.8158
24.1974	-63.9164		76.1739
23.3615	-62.0114		78.8664
25.1422	-51.7551		78.4117
24.0316	-51.7805		80.0403
25.2425	-50.7387		77.8455
25.5712	-53.6827		77.6809
-23.5594	-96.4285		70.4715
-24.2788	-94.9334		73.1766
-25.4608	-95.7982		67.3542
-21.0697	-97.7162		70.3838
-64.1836	-1.03522		49.7826
-65.1952	2.27391		45.7691
-64.7243	-4.45458		49.1928
-62.1636	0.0987668		53.5262
-60.1162	1.86569		56.1632
-57.6951	0.473815		59.7977
-60.0033	6.02265		54.4751
-9.32689	36.7994		80.2467
-11.2343	34.7761		79.7303
-6.70699	32.7758		79.8996
-6.37746	37.7928		80.5486
-12.8249	39.5034		80.1277
-7.5904	15.4873		76.7254
-6.95234	15.7026		77.111
-7.92955	17.0289		76.0835
-8.45129	14.8081		76.4567
-11.7296	17.4789		73.7532
-14.3185	17.1254		72.2235
-11.278	15.8116		74.3901
-9.7262	18.187		74.8765
-12.4438	19.2179		73.3123
-42.6358	19.9611		66.3935
-39.7847	18.0427		68.422
-44.1343	21.4273		65.185
-15.551	11.5983		73.8876
-17.2089	11.1566		73.4671
-14.8802	10.3904		74.9957
-15.36	12.6661		73.394
-29.6344	-52.0083		82.5537
-29.5394	-51.9055		82.8201
-29.5618	-51.9548		82.8812
-29.7065	-52.1234		82.0706
-28.4814	-50.9307		85.356
-29.5638	-51.1968		84.0428
-26.9853	-50.8985		87.1555
-28.5348	-50.4542		85.9785
-32.2004	-49.1837		84.0357
-29.9074	-52.3384		81.1247
-29.787	-52.6273		81.504
-30.3176	-52.3592		79.4871
-29.5273	-51.5974		81.8288
-26.2529	-57.2745		88.526
-26.6758	-57.8858		87.9571
-24.2061	-59.6314		91.48
-26.1131	-56.5529		88.6076
-28.2228	-54.4026		85.335
-22.9533	-46.4413		93.8513
-22.3738	-45.0491		94.397
-25.3166	-47.8368		91.4643
-23.3092	-47.2644		93.5103
-19.8082	-44.9284		96.2554
-28.8884	-52.1284		83.8255
-27.4361	-52.4996		85.1067
-29.0149	-52.1001		83.6854
-28.9706	-52.1503		83.8047
-78.2305	-30.5693		-7.56746
-78.8546	-29.5621		-7.49037
-77.9444	-33.785		-10.6462
-77.6549	-30.9771		-6.7416
-85.5973	-20.1826		-19.2722
-85.998	-18.2136		-21.9336
-86.1766	-21.4321		-19.9216
-85.1833	-21.4521		-16.8075
-84.3511	-18.7072		-18.0779
-81.7616	-27.0581		-9.40742
-82.5706	-28.081		-11.0439
-81.2857	-27.3696		-8.77472
-81.2875	-24.478		-8.64245
-80.2632	-14.6129		-12.6781
-80.103	-13.5001		-13.5693
-80.7933	-16.0537		-13.049
-80.5536	-15.0902		-11.3514
-80.0885	-12.7853		-12.4731
-84.0081	5.78251		-13.7352
-84.0117	6.31959		-12.8238
-84.2243	6.62747		-14.3049
-83.6559	3.75828		-14.4817
-86.5179	17.1488		-17.9209
-86.4946	17.7328		-16.9443
-87.6169	18.4382		-20.9868
-86.201	16.161		-17.8834
-82.0202	-4.66694		-17.4345
-84.1408	-0.523384		-20.5955
-81.6056	-7.12403		-17.8237
-81.3481	-5.9397		-14.4285
-82.7262	-0.822176		-16.4989
-86.2788	10.2355		-20.7603
-86.0135	8.65505		-20.5366
-85.0448	10.5969		-16.6051
-86.7033	11.9114		-21.5736
-87.9797	9.94198		-25.5901
-80.7398	-23.4619		-30.9188
-81.8843	-21.8669		-31.6579
-79.5401	-23.3963		-31.4185
-80.6982	-25.8142		-29.3324
-89.8561	-2.78914		-32.1148
-90.1251	-1.61504		-33.0732
-89.256	-5.97843		-31.6824
-89.7325	-2.5981		-31.5399
-90.2927	0.0841379		-34.7362
-90.3017	2.21465		-33.6917
-90.3183	3.17456		-35.9941
-90.2624	-0.603923		-35.7852
-86.3326	-16.486		-23.8934
-86.6157	-14.1624		-25.7148
-86.8431	-17.4582		-24.7015
-84.9899	-14.7249		-22.3506
-87.454	-2.57536		-28.0033
-86.6061	-4.66899		-26.8666
-87.3641	-1.23068		-27.7361
-88.7533	-2.70376		-29.8454
-85.9599	-7.84846		-25.9048
-86.698	-9.54821		-26.9781
-84.6546	-9.12212		-23.529
-79.0356	-22.5269		-5.37261
-78.6888	-21.7591		-4.74506
-79.6217	-22.0168		-6.24883
-79.4263	-24.739		-6.13845
-78.4489	-20.1813		-4.00212
-78.0777	-20.4203		-3.11844
-78.6136	-18.0945		-3.9874
-79.1909	-10.9089		-4.3651
-79.3931	-7.613		-4.58512
-79.5603	-11.1757		-5.25882
-78.9729	-11.5149		-3.92699
-78.7213	-12.3679		-3.44644
-78.7314	-14.8007		-3.72547
-78.3533	-12.3083		-2.5139
-82.4797	-17.413		-15.6812
-82.3305	-15.8013		-16.9692
-82.389	-18.5222		-13.8935
-81.3986	-5.47223		-12.9165
-80.6173	-9.42646		-12.6244
-81.6981	-4.34469		-11.6928
-82.217	-1.50573		-13.2074
-80.2896	-11.3319		-12.1218
-80.5245	-11.2789		-11.2383
-89.3691	13.5041		-29.9872
-89.6943	12.3648		-31.7254
-89.2498	13.0555		-29.4165
-89.4386	14.263		-30.2478
-89.9229	8.69768		-32.5212
-89.8303	7.55688		-31.0896
-89.5801	10.4476		-30.6007
-89.9237	10.0459		-33.3576
-90.0865	7.03508		-33.4117
-86.0613	15.5172		-18.0534
-85.5219	14.5643		-16.9277
-86.902	15.7455		-20.6794
-87.8917	15.7642		-23.969
-87.5545	14.6467		-23.2624
-88.3568	17.1174		-24.8472
-89.0316	15.6338		-28.028
-87.0904	13.3267		-22.3565
-88.4637	12.9886		-26.5203
-85.8253	13.6405		-18.5017
-37.5766	28.7046		73.2263
-35.0949	28.9932		73.8579
-39.8057	28.0189		72.0365
-28.4062	-94.8622		62.6767
-30.4989	-93.2938		62.6535
-27.2354	-96.0241		58.9446
-44.5639	24.5193		66.636
-45.5096	23.3536		65.2441
-43.4113	25.8531		68.5378
-47.5057	26.5538		66.3308
-45.6959	28.0999		68.8654
-49.0233	27.4416		65.4784
-48.3437	24.3826		64.2397
-46.2069	25.7507		66.7507
-72.808	-43.5354		-3.26744
-72.1879	-45.6768		-3.68347
-73.136	-42.1058		-1.82539
-73.5789	-41.652		-7.83004
-19.7486	17.9651		68.9413
-20.0554	17.4292		68.8696
-19.87	18.8589		69.0481
-18.0186	19.9383		70.1719
-19.0159	21.7164		70.6528
-17.6675	18.5353		70.1268
-6.09884	16.6765		77.5587
-5.90578	18.6837		77.3425
-5.44464	16.6685		78.1242
-23.8279	-51.9115		89.3613
-21.0329	-51.8655		91.9843
-24.1507	-51.4491		89.7921
-24.4039	-52.2899		87.8797
-66.2052	-65.2589		-8.43647
-67.0084	-62.7717		-9.05728
-65.7493	-67.8893		-10.2724
-65.3116	-65.2707		-3.0276
-76.6724	0.122545		1.16562
-76.288	-7.48234		3.91311
-75.4926	0.9437		5.57474
-76.9633	8.22808		-2.46366
-77.5986	-0.489902		-1.48347
-66.8777	-68.0521		-21.65
-66.3507	-70.2647		-16.9656
-67.3709	-63.7766		-22.1218
-66.481	-70.2691		-23.3304
-66.8547	-103.152		-26.9824
-67.8309	-111.569		-28.4484
-67.0608	-105.601		-20.9019
-65.9581	-94.2727		-26.8677
-65.2544	-99.7765		-34.6424
-29.2572	-52.5136		83.8156
-27.7793	-53.3662		85.4486
-29.0972	-52.3787		83.8679
-29.3929	-52.6461		83.758
-30.801	-51.9222		82.9537
-30.1298	-53.3766		83.4627
-25.8277	-56.171		88.8596
-23.8165	-58.1367		91.9112
-25.8322	-55.4622		88.5669
-32.1991	-91.7532		62.6914
-32.5476	-90.0458		65.8587
-35.3512	-89.8849		57.3633
-50.7856	-56.6082		-65.8762
-50.0891	-59.7539		-65.6777
-53.2523	-55.4226		-62.156
-49.2787	-52.9191		-69.9
-47.8762	84.1923		32.5407
-49.0911	80.2615		35.4176
-43.9551	86.9883		35.0363
-49.3477	86.248		25.7719
-87.8769	-12.6487		-32.9224
-88.8428	-7.47697		-35.7904
-87.2731	-12.723		-34.1639
-87.0083	-16.9526		-30.336
-88.3325	-11.8284		-31.9101
-81.147	6.52714		-8.11853
-80.6215	2.05607		-6.94112
-79.8845	6.58211		-7.38608
-81.6453	10.9819		-9.76646
-82.1242	6.53236		-8.78626
-80.3292	-15.2457		-7.49875
-79.935	-16.0199		-6.43223
-80.1917	-13.5788		-7.17103
-80.6955	-15.3831		-9.07365
-80.9445	-17.7684		-8.75864
-80.7023	-21.6853		-7.86397
-79.9967	-18.9698		-6.6393
-81.492	-21.2565		-9.23567
-89.4418	-1.62915		-38.2286
-89.9033	-1.61285		-37.3705
-89.6437	4.58264		-39.2933
-88.6766	-1.68093		-39.0414
-87.6615	-1.62453		-39.7054
-87.2575	-7.2426		-37.7495
-87.6975	4.4233		-40.5887
-86.6092	-1.47511		-40.0795
-78.4413	10.5754		-8.68687
-78.5903	8.88692		-7.50514
-78.1518	11.5966		-8.39907
-78.5362	12.8892		-10.4561
-84.4456	-11.0864		-37.1069
-82.7347	-10.671		-37.8786
-83.6493	-15.0924		-35.2106
-85.5357	-11.6051		-36.4084
-84.842	-6.63094		-38.9147
-87.0863	-18.4713		-25.4819
-87.4567	-15.2896		-27.9197
-87.0274	-19.3846		-26.682
-86.8246	-20.5288		-23.3375
-85.0568	-27.2956		-23.4931
-86.245	-24.5704		-22.0646
-85.8174	-23.9909		-26.1835
-83.7934	-28.7567		-24.5553
-84.5817	-29.2497		-20.6431
-85.676	-25.7584		-16.8307
-85.2385	-25.185		-15.4835
-86.0934	-24.5435		-18.4473
-85.2715	-27.5116		-17.147
-75.7194	-37.0753		-12.9287
-75.7276	-36.3484		-8.61465
-76.7478	-36.0327		-14.6185
-75.2277	-38.022		-13.4225
-80.8005	-32.8548		-13.698
-80.8739	-33.7657		-16.2007
-79.4285	-34.0776		-14.1261
-80.5688	-31.3287		-11.1074
-82.161	-31.4533		-13.453
-84.3432	13.5108		-10.9684
-84.6468	13.5087		-11.3271
-83.2273	9.84299		-10.1279
-84.2737	15.0287		-11.0812
-84.1858	15.9668		-11.319
-83.848	15.9254		-11.3274
-85.2733	19.4269		-13.2435
-90.224	12.851		-34.6842
-90.0736	14.3675		-33.1668
-90.395	12.2195		-35.5532
-90.0859	11.8138		-34.4115
-85.2538	14.6592		-13.0688
-85.632	16.3241		-14.048
-84.9189	13.0436		-13.3209
-85.1355	14.4018		-12.5232
-84.8358	13.4817		-11.7047
-85.5859	17.8628		-13.1575
-84.2442	10.21		-11.6252
-89.4597	-2.60928		-30.9567
-88.4228	-6.28908		-29.9209
-89.9052	0.39064		-31.2506
-85.335	13.9753		-16.5483
-85.0169	13.119		-15.37
-84.7132	11.4517		-14.8471
-84.6376	11.2809		-14.3772
-81.8136	-3.5244		-10.5321
-82.6152	0.99996		-10.6242
-81.0394	-8.34064		-10.5501
-81.6473	-3.56183		-9.43235
-84.3263	7.06439		-14.6143
-84.4565	8.83382		-14.0262
-84.566	6.82515		-16.382
-54.7509	-53.3524		-60.2525
-56.1159	-53.4523		-57.5501
-54.7215	-48.8098		-62.8374
-26.8337	-24.821		85.7213
-24.9024	-24.8147		86.6774
-27.0628	-23.4924		85.3971
-28.6075	-27.4942		85.5732
-21.7045	-23.7147		88.8549
-20.6535	-24.2365		90.1687
-21.7979	-21.3258		88.7733
-22.3105	-24.4908		88.3367
-45.2987	40.7358		69.0511
-45.508	38.6793		69.7744
-40.4191	42.7036		72.2313
-45.5045	42.7689		67.6273
-50.6383	37.6004		64.1792
-7.4482	-27.6479		99.4839
-7.66972	-27.1331		99.9588
-8.24477	-28.0918		98.5938
-6.13672	-27.943		100.129
-7.84528	-26.474		100.773
-8.94206	-26.1065		100.529
-6.54875	-26.1854		102.165
-44.5967	22.2768		65.0502
-44.2474	22.9347		65.4151
-16.1175	-18.425		98.5397
-14.8059	-17.6117		99.7954
-16.6	-18.3212		97.7823
-16.2955	-19.4432		98.5416
-57.1912	81.758		13.5472
-59.0115	82.4663		4.09271
-58.2494	77.3245		18.0511
-54.6031	85.0455		14.6357
-30.8351	-58.271		77.2332
-30.0006	-57.8227		78.8506
-31.1014	-59.6812		76.1185
-31.2012	-56.283		76.7252
-29.9011	-47.3359		78.0821
-30.6737	-49.1878		77.3524
-29.817	-46.4227		77.4671
-28.8388	-47.4812		79.776
-10.4563	-25.8216		99.9568
-10.9624	-24.8876		100.577
-11.872	-26.5395		98.2711
7.74481	-27.8554		100.763
6.80064	-27.3483		102.159
7.36913	-28.4927		99.9583
7.06711	-28.9411		99.505
5.96123	-29.0553		100.085
-8.97366	-28.6983		97.6976
-10.2956	-28.7476		97.0218
-8.77717	-29.336		97.5199
78.6141	-42.1716		-27.1354
76.8542	-42.605		-26.9395
79.4814	-39.0032		-29.6859
79.7266	-42.6339		-26.5061
77.1954	-45.4284		-23.8176
68.1373	-55.0524		11.73
66.8899	-56.7517		20.0006
66.4342	-59.3401		10.0929
69.3178	-53.059		4.67362
69.6535	-50.4643		13.3706
47.4333	-119.748		-10.2308
47.644	-109.595		-9.8366
44.6127	-120.604		-6.06708
47.7171	-129.991		-11.0958
49.7074	-118.655		-14.5293
48.1871	-137.415		-12.0759
48.6199	-143.239		-13.0301
50.0938	-135.765		-16.6178
45.6378	-139.064		-7.56941
41.4334	-103.611		-0.135426
42.4311	-97.8574		1.07407
37.6012	-104.857		4.2558
41.0711	-111.179		-1.15164
45.1631	-102.868		-4.90711
52.2613	-101.565		-17.5926
51.6429	-108.385		-18.1268
53.503	-100.37		-22.5126
52.9975	-96.2846		-17.1369
50.4987	-101.978		-13.4074
57.715	-73.0222		20.2246
59.9994	-69.6977		22.5749
55.5745	-74.3496		28.0384
55.0623	-76.2699		17.507
59.0968	-71.8465		12.669
77.3519	26.7331		24.5047
78.6609	34.3924		19.9712
73.6563	30.4597		35.1265
76.321	19.2411		27.6488
80.4629	24.5165		12.8506
83.4019	35.3781		-28.4563
82.5451	32.2817		-38.1291
82.3516	42.4594		-33.5933
83.9835	37.2467		-17.8327
83.9827	27.9644		-23.6475
-0.226181	-113.48		38.0689
-2.72511	-113.264		39.0641
-0.542353	-120.251		35.8615
2.92353	-113.577		36.4923
0.408438	-109.172		40.634
-0.351462	-131.21		31.9172
-0.158521	-142.211		28.1419
3.09878	-130.652		30.2951
-3.44311	-131.106		33.153
-7.23009	-149.76		27.6179
-3.67792	-149.751		26.9898
-6.9421	-142.232		29.9109
-10.6238	-149.452		27.9243
-7.21762	-154.823		26.2212
63.5207	-59.326		-33.5294
66.636	-53.6532		-31.1134
62.338	-65.6064		-28.5555
60.3379	-65.0087		-35.9735
65.0652	-51.8726		-37.4865
66.4707	-46.5362		-40.3744
62.3054	-51.8957		-43.8352
67.816	-41.8921		-42.6876
70.0195	-42.2727		-37.1309
51.8203	-128.98		-32.3914
51.4432	-135.522		-34.4473
50.6745	-126.087		-38.9434
51.9763	-132.078		-26.1741
-6.35772	-131.131		33.8638
-5.75142	-120.128		37.7691
-9.10151	-130.862		34.206
65.3176	-57.8902		28.111
66.8356	-52.8221		29.2222
63.3653	-58.304		35.5621
63.7492	-62.2767		26.4444
60.3429	-70.513		5.27171
57.9931	-73.947		3.31944
61.1517	-69.7068		-2.53597
62.582	-66.8776		6.91122
3.95556	-91.4813		84.5551
-0.11728	-91.7021		85.865
3.65018	-95.0274		81.9074
8.17478	-91.0011		82.6078
4.04009	-87.2256		86.736
12.4224	-90.0597		80.1711
11.8138	-93.6433		77.7806
17.3066	-88.8126		76.4183
12.996	-86.2103		81.9185
-3.33734	-83.0194		90.143
0.211338	-83.0186		89.5044
-2.79143	-78.7203		91.0621
-6.57108	-82.7675		90.3235
-3.64391	-87.3791		88.739
3.26329	-97.6688		78.8373
3.02307	-99.6789		74.8463
7.19722	-97.3467		77.0606
-0.479363	-97.7003		80.0974
3.07006	-101.058		70.0171
-0.840528	-101.178		71.0355
3.12776	-101.92		64.6259
18.7539	0.0478096		81.6481
18.7195	-4.44662		84.9413
21.355	-1.92359		80.8932
18.7498	4.04355		78.7315
16.2019	2.24003		82.5232
46.5007	-30.6436		76.0224
52.5275	-32.3773		70.3777
46.5694	-25.2705		76.0872
40.4363	-28.865		80.1317
46.3048	-35.775		75.7276
58.5056	-22.2194		64.6342
62.7667	-22.4659		58.199
58.1568	-16.3204		65.1913
52.9031	-20.7222		70.8018
58.212	-28.0742		64.3547
70.2086	-3.04949		44.4124
71.9891	-4.55884		39.1703
70.8139	4.99212		43.1055
68.2514	-0.887341		48.7204
46.1694	-40.7108		74.7037
45.817	-45.6838		73.6112
51.4529	-42.7512		68.6935
40.9194	-38.8305		79.3808
3.8728	1.30974		95.5745
3.76517	5.70328		91.0177
2.02389	1.70423		95.5747
3.91809	-2.8525		99.9795
5.89111	0.640913		95.0955
39.5911	65.2845		65.5476
34.2815	66.6791		67.3789
38.6439	58.7123		69.3001
45.1433	63.3498		63.0638
40.6231	71.3702		61.7523
-4.29217	-103.022		60.4044
-4.35544	-104.1		53.6109
-1.16768	-103.081		59.6295
-4.24082	-102.037		66.4628
-7.19002	-102.792		60.7598
60.7781	-58.1663		43.1175
57.5564	-57.3536		50.8915
58.7491	-63.4527		41.8995
62.3261	-52.7106		44.4607
-4.09993	-97.6618		80.719
-3.9761	-95.2855		83.7169
-7.52545	-97.3951		80.9307
-4.23199	-99.7062		76.4636
-4.24282	-101.083		71.6297
-7.46146	-100.806		71.9192
31.8068	-88.5011		55.9839
26.4692	-90.941		61.3233
30.4348	-90.9686		53.0428
37.1024	-85.3614		51.6793
32.6455	-85.4703		59.6068
34.3483	-92.324		31.2819
31.0753	-96.0265		26.3736
38.7016	-89.7117		26.0286
37.2791	-89.4113		35.683
29.3531	-95.1604		36.249
-4.49239	-105.67		46.9033
-1.93395	-105.926		46.0868
-6.89667	-105.447		47.1866
-4.69779	-108.666		42.1645
8.29152	-8.33735		102.371
8.46958	-11.4309		105.472
10.9824	-9.76671		100.224
8.34369	-4.49007		98.1829
5.88669	-7.37168		103.712
26.4837	-25.4112		85.8769
29.5262	-26.2963		84.6625
25.4839	-20.4955		85.9904
23.5887	-22.7315		87.5224
25.9545	-57.5368		82.7471
27.9344	-57.3131		82.1413
12.6069	-29.1313		96.7941
14.3144	-28.0826		96.949
11.817	-29.9515		96.362
14.4266	-29.3766		95.4177
11.6008	-32.8588		94.9709
12.0177	-34.194		94.8458
14.0256	-33.0982		93.43
11.5297	-31.9976		95.1656
9.59256	-32.2685		96.2558
1.89133	-28.8084		102.706
1.97564	-27.7854		104.176
0.319104	-28.7277		102.95
1.90593	-29.8535		101.496
3.5629	-28.8298		101.96
16.683	-32.5205		91.8997
19.3711	-31.2495		90.3107
16.4035	-31.58		92.2869
17.1089	-33.7909		91.7169
8.33904	-20.0361		108.668
5.84833	-19.5867		110.719
8.00821	-22.0177		107.721
11.0988	-20.7129		105.691
8.57446	-18.2813		109.011
21.3357	-71.4494		81.9424
24.821	-69.2386		80.0512
20.7389	-68.1858		84.0627
17.4317	-73.062		84.4415
21.8384	-75.0822		79.7576
26.9797	-51.0185		86.1335
26.634	-47.105		87.7175
24.9324	-50.1646		88.0057
28.9141	-51.931		84.581
1.75976	-33.9012		99.6912
1.51453	-35.7345		99.7131
3.36171	-33.7755		99.3574
1.86864	-32.1646		100.057
-0.220112	-33.8377		99.8378
8.22807	-0.421022		94.1079
10.8009	-2.04793		92.7511
8.25509	3.59062		89.9819
19.7584	-22.8501		93.1781
18.958	-20.9913		94.9861
19.1213	-22.0706		94.9869
19.8494	-24.267		92.5096
20.211	-22.5216		91.9925
4.7501	-30.7668		99.5196
4.62075	-32.1875		99.0708
6.09087	-31.2033		98.5715
4.8939	-29.8186		100.034
3.48583	-30.7646		100.16
4.8608	-28.979		100.949
4.99272	-28.0224		102.265
18.2095	-21.1179		96.7532
17.9811	-20.1055		96.8695
18.5985	-22.8128		96.0241
19.4473	-26.4937		91.9548
18.9058	-25.3836		93.8639
18.2739	-28.5717		92.2159
0.594196	-42.0349		101.24
0.689372	-43.9551		101.8
3.2551	-41.6467		100.964
0.854873	-39.6622		100.52
-2.24893	-42.2775		101.331
23.305	-35.2675		88.5109
20.8178	-35.4268		89.9372
24.6206	-38.9792		88.6534
25.5751	-35.2965		87.3997
22.2113	-32.0542		88.5118
6.78063	-69.7483		92.9637
6.92103	-68.0153		94.4457
2.63573	-69.7678		93.9876
6.56137	-71.9102		91.5365
10.5671	-69.6401		91.4651
22.4738	-52.8385		88.6031
22.7663	-53.5701		87.7865
24.6807	-54.1907		85.337
22.5848	-51.0857		89.6703
17.7724	-19.3301		96.6212
17.967	-18.396		95.26
16.2129	-17.9204		98.6184
13.7951	-69.1671		89.8034
13.7559	-71.136		88.3772
16.9951	-67.9548		87.9184
13.7701	-67.5878		91.2
-1.15873	-69.8197		94.335
-4.82702	-69.6493		94.4003
-1.44103	-71.5565		93.2323
-1.02079	-68.3655		95.6476
64.2477	25.0197		58.7064
63.0327	24.1051		60.7773
66.2259	19.4877		53.9257
65.321	26.2645		56.3518
48.0849	49.7703		67.3854
42.4751	51.615		70.6875
46.8552	44.858		71.0119
53.8591	47.0621		63.6459
49.9386	54.9316		63.4149
59.234	43.9515		59.0068
57.6284	39.6749		63.447
64.4786	40.3823		52.8007
60.8921	49.323		54.4203
46.228	37.2795		75.1003
46.303	39.6117		74.1357
41.1458	38.3149		78.2226
46.4635	34.8674		75.5778
66.9294	27.7066		52.5358
68.1363	30.6182		48.9667
62.0027	33.0444		60.6328
69.6749	21.0813		46.437
29.0363	28.6375		79.0169
29.5057	27.4345		77.8926
32.9359	28.9054		78.8734
28.8933	30.357		80.2943
25.5707	28.1632		78.8387
8.72512	12.7579		81.4514
11.6219	10.9751		80.2012
8.75915	14.5963		80.3692
5.74751	14.3478		82.2767
8.59791	10.4967		83.2088
32.0419	-7.59451		78.6448
32.942	-12.3877		80.2087
38.3143	-8.82354		77.0193
31.0132	-3.36047		77.189
26.7128	-5.71221		79.9307
61.1265	4.05193		58.4445
63.2305	1.94335		56.2491
62.4399	8.61791		56.934
58.8782	6.3155		60.4625
58.4441	0.389573		61.8966
8.45762	7.43624		86.0254
11.1185	5.66581		85.0404
5.85909	8.83599		86.7422
46.6695	32.8028		75.7986
50.4787	31.8508		73.872
41.8956	32.8895		78.0778
46.3787	30.805		75.9903
54.3751	30.012		71.2768
53.6466	28.0939		71.9083
58.6765	26.6462		67.0775
59.0627	13.9801		61.3538
59.0551	17.4631		62.9656
56.896	14.3179		63.1279
58.3589	10.8571		61.0447
60.8692	13.7163		59.5721
46.6981	19.5066		70.7655
48.1793	18.288		69.3922
45.0652	20.5872		72.0503
43.28	21.4949		72.9959
41.2472	22.1111		73.5167
43.5337	22.2033		73.5017
41.1282	22.8179		74.0153
45.4941	21.2819		72.5176
38.6314	22.5743		73.7307
35.8973	22.4834		73.6577
38.3804	23.269		74.1978
35.4595	23.0724		74.0242
33.2497	21.7488		73.1164
30.7083	20.6126		72.4274
27.9329	19.2531		71.7135
25.4021	17.6964		71.0776
26.7414	19.7841		72.0048
24.3565	18.109		71.3795
29.6078	21.1825		72.7003
23.6441	16.2344		70.6513
25.546	20.1348		72.3533
28.6465	21.8158		73.144
38.2113	24.0675		74.8042
35.0787	23.8267		74.5606
51.3174	13.8868		66.1332
51.8318	14.8307		66.1267
50.1443	13.1033		66.6301
37.161	29.0927		78.3457
41.7248	29.1928		77.3273
37.2268	30.4663		79.0623
37.2822	27.7868		77.5198
50.834	23.1682		72.1875
49.6866	22.0256		72.035
51.8674	24.6313		72.3085
48.0322	24.6859		74.107
40.6639	6.13162		71.8041
45.9468	6.73719		69.8039
34.4346	6.66247		72.9583
41.0642	4.32184		72.0868
29.3899	7.63061		72.9928
25.6567	8.9769		72.5701
29.4294	5.893		73.603
22.2366	11.7869		71.7137
21.813	12.5854		71.4676
23.0146	11.061		71.8581
39.9	9.44182		71.3934
44.561	10.2953		69.9549
34.4322	9.83622		72.241
24.7149	12.0344		70.9116
26.461	11.3721		71.3663
23.8951	12.4558		70.6664
23.3045	12.7971		70.5781
22.768	13.2299		70.5843
18.8875	19.1472		74.0448
17.7864	21.0034		75.3147
19.9799	17.4224		72.661
20.7043	21.1065		74.2689
21.3831	13.7186		71.3802
31.8931	23.0283		73.8802
20.7404	16.7994		71.9958
20.2344	15.3093		72.0433
21.8929	18.4938		72.2188
39.7694	10.7601		71.2659
34.3993	11.0934		72.0058
24.7859	12.7879		70.3606
24.0047	12.949		70.2752
26.4811	12.4909		70.7911
23.4423	13.2568		70.2071
49.1653	17.0576		68.0654
6.12293	29.0782		80.5959
2.81592	29.247		80.5037
5.02895	26.1743		80.1128
8.86376	28.5356		80.408
7.58022	32.4237		81.3005
22.8905	3.71966		76.1294
22.8162	5.77901		74.9338
20.9101	5.18729		76.3138
23.3112	0.750093		77.8671
25.8589	2.00434		76.0171
18.8786	6.5857		76.8189
16.6879	8.05333		77.6461
19.9104	11.2445		73.4248
18.015	11.739		74.5806
20.2228	12.6712		72.5626
13.9506	17.9667		76.3189
15.186	20.1152		76.1062
12.9622	18.8921		76.9602
23.8719	10.0975		72.1967
23.3209	8.95706		72.9938
22.9679	7.52535		73.8587
25.3918	5.91764		74.0597
18.5132	-55.7801		87.5352
18.4273	-55.6966		87.2633
21.4265	-55.7401		84.7691
15.3002	-55.6149		90.3918
23.1023	-55.8866		83.4204
22.848	-55.7789		83.4013
0.67808	-47.4014		101.992
3.71096	-47.2064		101.565
0.736058	-46.0871		102.111
-2.73428	-47.5664		102.107
0.504642	-48.7928		101.679
6.26944	-50.3677		99.8392
6.30121	-48.9297		100.462
3.53057	-50.0362		100.675
6.02819	-51.7265		99.0515
9.01128	-50.8218		98.7271
11.9214	-51.307		97.19
12.0148	-49.9767		97.8696
11.8938	-52.7421		96.1801
15.03	-52.3072		94.9214
6.26234	-47.3951		100.906
8.96381	-47.9132		99.8716
6.24821	-46.0422		101.127
10.8883	-46.1752		99.2134
11.6917	-47.3408		98.7755
10.4857	-45.0741		99.3369
8.02319	-45.54		100.537
18.4636	-53.9275		91.0721
18.3659	-52.6599		92.5277
5.52949	-52.9246		98.0889
2.53186	-52.5358		99.0209
5.14245	-53.4915		97.356
8.86589	-53.3945		96.7166
12.1354	-54.1466		94.6085
12.1244	-54.8498		93.5513
23.9827	-54.8141		85.1348
18.7353	-56.8458		88.0098
18.709	-56.7489		87.7608
15.4118	-57.2135		91.225
18.7527	-57.0997		88.3324
19.1112	-58.4935		88.7903
18.9496	-57.9977		88.7678
16.1232	-60.0538		92.3066
13.1348	-60.3947		95.0763
12.99	-59.4492		94.905
10.0979	-60.1652		97.2845
13.4831	-61.34		94.9334
5.56726	-57.3112		98.6411
5.981	-58.6487		98.9842
9.30276	-57.7943		96.9685
5.22727	-56.1482		98.1909
2.00674	-57.1571		99.4972
-0.963048	-60.4374		100.451
-0.958151	-61.7226		100.44
2.48581	-59.9604		100.111
-1.02612	-59.015		100.282
-4.02658	-60.5423		100.503
23.2099	-57.3179		82.4806
23.1701	-56.7391		83.2249
22.9128	-58.6999		81.5867
21.461	-57.3126		84.1354
-1.11413	-55.6657		95.5589
-1.07251	-55.0114		96.9445
1.48149	-55.901		95.2052
-1.28038	-57.0971		94.0003
-3.46752	-55.4855		95.6007
-0.948364	-62.9519		100.245
-4.21582	-63.114		100.258
-0.966766	-64.0066		99.8736
2.87754	-62.2835		99.9874
-0.965699	-66.9525		97.2143
3.00253	-66.5497		97.0101
-0.93392	-65.7533		98.5553
-4.41869	-66.9602		97.1819
5.99459	-45.0877		101.182
5.35061	-43.6925		101.156
3.66183	-44.7577		101.683
-1.09038	-57.4967		99.9132
-3.76666	-57.4622		99.9587
-1.14508	-56.1212		99.3907
-1.15143	-55.3918		98.9251
1.62916	-55.3464		98.6231
-1.03386	-55.0478		98.485
-3.50773	-55.2944		98.9239
5.05318	-55.5721		97.7956
8.68083	-56.0694		96.1994
4.94514	-55.3317		97.4351
-0.959046	-54.902		97.8984
1.60377	-54.9861		97.6189
-3.44354	-54.7806		97.8518
12.1169	-56.7989		93.9096
12.0079	-56.5697		93.5257
12.3866	-57.3264		94.224
13.7691	-64.1299		94.1238
13.8248	-65.0313		93.4539
13.7197	-63.2711		94.5277
10.7822	-64.1396		96.1886
7.16054	-63.885		98.0875
7.18577	-64.9574		97.2646
7.05358	-62.9619		98.5945
3.19466	-64.1445		99.1501
-0.940299	-64.8751		99.3535
-4.2388	-64.9959		99.3399
12.0567	-55.0126		92.909
8.64701	-54.2339		95.1335
11.904	-54.9001		92.3448
26.0457	-56.3312		83.0477
24.9586	-56.5461		83.1589
23.1695	-56.5031		83.9582
21.5583	-56.8065		85.5176
4.72972	-56.2439		94.4024
4.73848	-55.4931		95.7636
8.29054	-56.6837		93.048
4.75828	-57.6442		92.9453
4.80721	-55.259		96.8037
8.40739	-55.7759		95.2277
7.04603	-66.3886		95.9908
10.7591	-66.4629		94.2758
13.5917	-62.3253		94.8262
10.6284	-62.2677		96.9813
13.8063	-66.2313		92.4369
16.6806	-65.1912		90.3585
11.5793	-54.4739		91.9708
8.49868	-53.664		93.5692
10.9803	-52.9648		91.2514
14.5827	-55.0451		89.9632
5.13607	-53.1105		94.8262
2.32572	-52.6619		95.2886
5.63419	-51.7472		93.292
4.97149	-53.5717		95.8511
10.4899	-49.8008		90.1643
8.05125	-49.2494		91.1207
10.5427	-45.9038		89.1998
13.0261	-50.3516		88.8981
22.1606	-61.9894		80.4003
21.0086	-65.9744		79.4994
20.3348	-61.9783		82.2058
-1.60488	-59.9606		92.2803
1.05618	-60.1416		92.0112
-1.60172	-63.6769		90.8791
-3.84925	-59.7935		92.3192
5.64998	-48.8005		91.7897
3.12697	-48.3747		92.2323
5.61806	-44.9797		90.7258
4.41718	-60.4186		91.2811
4.12264	-64.2782		89.7374
7.91561	-60.8732		90.0396
25.7817	-57.2262		76.3181
26.0105	-57.4753		75.3918
15.5361	12.5931		76.0547
14.6586	11.1451		77.4459
81.1637	-15.6478		-43.4722
80.0412	-20.0011		-42.7886
79.3796	-14.8839		-46.8199
82.2075	-11.0916		-43.4049
82.6101	-16.2706		-41.7433
82.6733	3.03587		-5.76231
83.2927	5.91567		-10.0377
81.8888	5.30165		-0.798927
83.5321	8.02447		-15.2959
83.7103	13.56		-16.5648
83.5154	2.92687		-16.4178
84.0202	7.51441		-22.3913
72.9177	-39.5479		-34.7195
75.5803	-37.4966		-33.0021
71.4927	-43.6733		-32.263
74.471	-35.7312		-36.4377
75.8199	-32.1326		-38.417
73.038	-33.8875		-41.3304
77.3229	-28.2374		-40.1482
78.2009	-31.1392		-36.5036
84.0935	-16.342		-40.8336
85.66	-15.9606		-40.4497
83.126	-20.4692		-39.9836
84.9209	-11.3542		-40.957
84.2732	-34.908		-31.1827
85.7752	-30.9282		-33.1671
84.9587	-35.4196		-29.9533
82.6901	-38.8442		-28.7664
89.7143	-25.4488		-31.0386
89.756	-24.887		-30.253
76.6736	-47.1209		-20.8307
77.107	-47.4142		-20.1143
76.1884	-47.808		-18.8151
75.8986	-46.1358		-22.8962
78.5029	-40.1795		-7.89122
78.1188	-40.7853		-7.86932
77.588	-41.7594		-8.13111
89.7346	-24.5089		-29.8369
89.1729	-25.0715		-28.894
93.9519	-10.0544		-33.4775
94.0816	-9.40362		-35.002
93.7117	-11.3737		-31.8228
95.1531	0.19715		-30.9225
95.5467	1.53805		-31.0232
95.8633	3.63362		-29.9769
95.28	3.49204		-27.7437
96.0856	4.08298		-30.3756
95.7123	5.75015		-26.8584
83.812	-17.1199		-7.7311
85.5822	-11.6275		-8.2438
83.3703	-16.3307		-6.36188
82.5073	-21.1957		-7.21881
77.2608	-33.2874		-0.953016
76.3397	-33.7463		1.86305
76.3852	-37.0558		-1.59024
78.1663	-28.925		-0.301975
81.4353	-28.3583		-10.0201
81.5711	-30.4313		-10.5893
81.6026	-26.3663		-10.108
83.4704	2.42844		-16.4318
83.9267	3.6596		-19.9471
83.5047	2.42491		-16.211
92.3037	9.37208		-16.8294
93.3823	10.9685		-19.9615
91.4941	9.85174		-18.0195
90.6229	6.38441		-13.8628
93.0035	8.60024		-15.823
92.9561	11.6482		-25.0584
92.1826	11.4953		-22.0403
93.2566	11.7696		-24.5424
93.3027	10.306		-28.7599
92.0502	10.6529		-26.4689
92.3236	-3.93855		-39.5268
91.4931	-4.34696		-39.7194
93.2053	2.0468		-36.6171
93.4063	-3.77654		-38.976
86.9424	-6.98542		-8.79016
87.1149	-8.28633		-9.48077
95.0922	-4.7693		-36.4305
96.016	0.352192		-34.1388
94.521	-7.56202		-36.6475
95.1331	-4.87141		-36.7942
95.2827	6.70656		-22.8563
94.315	6.24869		-18.8325
94.9425	5.35222		-23.5976
95.4713	7.69736		-22.2332
88.4746	-6.30967		-11.6354
87.7617	-8.06692		-11.0657
89.2444	-3.98804		-12.3473
94.706	-4.04127		-33.7085
94.6101	-6.11194		-35.5932
92.3265	-1.15604		-22.0316
91.7212	-2.48178		-21.2504
93.5857	-1.76083		-26.2241
85.9576	-13.0386		-12.9811
86.1346	-12.7648		-13.6994
86.6237	-11.448		-11.8338
90.71	-12.5089		-27.1157
92.9474	-10.0096		-28.997
90.4945	-12.0393		-26.4851
90.4918	-13.6038		-27.2877
79.0151	-24.9001		-0.215476
80.1368	-20.2441		-0.972873
78.1843	-25.1179		2.40994
85.636	-6.11534		-39.4264
84.4391	-6.60571		-40.5906
85.9375	-1.42012		-37.2603
86.8399	-3.67127		-38.4492
89.6473	1.12298		-35.6995
89.7673	4.94553		-32.4405
92.4125	5.60491		-33.7357
89.4007	-2.98528		-38.6422
90.3576	-5.23305		-39.7089
88.6926	-10.6804		-40.5642
87.8174	-15.6725		-40.2507
80.0377	-30.6561		-35.6098
78.7615	-33.7238		-33.8589
81.1759	-27.4739		-37.2294
82.1738	-24.1224		-38.7558
80.4782	-24.2106		-39.8062
88.6144	-24.9758		-27.8772
77.4795	-36.5899		-32.2197
76.0219	-40.1587		-29.9782
78.7422	-36.4044		-31.7445
75.7656	-44.0616		-25.4708
75.3141	-44.0258		-25.829
74.7593	-47.494		-20.96
76.0351	-47.536		-15.9461
75.5114	-47.7581		-15.7868
74.9464	-47.9157		-15.5086
90.6301	-14.37		-27.7743
92.6764	-13.1299		-29.9448
82.8358	-15.6717		-5.23119
82.1539	-15.2133		-3.97094
79.3756	-29.4037		-3.96574
79.6752	-29.5867		-4.65431
81.7837	-34.0243		-10.4029
82.5193	-36.0892		-12.0692
82.0634	-32.91		-11.217
81.6475	-24.2236		-6.78511
82.0504	-24.3791		-9.03436
89.6396	6.81332		-29.2136
86.9372	3.29198		-32.0798
88.7612	7.53711		-25.8467
85.8823	1.79714		-33.921
85.4294	1.52606		-35.0387
85.4489	4.00905		-29.6312
81.6635	-24.3263		-11.962
81.9075	-24.3143		-11.0675
94.0936	-2.78961		-28.6065
93.7793	-4.29414		-28.2731
86.6173	-12.0787		-15.1547
85.7661	-14.3626		-16.2714
87.7078	-10.9051		-17.8375
90.5408	-11.1891		-25.968
92.6079	-7.69445		-27.1172
89.9847	-11.089		-24.5757
15.7265	84.6941		61.092
15.0215	77.4168		66.0912
23.625	83.0528		60.8319
16.6707	91.9968		54.5876
7.54511	85.6988		61.1332
14.1779	70.1573		70.1711
5.97122	70.9181		70.3337
13.7661	62.3502		73.8233
22.0425	69.0204		69.6056
37.0774	52.6651		73.1504
36.3326	47.8321		76.2817
32.6852	53.4839		74.496
2.00057	-26.6433		105.887
2.37906	-25.2422		107.619
0.397701	-26.4733		106.222
3.95071	-26.9235		104.725
3.60084	-15.9257		111.98
6.03646	-16.258		110.959
3.67387	-14.1451		111.259
1.25945	-15.6903		112.285
3.57098	-17.5766		112.16
3.45209	-19.3544		111.841
1.06489	-19.1799		112.209
3.25394	-21.2623		110.975
1.91628	-30.8908		100.671
0.16101	-30.8951		100.862
1.20405	-37.7086		100.017
3.32475	-37.4579		99.7777
-1.21189	-37.6913		100.058
2.89774	-23.3125		109.489
5.08208	-23.6684		108.241
0.671722	-23.0711		109.93
3.65777	-12.3558		110.063
5.99396	-12.8744		109.22
3.66695	-10.0229		107.897
1.35744	-12.0111		110.261
11.6819	44.7925		80.6737
4.23368	45.51		81.2073
10.8994	41.4473		81.4698
18.4567	43.9692		80.3187
12.2067	48.7827		79.4277
3.54623	15.2024		82.4809
3.68455	12.8054		84.1972
3.54306	17.2603		81.358
1.76133	15.5482		82.4166
3.68764	19.2583		80.5912
5.86779	18.2539		80.4154
3.96694	21.2974		80.1376
1.82882	19.575		80.5636
-0.427691	-52.2973		95.4048
-3.16059	-52.1172		95.4721
0.0236251	-50.8414		94.0069
-0.847788	-53.1219		96.9319
-0.917484	-53.2823		97.9244
-3.33346	-53.2254		97.9228
1.69088	-53.3823		97.5851
-0.823064	-53.1142		98.5361
0.366816	-50.0406		101.178
0.105654	-51.2767		100.457
-3.00869	-49.9763		101.302
-0.366265	-52.3234		99.5675
-3.2691	-52.293		99.5456
0.802146	-45.1166		102.04
-2.53141	-45.44		102.155
0.297641	-47.9862		92.4593
0.446162	-44.2777		91.2359
-2.69288	-47.6604		92.4715
30.1253	81.3513		60.1756
29.357	74.7331		64.7908
36.0815	79.2741		59.1382
31.1971	88.1339		53.9926
25.6233	43.775		80.0472
25.1152	41.0707		80.8976
31.429	43.8805		79.7843
25.2944	48.0001		78.4763
26.0558	38.0558		81.4273
27.4444	34.5737		81.5518
31.022	38.3723		81.1709
29.0621	31.9681		81.0225
24.8173	31.8579		81.4002
33.027	32.4954		80.8066
31.175	23.6473		74.3978
30.7499	24.6732		75.2715
27.6047	22.42		73.6643
34.7021	24.516		75.1178
32.5423	22.3248		73.4228
29.996	25.8451		76.3946
33.6939	26.3918		76.7053
26.5311	24.9167		75.8643
55.0386	82.4219		39.1757
56.4841	87.6755		29.5121
49.5339	86.3966		41.5682
54.1653	76.7602		46.1342
41.4947	77.1973		57.4581
42.6561	83.1979		51.6801
47.1644	74.6072		54.9868
36.1199	43.6323		78.8233
36.3854	41.767		79.5666
40.9107	43.1295		76.6435
36.7534	33.294		80.3053
37.0341	34.7448		80.4021
36.4757	38.7202		80.1669
37.3253	26.6519		76.7268
37.8169	25.6838		76.0268
41.4577	26.1762		76.1902
53.1238	71.5508		51.4509
59.0017	68.363		46.8165
52.0774	66.3084		55.8475
46.5387	41.8041		72.8953
51.8109	39.6988		69.6893
44.4459	23.6624		74.4896
44.5956	24.5175		74.9641
41.5201	24.3152		75.1291
46.8133	22.6307		73.327
46.0251	28.9846		75.9557
45.4618	27.2593		75.7736
