1833
6.54068	-109.389		45.8118
15.4352	-105.728		47.7213
1.55193	-108.001		57.01
38.4102	-94.6946		39.6914
32.1429	-97.2695		45.2646
43.7778	-92.0144		34.366
39.6446	-91.8424		43.6074
66.3493	47.7415		50.5904
70.9545	44.4857		43.1355
36.526	61.5884		73.6769
78.4709	53.6781		23.2711
81.992	51.3985		13.1417
77.166	47.3128		28.9182
42.7983	90.4871		48.5285
48.3042	87.3382		47.5357
43.91	98.2046		36.9775
36.5377	93.104		49.4213
71.8185	27.9853		43.1991
73.5623	34.3842		38.858
55.2791	12.2147		64.1822
65.3209	17.5781		57.4022
65.06	12.4778		54.3965
63.9083	16.4656		58.861
62.4264	15.4248		60.0863
-11.644	-118.785		37.3605
-14.3141	-118.442		37.802
51.3984	-82.9583		35.3117
53.0367	-78.8357		38.0282
46.4112	-85.3422		41.9795
49.8081	-86.7445		31.657
6.35254	-41.3144		95.424
8.1311	-42.0507		94.8735
6.13277	-38.8793		95.217
20.6694	-51.4076		85.1086
20.6631	-47.5251		86.3934
18.7236	-48.94		87.7872
9.87795	-38.4425		93.4992
7.52468	-37.2588		94.551
10.1944	-40.8308		93.6677
12.5267	-39.6078		91.9918
9.52888	-36.0544		93.3469
28.7061	-56.1857		78.3801
27.8658	-59.4674		77.2064
30.6833	-57.3895		76.8881
28.7525	-52.3978		79.7498
68.3942	6.57204		47.5319
66.3418	6.83669		50.2751
68.3656	0.221535		47.2755
70.372	6.7321		44.4439
72.5275	6.958		40.5978
75.0377	6.30025		35.0769
57.9595	8.4959		59.5265
57.4532	6.38026		58.9986
64.5082	7.08133		52.5706
84.1956	-3.73011		-39.7392
83.354	-7.3933		-43.0092
82.8379	-1.45328		-43.7046
84.8747	-1.2813		-35.7169
76.9635	-29.8377		-44.414
74.5855	-29.9955		-47.4959
66.2008	-63.3715		-20.1556
68.9341	-59.2925		-17.7575
65.9672	-65.4354		-13.8863
63.0263	-68.7406		-22.7947
66.699	-59.9343		-26.0271
82.2891	-11.9611		-45.094
76.9692	-39.5634		2.43647
75.6898	-43.6433		1.84418
78.1833	-35.2708		2.80132
76.2372	-40.2431		6.91697
77.7165	-12.4809		27.386
78.1709	-4.05682		26.4769
76.7957	-20.1297		28.4525
79.5718	-14.0006		18.75
58.8963	1.84224		57.1156
57.6475	3.4222		58.2852
56.8024	-0.435757		59.4654
56.5413	4.74623		59.4439
54.9945	3.543		60.901
75.4802	-40.3657		13.3315
74.4523	-40.1741		20.1748
74.0658	-45.0795		12.6918
76.9134	-35.3035		13.3792
27.4545	-14.42		81.5599
30.9133	-16.6344		79.9174
26.5485	-9.67946		80.4198
24.6582	-12.011		83.4489
35.9042	-19.769		78.1338
41.3239	-22.5755		76.1013
36.1242	-24.9046		78.8183
21.918	-9.7544		85.9023
19.3624	-7.49432		88.8532
22.1321	-13.1817		87.6552
24.5446	-19.9347		85.9991
23.4094	-17.7954		87.4905
20.4248	-21.6803		95.3202
18.8488	-21.0378		98.0926
19.8476	-23.3155		94.4886
21.2303	-22.3393		93.36
21.6988	-22.9067		91.6159
20.8369	-24.9414		90.6397
36.0721	-40.0763		77.9697
31.6216	-38.5846		80.1126
35.7712	-45.2343		77.3285
36.1761	-35.2559		78.584
36.0609	-29.9768		78.891
5.68598	-32.7668		95.3823
5.79715	-34.6624		95.1332
7.11362	-33.0697		94.6198
53.591	-58.9879		55.1252
55.3754	-53.1543		56.293
49.1899	-56.6429		62.1959
51.3108	-65.0257		54.3171
24.4852	-46.0222		83.6098
22.6207	-44.7693		85.0298
26.5077	-46.9802		82.2664
35.2315	-50.2627		76.3879
34.3681	-55.1005		75.5425
39.5978	-52.1642		72.9508
31.5039	-48.8271		79.0194
5.9079	-36.5618		95.1243
48.5063	-71.1993		53.7393
51.666	-73.3262		46.8867
44.8802	-67.6319		60.942
44.7463	-76.1662		54.8941
58.5771	-38.0667		59.7885
57.7033	-42.9739		58.8323
63.471	-38.6655		51.8249
16.6367	-96.9807		69.6147
17.6047	-93.9684		71.5799
10.718	-99.3819		73.485
30.1261	-86.2858		63.9948
35.2253	-83.7133		60.4138
29.6103	-82.0036		67.5975
24.3529	-88.3085		68.5877
58.5396	-16.5788		61.7391
57.2969	-11.3868		61.8387
52.6044	-16.1707		67.2144
52.4568	2.23878		63.4488
53.0341	0.0280342		63.0891
56.1241	-7.61102		61.9486
51.1497	-7.98129		66.2343
54.7368	-4.64922		62.4415
51.2705	5.89067		64.5786
-9.65909	-94.5691		87.2636
-12.8867	-93.7865		87.786
40.982	-64.4106		66.7942
38.6777	-68.4377		66.9783
42.7768	-59.6985		67.3063
36.7874	-61.5284		71.5796
28.7122	-77.8847		70.5684
32.4471	-75.1281		68.9578
26.9371	-73.7271		73.4976
24.0081	-80.1027		73.1887
46.3053	-14.5983		71.1983
46.8638	-19.6088		72.2063
45.6677	-10.0961		70.2851
44.4571	-54.3159		68.1282
47.3302	-24.673		72.5876
-0.920449	-85.4546		86.5712
-0.328707	-80.5408		86.3963
3.61219	-85.3965		84.758
8.49288	-84.9705		82.39
13.5327	-83.7245		79.5278
8.92499	-80.2283		82.7954
45.1478	-6.89141		69.6121
44.4491	-4.3163		69.3802
38.5857	-4.93689		72.0086
53.867	-2.27338		62.6874
49.7458	-2.91484		66.1515
43.9774	-2.15307		69.236
37.3539	-0.657719		71.3673
16.9063	-5.48956		92.0665
16.9492	-9.05622		95.0767
17.0389	-1.49659		88.6085
17.1155	-15.9033		101.334
17.0986	-14.4411		100.11
14.4363	-15.0849		105.597
17.2803	-16.9642		101.653
17.8737	7.84818		79.9624
17.5887	5.49393		82.1402
25.8804	-5.10837		78.4362
9.00803	8.66246		91.1972
7.45905	9.19742		91.3053
67.4435	-5.88836		49.3465
17.3153	2.28573		85.1363
55.0611	-73.9711		39.8621
59.1273	-72.5614		31.6786
69.7502	-26.6737		45.2775
68.6677	-33.2658		44.3881
73.0492	-26.4843		37.1534
64.4364	-49.8874		42.0018
66.0574	-44.3913		42.7093
61.0386	-49.099		49.7277
67.1275	-50.383		34.5413
67.5133	-38.8551		43.4731
70.4378	-39.4863		35.4429
5.60215	-101.06		76.5901
0.269247	-76.4458		86.4038
-3.55475	-76.0803		87.1274
4.60299	-76.5421		85.1479
9.17028	-76.3447		83.355
33.3942	8.21368		70.3763
32.4089	-2.34644		73.2521
32.0382	-0.0644913		72.5549
31.7983	1.5653		72.0471
-6.95081	-75.688		87.5044
-9.86216	-75.1246		87.6288
14.7601	21.0573		83.3641
15.9735	20.0135		82.2272
15.9508	23.5381		84.0151
13.3139	21.7189		84.1827
14.0971	18.3727		83.0237
24.7266	11.9683		69.7416
24.6883	13.0988		69.9481
22.6991	12.2978		71.5623
16.8919	18.6746		80.7971
18.4002	21.11		81.2667
11.6937	22.584		84.7819
9.67397	22.9958		85.0534
7.12289	-26.6371		102.226
8.01012	-25.6528		104.351
11.2619	-17.7065		110.519
11.5553	-16.062		109.957
14.3369	-17.7496		106.547
19.1832	-29.1517		87.4393
19.0767	-27.9625		88.7586
16.5641	-30.1573		88.7322
11.5022	-14.3474		109.219
14.0672	15.1865		82.8585
17.8305	26.2536		85.162
19.3443	25.0585		83.9553
25.4129	14.3788		70.2411
20.6117	23.7749		82.4235
21.2799	22.2427		80.5658
21.6191	20.6851		78.7889
19.8106	-35.8483		85.896
17.2296	-35.6428		87.6818
20.1021	-39.3404		86.3117
20.53	-43.5022		86.4613
17.9381	-42.1085		88.4003
19.818	-58.1917		78.1038
19.7797	-57.0539		77.6805
17.8169	-57.8366		79.4928
20.6036	-56.9125		81.342
18.8838	-55.3212		84.0545
19.8648	-53.9688		77.078
16.799	-53.1107		79.4406
19.8392	-50.0569		76.8723
14.5875	-35.3253		89.6257
11.8032	-34.6602		91.6227
14.9256	-37.8707		89.8925
15.4377	-40.8483		90.0822
15.717	-43.7886		90.314
15.2777	-57.1616		81.3082
14.1876	-55.3943		81.6869
14.0274	-52.0623		81.373
14.7704	-48.0607		80.7782
9.22997	-33.8342		93.3811
9.17746	-31.8348		93.4599
10.7577	-43.635		93.63
13.4393	-45.1329		92.0679
21.8932	-15.4826		89.7043
19.5407	-13.7886		93.7417
7.09342	-7.29667		107.381
5.0556	-6.69255		107.579
16.9221	-12.0293		98.0162
9.1216	-24.0773		106.998
11.7881	-23.8741		103.643
14.6782	-23.8228		100.003
15.8358	-22.1433		101.096
17.2789	-24.2739		96.2671
18.7538	-24.9635		93.6739
19.2728	-25.9078		91.6434
19.2376	-26.9315		90.0352
17.1391	-17.9769		102.075
16.8421	-19.1768		102.293
16.4839	-20.5955		101.899
18.3995	-151.901		8.98933
13.5025	-152.663		12.3858
18.2167	-157.514		8.00464
22.8484	-150.909		5.55565
18.726	-144.237		10.3542
19.7391	-133.642		12.0801
24.2201	-132.617		8.2534
21.2623	-124.348		13.7276
14.9635	-134.474		15.9295
27.7249	-108.626		20.8831
32.4989	-106.91		15.9871
22.6347	-110.149		25.4288
25.5403	-113.114		16.979
23.2777	-117.963		15.0992
18.3144	-119.047		19.5215
27.8398	-116.627		10.8776
36.0564	-72.1519		67.4252
38.5167	-76.0217		62.6716
32.8499	-68.4025		71.671
40.5828	-80.3418		56.8115
41.0311	-84.6438		51.8054
40.767	-88.4355		47.3915
30.3205	-65.4174		74.2599
31.9068	-62.5421		74.376
28.2243	-63.08		75.854
27.9733	-67.7614		74.7199
26.7814	-61.762		76.6815
25.347	-63.2852		76.7391
36.7504	-104.956		11.3373
39.6507	-100.761		14.8817
34.38	-109.677		8.33689
40.5468	-103.088		6.27454
42.7159	-96.8841		19.5269
45.9015	-95.195		12.8788
45.5597	-93.39		23.7678
47.9284	-90.0458		27.9713
51.1679	-88.437		20.5187
28.4378	-131.339		4.34945
27.2493	-142.058		3.09771
32.3574	-130.306		0.302296
30.1041	-121.914		5.50586
26.8315	-149.869		2.01446
26.8094	-155.727		0.98893
30.5232	-148.767		-1.80676
32.0928	-115.019		6.68102
72.7046	-39.9445		27.7928
71.0849	-45.2997		27.4388
74.3048	-34.0087		28.0879
53.4755	-86.8041		13.6478
51.008	-90.0534		10.2481
55.0876	-85.2075		6.82684
78.2165	4.98547		26.3619
81.0172	2.36651		15.4734
62.25	-70.9445		23.6322
64.4202	-69.2908		15.4049
69.388	-50.5923		27.1002
71.3015	-50.2717		19.4621
75.653	-27.0515		28.8627
77.351	-28.4369		20.5959
72.5209	-49.7927		12.1641
73.4847	-48.7612		5.52727
48.3508	-99.6156		-8.97231
46.8434	-104.573		-10.4325
50.0054	-99.0587		-13.6818
49.9769	-95.2067		-7.16621
46.2896	-100.389		-4.157
45.389	-110.095		-11.3654
51.8947	-91.0977		-4.66749
50.2901	-92.183		0.805115
53.2067	-90.2841		-10.2614
53.944	-87.3531		-2.2913
80.7876	-15.1832		10.1255
81.7923	-7.36035		7.60608
79.5381	-23.0234		12.4097
82.8034	0.83069		4.67641
83.7578	8.52961		2.13062
84.7919	16.3194		-1.07292
85.6208	15.2432		-11.8798
85.8633	24.0399		-4.75573
65.5353	-67.8733		7.25844
65.9408	-66.852		-0.785563
78.2689	-29.5242		13.4244
78.8309	-30.4407		7.12414
36.1353	-129.136		-4.09768
34.6753	-139.807		-5.09939
48.3811	-93.6152		6.85852
45.8621	-97.4154		3.60321
34.0065	-147.484		-6.0616
33.8525	-153.149		-7.22083
45.2178	-124.801		-21.433
43.6617	-133.964		-22.8976
51.2783	-98.3625		-18.3508
52.257	-96.4112		-23.2339
52.7857	-93.7451		-17.1915
54.5236	-89.1868		-15.7063
42.5759	-140.76		-24.4724
41.6846	-146.105		-26.4814
65.8292	-66.5124		-8.03622
74.3286	-47.6003		1.00511
75.3751	-46.0126		-2.27249
73.0335	-51.2385		-0.506216
79.3061	-30.6973		2.93925
49.2915	-103.624		-31.3262
48.2809	-98.8186		-37.8286
51.1412	-97.4143		-30.0305
53.227	-91.5589		-28.8774
53.3957	-84.7065		-34.5954
59.9605	-74.8697		-24.7932
70.6664	-56.8927		-16.4679
71.7231	-54.372		-23.0845
38.6046	-128.135		-49.4641
37.1442	-135.552		-51.0044
35.3604	-124.589		-56.1694
40.2376	-120.177		-47.8317
67.9862	-54.9437		-30.7377
71.0611	-51.6123		-29.0928
73.029	-50.1596		-28.4445
8.42352	-153.158		15.5715
8.82628	-145.627		17.3472
3.29852	-153.524		18.4644
8.40698	-158.581		14.149
12.797	-119.693		24.155
7.03925	-119.922		28.513
10.9591	-125.688		22.3228
14.7481	-115.5		26.2741
21.9984	-104.358		42.1536
19.3942	-107.522		36.1947
24.2117	-101.606		47.1762
16.8712	-111.303		30.4583
10.874	-112.065		34.9458
9.76921	-134.86		19.8937
4.3624	-135.503		23.5642
25.3795	-70.1407		75.4442
24.1923	-66.9298		76.6651
25.9323	-99.1293		51.3895
23.4826	-64.9017		77.2364
20.86	-66.4041		78.4757
22.7928	-63.2879		77.6585
22.2446	-61.874		77.9367
20.1049	-63.0964		79.148
18.9376	-82.2082		76.212
18.8218	-86.4118		74.7882
18.4727	-90.5741		73.0952
15.8488	-59.3926		82.46
12.6546	-59.1472		85.295
15.7945	-58.6767		81.3536
19.0208	-59.2476		79.1615
15.8429	-58.899		80.9143
12.3589	-57.8337		83.9221
15.736	-59.3712		80.534
15.4324	-60.792		79.84
12.2418	-58.5097		82.7932
14.4456	-63.9381		79.0433
12.9455	-67.6526		78.6615
10.9808	-63.0315		80.9172
1.77577	-119.662		32.0003
3.28464	-115.957		34.2961
0.0821121	-126.113		29.8952
-1.93495	-153.872		21.0732
-1.61652	-146.539		23.3656
-7.06754	-153.94		23.3308
-1.8532	-158.964		19.3687
-0.887697	-135.911		26.7982
-4.596	-112.149		43.1255
-0.618953	-112.427		41.3689
-3.99093	-110.011		51.0295
-11.5633	-153.836		25.0023
-11.4705	-158.722		23.2149
-3.40221	-108.342		59.3251
9.15864	-56.7678		86.3909
9.03601	-56.9484		85.6881
8.81946	-57.48		84.9375
8.66365	-58.9537		83.7138
7.74156	-62.0792		82.4604
6.65657	-66.0983		81.5157
82.8783	34.7026		13.1358
85.3809	32.8545		2.01703
84.0906	42.063		7.93526
79.5396	37.354		23.9671
85.4953	14.0611		-21.8625
71.0873	-31.1202		-52.4054
67.6881	-32.4494		-57.1989
36.116	-102.901		-58.2482
38.6965	-92.9226		-56.9317
38.9757	-106.751		-53.0753
34.0143	-112.906		-59.6335
33.0055	-99.8678		-62.872
32.3872	-121.616		-61.1326
31.0803	-129.903		-62.5138
29.1462	-119.18		-65.5705
46.4772	-92.5234		-44.7716
44.0025	-101.99		-45.5757
44.0856	-87.3384		-50.8295
49.4601	-84.2522		-43.1757
44.3807	105.178		23.3365
50.5074	101.326		22.7737
44.5091	110.378		8.22394
37.7833	108.258		23.9296
38.008	97.9019		-77.055
40.795	105.93		-61.1188
44.7224	94.6824		-75.5206
34.8295	87.6914		-90.3097
30.869	100.576		-78.1134
31.9308	76.3066		-99.9785
38.4878	73.4835		-98.3243
29.0856	63.5866		-107.341
25.1353	78.2768		-101.248
42.6231	111.23		-43.9909
49.3178	107.544		-42.7364
35.5253	114.289		-44.683
43.8059	113.686		-26.1375
30.1773	119.094		-8.49694
22.4578	120.817		-8.26545
30.4865	116.127		8.69541
37.4979	116.604		-8.56307
29.3657	119.333		-26.6073
26.3934	50.9931		-112.435
32.562	48.5338		-110.719
23.6479	37.8877		-115.893
20.0579	52.8751		-113.577
20.6768	24.1922		-117.886
26.8251	22.1194		-116.015
17.8109	10.6415		-118.251
14.5694	26.2176		-119.082
9.69259	-27.2324		-107.856
15.4034	-29.0359		-105.973
7.75531	-39.0164		-100.705
4.17485	-26.144		-108.754
12.3576	-14.7918		-113.535
2.9606	1.04221		-118.996
-3.31503	2.20137		-119.026
5.35248	13.9717		-120.217
9.0589	-0.454338		-118.279
0.622706	-11.6201		-115.633
-1.37923	-85.8633		-84.1118
0.572024	-76.4427		-84.896
3.88168	-87.588		-83.0832
-3.23728	-95.1809		-83.9278
-6.46126	-84.5341		-84.5854
-14.8234	-101.916		-84.2141
-9.89448	-103.205		-84.1985
-16.3618	-111.422		-84.2009
-19.5983	-100.884		-84.041
-13.0567	-92.3885		-84.3579
6.63148	-48.4373		-94.8316
11.8787	-49.967		-93.5463
5.05947	-56.7603		-90.436
0.98174	-46.9711		-95.5418
2.81221	-66.1984		-86.993
8.35226	-68.335		-85.5826
-2.39757	-64.4627		-87.6835
-7.68714	-63.2648		-87.8387
-5.97262	-53.9117		-91.308
-9.69807	-73.7552		-85.6293
-13.0707	-62.5444		-87.6027
66.1402	86.6432		18.7716
70.7038	80.4253		17.1233
67.207	90.6567		5.21851
61.3174	92.0376		20.4986
56.4492	63.1233		-89.3074
61.4925	59.0427		-85.3795
53.797	51.5874		-96.2463
50.9757	66.8045		-92.8127
59.0454	73.5104		-80.0171
61.4683	82.4669		-67.916
56.3612	87.0379		-70.8361
63.8473	88.9042		-53.7604
66.3123	77.1368		-64.6712
65.823	92.6016		-39.0562
70.5781	86.0644		-37.6639
60.847	98.1942		-40.3079
67.404	93.5656		-24.2879
67.6693	93.1059		-9.38772
62.6014	99.0483		-8.88566
72.3461	86.4722		-9.86334
50.9124	39.8899		-101.305
47.9755	27.6978		-104.72
45.2478	42.8474		-104.926
56.0938	36.6891		-97.2927
44.7859	15.3568		-106.702
50.0286	12.9287		-102.635
41.6404	2.81225		-106.973
39.2157	17.5164		-110.248
38.3342	-9.32047		-105.664
35.0677	-21.8885		-102.294
33.0141	-7.99548		-109.054
43.2054	-10.9905		-101.712
32.4934	-34.3617		-96.6328
37.4645	-35.0239		-93.0222
30.4651	-45.3098		-90.4497
27.0895	-32.719		-100.282
28.6219	-54.8463		-84.9755
26.6163	-64.3412		-80.2865
23.2148	-53.6219		-88.4136
33.4748	-55.9789		-80.9409
19.8516	-92.4343		-75.9874
17.1207	-102.032		-77.0468
14.5948	-90.992		-79.087
22.4732	-83.1092		-75.7362
24.5984	-94.3627		-72.2685
5.06411	-107.387		-82.1306
3.67603	-116.104		-82.4896
-0.00517964	-105.775		-83.2646
6.96822	-98.5197		-81.7521
10.2103	-109.252		-80.3474
24.5782	-73.8676		-77.1234
29.5486	-75.1956		-72.8623
19.4955	-72.2346		-80.5833
77.9197	58.4398		-52.2582
80.0955	61.8504		-40.8023
80.995	51.0301		-46.7565
75.694	52.7835		-62.7509
74.4545	65.1104		-57.164
81.6408	63.6424		-29.4693
84.2908	55.2985		-24.6433
78.4729	71.5896		-33.2465
82.5813	64.2522		-18.2811
82.219	64.8503		-7.41694
83.9396	57.0918		-2.91402
79.6766	72.254		-9.40412
60.6459	33.567		-93.0308
63.4008	44.3662		-87.9517
64.7178	30.1151		-88.4557
57.812	22.1015		-96.4088
65.8517	54.9274		-81.1893
68.216	64.0123		-72.4011
69.8424	50.2346		-76.5513
48.0804	-12.6213		-96.9904
51.7271	-1.07401		-98.2256
52.7767	-14.3527		-91.6831
44.5689	-24.2969		-94.0023
54.7899	10.3842		-98.1715
59.2598	8.152		-93.3101
41.9961	-35.3936		-89.0877
46.4224	-36.2		-84.1809
40.0791	-46.5057		-82.5362
37.978	-56.1742		-76.8758
42.2102	-55.31		-73.004
34.5548	-76.8557		-67.4981
38.6241	-80.2814		-61.3023
31.9087	-86.7378		-66.8627
82.3411	22.2943		-48.9584
80.2696	16.7074		-56.493
80.946	28.0528		-54.4402
74.6254	73.729		16.1145
75.7399	77.6356		3.13043
86.4262	31.6143		-8.95461
86.6703	39.3004		-13.9153
64.0434	-17.2746		-76.3403
60.6132	-16.7232		-81.3491
66.8917	-8.17		-77.6711
67.2064	-18.2162		-70.911
60.8645	-26.774		-73.6216
69.1672	1.1095		-78.1998
66.2201	3.47121		-83.4925
71.5284	9.86336		-76.6048
71.9573	-1.54453		-72.2936
73.991	18.6946		-73.128
71.2861	22.7259		-78.59
76.528	26.687		-67.5516
76.331	14.3524		-67.3861
52.2383	-51.1065		-62.5846
48.9371	-52.8336		-66.031
54.8395	-43.6319		-66.3748
55.5536	-49.4515		-58.8819
49.811	-58.7801		-58.9716
64.3917	-33.5422		-61.769
61.6477	-40.5931		-58.5593
61.2081	-34.6226		-65.8365
67.2428	-26.3898		-64.0855
41.6935	-83.6403		-55.947
44.652	-74.7658		-55.7903
74.7134	-50.0967		-8.0362
75.9529	-46.595		-5.90991
72.8485	-52.8616		-5.78807
76.27	-44.8555		-4.38783
82.9989	-19.8459		-5.52015
84.1868	-14.7178		-7.59603
93.8331	-10.8546		-41.5689
94.9366	-5.1316		-39.0346
94.4346	-11.3625		-40.8895
79.4375	-48.9014		-28.4523
78.126	-51.588		-25.0897
95.4052	-0.435003		-35.3616
94.4681	0.0439973		-35.8081
95.4068	2.74771		-31.1065
96.2111	-1.25289		-34.8513
89.7368	-4.46141		-14.3531
88.3939	-4.24031		-14.9434
95.0646	4.13885		-26.7411
95.9218	3.26392		-26.0584
85.9938	-32.9474		-38.5564
81.3035	-49.9609		-21.0511
80.9383	-49.7442		-18.3377
79.309	-51.8177		-21.5481
84.7515	-12.2052		-9.29034
91.8333	2.94369		-22.1299
89.7264	0.19119		-19.4307
90.5883	2.28452		-23.6693
87.0511	-3.73629		-16.323
86.1602	-3.14107		-17.8649
93.7773	0.00712132		-35.9968
85.2966	-3.28475		-19.2888
86.6067	-1.50366		-21.9696
88.1648	0.165344		-25.5994
85.7268	-1.60286		-26.6303
84.6089	-41.4102		-31.5028
85.0075	-43.1183		-23.8602
77.5903	-52.7568		-22.0243
80.509	-48.7524		-16.0136
82.0708	-46.025		-15.9649
83.2442	-43.7921		-16.8251
83.8611	-42.3057		-17.7184
94.6056	-11.6918		-40.4851
95.9491	-6.22116		-38.0552
94.5333	0.777851		-18.5731
94.6519	0.105177		-18.3105
95.7538	2.24671		-21.67
94.5633	-0.48946		-18.1866
95.8425	1.0506		-21.2384
94.2537	-1.51692		-18.3757
96.5254	-1.86259		-34.5142
96.6141	1.05354		-30.2791
96.5722	-2.37517		-34.3911
96.4053	2.45281		-25.6225
96.549	1.82032		-25.5296
96.4922	1.24811		-25.2772
96.6284	0.00437498		-29.9423
96.4965	-2.73463		-34.0803
93.5191	-15.91		-39.5242
93.7975	-2.75964		-18.9389
90.5271	-9.57512		-16.5008
95.1561	-3.27114		-27.5243
92.8657	-19.0467		-34.4095
93.1958	-17.1763		-34.0655
93.42	-15.3052		-33.4315
93.4826	-13.7896		-32.4803
93.383	-12.5322		-31.1823
92.764	-11.5764		-28.5682
82.5417	-38.4383		-15.2926
83.3696	-40.2249		-17.0617
88.0357	-15.9481		-13.543
82.64	-30.2722		-13.0921
84.0308	-41.5893		-18.2141
43.4719	19.8484		73.7542
53.247	84.1053		45.8556
54.976	90.8354		34.8136
29.1839	95.459		49.996
30.0046	103.631		38.1555
21.2784	97.1563		50.3804
56.053	97.0709		21.6944
56.7228	101.752		7.2191
30.4219	110.732		24.4043
22.6154	112.5		24.6582
44.294	113.386		-8.51025
50.8535	109.319		-8.47165
56.8648	104.608		-8.68912
56.5238	105.086		-24.9794
75.5058	40.7606		33.8655
84.3889	49.4043		2.34002
85.8707	48.0757		-8.48129
76.2358	79.7402		-10.21
76.0908	79.8634		-23.0993
28.0354	116.701		-44.86
26.1638	111.149		-62.3719
20.3287	118.396		-44.6471
55.2262	103.363		-41.3004
53.3459	98.6248		-57.9292
85.8101	47.1613		-19.2996
84.9916	45.9609		-30.1888
74.6312	79.2987		-35.9191
72.7725	76.5695		-48.5819
83.2475	43.7114		-40.9813
81.2303	39.8018		-51.2459
78.9586	34.1889		-60.1149
76.4492	39.7965		-65.877
29.1135	-97.2074		-67.7054
26.5832	-107.001		-69.1702
24.913	-116.223		-70.3343
23.4397	-124.683		-71.655
20.044	-113.319		-74.6208
23.6455	102.774		-78.4075
20.8373	91.9021		-91.9908
16.2898	104.233		-78.4395
18.2522	79.9059		-101.83
15.7298	67.1732		-109.035
11.169	81.2445		-101.798
13.3228	54.4878		-114.124
10.8011	41.6337		-117.585
6.1906	55.9102		-114.055
8.05954	28.0041		-119.679
1.32461	29.1968		-119.682
15.0805	-2.20662		-116.894
21.0669	-4.23694		-114.85
-1.69369	-24.9081		-109.266
-3.44524	-37.2115		-101.348
-7.37999	-24.043		-109.139
-4.71602	-46.1044		-95.5222
-10.4128	-45.3482		-95.194
-11.3811	-83.211		-84.7009
-16.3633	-82.1532		-84.5457
44.8334	70.3283		-95.9268
47.7569	81.4531		-86.3048
41.9477	58.1466		-103.062
50.631	91.0935		-73.5946
38.9847	45.8404		-108.145
36.0754	33.085		-111.541
33.0724	19.9591		-113.438
30.1182	6.57959		-113.667
27.1285	-6.17728		-112.199
24.1474	-18.6661		-108.823
21.2829	-30.8737		-103.47
18.9579	-42.1521		-97.106
17.5431	-51.8133		-91.3939
16.1089	-60.9317		-86.7224
13.9554	-70.2784		-83.5064
11.6591	-79.9789		-81.7631
9.38068	-89.2473		-81.3998
15.3091	-111.124		-77.8365
13.9381	-119.847		-78.5851
70.503	71.6028		-61.1287
73.4106	45.5089		-71.2436
70.8895	36.2539		-78.3953
68.2026	26.7563		-83.7092
65.5402	16.4067		-87.0946
62.9309	5.9556		-88.5656
60.2117	-4.8943		-88.1188
56.8138	-15.8073		-86.5045
53.4053	-26.2912		-83.65
50.3797	-36.058		-79.734
54.1234	-36.1462		-74.8178
47.8533	-45.7473		-74.4898
45.6568	-54.1127		-69.6084
47.5042	-66.8344		-56.2614
50.2074	-65.7601		-52.9439
78.1382	10.7385		-62.0484
76.1553	3.6136		-65.2944
79.7724	6.56359		-56.171
69.8475	-18.7899		-66.0422
72.2453	-11.1683		-66.8521
57.6709	-35.5072		-70.3564
74.2326	-3.47174		-66.9203
58.9215	-47.5859		-55.2725
56.4331	-54.6135		-52.1711
4.8472	-112.396		38.926
56.331	-83.6858		0.120193
43.6732	-101.529		1.14787
11.5626	-49.2526		92.4497
14.3654	-50.6992		90.3556
16.9882	-52.823		87.3441
2.96879	-59.7042		91.7678
3.05112	-60.9394		91.755
3.06137	-62.1332		91.6339
17.2899	-68.2693		80.6176
17.0365	-66.4774		81.1865
16.7432	-64.8824		81.7274
16.2666	-46.9221		89.8455
33.3427	-59.1404		74.8017
28.4756	-37.4165		81.344
28.5929	-42.6738		81.3335
28.6808	-47.7091		80.8219
56.7876	-47.8291		57.4711
28.1524	17.9315		72.6813
81.2762	2.49254		-49.891
84.8726	0.462301		-30.8203
85.4128	-1.60365		-28.5308
71.3033	-55.5367		-2.29945
33.0425	6.97093		70.7098
61.9102	31.5644		63.9314
9.47104	-30.3484		93.6175
53.7489	11.3823		64.3001
13.8559	-29.5348		91.1431
85.3443	-1.79739		-27.4733
41.9181	-111.324		-46.7147
53.3723	-76.2466		-41.1194
53.111	-69.2103		-46.0421
53.7041	-63.1129		-49.5883
24.4968	-28.407		83.3731
9.50661	-58.5927		87.8548
20.7937	-59.4825		78.104
3.37623	-53.1574		89.74
-78.7642	-32.6589		17.4851
-78.5122	-27.7844		18.6778
-79.8659	-30.8964		10.6098
-78.8945	-37.4008		16.2324
-77.0936	-34.3187		25.2598
-80.1153	-107.124		-4.74101
-78.5188	-97.1429		-3.90209
-81.935	-105.125		-9.01505
-82.0699	-116.864		-6.16972
-77.6863	-109.039		-0.622372
-83.7156	-123.803		-7.6028
-81.5089	-126.314		-3.22012
-85.2455	-121.454		-12.0755
-85.0676	-129.235		-8.96796
-72.1064	-93.8328		5.99923
-75.1661	-91.5339		1.26918
-72.9953	-101.321		4.74371
-68.8514	-96.5643		10.3873
-71.9103	-87.7129		7.37355
-80.5167	-87.1723		-11.5195
-79.2948	-88.3689		-7.29826
-79.8533	-81.5751		-10.9498
-81.0508	-85.3531		-16.5456
-81.5147	-94.1953		-12.2464
-75.157	-54.917		27.2607
-76.9857	-53.082		19.8141
-74.7905	-59.7016		24.6978
-72.3527	-57.4635		34.5418
-75.2847	-50.3609		29.3625
-61.6753	43.1662		28.9257
-66.3481	42.573		17.4658
-62.5607	35.9448		31.8178
-56.0505	44.7862		39.5333
-61.2973	50.8793		24.6016
-69.0904	55.1735		-23.1712
-71.3554	48.1051		-18.3977
-68.516	56.712		-12.5976
-66.5079	61.8708		-28.2837
-69.6457	52.3427		-32.8428
-23.1488	-116.878		37.5489
-22.3473	-113.188		39.8883
-27.2513	-116.028		36.8491
-25.8256	-123.488		35.6108
-20.0266	-117.439		37.9066
-29.573	-133.411		32.3818
-32.7425	-143.328		28.7822
-25.9964	-134.181		33.2355
-33.4353	-131.92		31.2052
-26.956	-152.016		27.4516
-28.2369	-156.573		25.9066
-25.2738	-145.177		29.842
-30.7761	-151.072		27.1624
-77.7764	-40.6538		-27.8094
-77.0259	-32.8503		-31.9372
-76.4542	-47.2486		-30.4046
-78.5814	-47.1892		-22.6195
-78.982	-34.0836		-25.3074
-76.8062	-27.238		-34.9338
-78.8541	-22.1012		-31.5685
-76.7381	-22.3609		-37.3304
-74.4593	-33.6466		-38.5698
-85.3072	-113.646		-28.0041
-86.2285	-116.889		-21.6701
-83.4088	-110.847		-34.7784
-86.1286	-120.022		-30.5572
-22.7119	-134.996		33.6035
-19.6454	-124.896		36.6843
-74.4288	-36.9495		33.5079
-74.7791	-42.0825		32.5534
-71.3421	-38.506		40.835
-74.2056	-31.0874		33.814
-78.1432	-51.32		12.1308
-78.5955	-46.5764		13.6152
-78.8794	-50.5944		4.12406
-77.5586	-56.0093		10.2365
-22.8011	-90.6682		86.5278
-21.9354	-86.2332		87.4309
-26.7765	-89.1037		84.8595
-23.6386	-94.5433		84.6263
-19.0607	-91.8534		87.546
-30.8074	-86.7254		82.5941
-29.9271	-82.2139		83.4951
-34.8444	-83.7541		79.5994
-31.4117	-90.8092		80.9258
-14.67	-83.2756		88.7485
-15.2907	-88.1461		88.8521
-13.826	-78.7234		88.0973
-17.733	-82.4522		88.3053
-24.1971	-97.5293		82.0106
-20.6479	-98.6145		82.9593
-28.0767	-96.0488		80.4817
-24.9373	-99.886		78.1517
-25.7107	-101.537		73.1309
-25.9067	-102.852		67.1922
-21.6995	-103.036		73.7115
-10.7631	2.86978		82.2595
-7.69795	4.24521		83.9876
-9.58809	6.58416		79.3582
-13.7664	1.95525		80.6498
-12.2355	-0.98909		84.9291
-43.6972	-21.0346		77.4214
-45.4961	-25.0136		76.3294
-38.527	-20.5059		80.0933
-42.1759	-16.9079		77.947
-49.566	-20.9305		73.1066
-52.4367	-10.334		68.3497
-54.1964	-15.0973		67.7787
-46.2342	-11.9252		74.092
-50.3485	-5.15649		68.4302
-58.9245	-7.10421		60.298
-62.3935	13.5171		46.703
-58.8174	14.4425		51.0213
-60.0857	20.7101		45.9133
-65.3446	13.1005		41.7001
-46.9535	-28.9949		74.8136
-41.395	-28.6776		78.4747
-52.8168	-28.8466		69.6787
-48.0258	-33.387		73.4955
4.47093	0.810585		99.8605
2.46631	0.592648		99.3767
3.70461	-3.14596		103.947
5.15366	5.20006		95.303
-13.4343	68.3392		72.7382
-13.5014	74.5619		68.4444
-19.0738	67.8024		70.1528
-13.3975	61.4783		77.6591
-8.20254	68.3104		74.6156
-17.9823	-106.984		61.1849
-18.2259	-105.482		68.2112
-21.494	-106.049		60.6591
-17.3337	-108.696		53.2854
-67.949	-39.4142		47.467
-67.7843	-33.1785		48.0562
-67.8309	-45.808		47.084
-64.1191	-39.571		53.8819
-17.279	-99.6643		83.2323
-17.9339	-102.219		79.0782
-16.5683	-96.7868		85.9272
-18.2196	-104.084		73.955
-49.7295	-80.719		61.0685
-49.0444	-77.0997		64.2728
-54.3333	-76.8189		56.6245
-49.7721	-83.9075		58.155
-45.0639	-83.7885		66.3047
-58.7377	-86.2039		37.4745
-53.7663	-89.8726		41.7724
-59.5521	-82.0397		41.8508
-63.2937	-82.3031		32.8082
-57.807	-90.748		32.554
-16.4147	-110.771		45.2397
-15.964	-113.978		40.1773
-19.4903	-110.371		44.848
-2.08603	-6.97487		105.284
0.651812	-6.66056		106.802
-1.0774	-3.601		101.865
-5.2929	-7.43054		102.588
-2.92037	-9.7811		108.036
-26.1165	-16.392		83.4766
-22.3894	-13.8422		85.0149
-23.8315	-11.6558		83.662
-29.1038	-18.2115		82.7347
-33.5163	-49.5033		79.3598
-31.6827	-50.1324		79.6174
-32.1243	-49.0164		79.6459
-12.139	-23.2805		94.0238
-14.3019	-23.1845		92.0741
-11.5192	-24.3701		93.4076
-13.6428	-21.5719		94.4206
-12.228	-27.4859		91.4642
-9.97101	-27.4169		93.0123
-11.9523	-26.5821		91.7404
-15.0011	-27.2189		89.5933
-12.956	-28.813		91.1896
-0.309967	-27.6598		100.641
-2.17675	-27.0156		99.9476
-0.657465	-28.4853		99.0831
-0.13979	-26.8044		102.843
-17.9278	-26.1914		87.808
-18.6347	-27.5346		87.5556
-17.3445	-25.2361		88.2889
-20.409	-24.3144		86.388
-4.66374	-18.0016		110.559
-4.49156	-16.4504		111.065
-7.66916	-16.8644		107.046
-4.75398	-19.7623		109.349
-1.91652	-19.1245		112.738
-32.5065	-64.3463		80.8074
-34.4799	-67.9743		79.73
-29.3304	-67.14		82.7853
-30.5486	-61.3329		81.8709
-35.0548	-61.3193		79.1255
-31.0753	-43.9921		82.5076
-32.9833	-44.2		81.4015
-28.8443	-43.7143		84.0422
-29.8931	-40.4386		83.8882
-1.8823	-32.0277		96.4983
-1.31639	-30.4848		97.1909
-3.83009	-31.2563		96.1811
-2.47747	-33.8316		96.0951
-0.0999749	0.0795555		98.1396
0.476882	3.96638		93.9262
-3.28187	-0.842548		95.9641
-18.1774	-14.719		91.1636
-18.5714	-14.4109		89.896
-18.7023	-16.1731		90.2425
-17.1973	-13.9671		93.2789
-16.7728	-13.1593		93.4
-4.4957	-27.8114		96.8628
-2.85144	-28.5706		97.585
-4.29412	-26.9932		97.5759
-6.17207	-27.4752		95.7391
-4.73247	-29.2018		96.1926
-3.89235	-26.3671		98.8157
-3.62256	-25.6639		100.6
-15.8517	-13.3635		95.4568
-16.7938	-14.696		94.3607
-15.347	-12.6634		95.7876
-18.9668	-18.74		89.1503
-18.4213	-21.497		88.6346
-17.9731	-17.3934		91.5232
-4.2951	-40.2127		96.3631
-3.75559	-37.8932		96.0638
-6.89672	-39.1144		96.1366
-4.89999	-41.9947		96.6409
-24.7036	-28.5475		84.732
-23.4088	-24.9427		84.7947
-26.6055	-28.3205		83.9296
-26.2862	-32.2753		84.89
-22.5035	-28.9633		85.8823
-17.2001	-66.6062		88.0889
-20.7148	-65.2129		87.2617
-17.9108	-69.1346		87.2709
-13.8164	-67.9776		88.3723
-16.6727	-64.6403		89.0565
-27.1193	-46.5465		84.3008
-26.723	-44.8839		85.4206
-29.6578	-47.345		81.6081
-27.5998	-47.1558		83.5693
-14.9404	-12.1557		95.6535
-12.7258	-11.5534		98.3209
-14.9999	-11.4774		94.2269
-23.9846	-63.7479		85.9729
-23.2727	-61.947		86.7765
-26.8524	-61.9622		84.3802
-24.8057	-66.1311		85.1985
-11.0211	-68.9451		88.3809
-10.337	-67.1939		89.3195
-11.6375	-71.0132		87.783
-47.7513	36.7029		60.0865
-48.3204	37.9117		58.3764
-50.4391	31.5131		55.9412
-46.939	35.7288		61.7027
-25.4314	55.9558		74.1381
-25.3896	60.9774		70.41
-31.5423	54.7836		69.5421
-25.4238	51.9059		77.312
-19.9008	56.7156		78.0665
-37.8597	53.0395		64.0143
-37.9457	58.4207		59.8597
-43.8631	50.7344		57.3563
-37.7469	49.1845		67.4819
-26.7019	46.2013		79.9658
-26.0691	48.104		79.5424
-27.4273	44.1242		79.9244
-22.0051	46.7323		85.023
-49.441	39.3629		55.454
-53.5762	34.2984		49.8112
-43.7754	43.8617		63.2663
-49.835	42.3625		52.7188
-11.506	34.496		84.0466
-8.32635	32.6109		83.9059
-10.6729	36.0542		85.2728
-15.3254	35.8113		83.5151
-12.5415	32.5876		82.196
1.96725	13.3218		84.978
1.57847	10.9744		86.8371
4.71062	14.2986		86.2369
2.31387	15.1084		83.9011
-0.880651	11.9636		83.1148
-25.2952	-1.14873		78.1622
-20.0277	-0.199759		79.2008
-23.105	2.50267		76.7006
-30.9831	-1.7794		77.0876
-27.7168	-5.34124		79.7436
-48.928	14.9318		59.9214
-46.7624	10.9525		63.4663
-46.0579	16.1786		61.6122
-49.1855	19.5314		58.2669
-51.6483	14.1789		58.1377
1.09166	7.80029		89.9225
3.81249	8.69475		90.9874
-1.85895	6.52416		88.3175
-28.1895	42.3163		79.5764
-28.4506	40.382		79.1962
-22.966	42.8879		84.0673
-33.5003	42.2251		75.9793
-38.3428	41.1098		72.2038
-42.7461	38.2486		67.7908
-38.0938	39.1285		72.5989
-44.4824	23.7011		62.2526
-46.2949	23.9759		60.5924
-44.4288	20.2936		62.0004
-42.5611	23.4596		63.9157
-44.2151	27.5716		63.5891
-32.3518	25.8065		72.3496
-30.4716	26.4536		73.6524
-34.0288	25.0373		70.8429
-28.4171	26.9862		74.6418
-26.1723	27.0818		75.2165
-28.3728	27.8515		75.106
-30.6693	27.3591		74.0489
-25.863	27.8704		75.7036
-23.4722	26.8559		75.4274
-20.764	26.2821		75.2948
-23.0171	27.5812		75.873
-20.1344	26.923		75.6855
-18.3504	25.387		74.818
-16.1853	24.0597		74.0574
-14.1424	22.4742		72.9991
-12.5781	20.9795		71.9054
-12.8495	22.8613		73.1926
-15.0082	24.4291		74.2656
-11.3778	21.2618		72.1161
-11.6835	19.7188		71.0654
-11.5841	23.0779		73.4873
-13.8666	24.9548		74.7492
-22.5842	28.4803		76.4934
-19.5045	27.7449		76.3102
-38.0388	21.5028		67.0449
-37.1218	20.3855		67.6662
-19.5655	36.7019		82.5995
-20.038	34.6938		81.1412
-19.0793	38.7952		83.9032
-24.0988	37.3773		81.0621
-35.8162	32.0897		73.0215
-34.635	29.9232		73.0964
-32.5525	32.8352		75.2682
-36.8833	34.6817		72.9584
-28.9918	11.8275		72.8443
-22.9971	11.0706		73.7641
-33.8719	13.2561		71.0359
-29.7645	10.1843		72.849
-18.0453	11.5403		73.4915
-18.6476	10.1342		73.901
-14.4335	12.2912		72.9645
-10.4159	14.8535		71.933
-11.4093	13.9533		72.2775
-9.88938	15.5895		71.664
-27.6051	14.8522		73.0008
-22.2365	14.0637		73.5031
-32.0203	16.3318		71.6482
-13.0842	15.3897		71.3003
-12.2886	15.783		70.9466
-14.6741	14.8382		71.9178
-11.6458	16.1184		70.7931
-11.052	16.6016		70.7261
-5.28309	21.5911		75.937
-3.59487	23.0065		78.2205
-6.46768	23.7226		76.5765
-7.22148	20.3061		73.4927
-9.35811	16.8754		71.5899
-16.6011	26.5549		75.69
-8.1783	19.8271		72.517
-8.93135	21.4395		73.0073
-7.9346	18.3936		72.3893
-27.2948	16.073		73.0868
-21.9944	15.2732		73.418
-13.141	16.2149		70.7563
-14.5468	15.9653		71.3665
-12.3975	16.357		70.5348
-11.9547	16.6348		70.3374
-35.2218	24.1612		69.431
8.0063	28.8821		86.5364
8.10712	32.1325		87.5371
5.54532	28.9475		86.2241
7.85016	25.96		85.6103
-13.5649	7.15756		76.0918
-16.6633	6.34994		75.756
-14.6857	4.71015		77.6453
-11.3148	8.05155		76.5366
-12.932	8.92027		75.0301
-8.82815	8.99537		77.4984
-6.2279	9.95243		79.0498
-8.18633	13.77		73.9618
-8.1297	15.3598		73.0412
-6.27328	13.9478		75.4847
-0.81231	19.2568		79.2545
0.188342	19.9644		80.3298
-1.46845	21.5619		79.2367
-12.618	13.1188		72.5714
-12.4931	11.9156		73.292
-12.5185	10.4623		74.1068
-15.2385	9.59012		74.1223
-24.1049	-49.914		82.7327
-20.8774	-49.9327		84.9719
-26.9529	-49.4696		80.6942
-24.0094	-49.8616		82.5095
-28.6122	-49.2957		79.7371
-28.3151	-49.2486		79.6864
-5.76819	-45.3968		96.524
-5.96553	-46.7149		96.0987
-5.48952	-44.0928		96.7437
-8.69536	-44.3847		96.1239
-11.8074	-46.799		94.1445
-14.2065	-46.7862		93.0634
-11.8152	-48.2332		93.11
-9.2166	-47.2846		94.8561
-11.5545	-45.4139		94.9333
-16.6519	-46.6496		91.7877
-19.6891	-46.8708		89.7543
-16.8903	-47.9647		90.6124
-16.5051	-45.3851		92.6081
-11.2153	-43.98		95.5009
-10.8958	-42.6948		95.8359
-13.7142	-44.0516		94.5101
-15.0451	-42.072		94.1401
-15.9021	-42.9937		93.6774
-12.4727	-41.857		95.3304
-14.4486	-41.0616		94.3618
-23.444	-47.9798		86.1431
-22.995	-46.6855		87.6714
-11.572	-49.6531		91.7584
-14.4395	-49.3089		90.6186
-11.3363	-50.3716		90.7262
-8.91592	-49.9581		92.6809
-17.4348	-49.1889		88.9206
-17.5653	-49.8252		87.7594
-29.1532	-48.0825		81.3477
-30.5302	-49.0662		79.8718
-24.5062	-50.8674		83.2436
-24.6143	-51.073		83.5186
-21.2321	-51.3109		85.8091
-24.4395	-50.8017		83.0252
-25.403	-52.3279		84.0311
-22.7594	-53.6015		86.8544
-25.0999	-51.872		83.9519
-19.8673	-54.4786		89.1772
-20.4842	-55.2469		89.1226
-17.0201	-55.4348		90.8838
-19.4079	-53.6397		88.989
-12.455	-54.0369		91.6697
-9.54002	-54.7089		92.3439
-11.9318	-52.893		91.2469
-15.7298	-53.3178		90.4272
-13.1267	-55.3878		91.9971
-7.98643	-58.3879		93.1289
-7.59288	-56.9891		92.9766
-10.4851	-57.5177		92.8766
-8.31293	-59.6605		93.1424
-29.1213	-50.6316		78.9959
-28.8867	-50.0922		79.6011
-27.3539	-50.9798		80.2793
-29.3255	-52.0258		78.3245
-6.6106	-53.7803		88.776
-6.46587	-53.1543		90.0976
-6.93724	-55.2932		87.2141
-8.83869	-53.4227		88.4842
-8.58128	-60.8556		93.0131
-11.2271	-59.872		92.835
-8.84103	-61.9186		92.7395
-9.72995	-65.506		90.5167
-9.33495	-64.0139		91.6151
-12.5035	-64.3929		90.5645
-10.4344	-41.7875		95.9612
-8.05294	-42.0038		96.457
-9.50217	-40.569		96.0572
-7.19807	-55.4423		92.6612
-6.76236	-54.0937		92.2275
-6.54475	-53.467		91.8686
-6.53632	-53.1716		91.5275
-8.87716	-52.8731		91.5746
-11.6762	-52.3463		90.8999
-11.5528	-52.1438		90.5985
-14.7647	-51.8442		89.6942
-6.54339	-53.0281		91.0006
-8.72834	-52.5504		90.7455
-17.9458	-51.5155		88.0067
-18.2977	-51.9042		88.3062
-17.8208	-51.3591		87.6719
-21.7761	-57.9186		88.6525
-22.2318	-58.9236		88.1861
-18.9834	-59.0989		90.2504
-21.3701	-57.0268		88.9275
-15.4608	-60.4132		91.5324
-15.8549	-61.4499		90.954
-11.7621	-61.831		92.2332
-15.0628	-59.5351		91.8953
-9.0705	-62.9077		92.303
-17.5507	-49.9945		87.0799
-17.4324	-49.9177		86.5595
-14.3157	-50.1777		88.7803
-28.8175	-49.8694		80.2444
-27.3045	-50.4718		81.4515
-11.6126	-53.015		87.8704
-11.4152	-52.3142		89.098
-12.043	-54.4105		86.5316
-14.711	-52.518		86.902
-11.4225	-52.0934		90.0536
-14.4882	-51.6404		88.8329
-16.1842	-62.8802		90.1149
-19.7549	-61.5241		89.022
-20.9169	-56.1417		89.0997
-18.0985	-57.2639		90.7972
-22.719	-60.3297		87.5437
-25.2843	-58.7938		85.7714
-17.0971	-49.6241		86.2415
-20.0743	-49.5689		84.5981
-16.3117	-48.3991		85.6497
-14.1682	-49.6721		87.4925
-11.2244	-49.9566		88.4605
-11.1716	-50.441		89.2835
-11.366	-48.5306		87.2498
-8.76474	-50.1526		88.8357
-15.2757	-45.5031		84.8337
-17.7199	-45.4949		83.7846
-14.5915	-41.7529		84.2403
-12.9731	-45.5086		85.6059
-29.786	-55.2869		77.6488
-27.9745	-55.6668		78.9638
-30.1197	-59.1777		77.4329
-7.62394	-58.4551		85.63
-8.82966	-62.4467		84.5932
-9.79594	-57.9869		85.4975
-10.7569	-45.5829		86.14
-9.83415	-41.821		85.5614
-8.41363	-45.7101		86.5062
-12.6168	-57.3955		85.0975
-13.7347	-61.4771		83.9859
-15.761	-56.8356		84.3519
-32.0998	-49.6224		74.0026
-32.4223	-49.7735		73.4366
-3.66761	14.3872		77.7143
-3.36827	12.7174		79.3792
-81.8463	6.42511		-38.0234
-83.3582	6.18867		-36.2244
-81.5378	11.0457		-37.9643
-80.0268	6.71974		-41.479
-82.0024	1.96494		-37.3237
-75.9824	23.9926		-0.77908
-74.2945	25.7714		4.01571
-75.9871	26.8802		-4.9572
-75.9233	29.0025		-10.1271
-76.9489	28.8096		-17.0885
-77.4198	24.2849		-11.18
-74.6128	34.2361		-11.3952
-80.7405	-18.6553		-29.0761
-81.1162	-14.5828		-30.8424
-80.5787	-22.9956		-26.5374
-82.6082	-15.9531		-27.2974
-81.3867	-10.7737		-32.8664
-83.3068	-9.19433		-30.8746
-81.7209	-6.64328		-34.6343
-79.3214	-13.2137		-35.8871
-84.7739	6.48253		-35.2606
-84.1406	11.4592		-35.407
-85.0028	2.2813		-34.3888
-86.152	7.23205		-34.8302
-87.9748	-9.62794		-27.4743
-89.172	-10.5541		-26.3215
-86.4041	-8.30021		-28.9562
-90.0568	-11.2255		-25.2476
-90.3755	-7.04776		-27.2775
-89.6602	-15.3742		-22.7788
-90.8077	-11.5491		-23.9862
-92.4343	-0.817291		-25.1189
-92.9145	3.85146		-28.1921
-92.2779	-0.26289		-24.3377
-86.2566	-24.6609		-14.7663
-86.3077	-22.9875		-17.7943
-85.2391	-23.9923		-16.8737
-85.918	-25.3764		-12.7313
-86.7456	-24.8097		-14.034
-86.1112	-16.9225		-2.25722
-85.9433	-17.5128		-2.24639
-85.5966	-18.8075		-2.5378
-92.1303	0.0956039		-23.9266
-91.7192	-0.578535		-22.9886
-92.1409	14.9093		-27.6287
-92.1453	15.589		-29.1486
-92.2164	13.5633		-25.9761
-90.2595	24.9026		-25.121
-90.2661	26.2748		-25.2166
-89.9289	28.3236		-24.1728
-89.0229	30.2254		-21.0913
-90.0379	28.8142		-24.5619
-89.2916	27.9907		-21.9816
-83.2725	5.71049		-2.42219
-83.3461	11.2131		-2.95731
-83.2279	1.63646		-1.87453
-82.5517	6.35066		-1.11749
-81.5605	-10.6195		4.40186
-81.0908	-6.35238		4.90906
-81.9099	-14.3691		3.92275
-80.6908	-11.1646		7.10646
-84.4858	-5.33583		-4.44891
-84.0475	-3.44447		-4.5828
-85.2671	-7.24605		-4.94192
-77.5261	23.7718		-11.2109
-77.5491	23.772		-10.9923
-77.8228	25.1172		-14.6598
-84.0784	32.5179		-11.3182
-84.8854	34.3808		-14.3837
-84.9369	31.9561		-10.296
-83.1238	29.2323		-8.46098
-83.2214	32.779		-12.5256
-84.5751	35.0207		-19.4426
-83.6761	34.6001		-16.4686
-84.0608	33.8969		-20.8457
-85.5095	33.9325		-23.1004
-84.8195	35.203		-18.9344
-89.1107	20.3904		-33.7925
-90.0842	20.804		-33.2067
-88.1426	26.2553		-30.8887
-88.4357	19.8087		-34.0072
-83.2905	15.8353		-3.50698
-83.8761	14.6824		-4.15955
-91.8703	20.2608		-30.5877
-91.2088	25.3222		-28.3011
-91.9559	20.1688		-30.9512
-92.1204	17.4704		-30.7991
-88.1191	30.9373		-17.142
-87.0847	30.1768		-13.1968
-87.9884	31.9021		-16.5229
-88.2157	29.583		-17.8888
-84.6975	16.8721		-6.23665
-84.7879	19.2297		-6.93197
-84.5035	15.0607		-5.68443
-91.1618	20.8214		-27.8823
-91.7445	18.8629		-29.75
-84.3373	10.0081		-7.54376
-84.4492	11.646		-6.42473
-84.4581	10.3058		-8.2448
-89.4317	11.7236		-21.3602
-90.9499	14.6526		-23.1942
-89.5484	10.6337		-21.5246
-89.0555	12.1128		-20.7437
-80.6941	-2.44418		4.89663
-79.8687	-2.7688		7.39405
-80.3913	2.08597		4.08917
-83.2681	16.6253		-33.8966
-83.6936	19.2212		-32.9062
-82.1267	21.1322		-31.7472
-82.2966	15.8736		-35.0931
-84.9154	24.4588		-30.0889
-85.9796	20.5379		-33.015
-86.2273	29.3866		-28.0483
-83.781	28.0544		-26.86
-87.5901	18.682		-34.0272
-87.5709	13.0682		-34.9013
-88.1465	8.07656		-34.5641
-84.8804	-8.26354		-29.9204
-85.0854	-4.92567		-31.5732
-84.5188	-11.5221		-28.1385
-85.1094	-1.46138		-33.1315
-83.5496	-1.96842		-34.245
-91.1136	-0.611874		-21.9909
-84.1088	-14.5814		-26.4668
-83.7411	-18.3639		-24.1706
-85.5649	-25.0319		-9.862
-85.1081	-25.3846		-9.69864
-84.6217	-25.6702		-9.42218
-84.4978	-25.5535		-14.9079
-89.9278	9.94174		-21.9958
-91.6396	11.6289		-24.1118
-81.7808	6.84623		-0.0431738
-80.9211	7.12867		1.15722
-82.551	-6.61872		1.42149
-82.9226	-6.73558		0.764847
-86.5881	-10.5551		-4.63159
-86.5335	-9.4759		-5.472
-88.0502	-12.3647		-6.13798
-83.2971	-1.35767		-1.40195
-83.8305	-1.46403		-3.5827
-82.9565	29.7228		-23.6586
-81.7144	30.107		-20.3538
-81.4975	25.7601		-26.6031
-80.9983	24.1238		-28.4367
-79.7326	26.0308		-24.196
-80.6804	23.7736		-29.5521
-89.9714	21.7642		-22.8348
-90.0816	20.254		-22.5046
-84.7863	11.0627		-9.6694
-85.6163	12.4331		-12.2939
-88.8282	12.9224		-20.238
-88.1956	12.8699		-18.8742
-89.86	16.7431		-21.3619
11.724	81.5654		67.1689
12.358	89.4512		60.2607
4.22101	81.8915		67.0602
10.8755	73.8363		72.5246
10.1929	66.2129		76.9931
3.16318	67.2193		76.6336
9.32386	58.2887		81.3263
-14.2175	55.8916		81.6703
-8.52396	56.0067		82.8884
-15.0808	52.2172		84.4875
0.199101	-25.9652		105.677
-2.02388	-25.3851		104.202
0.177383	-24.8528		108.247
1.19971	-16.4537		114.31
0.912141	-18.2718		114.365
1.49107	-14.2817		113.631
-1.38827	-15.8105		113.254
0.661076	-19.9932		113.865
0.445361	-21.6162		112.786
-0.982431	-29.3814		98.019
-3.14982	-35.8336		95.9632
-5.48476	-35.0411		95.7561
0.250675	-23.2796		110.871
-2.14486	-22.6304		109.488
1.89824	-12.1961		112.481
2.33344	-9.666		110.466
-0.628137	-11.9876		111.603
7.491	42.7705		88.2738
7.89449	46.4241		87.2271
1.26817	44.5462		87.9554
7.2254	39.7414		88.5511
6.78457	14.726		86.676
7.07569	16.7542		85.6391
6.37804	12.341		88.3952
7.26046	18.7593		85.0158
7.48308	20.795		84.7986
5.23539	18.1628		84.5581
-6.29976	-50.42		88.9616
-6.17808	-51.3193		90.2256
-6.28953	-48.9124		87.8482
-6.19432	-51.519		91.0944
-6.2194	-51.3597		91.7854
-8.43005	-51.0171		90.7759
-6.20391	-47.9008		95.4608
-6.34064	-49.1456		94.512
-6.3105	-50.4076		93.2236
-5.30556	-43.1094		96.7567
-5.7401	-45.9723		86.7033
-4.78432	-42.2354		85.9712
-2.06408	81.8477		66.4816
-1.91622	89.1568		59.9362
-7.97565	81.3237		65.4846
-2.42699	74.9001		71.4735
-4.2364	46.7735		87.5865
-4.10224	49.1173		86.9163
-9.64575	48.681		86.7365
-4.96834	43.8831		87.9305
-6.42567	41.6881		87.6725
-8.55908	39.2526		86.9464
-11.7207	43.5231		86.923
-9.79589	37.6071		86.1944
-14.007	39.2526		85.6065
-5.91388	35.5327		86.3585
-15.6042	27.1754		76.366
-18.8727	28.5815		77.0188
-12.5718	25.4857		75.4548
-14.841	28.4673		77.7158
-17.4774	25.8828		75.1385
-13.7406	30.1455		79.6027
-10.7086	28.408		79.064
-17.1993	31.5131		79.7186
-26.2461	90.095		44.755
-26.1452	83.9164		51.9204
-20.0619	92.5503		47.194
-27.0295	96.1502		34.8909
-13.4716	80.6947		63.7655
-19.4022	79.639		61.1969
-13.7084	87.1924		57.6524
-15.1653	50.2078		85.4741
-20.5951	49.8745		84.5627
-15.8676	47.3828		86.1311
-18.6943	40.8414		84.9047
-17.8797	42.7859		85.6373
-16.605	45.1485		86.1265
-20.6449	32.4319		79.4969
-24.6852	32.7019		78.4922
-21.5632	30.7686		78.1398
-25.8269	78.2487		57.4754
-25.5278	72.627		62.1479
-32.3644	76.7912		52.5562
-25.7477	49.7087		78.754
-31.4659	48.8166		74.4204
-28.7229	29.817		75.9715
-31.5577	29.3505		74.6134
-25.608	29.7954		76.821
-28.6598	31.1711		76.5376
-28.8747	38.0818		78.5718
-33.6975	38.2586		75.8076
-28.7752	35.4923		77.9079
-28.7323	32.9999		77.1565
-25.2834	66.8195		66.3969
-31.7876	65.5561		61.5614
-38.5195	75.8773		46.1355
-44.1101	75.234		38.4223
-38.301	70.1685		51.1192
-32.6952	26.6109		72.643
-34.4172	25.6957		71.0444
-34.0674	28.5271		72.8747
-35.7269	27.29		71.1798
-33.172	27.4508		72.8579
-37.6527	37.1426		72.8357
-40.9748	34.5381		69.3748
-5.86999	30.2243		83.0023
-4.5779	31.5815		84.6072
-7.00944	28.3984		80.8176
-3.99703	27.4497		81.6102
-2.87809	32.859		85.8822
-1.27418	29.9995		84.848
-8.23895	26.1158		77.8119
-9.4829	24.6771		75.6968
7.44564	36.3968		88.3509
-79.3879	-51.6492		-3.69205
-79.5797	-52.1168		-10.2433
-79.8093	-45.8919		-1.70501
-74.4563	37.216		-31.7153
-76.484	31.8008		-26.5307
-73.9851	39.3699		-23.5301
-72.5074	42.6047		-36.4656
-75.2096	33.4791		-37.4603
-77.7802	6.65772		-47.4912
-77.5717	12.5531		-47.4315
-75.7779	6.19116		-53.2432
-77.9754	0.56654		-46.0547
-76.9529	18.742		-46.9745
-79.1419	16.9845		-40.6214
-76.3907	24.2219		-45.0312
-74.8829	20.2322		-53.5561
-76.7748	-17.4376		-40.2153
-77.2799	-11.4172		-42.5437
-74.4378	-21.332		-44.3139
8.21278	51.9335		84.7516
2.22029	53.2521		84.5298
-3.33817	54.7625		83.8343
-3.35396	60.9372		80.1444
-35.6084	-100.146		55.4633
-29.8342	-102.8		58.4101
-42.2614	-96.653		50.7746
-34.5074	-103.309		48.1402
-60.0135	-78.2752		45.5771
-59.6415	-75.2125		49.1411
-64.3655	-73.8331		41.159
-54.7732	-83.1329		49.9606
-38.1939	64.2355		55.471
-44.1857	62.7666		48.408
-2.77881	68.0044		75.795
-49.7196	74.5013		29.1423
-50.1279	67.8699		34.7512
-54.5785	73.8252		19.4554
-1.51735	97.4901		50.5111
5.38159	98.0258		50.8118
-1.07396	105.426		38.9647
-7.89502	96.2258		50.0556
-50.243	47.4304		48.7778
-50.1576	54.2018		44.524
-37.029	25.9029		69.4343
-46.1142	34.6338		63.0415
-44.8514	33.1712		64.5288
-47.6214	29.5946		60.0372
-43.3849	31.5473		65.8743
-17.0631	-118.053		37.9545
-68.1017	-61.2608		42.3334
-68.5447	-65.5093		38.8383
-63.2585	-66.4584		48.4711
-67.7222	-57.0352		44.8308
-8.6835	-38.8341		95.868
-7.8483	-36.7556		95.6334
-10.563	-38.9139		95.4485
-25.8828	-42.7246		86.3476
-22.8436	-41.1859		89.0013
-24.5176	-39.0804		87.4654
-11.1279	-35.0445		94.2404
-9.98789	-32.8588		94.0832
-13.809	-35.2552		93.0423
-12.1785	-37.0842		94.396
-8.72498	-34.7918		95.0498
-34.5508	-44.2995		80.6199
-33.7904	-40.8224		81.6478
-36.6474	-44.7953		79.422
-34.9693	-47.499		79.491
-52.894	25.7159		53.3643
-54.9115	26.8907		50.3817
-54.5389	19.8663		53.1727
-50.7248	24.8941		56.0108
-57.1518	28.1423		46.6383
-60.0733	28.7332		41.3513
-40.6261	23.2615		65.4981
-40.9407	21.2284		64.8326
-48.6937	24.1881		58.2458
-79.4413	24.2514		-31.6331
-78.86	26.6831		-27.6324
-77.8238	26.0204		-35.7577
-80.2001	20.611		-34.8729
-81.8527	-2.52391		-36.2838
-80.0038	-3.41009		-39.5667
-80.7242	-37.7409		-12.0789
-80.5975	-34.3456		-17.9827
-79.9235	-43.8866		-14.7728
-80.5906	-39.7345		-5.81721
-81.5773	-32.9803		-9.61758
-80.9315	16.021		-36.936
-79.8762	-12.1039		10.2309
-78.9109	-12.997		14.5355
-79.4975	-7.74577		10.5628
-80.1627	-16.2867		9.67643
-68.9239	12.7152		34.1058
-72.0535	12.0831		25.7451
-70.4475	5.39407		35.1429
-66.8381	20.5608		33.1735
-44.1288	17.1648		62.7322
-42.6962	14.4206		64.7813
-42.4	18.3344		63.7884
-40.9862	19.342		64.7963
-39.7731	17.6625		66.0624
-77.5306	-13.3945		20.6671
-77.1235	-8.25967		20.7061
-77.9257	-18.217		20.066
-75.7868	-13.5983		27.2207
-21.292	-7.6002		83.1915
-17.6635	-6.22348		84.8375
-18.9081	-3.48524		81.9549
-25.1911	-8.72523		82.0368
-29.9904	-10.1025		80.9557
-31.6698	-14.7944		81.7234
-35.1453	-11.2983		79.7405
-13.9526	-4.86062		87.0929
-15.1075	-7.88995		88.96
-10.1256	-3.28762		90.0733
-19.8045	-13.5366		87.6061
-17.8378	-11.768		89.0068
-15.2037	-15.6552		96.906
-16.3648	-16.0482		95.0254
-15.2738	-17.3998		96.0752
-13.408	-15.4056		99.4049
-17.1829	-16.5794		93.326
-17.0402	-18.8693		92.4138
-35.9917	-28.1567		80.7719
-34.7611	-23.997		81.3812
-37.4833	-32.6238		80.0817
-31.7941	-28.0373		82.2658
-33.0448	-19.3533		81.7599
-5.33953	-30.922		95.7145
-6.90661	-30.699		95.032
-6.16788	-32.8369		95.4708
-59.5027	-39.2686		60.511
-59.4004	-45.6859		59.7879
-54.2457	-38.7471		66.8894
-59.1675	-33.5231		61.6441
-28.2452	-36.3197		84.6199
-30.5086	-36.5617		83.4712
-25.8022	-35.9512		86.027
-38.7811	-37.1537		79.0813
-35.14	-36.8906		81.1124
-43.5292	-37.666		76.2427
-39.6056	-41.6397		78.2587
-7.04794	-34.7457		95.4811
-58.9263	-52.5222		59.2465
-57.1844	-58.702		60.1186
-54.0059	-50.188		65.5966
-63.2082	-53.4449		53.0553
-56.0731	-19.3537		66.1748
-62.0495	-17.3361		57.9858
-57.5542	-23.6074		64.5361
-40.394	-86.8527		71.7534
-35.7098	-90.7826		75.7872
-39.9684	-83.675		73.9837
-47.8992	-73.2586		67.2744
-43.7129	-76.7474		71.2942
-45.7277	-69.3614		70.6244
-51.4155	-69.1114		64.322
-48.1116	0.142857		67.938
-42.4648	-1.75035		72.4619
-45.3466	4.75092		67.6133
-37.5376	15.5162		68.3315
-38.6438	13.6528		68.0577
-43.3227	7.79821		67.434
-41.3594	10.0279		67.6437
-38.7443	5.66294		70.9953
-35.2333	18.5223		69.3785
