1814
44.671	-92.3509		-52.6473
44.6348	-105.812		-48.5008
40.2117	-112.214		-55.0471
39.4554	-99.4491		-58.6363
38.7276	-120.96		-56.3508
37.5709	-129.318		-57.5223
35.8519	-118.739		-60.9805
51.5232	-91.4951		-40.2622
49.078	-100.797		-40.9726
49.605	-86.6505		-46.4632
54.4394	-83.3964		-38.6806
43.6884	104.777		24.7659
50.0052	100.899		24.8299
44.8713	109.594		9.53794
36.9176	107.881		24.7208
44.6336	95.3744		-75.3586
46.206	103.682		-59.5325
51.213	92.2352		-73.277
42.4935	84.9547		-88.5047
37.605	97.978		-76.9883
40.3781	73.4448		-98.0493
46.7722	70.7089		-95.8818
38.1545	60.6567		-105.275
33.7274	75.3407		-99.8368
46.7566	109.306		-42.5289
53.363	105.688		-40.6987
39.7199	112.31		-43.815
46.6315	112.127		-24.7797
31.6767	117.868		-8.43825
23.9279	119.576		-8.84266
30.6826	115.333		8.73842
39.0219	115.401		-7.87972
32.2234	117.693		-26.471
35.9094	48.0371		-110.248
41.9064	45.664		-108.059
33.4916	34.9499		-113.596
29.7124	49.8488		-111.87
30.7476	21.3038		-115.499
36.7097	19.3181		-113.166
27.9908	7.8345		-115.788
24.7795	23.2558		-117.161
19.3587	-29.5525		-105.394
24.892	-31.2524		-103.115
16.9721	-40.9983		-98.3753
13.9508	-28.5292		-106.685
22.3589	-17.3481		-111.006
13.3822	-1.78606		-117.394
7.16752	-0.670404		-117.898
15.786	11.0321		-118.694
19.3732	-3.22372		-116.216
10.8764	-14.3012		-113.98
6.94227	-86.6893		-82.0435
8.89121	-77.402		-82.879
12.0806	-88.3123		-80.6312
5.12664	-95.9143		-81.774
1.94079	-85.4295		-82.8966
-6.27787	-102.679		-82.7055
-1.40514	-103.92		-82.308
-7.76049	-112.128		-82.5572
-11.009	-101.687		-82.9016
-4.5615	-93.2289		-82.9574
15.4783	-50.107		-92.6132
20.5997	-51.5512		-90.9562
13.6441	-58.1639		-88.3289
9.91946	-48.706		-93.7421
11.2149	-67.3603		-84.9678
16.6139	-69.3782		-83.1607
6.09194	-65.7042		-86.0483
0.857345	-64.5471		-86.6085
2.75651	-55.4303		-90.0334
-1.23731	-74.8307		-84.3869
-4.49508	-63.8546		-86.7852
66.4776	86.0689		22.577
71.379	79.7873		21.4844
68.2741	89.8135		8.93193
61.3324	91.5256		23.7419
64.014	60.6838		-85.4414
68.7785	56.7266		-81.1014
61.9204	49.0926		-92.2809
58.8029	64.2469		-89.3847
65.8927	71.1791		-76.2463
67.4115	80.3093		-64.2422
62.5006	84.7783		-67.6138
68.7632	86.9776		-50.1409
72.0525	75.0865		-60.5501
69.7072	90.9325		-35.4488
74.4342	84.4545		-33.5505
64.7692	96.4657		-37.201
70.2979	92.1653		-20.6357
69.6087	91.9844		-5.7245
64.397	97.9268		-5.78204
74.4448	85.345		-5.65569
59.4656	37.3754		-97.2674
56.8472	25.1973		-100.615
54.0875	40.2106		-101.311
64.3464	34.3024		-92.8667
53.8799	12.897		-102.56
58.8083	10.6009		-98.1314
50.8373	0.430362		-102.81
48.5968	14.9346		-106.495
47.5229	-11.587		-101.535
44.1022	-23.9655		-98.243
42.4782	-10.3847		-105.264
52.0862	-13.1184		-97.2812
41.2066	-36.1496		-92.7003
45.8916	-36.6753		-88.8127
38.807	-46.7714		-86.6636
36.0927	-34.6606		-96.6706
36.6326	-55.994		-81.334
34.345	-65.1787		-76.7749
31.5015	-54.9254		-85.0878
41.1741	-56.9595		-77.0421
27.3874	-92.7137		-72.4876
24.7914	-102.279		-73.4626
22.4044	-91.4436		-75.9088
29.9433	-83.4808		-72.2877
31.8204	-94.4433		-68.4911
13.2466	-107.88		-79.129
11.9223	-116.555		-79.3526
8.31063	-106.363		-80.6344
15.0774	-99.0599		-78.8522
18.2128	-109.621		-76.9786
32.117	-74.4329		-73.6788
36.7507	-75.5667		-69.1618
27.3179	-72.974		-77.4348
82.9668	56.737		-46.9715
84.3989	60.306		-35.4515
85.7534	49.4569		-41.1289
81.4534	50.9455		-57.4749
79.7662	63.2826		-52.2397
85.261	62.252		-24.0384
87.7341	53.9974		-18.8453
82.2153	70.1144		-28.2205
85.5606	63.0079		-12.7632
84.6279	63.7505		-1.89065
86.2722	56.0394		2.9365
82.0348	71.1302		-4.2593
68.5914	31.3056		-88.2656
70.9303	42.123		-83.2359
72.3463	27.9839		-83.3845
66.0622	19.8594		-91.6015
72.853	52.7328		-76.548
74.5604	61.9152		-67.8249
76.5423	48.1697		-71.5681
56.6024	-14.5916		-92.2833
60.2547	-3.17314		-93.4237
60.9048	-16.1558		-86.721
52.9621	-26.0753		-89.4268
63.2384	8.19447		-93.3491
67.3542	6.10251		-88.2004
50.1184	-36.9075		-84.6491
54.177	-37.5505		-79.5359
47.8088	-47.6719		-78.2478
45.3662	-57.0094		-72.7617
49.3003	-56.0341		-68.7018
41.3349	-76.9868		-63.561
44.9381	-80.1206		-57.1833
38.6651	-86.6782		-62.9156
87.3993	20.8978		-42.8147
85.8167	15.26		-50.3886
86.3156	26.5339		-48.4411
75.6093	73.0435		20.9761
77.2879	76.724		7.88348
89.3091	30.5451		-2.57943
89.7337	38.1592		-7.6369
71.0835	-18.6796		-70.8019
68.0039	-18.2451		-75.9784
73.9666	-9.7132		-72.006
73.8739	-19.4987		-65.2233
67.7794	-27.9892		-68.2676
76.2244	-0.544313		-72.4807
73.6346	1.6849		-77.9467
78.429	8.15264		-70.8547
78.6227	-3.05671		-66.4182
80.6129	16.9629		-67.3611
78.2597	20.8569		-73.0234
82.7426	24.9781		-61.7649
82.5908	12.7607		-61.448
58.5508	-51.6347		-57.8856
55.5026	-53.4087		-61.4654
61.3677	-44.3997		-61.4617
61.6022	-49.9362		-54.0433
55.9101	-59.046		-54.4624
70.5346	-34.4102		-56.3215
67.6219	-41.2655		-53.3333
67.636	-35.5475		-60.5414
73.4954	-27.4236		-58.4368
47.5968	-83.2156		-51.6888
50.5525	-74.5459		-51.4991
77.3672	-50.1647		-2.57094
78.3662	-46.7421		-0.32752
75.4274	-52.8556		-0.528566
78.5174	-45.0345		1.23031
84.9108	-20.3995		0.776674
86.3385	-15.3614		-1.21679
98.3875	-11.7887		-34.2503
99.3131	-6.10472		-31.6952
98.9433	-12.2805		-33.5206
83.3829	-49.0647		-22.2857
81.891	-51.6572		-19.08
99.548	-1.42307		-28.0454
98.645	-0.95972		-28.574
99.2911	1.76445		-23.8323
100.314	-2.22299		-27.4636
92.5429	-5.27308		-7.52809
91.254	-5.06019		-8.23386
98.6892	3.17149		-19.515
99.4861	2.31862		-18.7578
90.4735	-33.5389		-31.765
84.7555	-50.0668		-14.8071
84.2076	-49.8448		-12.1695
82.849	-51.8664		-15.4664
87.0813	-12.8931		-2.86807
95.2094	2.00928		-15.1822
92.926	-0.700324		-12.6342
94.0607	1.34132		-16.8262
90.0233	-4.56777		-9.72647
89.2514	-3.9854		-11.3509
97.9682	-1.00988		-28.8259
88.4959	-4.14405		-12.8424
89.9876	-2.39979		-15.4207
91.7761	-0.774508		-18.9238
89.4235	-2.53274		-20.1286
88.6744	-41.7823		-24.8658
88.5434	-43.4088		-17.2769
81.1834	-52.7729		-16.1002
83.6063	-48.8715		-9.92398
85.107	-46.2134		-9.73992
86.301	-44.0329		-10.4864
86.9592	-42.5854		-11.3125
99.0883	-12.599		-33.1024
100.258	-7.16649		-30.6274
97.6215	-0.0927992		-11.3824
97.7077	-0.747103		-11.1072
99.036	1.3464		-14.3825
97.6076	-1.33681		-10.9913
99.0857	0.168482		-13.9463
97.3062	-2.36079		-11.2051
100.604	-2.82109		-27.0963
100.428	0.102054		-22.8962
100.641	-3.32625		-26.9682
99.9307	1.5251		-18.2787
100.064	0.901031		-18.172
99.9905	0.333418		-17.9293
100.418	-0.936614		-22.5614
100.547	-3.68243		-26.6692
97.9535	-16.7593		-32.2203
96.8832	-3.59912		-11.8015
93.4114	-10.3292		-9.59893
98.7972	-4.15999		-20.2449
96.9691	-19.7999		-27.1692
97.2717	-17.9525		-26.8141
97.4509	-16.1009		-26.1798
97.4497	-14.597		-25.2421
97.2648	-13.3453		-23.97
96.4763	-12.3818		-21.4287
85.4347	-38.7759		-9.02802
86.4056	-40.5396		-10.7107
90.6591	-16.5996		-6.82815
85.2815	-30.7305		-6.83051
87.1574	-41.8853		-11.7902
40.123	19.6227		77.9963
51.6872	84.2959		48.8373
53.9743	90.6934		37.6311
26.1529	95.9885		50.4518
27.9072	103.715		38.4141
17.9452	97.7623		50.0558
55.7931	96.6054		24.3442
57.3621	100.96		9.76357
29.4036	110.379		24.5169
21.474	112.164		24.0776
45.8467	112.21		-7.22031
52.4551	108.17		-6.56558
58.5524	103.475		-6.18634
59.3292	103.617		-22.4485
77.2317	40.0968		39.743
86.6634	48.3968		8.42802
88.5958	46.9614		-2.35086
78.492	78.6075		-5.52223
79.1078	78.5207		-18.4424
32.2627	114.678		-44.6033
31.7189	108.786		-61.9705
24.5659	116.342		-45.0057
59.1853	101.575		-38.731
58.5158	96.5314		-55.2774
89.0753	45.9438		-13.2232
88.8305	44.6306		-24.1946
78.4515	77.7501		-31.3493
77.4326	74.8192		-44.054
87.7203	42.2609		-35.0796
86.3396	38.2377		-45.4059
84.655	32.5359		-54.3134
82.4874	38.006		-60.3084
35.9556	-97.0401		-63.6704
33.5693	-106.806		-65.0108
32.0184	-116.025		-66.0009
30.6858	-124.522		-67.1529
27.5249	-113.357		-70.5945
30.441	100.125		-77.8564
28.7144	89.0357		-91.2752
23.131	101.541		-78.4604
26.942	76.911		-100.944
25.0453	64.1091		-107.984
19.9146	78.2054		-101.454
23.078	51.4014		-112.927
20.8812	38.5623		-116.268
16.0072	52.7756		-113.402
18.3719	24.9809		-118.257
11.7009	26.128		-118.768
25.2423	-4.90323		-114.381
31.0344	-6.84639		-111.893
8.16968	-27.352		-107.629
5.90538	-39.2819		-99.8482
2.52406	-26.5235		-107.929
4.26524	-47.8727		-94.1567
-1.40984	-47.1448		-94.2678
-2.92255	-84.1488		-83.3916
-7.86395	-83.127		-83.6221
52.9097	67.6557		-92.9854
55.0706	78.8988		-83.4671
50.6131	55.4118		-100.009
56.9704	88.7318		-70.857
48.0943	43.0834		-105
45.5079	30.3353		-108.308
42.7233	17.2545		-110.132
39.8689	3.95281		-110.298
36.8585	-8.70219		-108.808
33.7198	-21.0113		-105.466
30.5516	-32.9627		-100.225
27.843	-43.9244		-94.0163
26.0755	-53.2695		-88.4235
24.3582	-62.0911		-83.8468
22.0261	-71.1829		-80.706
19.6554	-80.6864		-78.9749
17.4054	-89.8451		-78.5664
23.0765	-111.343		-74.1199
21.7904	-120.048		-74.7216
76.0347	69.6599		-56.6053
79.7738	43.5796		-65.9547
77.7843	34.2707		-73.0774
75.511	24.7518		-78.3778
73.1389	14.424		-81.749
70.6924	4.03518		-83.2245
68.0083	-6.70147		-82.8185
64.5706	-17.4624		-81.3294
61.0346	-27.7511		-78.6427
57.8046	-37.2852		-74.9121
61.1925	-37.2445		-69.8356
54.9755	-46.6799		-69.862
52.4893	-54.7586		-65.1675
53.4337	-66.8289		-51.8817
55.9053	-65.6999		-48.4637
84.0641	9.26794		-55.9845
82.3245	2.16679		-59.2608
85.3365	5.22261		-49.9949
76.1841	-19.9741		-60.2313
78.5933	-12.4697		-60.9237
64.4197	-36.5121		-65.2202
80.5436	-4.86687		-60.927
64.7158	-48.0442		-50.2762
62.0535	-54.8393		-47.3772
2.21197	-111.164		42.3294
58.5528	-81.6419		4.08706
44.769	-97.8054		4.74474
7.70404	-49.0264		93.1021
10.3409	-50.4178		91.3858
13.2138	-52.4956		88.7748
1.0724	-57.3746		93.5928
1.22203	-58.4328		93.6671
1.2839	-59.5582		93.6415
14.6093	-66.2753		84.2122
14.1958	-64.5607		84.6312
13.8154	-63.0271		85.0341
12.1838	-46.6325		90.6592
31.6153	-58.8657		78.9561
25.6485	-36.8186		82.6411
26.1707	-42.0905		82.9179
26.4463	-47.1601		82.7958
59.0823	-47.7578		61.6545
26.2086	17.8849		74.4886
86.4527	1.27967		-43.618
88.849	-0.533215		-24.4059
89.2349	-2.55348		-22.0796
73.7251	-55.4682		2.76516
30.5474	6.74886		72.5089
60.3972	30.561		71.2328
5.15543	-30.9516		91.9852
51.7281	10.6834		69.0124
8.33142	-30.1607		90.5384
89.0943	-2.73829		-21.0172
47.062	-110.058		-41.9466
58.2367	-75.5885		-36.5288
58.3387	-68.8927		-41.4634
59.1661	-63.0515		-44.9618
19.624	-28.292		83.8399
6.91652	-56.5993		89.836
16.8202	-58.3427		81.7567
0.937659	-52.2307		90.9692
-79.7411	-34.9415		10.0643
-79.6049	-30.2144		11.3779
-79.953	-32.9655		3.12192
-79.6234	-39.4339		8.70403
-79.3787	-36.7327		18.1363
-75.6995	-105.546		-9.38251
-74.1119	-95.5657		-8.96823
-77.2576	-103.791		-13.8577
-77.6499	-115.412		-10.4393
-73.54	-107.217		-5.00132
-79.2752	-122.486		-11.6465
-77.417	-124.823		-6.99133
-80.4735	-120.312		-16.3167
-80.5993	-128.04		-12.8421
-68.154	-91.6002		1.23035
-71.0255	-89.7048		-3.86725
-69.0513	-99.0976		0.281942
-65.1625	-93.9671		6.02269
-68.1005	-85.6201		2.30613
-75.9046	-86.2397		-17.1145
-74.8563	-87.1815		-12.8166
-75.4468	-80.7969		-16.7607
-76.2131	-84.6853		-22.1425
-76.7225	-93.1432		-17.5675
-77.167	-54.9		19.6222
-77.4862	-53.6394		12.1409
-75.7423	-59.1716		17.2918
-76.2426	-56.4174		27.3005
-78.126	-50.9106		21.6438
-63.9265	42.4814		22.0431
-67.3324	41.4981		10.4754
-64.8255	35.0446		24.9315
-59.6185	44.7349		32.8049
-63.2554	50.2887		17.7383
-66.3981	53.5066		-29.7546
-69.0468	46.4769		-25.1653
-66.7977	55.2462		-19.345
-63.3867	60.1311		-34.6562
-66.0626	50.4941		-39.2595
-28.0876	-115.224		39.8366
-27.9244	-111.253		42.1563
-31.765	-114.035		38.4962
-28.8029	-121.408		37.9976
-24.976	-116.001		40.6647
-30.914	-131.188		34.4629
-33.0352	-141.199		30.4652
-27.4929	-132.045		35.6331
-34.5875	-129.587		32.9041
-26.9487	-150.025		29.5539
-27.924	-154.654		27.8785
-25.7934	-143.105		32.1436
-30.6826	-149.072		28.9586
-73.6824	-41.8078		-34.0961
-72.7656	-34.221		-38.1606
-71.9616	-48.196		-36.4139
-74.7648	-48.1105		-29.0259
-75.2989	-35.4345		-31.8454
-72.373	-28.7406		-41.118
-74.8077	-23.711		-38.0477
-72.1754	-23.9616		-43.49
-69.599	-35.0077		-44.3976
-79.4941	-113.072		-32.4058
-80.8088	-116.102		-26.0897
-77.1892	-110.493		-39.0414
-80.1686	-119.541		-34.6783
-24.2676	-132.92		36.2504
-22.7195	-123.087		39.6331
-78.5423	-38.4898		26.2841
-78.7147	-43.2696		25.1347
-77.1333	-39.3676		33.843
-78.1163	-32.9412		26.8556
-77.6136	-52.1161		4.60762
-78.561	-47.8409		6.00344
-77.4542	-51.4287		-3.18499
-76.4278	-56.3489		2.90758
-24.2079	-88.2185		90.104
-23.185	-83.9452		91.0132
-28.8955	-86.9702		87.8952
-25.109	-92.1743		88.1784
-20.1127	-89.3247		91.4306
-33.726	-84.8676		85.0797
-32.7143	-80.263		86.0426
-38.6933	-81.8927		81.5111
-34.4457	-89.1024		83.3254
-14.9377	-81.3631		92.7688
-15.8628	-85.9945		92.8812
-13.7351	-76.3086		91.9683
-18.327	-80.4034		92.1682
-25.7701	-95.4087		85.4433
-21.7673	-96.3823		86.7126
-30.4315	-94.1321		83.3927
-26.7146	-97.9514		81.5097
-27.8506	-99.6965		76.6216
-28.5487	-101.069		70.6846
-23.2369	-101.173		77.4601
-14.0125	4.5692		79.1987
-11.0441	5.7999		81.0972
-13.1775	8.02784		76.841
-17.03	3.7479		77.4267
-14.9695	0.97684		81.3022
-50.8076	-18.5101		72.2213
-52.7828	-23.237		71.56
-44.6567	-17.8863		75.5569
-49.0093	-13.567		72.4143
-56.9742	-18.4734		67.2362
-58.6935	-7.53321		61.6869
-60.8126	-12.7603		61.189
-52.986	-8.27075		67.8618
-56.4082	-2.21691		61.8512
-63.9532	-6.45986		53.6963
-64.9182	12.4731		40.0819
-62.148	13.994		44.3034
-62.9881	20.051		39.222
-67.1618	11.6574		35.2059
-54.4881	-27.8395		70.5358
-47.7813	-27.55		74.9873
-60.7824	-28.0536		64.708
-55.6321	-32.8429		69.8625
1.07648	1.75232		95.5354
-1.0019	1.61443		94.8709
0.0813093	-2.55471		98.7048
1.9684	6.49368		92.1129
-20.278	70.8186		69.1275
-19.7884	76.7388		64.8163
-25.645	70.2458		65.7818
-20.5984	64.1021		74.1001
-15.2405	70.8171		71.75
-20.5378	-105.254		65.1007
-19.8163	-103.722		72.1991
-24.2653	-104.3		64.366
-20.9981	-106.971		56.8384
-74.9836	-39.9188		41.313
-74.4052	-34.004		42.0431
-75.0106	-46.0152		40.9738
-71.9235	-40.167		48.8773
-18.2069	-97.3623		87.1905
-18.8613	-100.133		82.9669
-17.4239	-94.2501		90.0331
-19.3337	-102.183		77.9023
-55.5922	-78.0829		62.3539
-55.1353	-74.6496		65.5201
-60.4074	-73.9917		57.1497
-55.1465	-81.2225		59.6039
-50.4221	-81.6529		67.9104
-59.9096	-83.377		35.2195
-55.7839	-86.9131		41.0505
-62.3565	-79.1698		39.8521
-63.5983	-79.6642		29.1842
-57.5778	-87.7962		30.0592
-21.3226	-109.213		48.4837
-21.6031	-112.685		43.3344
-24.5085	-108.566		47.8133
-5.78611	-6.93622		99.3555
-3.17208	-6.6749		101
-4.68398	-2.97857		96.4278
-8.73731	-7.44146		96.7457
-6.71042	-10.0999		101.699
-26.5906	-14.1398		80.0373
-22.3838	-11.8126		81.6208
-24.0619	-9.40034		80.0678
-31.2993	-15.7914		78.9849
-36.7643	-50.3514		79.8868
-34.6887	-50.8581		80.2811
-35.1538	-49.7874		80.1905
-14.1577	-24.256		90.651
-15.9416	-23.8147		89.1007
-13.5923	-25.2879		90.2174
-15.5009	-22.7		90.7867
-14.1461	-28.1719		88.8004
-12.2782	-28.2603		90.1033
-13.8656	-27.2779		88.9818
-16.5255	-27.5891		87.1057
-14.8764	-29.4282		88.6969
-3.87461	-27.4622		97.5477
-5.63952	-26.9032		96.6299
-4.11748	-28.2738		96.2329
-3.76429	-26.723		99.1293
-19.1179	-26.0267		85.3235
-19.9006	-27.3357		85.203
-18.545	-25.169		85.7173
-21.4004	-23.5996		83.7171
-8.34923	-18.6531		103.856
-8.22058	-17.0498		104.304
-11.1067	-17.8721		100.548
-8.41003	-20.3828		102.829
-5.72499	-19.5268		106.045
-35.6687	-63.6276		82.236
-37.9754	-66.9383		81.3305
-31.8569	-65.7334		84.7342
-33.3072	-60.7814		83.1701
-38.6082	-61.0715		80.2397
-33.887	-44.4912		82.4839
-36.194	-44.908		81.274
-31.5165	-44.0793		83.9384
-32.536	-40.6696		83.4359
-5.01691	-32.0843		94.1564
-4.59689	-30.3581		94.6417
-6.79379	-31.5339		93.6716
-5.39384	-34.1867		94.0661
-3.64881	1.18149		93.4436
-2.87734	5.33502		90.3669
-6.7225	0.288109		91.3021
-18.9158	-14.8937		87.1476
-19.1886	-13.9871		85.9942
-19.354	-16.1106		86.4471
-18.271	-14.9029		88.9692
-17.9074	-13.9112		88.993
-7.48813	-28.091		93.7865
-6.07208	-28.5244		94.659
-7.3625	-27.2135		94.3474
-8.95215	-28.0573		92.6395
-7.65875	-29.5151		93.3278
-7.11321	-26.4977		95.395
-6.99703	-25.7328		96.8283
-17.4368	-14.5998		90.748
-18.078	-16.0328		89.9635
-17.0254	-13.7607		90.9618
-19.687	-18.6148		85.7602
-19.3681	-21.3725		85.7116
-18.8539	-18.1741		87.7413
-6.77361	-41.2032		95.3637
-6.25318	-38.7228		94.7397
-9.18791	-40.2518		95.0599
-7.36473	-42.9794		95.8125
-26.778	-27.9192		82.548
-24.6258	-23.8479		82.1734
-29.2344	-27.5414		81.6637
-28.9538	-32.2516		83.2744
-24.1942	-28.5682		83.7624
-17.9696	-64.2988		90.8932
-21.7284	-63.3073		89.8119
-18.7768	-66.4487		90.3648
-14.3352	-65.1324		91.4661
-17.3971	-62.6082		91.5497
-29.6286	-46.9628		84.7244
-29.1146	-45.3513		85.5098
-32.4514	-47.8945		82.1911
-30.1704	-47.5566		84.12
-16.6837	-13.1089		90.8317
-15.0913	-12.5742		93.0473
-16.5976	-11.9865		89.5851
-25.3265	-62.248		88.2102
-24.4341	-60.5495		88.9113
-28.6103	-60.7203		86.1998
-26.422	-64.3612		87.5493
-11.0649	-65.8924		91.6248
-10.7264	-64.3477		92.2338
-11.5068	-67.8907		91.2358
-53.047	38.1732		54.1303
-53.5329	39.3647		52.2865
-55.2745	32.7172		49.5418
-52.2992	37.1464		55.9176
-32.0798	58.3322		69.1117
-31.9744	63.5119		65.2013
-37.9294	57.0673		63.9544
-32.2819	53.7846		72.526
-26.8853	58.9118		73.7424
-43.8639	55.0745		58.0202
-43.7208	60.3404		53.7701
-49.402	52.3272		50.9902
-43.8619	51.2923		61.6832
-33.6515	46.7868		75.8997
-32.976	49.102		75.2723
-34.4792	44.2316		76.0567
-28.7496	47.019		80.8359
-54.4882	40.6025		49.206
-57.9243	34.7758		43.223
-49.4728	45.6872		57.3334
-54.7736	43.3192		46.3586
-17.3578	34.96		81.4044
-13.9851	33.2801		81.5425
-16.5721	36.3204		82.5284
-21.3983	36.1282		80.6747
-18.2767	33.4184		79.7395
-1.71512	14.5263		83.9927
-1.97366	12.2878		85.3088
1.32312	15.4693		85.7276
-1.46307	16.3347		83.192
-4.67878	13.2574		81.6183
-29.2066	1.14842		74.2906
-23.2281	1.9374		75.5551
-27.0226	4.51262		73.2258
-36.3563	0.913284		72.6341
-31.6043	-2.67804		75.4053
-53.8823	16.8626		53.0616
-52.2697	12.9349		56.832
-51.301	18.3304		54.8224
-54.0609	21.4719		51.3218
-56.2763	15.4524		51.2996
-2.27469	9.20259		87.5227
0.528106	10.1384		88.7739
-5.26264	7.9374		85.6888
-35.2159	42.2249		75.8419
-35.4486	40.3937		75.5899
-29.914	42.3378		80.2379
-40.5461	42.8595		71.6112
-45.2345	42.2821		67.0132
-48.8657	39.5458		62.439
-45.047	40.2854		67.5201
-49.8877	25.6778		55.6383
-51.5388	25.9776		53.9552
-49.7311	22.4757		55.3025
-48.1411	25.4821		57.2635
-49.7229	29.3864		57.3982
-38.3438	28.3902		67.2575
-36.4788	29.0313		68.9711
-39.9747	27.4961		65.2013
-34.3379	29.479		70.4286
-31.8989	29.6195		71.5913
-34.4141	30.2667		71.0269
-36.7967	29.855		69.4559
-31.6677	30.3395		72.2304
-29.0514	29.4371		72.2801
-26.2262	28.8325		72.4922
-28.6512	30.0718		72.8606
-25.6282	29.3872		73.0137
-23.6639	27.8709		72.2994
-21.2916	26.4855		71.8138
-19.0066	24.692		70.9217
-17.2096	22.8914		69.8865
-17.7033	24.9943		71.2728
-20.0986	26.7822		72.1911
-15.9696	23.0811		70.2101
-16.146	21.4095		69.0412
-16.4282	25.0817		71.6851
-18.9731	27.1918		72.8053
-28.269	30.8475		73.6469
-25.0157	30.0781		73.7902
-43.8652	23.7926		60.3198
-42.9647	22.7145		61.0176
-25.724	36.7785		79.6461
-26.0633	35.2835		78.4171
-25.4247	38.5172		80.6895
-30.6068	37.4214		78.0073
-42.6414	34.1425		68.1555
-41.2204	32.1863		68.2207
-39.3765	34.755		71.0885
-43.8047	36.2618		68.0448
-34.6493	13.5907		68.3448
-28.2213	12.7215		70.2757
-39.717	15.3943		65.4858
-35.3666	12.0961		68.4106
-22.7342	13.1565		70.6153
-23.135	11.7875		70.9507
-18.8685	13.893		70.3862
-14.6343	16.4301		69.9024
-15.6356	15.5007		70.0901
-14.0782	17.2013		69.7439
-33.3585	16.5677		68.3621
-27.7678	15.6318		69.913
-37.8483	18.4546		65.981
-17.6065	16.9901		68.9788
-16.7334	17.3845		68.7335
-19.3479	16.4552		69.4035
-16.0356	17.7172		68.6676
-15.3905	18.1994		68.6989
-9.70847	22.907		74.4772
-8.28502	24.2546		76.7628
-11.1279	25.0344		74.9478
-11.4205	21.6787		71.971
-13.5526	18.4781		69.7677
-21.9059	28.8553		73.4721
-12.3562	21.2776		70.9149
-13.316	22.9964		71.3231
-12.0584	19.9079		70.7964
-33.0216	17.8682		68.3962
-27.5228	16.8517		69.8161
-17.6736	17.8325		68.4641
-19.2291	17.5832		68.9231
-16.8566	17.9629		68.3299
-16.3619	18.2331		68.2007
-41.127	26.5148		63.2539
3.33765	29.3271		85.8986
2.76316	32.545		86.6523
0.537189	29.4766		85.1822
3.97109	26.4908		85.3089
-17.3244	8.55333		73.5266
-20.5015	7.8776		72.902
-18.3152	6.21181		74.7922
-15.0452	9.42176		74.152
-16.7578	10.3282		72.5848
-12.5737	10.3603		75.2862
-9.97714	11.3622		76.991
-12.1314	15.2806		72.1215
-12.1337	16.9137		71.3162
-10.1989	15.4073		73.7907
-5.29187	20.634		78.0316
-4.34692	21.3309		79.2198
-6.12025	22.871		77.9456
-16.8306	14.6379		70.2505
-16.5366	13.4072		70.9519
-16.4436	11.9282		71.7342
-19.2348	11.0964		71.4801
-26.2268	-50.0894		83.8931
-22.5235	-49.9695		86.2349
-29.5622	-49.8674		81.6769
-26.0972	-50.0231		83.663
-31.3645	-49.8343		80.594
-31.0343	-49.7739		80.5654
-8.23327	-46.2537		95.9237
-8.40386	-47.4946		95.6062
-7.96581	-45.0067		96.0544
-10.9556	-45.3853		95.5091
-13.7741	-47.4156		94.0066
-16.1483	-47.116		93.2172
-13.6314	-48.383		93.3989
-11.2768	-47.7666		94.6947
-13.6547	-46.2752		94.5214
-18.587	-47.0515		92.0382
-21.5951	-47.4851		90.0308
-18.6945	-48.1479		91.198
-18.546	-45.9958		92.5583
-13.4155	-44.9596		94.9039
-13.1144	-43.6862		95.1082
-15.855	-44.85		94.0661
-17.191	-42.9024		93.5296
-18.0199	-43.8122		93.2227
-14.6602	-42.7855		94.5741
-16.5921	-41.9		93.607
-25.4094	-48.441		86.7893
-25.0047	-47.3368		87.9438
-13.2572	-49.2995		92.5841
-16.1274	-49.0341		91.5571
-12.9624	-49.7881		91.8472
-10.7069	-49.6105		93.3239
-19.0802	-49.128		89.9578
-19.1274	-49.6728		89.0261
-31.9372	-48.6302		82.065
-33.4387	-49.7422		80.5452
-26.6352	-50.9713		84.4442
-26.7208	-51.1288		84.7302
-22.8213	-51.1295		87.1665
-26.5492	-50.9255		84.2114
-27.4308	-52.169		85.3105
-24.0551	-52.8567		88.4623
-27.1605	-51.7791		85.1944
-21.0027	-53.5239		90.9285
-21.5685	-54.1966		90.921
-18.1839	-54.1357		92.5242
-20.6303	-52.8531		90.6922
-13.8477	-52.7134		93.0868
-10.965	-53.0987		93.8217
-13.4044	-51.8216		92.5643
-17.0767	-52.4027		91.9386
-14.4188	-53.758		93.499
-9.31293	-55.8354		94.9377
-8.99019	-54.6721		94.6314
-11.7862	-55.2796		94.5642
-9.587	-56.9527		95.073
-31.9122	-51.206		79.9205
-31.63	-50.6508		80.4967
-29.9346	-51.3932		81.3309
-32.1862	-52.5696		79.3377
-8.11945	-52.6442		90.0463
-8.02811	-52.0039		91.2002
-8.28462	-53.8872		88.9095
-10.2496	-52.4135		89.7774
-9.80806	-58.0879		95.049
-12.4252	-57.4732		94.6994
-10.0315	-59.1572		94.8577
-10.4742	-62.7523		93.1042
-10.3396	-61.3043		93.9451
-13.3075	-61.9508		92.9727
-12.6808	-42.8466		95.1601
-10.3462	-43.096		95.6503
-11.7403	-41.6927		95.1478
-8.67831	-53.4961		94.1466
-8.34197	-52.5296		93.5715
-8.15849	-52.0797		93.1389
-8.1362	-51.8695		92.7393
-10.4138	-51.6968		92.8579
-13.1663	-51.3938		92.1609
-13.0346	-51.2319		91.8135
-16.2683	-51.2039		91.0436
-8.12146	-51.7999		92.1139
-10.2239	-51.4915		91.8518
-19.3946	-51.1404		89.4585
-19.6757	-51.4533		89.8398
-19.2767	-51.0133		89.0552
-22.7926	-56.7378		90.5629
-23.2563	-57.7165		90.1422
-19.8785	-57.7141		92.1768
-22.391	-55.8708		90.8022
-16.4552	-58.5761		93.3843
-16.7517	-59.6501		92.9244
-12.8558	-59.4394		94.2548
-16.1306	-57.6525		93.6689
-10.1941	-60.1863		94.5033
-19.0432	-49.8472		88.3734
-18.9016	-49.787		87.8022
-15.8581	-49.7776		89.9956
-31.5514	-50.4083		81.1058
-29.8969	-50.8625		82.455
-12.9426	-52.1865		89.2298
-12.8218	-51.4958		90.2925
-13.2663	-53.3567		88.2304
-16.0002	-51.9549		88.3371
-12.8754	-51.2258		91.2053
-15.9231	-51.0492		90.0934
-16.9616	-61.0356		92.3035
-20.5834	-60.0446		91.178
-21.9536	-55.0126		90.9396
-19.1302	-55.9189		92.5815
-23.7924	-59.0601		89.5795
-26.6652	-57.7052		87.5429
-18.5652	-49.4963		87.4057
-21.6679	-49.5831		85.7548
-17.8741	-48.3946		86.6304
-15.625	-49.3359		88.5397
-12.7268	-49.4595		89.3894
-12.6855	-49.8754		90.2998
-12.9478	-48.2765		88.0506
-10.3441	-49.582		89.6784
-16.9857	-45.8176		85.3973
-19.485	-45.8796		84.406
-16.438	-42.2171		84.1591
-14.6837	-45.7525		86.1002
-32.7336	-55.609		78.8134
-30.5676	-55.7637		80.3107
-33.0653	-58.9598		78.7244
-8.62975	-56.4868		87.7806
-9.47398	-60.1235		87.1188
-10.7879	-56.1846		87.6318
-12.5098	-45.7817		86.583
-11.7732	-42.2779		85.3968
-10.2563	-45.872		86.9041
-13.611	-55.8827		87.1914
-14.5188	-59.5704		86.3846
-16.7983	-55.6707		86.4
-35.7511	-50.2731		74.5514
-36.2041	-50.1018		73.83
-7.67044	15.759		76.2056
-7.298	14.0937		77.7225
-77.4481	4.47277		-44.7637
-79.1025	4.23794		-43.1043
-77.1773	9.07272		-44.726
-75.3508	4.75084		-48.0027
-77.634	0.0437607		-44.0542
-74.9222	22.251		-7.9413
-73.6347	24.0838		-3.10895
-74.6298	25.1679		-12.0891
-74.1677	27.2969		-17.1994
-74.5937	27.0462		-24.1232
-75.5329	22.5178		-18.3025
-72.8049	32.5805		-18.3983
-76.9494	-20.3367		-35.7842
-77.2078	-16.322		-37.5586
-76.9733	-24.6094		-33.2723
-78.9981	-17.6885		-34.2
-77.325	-12.5613		-39.5727
-79.4227	-11.005		-37.7713
-77.5322	-8.48006		-41.3467
-74.9856	-14.9666		-42.3466
-80.6035	4.52427		-42.2516
-79.9991	9.47314		-42.3984
-80.8778	0.353121		-41.3806
-82.007	5.26043		-41.9289
-84.3377	-11.4905		-34.7356
-85.6046	-12.4258		-33.6781
-82.6795	-10.1506		-36.0908
-86.5782	-13.1003		-32.671
-86.739	-8.95695		-34.7019
-86.3757	-17.2149		-30.2063
-87.4414	-13.424		-31.4688
-88.9908	-2.76246		-32.7637
-89.2132	1.87932		-35.8335
-88.9074	-2.20848		-31.9997
-83.6816	-26.3864		-22.155
-83.4606	-24.7172		-25.1202
-82.4999	-25.6997		-24.1577
-83.553	-27.1122		-20.1466
-84.2409	-26.5533		-21.4491
-84.7917	-18.9457		-9.90018
-84.6309	-19.5228		-9.87863
-84.2666	-20.7939		-10.1493
-88.8004	-1.85046		-31.593
-88.4761	-2.5201		-30.6477
-88.5427	12.9258		-35.3282
-88.4181	13.5936		-36.8325
-88.7536	11.5912		-33.6931
-86.9461	22.9557		-32.8376
-86.9501	24.3296		-32.9437
-86.716	26.3942		-31.9188
-86.0983	28.3357		-28.8512
-86.7912	26.8825		-32.3121
-86.2759	26.084		-29.7168
-81.839	3.70692		-9.90549
-81.8808	9.26129		-10.4709
-81.8432	-0.39834		-9.34515
-81.2198	4.34248		-8.56997
-80.8	-12.7622		-3.00866
-80.291	-8.5035		-2.46459
-81.1773	-16.4892		-3.52339
-80.1484	-13.3603		-0.260424
-82.9335	-7.35211		-11.9562
-82.4794	-5.45869		-12.0608
-83.6778	-9.25052		-12.4915
-75.6358	21.9996		-18.3133
-75.6761	22.0011		-18.0964
-75.6485	23.3267		-21.744
-82.1089	30.7821		-18.9599
-82.6337	32.6122		-22.0393
-83.0219	30.2117		-18.0002
-81.3866	27.4948		-16.0444
-81.1747	31.049		-20.0968
-81.9046	33.218		-26.9865
-81.2927	32.8404		-24.0232
-81.2815	32.0798		-28.3332
-82.4827	32.0801		-30.6144
-82.1724	33.4005		-26.4974
-85.0271	18.3833		-41.2123
-86.0471	18.795		-40.704
-84.3465	24.2873		-38.3524
-84.3392	17.8009		-41.3737
-81.8106	13.9346		-11.0427
-82.3306	12.7705		-11.7175
-88.0399	18.2526		-38.2572
-87.6063	23.3399		-36.0186
-88.0934	18.1569		-38.6156
-88.2556	15.4624		-38.4561
-85.5498	29.0912		-24.9208
-84.8642	28.3649		-20.9679
-85.478	30.0694		-24.3128
-85.5751	27.7231		-25.6432
-83.0004	14.9852		-13.8396
-83.051	17.3656		-14.5505
-82.8391	13.1564		-13.2681
-87.5805	18.8411		-35.5711
-87.984	16.8638		-37.4258
-82.5241	8.07982		-15.0635
-82.7186	9.71826		-13.9728
-82.5917	8.38368		-15.7667
-86.4152	9.78658		-28.9905
-87.7556	12.7008		-30.9054
-86.5128	8.69436		-29.1512
-86.1009	10.1807		-28.3668
-79.8359	-4.58144		-2.45037
-79.1718	-4.95153		0.0943699
-79.4391	-0.00658512		-3.24474
-79.297	14.6409		-40.9134
-79.8202	17.2441		-39.9969
-78.3865	19.1663		-38.7782
-78.211	13.8926		-42.0173
-81.2687	22.5066		-37.3532
-82.0389	18.5522		-40.2565
-82.7454	27.4578		-35.4808
-80.4581	26.1457		-34.1468
-83.5155	16.6776		-41.3333
-83.3946	11.065		-42.1416
-83.9685	6.08556		-41.8068
-81.0854	-10.0932		-36.9392
-81.1623	-6.79079		-38.5856
-80.8647	-13.3175		-35.1614
-81.0698	-3.35869		-40.1312
-79.4133	-3.85254		-41.1207
-87.9685	-2.5501		-29.636
-80.5815	-16.344		-33.4903
-80.3912	-20.0812		-31.214
-83.4928	-26.8075		-17.3306
-83.0506	-27.1553		-17.1522
-82.5969	-27.4304		-16.86
-81.9405	-27.2358		-22.2058
-86.8427	7.99788		-29.6318
-88.3422	9.66634		-31.8267
-80.5346	4.83964		-7.45905
-79.768	5.11884		-6.21526
-81.4933	-8.71549		-6.02426
-81.812	-8.82436		-6.69858
-85.0208	-12.5747		-12.2601
-84.8937	-11.482		-13.0829
-86.3362	-14.3592		-13.8329
-81.9625	-3.41044		-8.87462
-82.3276	-3.4927		-11.0615
-79.9384	27.8578		-30.9708
-79.0105	28.2823		-27.6485
-78.233	23.8572		-33.7207
-77.5825	22.1962		-35.4853
-76.7116	24.1651		-31.2558
-77.1556	21.837		-36.5648
-86.8469	19.8308		-30.5462
-86.9783	18.319		-30.2144
-82.8084	9.14873		-17.1972
-83.423	10.5266		-19.8433
-85.9232	10.9946		-27.863
-85.4167	10.9493		-26.4857
-86.8546	14.8086		-29.0535
6.46584	83.189		66.4402
7.82312	90.6317		59.3085
-1.334	83.6108		65.4749
4.96199	75.8876		72.0413
3.63173	68.6485		76.7395
-3.77341	69.7281		75.4062
2.12947	60.9609		81.0909
-21.4113	58.4101		77.9127
-16.3706	58.3677		80.0941
-22.1685	54.1865		80.8112
-3.50995	-25.9742		101.061
-5.59726	-25.4244		99.7509
-3.56778	-24.9663		102.852
-2.69206	-16.6814		107.709
-2.95346	-18.4528		107.737
-2.48594	-14.6461		107.149
-5.27482	-16.1794		106.539
-3.19971	-20.2182		107.267
-3.40093	-21.8928		106.31
-4.35916	-29.1663		95.3326
-5.77697	-36.5328		94.3079
-7.91282	-35.9387		94.0303
-3.54836	-23.4774		104.808
-5.87492	-22.9663		103.372
-2.14796	-12.6311		106.189
-1.68182	-10.0581		104.476
-4.59925	-12.403		105.14
1.11769	44.4014		87.5305
1.25842	48.4784		86.6527
-5.10816	46.2329		86.4798
1.04424	40.9735		87.6812
3.58126	15.8999		86.3991
3.88223	17.943		85.6243
3.17118	13.5705		87.5389
4.12633	19.8796		85.1359
4.22356	21.8401		84.9063
1.81605	19.3928		84.4582
-8.00909	-49.7747		89.7449
-7.86942	-50.5218		91.1111
-8.08832	-48.5261		88.5168
-7.92307	-50.6893		92.1134
-8.01548	-50.5455		92.876
-10.0547	-50.3144		91.8225
-8.52011	-48.461		95.1551
-8.50403	-49.3142		94.5409
-8.2556	-50.0093		93.8181
-7.77968	-44.0565		96.0044
-7.73938	-46.0686		87.0809
-7.03489	-42.6382		85.836
-7.76282	83.6248		64.1674
-6.86026	90.4954		57.4907
-13.7304	83.1395		62.4794
-8.80001	77.0739		69.2943
-10.6459	48.3937		85.422
-10.9792	51.2794		84.7468
-16.2795	50.3261		83.9591
-11.2392	44.7904		85.6122
-12.5053	42.0725		85.1628
-14.541	39.4437		84.2273
-18.0033	43.9024		83.932
-15.7588	37.7784		83.4246
-20.1478	39.1811		82.5257
-11.6959	35.7879		83.8772
-20.9424	29.323		74.2678
-24.4178	30.716		74.5953
-17.7027	27.5323		73.5972
-20.2901	30.3126		75.6032
-22.7922	28.2909		72.7719
-19.3144	31.5355		77.39
-16.0248	29.7899		77.0325
-22.9123	32.8994		77.37
-30.0901	90.9234		40.0001
-30.7988	85.1852		47.0607
-24.0413	93.426		42.9677
-29.8278	96.4788		30.1933
-19.1754	82.5114		60.1222
-24.9611	81.4151		56.8891
-18.7029	88.5853		53.9793
-21.986	51.688		81.9887
-27.2717	51.2828		80.2819
-22.5662	48.3578		82.6611
-25.0981	40.385		81.5008
-24.2571	42.6595		82.2031
-23.0946	45.5903		82.7019
-26.5299	33.7551		76.9684
-30.887	34.2469		75.7497
-27.4061	32.5936		75.5554
-31.1251	79.9109		52.5321
-31.3624	74.6501		57.1151
-37.2586	78.2235		47.0839
-32.6188	51.0698		74.2792
-38.1165	50.3578		69.4428
-35.0279	32.0589		72.2046
-38.0016	31.7064		70.2092
-31.5627	32.0473		73.7277
-35.1329	33.1609		72.9321
-35.7146	38.4709		75.0497
-40.7541	39.1933		71.5369
-35.496	36.4669		74.4853
-35.3389	34.6385		73.7044
-31.562	69.1618		61.2761
-37.6904	67.642		55.8758
-42.8199	76.9465		40.2862
-47.6297	75.8399		32.3088
-43.1828	71.5671		45.1597
-38.7992	29.1403		67.6049
-40.4348	28.124		65.4396
-40.4538	30.9308		67.931
-41.9536	29.6499		65.6836
-39.3969	29.9268		67.8803
-44.6149	38.4022		67.8403
-47.2957	35.9822		64.1117
-11.2829	30.9676		80.8562
-10.1178	32.1755		82.4062
-12.2276	29.4617		78.8781
-9.12446	28.3742		79.7874
-8.54324	33.3102		83.7121
-6.65572	30.6418		82.9542
-13.2345	27.5061		76.0326
-14.3458	26.3323		73.9641
1.57063	37.211		87.3916
-77.1265	-52.3806		-10.739
-76.6725	-52.8149		-17.0599
-78.0327	-46.984		-8.94016
-70.8678	35.341		-38.3492
-73.305	29.963		-33.3695
-71.1441	37.6126		-30.3161
-68.5364	40.6748		-42.9149
-71.082	31.5187		-43.9866
-72.597	4.64558		-53.6911
-72.4331	10.5088		-53.6808
-70.1041	4.12819		-59.137
-72.8728	-1.38777		-52.2454
-71.896	16.6794		-53.2564
-74.6121	14.9861		-47.1995
-71.5381	22.1683		-51.3766
-69.2747	18.0868		-59.5404
-72.0175	-19.1312		-46.3308
-72.3842	-13.2132		-48.677
-69.2818	-22.9733		-50.1011
1.19602	54.3355		84.3768
-5.16034	55.735		83.3453
-11.1093	57.1626		81.8114
-11.0685	63.6645		78.0332
-39.5262	-97.6097		57.9276
-33.4474	-100.676		61.3855
-45.8665	-93.7628		52.5775
-38.2488	-100.524		50.1475
-64.2232	-75.456		43.7635
-64.9987	-72.4263		47.6748
-68.2148	-71.1059		37.3108
-59.2153	-80.1963		50.2506
-43.5616	65.919		49.4162
-48.8855	63.944		42.0926
-9.84396	70.5235		73.7231
-52.287	74.604		22.8176
-53.3331	68.2024		28.3113
-56.103	73.4587		12.9707
-5.45282	98.3038		47.9969
1.5736	98.7873		48.953
-3.84234	105.705		36.428
-11.9225	97.0879		46.9433
-54.9372	48.2095		42.2336
-54.4664	54.9045		37.965
-43.1036	28.175		63.3402
-51.5217	35.9413		57.4324
-50.3632	34.4967		58.9899
-52.7414	31.1569		53.8689
-49.0598	33.0314		60.3019
-21.87	-116.771		41.1322
-73.8156	-59.4206		36.3349
-72.9003	-63.3876		32.8202
-69.6829	-64.1301		44.8303
-74.2938	-55.7091		38.954
-10.9261	-39.9792		94.7833
-10.1343	-37.8764		94.2601
-12.7783	-39.9849		94.3746
-28.2626	-43.1933		86.1082
-24.9721	-42.0379		88.5359
-26.747	-39.5812		86.7706
-13.4287	-35.9864		92.5911
-12.3953	-33.7809		92.0251
-16.1027	-36.0123		91.419
-14.3873	-38.0492		93.1
-11.0775	-35.8061		93.3401
-38.1769	-45.0941		80.3806
-37.2588	-41.3499		81.0363
-40.7908	-45.7509		79.1091
-38.4699	-48.4356		79.7113
-57.3006	26.6425		46.5036
-58.9316	27.1886		43.6302
-58.5822	20.5006		46.2384
-55.4365	26.421		49.1813
-60.7588	27.9094		39.9149
-63.0464	27.9705		34.5935
-46.3672	25.393		58.8004
-46.554	23.3746		58.0833
-53.6829	26.0395		51.5095
-75.7394	22.323		-38.5097
-75.5301	24.7968		-34.5768
-73.7832	24.0666		-42.4349
-76.1813	18.6481		-41.6996
-77.5461	-4.40504		-42.9941
-75.4221	-5.29172		-46.0495
-78.1994	-39.0784		-19.1203
-77.5889	-35.7392		-24.8605
-76.9347	-44.9585		-21.5963
-78.639	-41.0736		-13.0274
-79.4259	-34.5155		-16.8281
-76.6979	14.0442		-43.725
-79.5939	-14.3733		2.91325
-78.9867	-15.384		7.30114
-79.1063	-10.0208		3.28514
-79.9557	-18.5266		2.31355
-69.8885	10.8799		27.6109
-72.3827	10.0293		18.9171
-71.3634	3.19466		28.9053
-68.207	19.0366		26.4375
-49.4813	19.344		56.0322
-48.3239	16.6265		58.1893
-47.8608	20.5049		57.0925
-46.5638	21.5323		58.0657
-45.482	19.9303		59.3834
-78.1491	-15.9795		13.6156
-77.4433	-10.8065		13.683
-78.7826	-20.7764		12.9463
-77.1172	-16.31		20.4537
-22.6226	-5.34327		79.4176
-19.3735	-4.10981		80.9482
-21.2548	-1.10392		78.0938
-26.9153	-6.19962		77.9872
-33.8768	-7.15169		76.4261
-35.8235	-11.9109		77.2442
-40.9646	-7.94623		74.6293
-15.9934	-2.96009		83.2176
-16.6152	-6.53619		84.9948
-12.7482	-1.82951		85.9986
-20.0189	-12.0745		83.9859
-18.5097	-10.6784		85.146
-17.0267	-17.4256		92.1268
-17.7766	-17.6678		90.6733
-16.942	-19.1264		91.6497
-15.7417	-17.1912		94.1224
-18.3187	-17.874		89.285
-18.1536	-19.8981		88.7682
-41.0858	-27.2772		77.9225
-39.6638	-22.2572		77.9242
-42.6758	-32.3387		77.8133
-35.8371	-27.2294		79.7553
-37.5934	-16.8548		77.6886
-8.14279	-31.4227		93.155
-9.55062	-31.4473		92.4902
-8.77915	-33.581		93.3116
-67.7889	-39.8566		56.35
-67.7903	-45.9006		56.205
-62.5324	-39.1119		63.3491
-67.2136	-33.8555		56.8874
-30.8021	-36.5096		83.68
-33.3411	-36.6857		82.5432
-28.1728	-36.2646		84.998
-44.0413	-37.4106		77.419
-39.2833	-37.179		79.8148
-49.8665	-37.8372		74.1335
-44.79	-42.3634		77.1975
-9.4455	-35.7187		93.7352
-67.2593	-52.0002		56.223
-65.2097	-57.5284		58.1096
-62.1983	-50.2906		63.4899
-71.1242	-52.7022		48.6873
-63.0276	-17.8559		59.8192
-67.8184	-17.3275		51.7582
-64.8794	-23.1204		58.6483
-45.0295	-85.228		73.4555
-39.5172	-89.132		77.8816
-44.6362	-82.0498		75.5557
-54.0226	-71.0002		68.3974
-48.9314	-74.8404		72.8125
-51.5598	-67.5229		71.722
-58.2754	-66.9261		64.7953
-54.1118	2.8753		61.4316
-48.8405	1.6846		66.5201
-51.3709	7.34578		61.2518
-43.3817	17.8151		61.9819
-44.5083	15.9895		61.7768
-49.3111	10.256		61.1754
-47.2961	12.4488		61.4496
-44.8304	8.43644		65.4961
-41.0759	20.8234		63.0543
-16.6965	-90.3441		91.9841
-56.6793	-48.8532		69.1724
-50.5419	-47.6314		73.8437
-56.7577	-43.9225		69.1338
-55.7235	-53.2538		69.8428
-48.5264	-64.4087		74.4371
-44.5939	-67.554		77.1264
-44.5915	-61.2889		77.0585
-51.4812	-60.9526		72.6063
-43.3127	1.07569		69.9651
-41.1521	4.74901		69.1983
-45.3601	-3.33195		71.0164
-56.4472	-38.3419		69.2881
-47.1456	-8.40155		71.9208
-22.2426	-79.2099		90.9772
-26.6341	-77.5908		89.0604
-21.1193	-74.0544		90.4032
-31.3353	-75.7379		86.4816
-29.6264	-71.2206		86.6862
-35.809	-73.3839		83.4976
-39.3216	7.19531		68.7401
-32.2289	6.60681		71.182
-37.696	9.02095		68.5786
-45.8108	14.2452		61.5864
-41.9833	12.1134		65.3123
-36.4538	10.6433		68.4296
-29.6228	9.86736		70.6186
-9.74647	-0.921175		88.9038
-8.87955	3.14692		86.1164
-10.6885	-4.75677		91.3667
-12.7821	-12.3249		96.4776
-13.2403	-13.4		96.7593
-10.1373	-12.1899		100.021
-12.3328	-10.7363		95.4323
-7.35685	12.2203		79.1905
-7.63059	9.93854		80.999
-19.7952	2.67688		76.5059
2.68022	10.5057		89.3784
-59.068	14.359		48.5943
-8.17904	6.76386		83.4568
-74.4642	-51.8981		40.8541
-77.2934	-48.9872		31.6422
-67.8032	-4.71139		45.1856
-70.4853	-3.89208		37.2939
-69.6578	-11.1055		44.4658
-73.549	-28.1486		42.6243
-75.8059	-27.877		35.0675
-70.4851	-28.2682		50.1005
-72.4567	-22.4346		43.2006
-71.1745	-16.7145		43.7051
-73.6997	-16.6343		35.913
-34.8674	-92.2134		81.1076
-19.825	-69.7631		90.137
-23.8605	-68.6503		88.8378
-16	-70.7029		90.909
-27.955	-67.4731		86.9875
-22.5854	17.09		69.7024
-25.6755	6.91309		72.3176
-24.6391	8.86664		71.7131
-23.8692	10.3758		71.251
-12.461	-71.4921		91.2405
0.00398922	23.76		83.3636
0.077239	21.1039		83.2008
1.9064	23.9951		84.2747
-0.778321	26.4311		83.672
-1.66051	23.1309		82.1812
-14.7971	18.9253		68.8758
-14.6037	20.0379		69.0546
-12.059	18.3635		70.9062
-3.1896	22.2193		80.6692
-3.99401	24.8473		81.0053
4.17131	24.0648		84.9503
-7.31171	-24.8132		98.322
-7.74164	-23.7289		99.7136
-7.96211	-15.538		104.355
-10.8311	-14.9101		100.919
-7.72673	-13.893		103.875
-18.1753	-23.7949		86.3851
-15.8542	-25.8426		87.8217
-17.6301	-22.946		87.497
-7.18839	-12.2388		103.211
-0.942647	18.1356		82.8794
-1.77109	29.3307		84.3521
-3.6288	28.7348		83.2961
-14.8872	21.3756		69.4297
-5.23242	27.9084		81.92
-6.46653	26.7237		80.276
-7.39623	25.5828		78.6253
-21.6971	-29.5324		85.2199
-23.4919	-32.6252		85.8588
-18.7717	-30.554		87.1159
-25.4118	-36.1594		86.3919
-22.1494	-36.0057		88.2146
-30.157	-49.4503		80.7233
-28.0862	-49.6535		82.094
-29.7333	-48.4401		80.1826
-30.3742	-48.0019		83.6699
-27.8519	-47.3903		85.9455
-28.8701	-45.6111		79.1008
-27.7305	-42.1328		78.1808
-25.4319	-45.8258		81.3085
-16.1823	-31.2687		88.8447
-17.6047	-33.5247		89.333
-13.7362	-31.5991		90.3389
-19.2362	-36.0279		89.811
-20.5189	-38.4284		90.2711
-25.2862	-49.7557		83.756
-23.5752	-48.5831		83.851
-22.2724	-45.8944		83.0512
-21.731	-42.188		81.7401
-11.5027	-31.5819		91.5756
-10.8442	-29.7117		91.3388
-15.6939	-40.2195		93.3923
-18.8098	-40.4177		92.0253
-16.7482	-9.38507		86.9124
-14.2495	-8.81626		90.2243
-0.884934	-6.66901		101.892
-11.4966	-8.0714		93.7032
-8.13556	-22.0884		101.538
-10.5341	-21.374		98.749
-13.0547	-20.8642		95.7679
-15.2167	-20.704		93.0291
-13.5933	-19.0673		96.4274
-16.4754	-20.8742		91.1711
-17.1123	-21.4031		89.7123
-17.408	-22.1355		88.4998
-13.4445	-14.4987		97.1141
-13.5817	-15.8329		97.282
-13.7058	-17.392		96.9965
-61.8414	-136.326		12.6497
-59.6508	-128.907		14.1602
-65.6419	-133.952		9.26395
-63.5155	-141.768		11.564
-57.5563	-138.638		15.9774
-57.1274	-118.512		16.1
-53.0744	-120.867		19.9564
-55.4755	-109.215		17.8738
-60.8529	-116.092		12.2479
-56.1005	-92.329		25.0815
-55.5665	-97.109		21.1252
-52.311	-95.364		29.8195
-59.5697	-89.2559		20.0587
-55.1986	-102.433		19.1937
-58.6941	-99.6751		14.9048
-51.247	-105.145		23.7682
-54.3285	-57.2823		70.6824
-49.0124	-54.9448		74.6541
-58.6409	-59.6877		66.3091
-62.5156	-62.3656		60.6126
-64.4515	-65.6623		55.8555
-65.2606	-69.0275		51.4612
-44.2797	-53.1572		77.2271
-42.7498	-55.8545		77.903
-40.3405	-51.7003		78.821
-44.8638	-50.1528		77.0326
-38.3495	-50.8358		79.4715
-37.4071	-52.6447		79.7201
-62.747	-86.0574		15.1236
-65.7999	-82.8794		9.70613
-62.1436	-91.0385		12.237
-64.1986	-81.3721		18.5387
-66.4416	-76.575		22.7247
-68.9744	-71.9124		26.3228
-68.8034	-73.6677		15.6643
-71.269	-67.4196		29.8311
-73.103	-64.8977		21.8637
-64.2683	-113.54		8.28241
-66.7891	-124.112		6.926
-62.5512	-104.025		9.44574
-67.5481	-111.341		4.15799
-69.0023	-131.696		5.74693
-72.0908	-129.489		1.93739
-70.9485	-137.321		4.64469
-61.9414	-96.8022		10.5783
-75.6013	-16.4438		28.1819
-74.4243	-10.5182		28.5489
-76.5925	-21.9429		27.8036
-74.1169	-63.1606		14.892
-74.7181	-61.6749		7.93448
-72.3213	-67.1272		11.9916
-66.2011	27.6482		26.1118
-69.5665	26.1155		15.4596
-78.5882	-47.1793		23.5282
-79.1404	-45.3966		15.4299
-77.4276	-27.4624		27.461
-78.5705	-26.6942		19.6655
-72.8297	-3.66122		29.2122
-74.9843	-4.40949		20.9071
-79.2626	-25.6125		12.3987
-79.76	-24.0746		5.88172
-72.5798	-77.4926		-6.52306
-70.7133	-78.7346		-1.51887
-72.7357	-72.8811		-5.01472
-74.1001	-76.5772		-11.3409
-72.7444	-82.6107		-7.70634
-73.1711	-88.2847		-8.37108
-73.2866	-68.448		-2.85419
-74.1103	-64.3294		-0.82893
-74.376	-67.4337		-8.49318
-72.0257	-69.707		2.75068
-74.3387	9.42453		10.3979
-75.4857	1.57355		12.6968
-73.1802	17.2176		7.85142
-71.952	25.4081		4.91032
-70.7559	33.1211		2.37158
-69.4818	40.9369		-0.784594
-68.1836	48.6877		-4.4001
-70.6965	40.3315		-11.3338
-79.2277	-43.7026		7.40969
-79.1149	-42.4978		-0.378645
-76.4992	-4.96739		13.7255
-77.7033	-5.46077		7.52141
-70.7022	-109.088		-0.345982
-72.9832	-119.685		-1.32835
-70.6374	-71.4145		9.10733
-69.2607	-75.8413		6.26678
-74.9475	-127.203		-2.32567
-76.7324	-132.675		-3.53708
-78.1428	-102.424		-18.1276
-79.7562	-111.583		-19.4276
-75.1752	-75.673		-16.0782
-75.1295	-70.9232		-15.1654
-75.5403	-73.6977		-21.0169
-75.336	-66.1618		-13.9484
-81.0295	-118.369		-20.937
-82.0084	-123.72		-22.9354
-78.8712	-42.125		-7.37424
-80.1903	-22.5819		1.46735
-80.3397	-26.2777		-0.0347233
-80.6609	-20.684		-1.71835
-78.4893	-5.4149		3.42364
-75.2174	-81.4705		-28.8369
-74.8953	-75.1182		-27.7789
-72.8136	-77.4293		-35.5444
-74.9236	-69.054		-26.8568
-72.9404	-62.7495		-32.8209
-75.9728	-51.5318		-23.4132
-80.2438	-31.8113		-15.5766
-80.4484	-29.0888		-22.0175
-73.672	-108.057		-46.4815
-72.5598	-100.036		-44.9856
-69.6106	-105.844		-53.3434
-74.768	-115.527		-47.9009
-77.2146	-30.7102		-29.5017
-78.9904	-26.6874		-27.9042
-80.3346	-24.7323		-27.2558
-81.13	-23.8782		-27.061
-53.009	-140.766		19.0717
-54.7277	-145.967		17.5293
-48.3685	-142.797		21.8509
-50.9868	-133.464		21.0356
-46.5132	-107.763		28.5636
-47.0466	-103.024		30.7781
-46.7056	-114.005		26.5825
-41.3124	-110.381		32.9078
-51.2259	-90.2058		47.1235
-53.023	-86.9118		52.2975
-49.2413	-94.0162		40.9702
-47.7387	-98.4481		35.0066
-42.7137	-101.365		39.5345
-48.4599	-122.977		23.8934
-43.6817	-125.433		27.4748
-41.0881	-58.6276		78.7702
-38.0448	-56.2259		79.8749
-54.2426	-84.1256		56.4274
-36.3086	-54.6073		80.3364
-34.9362	-53.308		80.6312
-34.3663	-56.5911		81.6837
-33.823	-52.1937		80.8097
-32.1922	-53.8283		82.1999
-40.4266	-70.7518		80.1315
-42.3231	-74.6031		78.8747
-43.8679	-78.555		77.2234
-26.6873	-51.4445		85.1779
-23.2903	-51.8215		87.9829
-26.3376	-51.0018		84.0129
-22.5649	-51.0999		86.3247
-26.4863	-51.1928		83.5972
-29.7622	-50.6384		81.9069
-26.5892	-51.5923		83.2815
-26.8821	-52.8611		82.7267
-22.7828	-51.7252		85.3041
-27.2622	-55.8298		82.167
-23.5297	-55.6485		83.9216
-27.5736	-59.3838		81.9063
-36.2254	-112.463		36.2832
-36.7119	-118.462		33.9874
-36.6456	-108.287		38.6424
-43.6064	-144.854		24.313
-45.2839	-149.691		22.4936
-38.8384	-146.613		26.4074
-41.5939	-137.803		26.7999
-38.9101	-127.631		30.5685
-27.741	-107.673		47.1303
-28.0696	-104.933		55.1135
-31.8187	-106.424		45.6147
-34.6003	-147.995		27.9131
-36.2125	-152.614		26.0322
-28.5474	-102.729		63.6303
-19.083	-51.0552		88.4905
-19.0341	-51.3162		87.7739
-19.0902	-51.8363		87.1338
-19.6326	-52.9417		86.2149
-20.0864	-55.6048		85.3256
-20.8458	-59.3674		84.6261
-62.3014	57.8298		13.0233
-58.6204	59.3619		23.5279
-61.0053	65.2334		7.94102
-65.0375	56.8875		2.19517
-71.0454	39.2945		-21.1051
-72.5838	-7.42923		-50.9003
-69.8974	-9.73532		-55.6377
-63.2783	-85.3087		-55.8994
-59.473	-83.5265		-60.6354
-64.6056	-95.3583		-57.0868
-67.0982	-87.9291		-50.5887
-62.4093	-75.1621		-54.7915
-65.9568	-104.068		-58.4309
-62.2189	-102.881		-62.9779
-67.4789	-112.301		-59.6616
-69.2403	-72.2383		-42.6449
-69.2928	-63.617		-41.3071
-65.4868	-68.2099		-48.7943
-70.0597	-81.8068		-43.1615
-1.91996	112.247		22.8069
5.46534	113.031		23.3803
-0.34621	117.036		7.76712
-9.12052	110.584		22.2736
0.643508	102.734		-76.689
8.2222	102.895		-77.8732
0.0266676	92.0939		-89.7347
-6.71424	101.924		-75.0363
0.906032	111.244		-60.9447
-1.25795	80.5235		-99.1663
5.66349	80.0455		-100.598
-2.98385	67.5701		-106.4
-8.21373	79.9731		-97.4671
1.1783	116.895		-44.0033
1.10622	119.684		-26.3241
8.8784	117.446		-44.8071
-6.34888	115.628		-42.6454
16.0323	120.455		-8.99729
16.6257	120.283		-26.9953
8.26073	120.489		-8.9851
14.9637	117.92		8.13096
-4.6261	54.7566		-111.398
1.84938	54.5303		-112.612
-6.30878	41.6262		-114.72
-11.0666	54.564		-109.575
-8.0303	27.8359		-116.595
-1.66815	27.7104		-117.907
-9.81326	14.2035		-116.858
-14.4358	27.9336		-114.616
-14.5013	-23.8697		-106.347
-12.9985	-11.3945		-112.012
-8.98655	-24.6765		-107.332
-16.4492	-35.4266		-99.2876
-20.4189	-23.6587		-104.385
0.91286	0.314643		-117.747
-1.00397	-12.3003		-114.318
-5.27432	0.929162		-116.914
2.90712	13.2018		-119.058
-23.0852	-81.7905		-82.7296
-17.8971	-82.191		-83.3512
-24.4091	-91.0947		-82.438
-28.5633	-81.6879		-81.5524
-21.8223	-72.3845		-83.6001
-25.791	-100.255		-82.3105
-20.84	-100.747		-82.7419
-27.4062	-109.249		-82.2516
-30.9087	-99.962		-81.5076
-18.4105	-44.4945		-93.5045
-12.6394	-44.9676		-94.3355
-19.618	-52.6869		-89.1727
-23.8161	-44.2039		-92.1209
-20.5734	-62.1507		-85.744
-15.1257	-62.2249		-86.5684
-26.4506	-62.3307		-84.2028
-9.78043	-62.8039		-86.8683
-11.3348	-73.1812		-84.6242
-8.34792	-53.6018		-90.3149
-29.1474	101.747		18.3765
-22.6835	105.291		20.0635
-28.7288	105.767		5.0302
-35.6316	97.3402		16.7752
-28.3416	76.158		-88.1833
-27.2409	86.761		-79.0667
-22.0309	77.8041		-91.7666
-29.7391	64.4684		-94.9622
-34.3795	73.9946		-84.1913
-26.4224	95.9784		-67.1633
-32.7112	92.5698		-63.8444
-26.3823	102.832		-53.2039
-20.1367	98.5859		-70.1595
-26.887	106.991		-38.6821
-27.961	108.456		-24.0972
-20.3286	110.619		-40.025
-33.5477	102.397		-37.2036
-28.3164	108.164		-9.39989
-34.992	103.43		-9.78809
-21.4918	112.12		-8.97774
-30.95	52.557		-99.8813
-36.815	51.2673		-95.8149
-24.7117	53.4562		-103.575
-32.2567	40.1675		-103.172
-33.3571	27.5605		-105.053
-27.4735	27.7367		-108.66
-34.5459	14.7784		-105.243
-39.0191	27.0191		-100.94
-35.4245	2.33653		-103.889
-40.4854	2.38845		-99.9103
-30.0466	1.80872		-107.324
-36.4497	-10.4839		-100.51
-38.0574	-22.9553		-94.8839
-32.5017	-23.2135		-98.5727
-39.6671	-33.7928		-88.7553
-42.8851	-21.9288		-91.2505
-40.9969	-43.2331		-83.3217
-45.8617	-42.6884		-79.2515
-35.5757	-43.8746		-86.8196
-42.1718	-52.6737		-78.6456
-44.9781	-80.9723		-74.0775
-49.9866	-81.2007		-70.2526
-44.3756	-71.4208		-73.9498
-39.6396	-81.3572		-77.2888
-45.5818	-90.8466		-75.0013
-36.1568	-99.8224		-80.2262
-41.5488	-99.8836		-78.2963
-35.0164	-90.8984		-79.9678
-37.7372	-108.449		-80.4535
-43.339	-62.1561		-75.4353
-38.0967	-62.3083		-78.9789
-48.3621	-61.7533		-71.1117
-49.6526	78.8284		-51.3558
-44.2642	83.9507		-56.245
-49.5419	72.7801		-61.6426
-54.9379	72.8669		-45.8323
-50.4909	82.7586		-40.044
-51.3454	84.9339		-28.8296
-52.0542	85.7883		-17.8262
-45.762	91.3655		-32.6493
-56.5729	77.9266		-24.0333
