1838
14.8404	87.4922		56.2822
7.55799	95.0764		49.5892
-0.80882	88.7303		56.6553
6.27312	74.952		66.4844
-1.05595	74.9267		66.7464
5.69931	67.4584		70.5863
13.4963	74.6042		65.9007
28.8123	60.3537		69.7475
29.0765	55.1832		72.7083
24.089	60.7841		71.1855
0.371556	-26.6058		104.222
0.630313	-25.2251		106.539
-1.21638	-26.5864		104.727
2.43222	-26.4808		102.739
1.1217	-15.9182		111.501
3.7254	-15.7161		110.296
1.04321	-13.6108		110.771
-1.33983	-16.0115		111.88
1.17884	-17.9141		111.643
1.15579	-19.7862		111.27
-1.25026	-19.9999		111.667
1.0591	-21.5879		110.362
0.596385	-31.0702		96.9522
-1.31672	-31.2567		97.0902
1.87047	-36.4444		95.9248
4.10377	-35.8073		95.5894
-0.455007	-36.6023		96.0231
0.941442	-23.3931		108.788
3.19589	-23.2525		107.276
-1.21014	-23.4599		109.287
0.784337	-11.1711		109.545
3.36784	-11.4254		108.535
0.476377	-8.1643		107.477
-1.61727	-11.0385		109.813
5.78242	49.8807		77.7549
-0.953008	50.2692		78.3089
5.47289	46.5739		78.5377
11.8512	49.6204		77.1625
5.73323	53.9126		76.5152
0.509605	22.4765		83.3315
0.491942	19.8537		85.075
0.598022	24.5848		82.1307
-1.24147	22.7415		83.3858
0.72322	26.5161		81.2129
2.95774	25.6887		80.7932
0.961574	28.3871		80.488
-1.18263	26.7279		81.2887
2.58058	-49.5777		92.8534
0.0943337	-49.6195		93.0644
2.90023	-48.1747		91.1785
2.24262	-50.2927		94.5441
2.1709	-50.3624		95.6041
0.0400019	-50.4919		95.7869
4.43919	-50.3079		95.1315
2.25122	-50.1437		96.1587
3.3853	-47.1135		97.8544
3.1836	-48.3613		97.4129
0.167582	-47.3313		98.159
2.69139	-49.3692		96.8707
0.0962096	-49.6183		97.0167
3.3556	-42.1775		97.9506
0.20686	-42.7023		98.2765
2.89571	-45.4593		89.2428
2.57539	-42.0089		87.5659
0.0385695	-45.3773		89.3711
21.2643	86.3264		55.6337
20.5819	80.3471		60.6712
27.248	84.7125		54.626
22.0874	92.4208		49.0233
18.6296	50.4237		76.4616
18.7901	47.2315		77.2509
24.4077	51.0918		75.9476
17.5702	54.3849		75.203
20.4594	43.9189		77.5866
22.3383	40.6157		77.4079
25.4985	44.7808		77.0688
24.0406	38.2567		76.687
19.8496	37.6073		77.284
28.0243	39.3288		76.2993
26.9833	28.6661		70.2852
26.4023	29.9707		70.9634
23.1908	27.1487		69.9132
30.8974	29.7471		70.6609
28.7223	26.9972		69.631
25.4988	31.4976		71.9895
29.5455	32.3272		72.0053
21.9556	30.4362		71.8892
46.6346	87.251		34.1659
47.7582	91.76		24.2746
40.7288	90.9907		36.4259
46.039	82.2744		41.4053
32.7857	82.9714		52.9625
33.8263	88.2908		46.8073
38.7287	80.639		50.5198
29.4921	51.1104		74.92
30.1942	49.2069		75.4818
35.023	50.5355		72.5548
32.0222	40.4704		75.574
31.9755	42.1714		75.8187
30.9057	45.9029		75.8747
33.4926	32.6639		71.8734
34.1963	31.3213		71.2813
38.0849	32.1491		71.4094
45.1535	77.6745		47.0109
51.6831	74.3463		42.4213
44.1754	73.0372		51.7354
41.3667	48.8234		68.5048
47.4688	46.3693		65.2183
41.5936	28.6719		70.2942
41.642	29.8282		70.5843
38.3253	29.6666		70.7228
44.2365	27.3899		69.4665
42.9585	35.3083		70.9691
42.4455	33.3137		70.9581
46.8579	34.0883		69.7203
41.968	31.2918		70.8003
43.0195	68.0957		55.9685
49.9093	64.8198		51.5814
57.7016	71.3628		36.328
57.127	66.4016		41.5106
62.925	68.5172		28.9596
44.9671	24.3276		67.9593
46.6339	22.4113		66.6679
46.6556	25.6925		68.1753
48.4363	23.6042		66.7741
45.6042	24.9931		68.1513
50.61	32.0745		67.8804
54.382	28.6366		65.0022
17.8913	32.6245		74.3808
15.2553	30.9203		74.1036
18.3448	31.1093		73.1735
17.1819	33.7092		75.3501
16.0359	34.9865		76.483
13.4887	33.2569		76.1921
18.8056	28.7189		71.6274
19.3342	26.7743		70.4322
5.08879	42.035		79.0682
-0.192746	43.1938		79.1308
68.5847	-66.2629		-6.31075
70.2957	-61.3583		-4.96358
68.6205	-66.7263		-12.5444
80.8973	19.067		-38.3802
80.4973	14.8981		-43.8031
79.5678	24.4069		-43.2921
81.5097	21.7819		-30.4611
82.3049	13.6762		-33.0759
77.314	-12.324		-52.0686
76.4214	-18.1699		-50.3286
74.9417	-12.7539		-57.5301
78.2317	-6.56259		-52.3562
78.8142	-0.402637		-52.2613
76.6499	1.00849		-58.673
79.4097	5.16018		-50.6821
81.0402	-2.14343		-46.066
72.0056	-34.9269		-43.6158
68.7762	-38.392		-47.2195
73.5877	-29.3824		-46.2257
5.64463	60.4126		73.9131
-1.01968	59.9189		74.4953
11.9315	60.2012		73.3818
17.7977	60.3511		72.5465
18.8036	67.4746		68.9093
22.8049	-97.5005		62.2014
21.1927	-98.5163		55.7388
29.6756	-95.5129		56.2195
16.3788	-98.9616		66.3288
51.1775	-85.3467		47.1848
45.7394	-88.389		52.9438
55.792	-82.0182		41.395
52.4857	-83.4538		50.7138
56.5689	61.0236		46.0532
62.4034	57.1623		39.564
19.7032	74.2222		64.926
67.8636	65.5735		19.9155
71.7924	62.923		10.3659
68.0036	59.4443		25.889
22.6371	99.2242		39.5956
28.9334	96.9048		39.1262
22.9457	105.516		28.0874
15.7099	100.902		39.9807
66.8793	39.8708		41.3491
67.3648	46.5014		36.5351
49.338	21.3166		65.3851
59.9295	27.1826		59.2788
61.1244	21.6067		56.5008
58.3458	25.9996		60.8872
56.8096	24.9335		62.0984
5.74941	-107.559		50.2241
3.1096	-107.671		50.4956
62.3433	-74.206		40.639
63.6801	-70.7325		42.6438
58.276	-77.1956		48.2087
60.8784	-76.999		37.6709
6.98258	-38.874		96.2266
8.82605	-39.2047		95.7949
6.35127	-36.9906		95.6129
24.7181	-45.119		86.1601
23.713	-41.4798		86.753
21.4698	-43.2007		89.0565
9.81518	-36.0709		93.9115
7.32838	-35.7043		94.8052
10.6299	-37.8237		94.3712
12.5239	-36.4995		92.6688
8.93906	-34.2695		93.4997
33.9229	-48.4189		79.9903
33.5744	-51.8342		79.3922
36.3918	-49.512		78.7716
33.7336	-44.729		80.6656
66.6382	16.7199		48.3577
64.2742	16.1311		51.6519
67.3159	10.3746		48.0461
68.7006	17.4798		44.7928
70.7239	18.0885		40.6095
73.053	17.7181		34.9946
53.3928	16.8349		61.665
53.3245	14.4257		61.2168
62.0522	15.5524		54.2578
83.3558	5.40967		-37.7534
83.1517	1.52123		-40.7315
81.803	7.2168		-41.7996
83.5657	8.12234		-33.9709
80.1315	-21.3756		-40.8661
77.9797	-22.0456		-43.9183
72.7387	-54.0648		-15.5264
74.6621	-49.8275		-13.5234
72.3309	-55.9009		-9.3989
70.5992	-59.5167		-17.6061
73.1594	-50.9314		-21.3985
82.8386	-3.21329		-42.5006
78.9686	-29.2137		4.70808
78.1691	-33.468		4.29619
79.7217	-24.7527		4.90073
78.0453	-29.8685		9.00461
76.9564	-0.596874		28.1445
76.7482	7.62397		26.8755
76.755	-8.4572		29.4528
78.8511	-2.47677		19.6168
56.3586	9.58988		59.1857
54.4348	11.1861		60.4496
54.326	7.85378		61.2998
52.6694	12.7486		61.5999
51.1149	11.7656		62.8811
77.0525	-29.9292		15.1647
76.0955	-29.6621		21.8476
76.1979	-34.9212		14.7222
77.9845	-24.5719		15.0346
24.1559	-9.5483		81.9868
28.4232	-11.1813		80.6349
23.0488	-4.68197		80.2884
20.788	-7.33237		83.3965
35.0624	-13.0086		79.1244
42.715	-14.609		77.1479
36.415	-17.8747		79.9587
17.27	-4.94475		85.2778
13.8892	-2.18265		87.5165
17.5854	-8.65888		87.3137
21.0018	-15.9863		86.4861
19.4276	-13.7015		87.6462
16.0214	-18.385		94.6398
14.3946	-18.0289		96.939
15.8056	-20.1417		94.04
17.051	-18.8133		92.9773
17.772	-19.3408		91.4822
17.3061	-21.644		90.7987
40.0418	-32.3958		79.4256
34.2468	-31.8727		81.0585
40.5407	-37.4859		78.8027
39.1824	-27.6565		79.9759
37.6701	-22.6416		80.1941
4.45869	-32.8666		94.9994
5.00757	-34.3341		95.0324
6.04487	-32.6452		94.3128
62.1973	-51.1335		58.0369
63.1856	-44.5666		58.7013
57.6103	-48.7755		64.8531
60.7894	-57.7579		57.7886
27.9331	-39.2832		83.4865
25.3395	-38.7266		84.965
30.4113	-39.7989		82.3753
40.7149	-42.492		77.9691
40.4136	-47.2905		77.4085
46.268	-44.3023		75.0322
36.1872	-41.2649		79.9916
5.67439	-35.6124		95.2491
58.8918	-64.3946		57.9368
62.1324	-66.2542		51.0162
54.7006	-60.6795		64.7255
55.8618	-69.7544		59.8016
64.0404	-27.9868		61.4268
64.0268	-33.2186		60.6488
68.355	-28.1473		53.5463
31.3174	-90.018		77.2453
31.8281	-87.2399		79.1752
25.6735	-92.0802		82.5679
43.2056	-79.8911		70
47.79	-77.2163		66.317
41.4382	-75.646		73.3796
37.7307	-81.7767		75.0392
59.8414	-6.58742		62.7173
57.3597	-1.72195		62.9372
53.7129	-6.64261		68.2508
48.6044	10.6005		65.0266
49.7946	8.54423		64.7165
55.2066	1.61703		63.2016
49.893	1.09024		67.5289
52.9394	4.27223		63.8775
46.4584	14.1614		65.8001
3.38699	-91.7962		98.2184
-0.0849108	-92.0906		98.4672
49.9195	-57.0379		70.084
47.9934	-61.5806		70.7254
51.1394	-52.0144		70.1583
44.4964	-53.8878		74.3056
39.2528	-71.4821		75.8821
42.5815	-68.6676		73.6926
36.1834	-66.9945		78.181
35.075	-73.7275		79.0916
46.5696	-5.87823		72.1934
48.6326	-10.7921		73.14
44.6043	-1.58985		71.4518
52.2575	-46.366		70.579
50.3237	-15.84		73.6161
11.2062	-81.4482		96.9721
10.9238	-76.5141		96.4277
15.7555	-80.5518		94.6109
20.8127	-79.3214		91.2799
25.6873	-77.6046		87.3178
20.1174	-74.5626		91.21
43.1175	1.46636		70.8717
41.698	3.79035		70.7043
35.4809	2.10608		73.0561
51.3006	6.45595		64.24
46.9704	5.6745		67.61
40.5635	5.79325		70.5373
33.152	6.18255		72.2711
10.7819	0.127659		90.0074
11.0997	-4.11118		93.0138
10.6384	4.59664		86.5515
11.9819	-12.6212		99.1728
11.7839	-10.8714		97.9445
9.23519	-12.0724		102.97
12.2861	-13.8553		99.5718
10.8057	14.5579		77.9509
10.6106	12.1975		80.0993
21.9072	-0.243799		78.0942
0.311427	16.1443		87.9834
-1.36897	16.5105		88.0106
66.9188	4.48149		50.1074
10.5861	8.77546		83.0634
65.1065	-66.2494		43.7848
67.9174	-64.0033		35.2236
71.7572	-15.6442		46.5233
71.7048	-22.4224		45.994
74.3161	-15.3621		38.3317
70.3239	-40.4924		44.1731
70.921	-34.5007		44.8147
67.6002	-39.7969		51.9612
72.0882	-40.952		36.7108
71.4233	-28.4154		45.3642
73.4791	-29.0709		37.2694
20.7992	-94.1094		86.5859
10.6141	-72.4149		95.9889
6.96048	-72.822		97.1318
14.7729	-71.7016		94.0795
19.2242	-70.7129		91.3558
27.1051	14.3464		70.1006
28.4279	3.22692		73.8142
27.4359	5.36832		73.1142
26.7627	7.03043		72.5147
3.64854	-72.9869		97.769
0.489441	-73.009		98.0302
5.47258	29.2968		78.7374
7.25275	28.3861		77.7939
6.49003	31.2328		78.2799
3.35194	29.9249		79.5022
5.2014	26.9464		79.1996
17.8413	17.6196		68.3749
17.5336	18.9171		68.409
15.4796	18.1162		69.9772
8.68525	27.1112		76.722
9.82102	29.3096		76.2859
1.23196	30.4747		79.8844
-1.04974	30.7061		79.9736
4.26535	-26.0944		101.186
4.8726	-24.7324		102.966
6.54179	-15.3502		107.915
6.51343	-13.5671		107.288
9.57269	-15.1212		104.112
16.4258	-26.425		88.1458
16.0479	-25.2046		89.3096
13.8778	-27.8369		89.3383
6.13519	-11.7042		106.484
5.76246	23.8142		79.5602
7.99191	33.4168		78.0641
9.89389	32.4903		77.1619
17.9773	20.4359		68.444
11.4488	31.3939		76.1007
12.4441	30.2175		75.0551
13.1466	28.969		74.1215
19.0268	-32.3249		86.5678
16.0156	-32.5977		88.4709
20.5984	-34.8412		86.6329
22.4141	-38.1617		86.6268
18.9784	-37.3749		88.824
25.5949	-51.8706		80.583
25.3698	-50.8123		80.0205
23.613	-51.7835		82.193
25.9796	-50.2744		83.7275
23.763	-49.0189		86.4324
24.9402	-47.9454		78.9397
21.5263	-47.6098		81.5435
24.0748	-44.5879		78.2561
13.3323	-32.7773		90.2325
10.7073	-32.6913		91.8414
14.3539	-34.7879		90.6106
15.7458	-37.0317		90.859
16.8791	-39.305		91.262
20.8073	-51.4535		84.4202
19.2411	-50.0265		84.6692
18.2386	-47.1691		83.7887
18.0262	-43.6371		82.369
8.22071	-32.6071		93.2563
7.66666	-31.039		93.2067
11.7994	-40.0311		94.7135
14.9187	-40.7339		93.2368
17.3016	-11.2497		89.2831
14.3727	-9.44835		92.3727
0.205913	-4.1468		104.311
-1.92849	-3.88788		104.454
11.3748	-7.88705		95.8554
5.62663	-22.6713		105.155
8.21384	-22.1386		102.046
10.9805	-21.6593		98.7464
11.7211	-19.7328		99.5918
13.5388	-21.6143		95.5984
15.0859	-22.0525		93.4098
15.7985	-22.9442		91.746
15.9917	-24.0632		90.3741
12.3148	-15.0477		100.038
12.2371	-16.4343		100.306
12.0949	-17.9976		100.13
40.3631	-141.325		22.227
35.7144	-142.603		25.5249
41.3676	-147.575		21.4422
44.5566	-139.917		18.8477
39.102	-132.743		23.3459
37.8594	-120.691		24.7733
42.0273	-119.439		20.8884
37.3423	-110.053		26.048
33.401	-121.867		28.6487
40.6948	-94.5623		31.5596
44.8872	-92.3985		26.7176
36.1773	-96.5584		36.1802
39.374	-98.0147		28.6656
38.0777	-102.886		27.0743
33.6504	-104.125		31.759
42.0757	-101.455		22.7336
45.8049	-65.5152		71.7286
49.4893	-69.8017		67.5189
41.2882	-61.245		75.25
52.4554	-73.949		62.3131
53.4482	-77.6715		58.0553
53.46	-80.7971		54.1636
37.6994	-57.9533		77.2939
38.8689	-54.859		77.0123
34.7231	-55.4943		78.5794
35.6769	-60.5539		78.2189
32.912	-54.2652		79.2249
31.8197	-55.9827		79.5677
48.5503	-90.3295		22.1098
50.7486	-87.0213		24.8035
47.068	-94.4571		19.7059
51.9452	-88.8011		16.5531
53.5745	-84.1695		28.0428
56.1085	-82.1908		21.5557
56.5504	-81.5456		31.277
58.9846	-79.3179		34.6284
61.1709	-76.9101		27.3553
45.9418	-118.058		16.8927
47.0956	-129.975		16.0996
49.6833	-117.083		12.7325
45.4468	-107.57		17.5082
48.3227	-138.585		15.3304
49.564	-145.014		14.5468
51.8366	-137.297		11.5057
45.8877	-99.9884		18.3101
74.9348	-29.4215		29.4108
74.1305	-35.2189		29.2583
75.7434	-23.0742		29.5916
62.4834	-75.229		20.2497
60.2978	-77.8815		17.5694
63.4682	-73.924		13.0321
76.0399	16.4454		26.3411
78.8639	13.6569		15.7557
69.4437	-61.9122		26.9766
70.2592	-60.083		18.7323
73.3379	-40.9183		29.1328
74.3312	-40.5339		21.573
76.3395	-15.7246		30.051
77.8251	-17.1544		21.9142
75.2891	-39.9078		14.3987
76.3477	-38.8059		7.99609
59.9812	-87.3537		-0.0603437
59.4538	-92.0797		-0.860845
61.8968	-87.3578		-4.94165
60.7004	-83.2483		1.07012
57.6982	-87.4857		5.02791
59.1031	-97.4587		-1.11397
61.7524	-79.4871		2.85059
60.0064	-80.048		8.53538
63.3168	-79.1257		-2.82908
62.9976	-76.0986		4.51352
80.2507	-4.03701		11.2406
80.5895	3.72071		8.49315
79.6079	-11.8742		13.7141
80.7537	11.8593		5.29135
80.7597	19.5429		2.44754
80.6822	27.2976		-1.07612
81.6168	25.7855		-11.5856
80.5122	34.9482		-5.11585
70.964	-58.3911		10.7222
71.5708	-57.2256		3.06792
78.8411	-18.5227		14.8966
79.697	-19.6663		8.86504
53.338	-116.109		8.17306
54.2014	-127.631		7.78598
58.2241	-80.9509		14.996
56.3445	-84.2247		12.5536
55.1542	-135.938		7.20356
56.2367	-142.086		6.30715
62.5323	-113.349		-9.96146
62.8799	-122.873		-10.6878
63.4346	-87.2177		-9.76021
64.4755	-85.8973		-14.9255
64.0424	-82.8151		-9.21628
64.8747	-78.4967		-8.37483
63.2316	-130.049		-11.7787
63.529	-135.777		-13.424
71.9179	-56.8778		-3.77948
77.3188	-37.5957		3.65146
78.3834	-35.9308		0.483382
76.5509	-41.3743		2.37177
80.3937	-20.0347		4.86851
63.4521	-93.7432		-22.1943
62.155	-90.0194		-29.2205
64.0949	-87.5982		-21.5845
65.0512	-81.8644		-21.1035
64.5516	-75.9919		-27.4939
68.6703	-65.5952		-18.9475
75.9538	-47.3022		-12.4417
77.0896	-44.9136		-18.897
58.7617	-120.849		-38.1516
58.8044	-128.597		-39.068
55.4758	-118.595		-45.262
58.8098	-112.614		-37.1939
74.0398	-46.2036		-26.263
76.4764	-42.5609		-24.8506
78.1622	-40.8737		-24.2751
30.8668	-143.687		28.5761
29.7481	-135.148		30.18
25.9726	-144.7		31.295
31.9608	-149.765		27.3184
28.5384	-105.063		36.8149
23.2435	-105.769		41.4599
27.8384	-111.992		34.9566
29.7948	-101.067		38.5525
35.6689	-93.7012		50.6463
33.0793	-95.5689		45.8177
38.2479	-92.1175		55.0627
31.0335	-98.1424		41.4615
25.6167	-99.2497		46.5377
28.4951	-122.717		32.6133
23.4584	-124.029		36.2358
33.6564	-63.2694		79.4945
31.6323	-59.9118		80.1824
40.1884	-90.6388		58.809
30.4486	-57.8429		80.4182
28.2029	-59.6974		82.2839
29.4073	-56.3297		80.6304
28.5081	-55.0526		80.7794
26.7648	-56.4874		82.413
30.5692	-75.9159		82.9807
31.5575	-79.9941		81.941
32.0965	-84.0326		80.4927
21.7986	-53.4345		86.079
18.3354	-53.5467		89.7581
21.6762	-52.8572		84.6581
25.0082	-52.9715		81.8818
21.8372	-53.0864		84.1781
17.7885	-52.5521		87.8693
21.8985	-53.5393		83.862
21.9414	-54.9473		83.4552
18.0224	-53.2504		86.76
21.611	-58.1727		83.4152
20.8405	-62.1474		84.0186
17.8932	-57.7207		85.8869
18.2149	-106.347		45.0818
19.3308	-102.714		47.1625
17.7011	-113.725		42.723
20.9904	-145.773		33.6933
19.8832	-137.444		35.8703
16.07	-146.574		35.7028
22.071	-151.481		32.1391
18.5479	-125.191		39.3632
10.7242	-101.281		54.9201
14.6391	-101.034		53.1961
10.6703	-100.205		61.3509
11.7455	-147.133		37.1208
12.7521	-152.596		35.4968
11.487	-99.952		68.8725
14.185	-52.13		90.5943
14.1695	-52.3981		89.8996
14.2146	-52.9483		89.2933
14.554	-54.2688		88.425
14.3822	-57.364		87.9152
14.2028	-61.5497		87.8808
76.0234	46.2529		11.6869
78.6117	44.0609		0.976843
75.7048	53.4667		6.09173
72.4269	49.217		21.9767
81.7247	24.0625		-21.3204
74.9593	-23.9253		-48.7078
72.0727	-26.0005		-53.3685
52.6359	-97.6437		-49.3126
53.365	-87.5983		-48.8939
55.6642	-100.353		-43.7282
52.4061	-107.775		-49.813
49.4651	-95.7093		-54.2689
52.4431	-116.696		-50.5674
52.7381	-125.218		-51.2447
49.2126	-115.321		-55.3017
59.9004	-84.984		-36.7716
59.1446	-94.3274		-36.6443
57.1982	-80.975		-43.2987
61.3214	-76.7244		-35.9988
22.8267	110.915		14.5066
29.7073	108.118		14.4783
22.7521	114.532		-0.495749
15.6354	112.885		14.6074
22.5087	94.3715		-83.3807
23.1087	103.874		-68.2311
29.5576	92.5014		-81.3814
21.7749	82.8869		-95.7359
15.1205	95.673		-84.8867
21.3419	70.5787		-104.455
28.1407	69.0855		-102.378
21.0768	57.1569		-110.794
14.4409	71.2302		-106.099
23.1851	110.667		-51.7361
30.3428	108.315		-49.9764
15.7222	112.382		-52.9099
23.0871	114.679		-34.3501
7.85419	119.115		-17.9716
-0.075921	119.519		-18.1517
7.78572	117.829		-0.970308
15.5192	117.919		-17.5832
7.92115	117.69		-35.7672
20.8237	44.0693		-114.902
27.1741	42.8546		-112.808
20.5269	30.6158		-117.366
14.3897	44.7283		-116.396
20.0412	16.6544		-118.353
26.2907	15.8332		-116.133
19.5555	2.96848		-117.745
13.81	17.4859		-119.905
17.5349	-34.374		-104.881
23.2998	-34.9696		-102.715
17.3024	-45.3792		-97.126
12.0275	-34.3464		-106.031
18.3108	-22.3526		-111.294
6.75287	-8.96537		-118.248
0.449008	-8.92069		-118.593
6.95827	3.92122		-120.385
12.9085	-9.31964		-117.208
6.45286	-21.4321		-114.02
15.6079	-90.0761		-77.6459
15.9416	-80.784		-79.1234
20.8684	-90.7465		-76.2791
15.3724	-99.3618		-76.7555
10.5578	-89.6868		-78.4342
5.45605	-107.825		-76.9658
10.3679	-108.259		-76.6238
5.55456	-117.348		-76.2077
0.725665	-107.604		-77.0955
5.5709	-98.3089		-77.8383
17.5286	-54.0239		-90.7736
22.7879	-54.4976		-89.21
17.2106	-61.7939		-85.9371
11.8598	-53.6225		-91.7937
16.4741	-70.829		-81.9211
22.0746	-71.811		-80.1612
11.2193	-70.0969		-82.9412
5.95961	-69.8159		-83.411
6.15973	-60.9618		-87.4492
5.71745	-79.9469		-80.4914
0.677184	-69.9773		-83.4678
48.4294	95.9383		12.3457
54.3343	90.4053		11.4281
49.1626	98.7941		-1.07598
42.4426	100.605		13.4008
47.031	62.7567		-92.0762
52.4858	59.931		-87.7227
46.6994	50.5688		-98.0935
41.2124	65.1435		-95.9986
47.3986	73.9958		-83.6517
47.7197	84.0322		-72.3571
42.0522	87.3973		-75.7663
48.3483	91.7729		-58.8479
53.2573	79.8986		-68.5801
49.051	96.8357		-44.606
54.8492	91.3578		-42.5559
43.2109	101.352		-46.4513
49.8675	99.1977		-30.1214
49.6677	100.009		-15.4902
43.521	105.014		-15.6496
55.5697	94.2448		-15.2592
46.0855	38.3276		-102.252
45.4322	25.7205		-104.755
40.227	39.9626		-106.231
51.5005	36.3952		-97.8901
44.4941	13.0334		-105.845
49.8178	11.8753		-101.499
43.5498	0.28884		-105.242
38.871	13.905		-109.677
42.2948	-11.9462		-103.14
41.0351	-24.3971		-99.0062
37.0635	-11.8449		-106.732
47.1125	-12.4216		-98.9959
40.2987	-36.3813		-92.6463
45.0337	-35.8844		-88.9223
39.802	-46.6879		-85.8843
34.9768	-36.0252		-96.5027
39.2823	-55.6094		-79.895
38.6429	-64.5417		-74.6538
34.0625	-55.638		-83.5252
43.9122	-55.5479		-75.7208
36.5129	-92.0409		-68.2902
35.5542	-101.895		-68.5943
31.4417	-91.8306		-71.6517
37.4767	-82.6251		-68.7696
41.1316	-92.7455		-64.3012
25.2311	-109.626		-73.603
25.3847	-118.371		-73.2697
20.1838	-109.022		-75.0652
25.5545	-100.667		-73.9162
30.356	-110.396		-71.4811
38.0603	-73.62		-70.8499
42.7791	-73.6906		-66.4094
33.1278	-73.2161		-74.5472
67.4568	64.4981		-54.5356
68.6488	69.0153		-43.4507
71.5921	58.1399		-48.4667
66.5864	57.8502		-64.502
63.0532	70.0839		-59.9843
69.5671	71.8426		-32.3757
73.5788	64.4031		-26.9058
65.094	78.8403		-36.8092
70.1237	73.4019		-21.3802
69.4696	74.7537		-10.7845
72.6073	67.6691		-5.70747
65.546	81.4983		-13.4103
56.2821	34.4412		-93.314
56.9423	45.7815		-89.059
60.6406	32.0998		-88.4256
55.5847	22.5688		-95.8468
57.2764	56.9662		-83.1352
57.6917	66.8553		-75.104
61.7929	53.4006		-78.0801
51.8819	-12.8065		-94.1151
53.5913	-1.09856		-96.0668
56.4627	-13.2916		-88.666
50.2259	-24.4452		-90.4484
54.6724	10.5438		-96.7799
59.1727	9.48501		-91.711
49.2701	-35.1633		-84.9245
53.4214	-34.8198		-79.9565
48.8452	-45.5873		-77.7848
48.0421	-54.6629		-71.6068
51.7523	-52.8535		-67.7811
47.4998	-73.9846		-60.8597
51.5429	-76.0498		-54.3744
46.5252	-83.7304		-59.4388
77.7874	30.0648		-48.5383
76.8584	23.7866		-55.6039
75.6252	35.1192		-54.3626
59.6881	84.3342		11.1406
60.2905	87.2031		-1.75245
79.8047	42.3246		-9.69125
78.6854	49.6822		-15.0907
67.1414	-13.1698		-73.1411
63.9574	-13.5423		-78.1693
68.5458	-3.98493		-74.9907
70.1124	-13.2064		-67.6881
65.3939	-22.6613		-69.9261
69.3068	5.35604		-76.0965
66.2843	6.79775		-81.5358
70.1349	14.3613		-75.0928
72.2016	3.63217		-70.05
70.9703	23.5994		-72.246
67.8796	26.7016		-77.9806
71.9408	32.1856		-67.2731
73.7464	20.1389		-66.237
60.152	-46.5304		-57.703
57.4354	-48.9182		-61.0051
61.7489	-39.2778		-61.8642
62.887	-44.211		-54.1489
58.7581	-53.9106		-53.6603
69.2533	-27.8388		-57.8292
67.4624	-34.8219		-54.3078
66.5293	-29.6316		-61.7999
71.0725	-20.6536		-60.482
54.6602	-78.2879		-48.7313
56.0752	-69.4919		-49.3276
78.5443	-40.0906		-4.78333
79.2446	-36.4764		-2.92159
76.8853	-43.0132		-2.54431
79.2764	-34.7012		-1.55838
83.3536	-9.08534		-3.63184
84.0361	-3.90903		-5.83834
93.8609	-0.0501938		-38.6093
94.0312	5.86293		-36.4644
94.5052	-0.413546		-37.8854
84.3397	-38.6988		-24.0566
83.1971	-41.3567		-20.6882
93.7104	10.7343		-33.1621
92.7315	11.0252		-33.6736
93.1599	14.0773		-29.2092
94.607	10.0903		-32.5752
88.4205	6.85977		-12.7158
87.0789	6.82529		-13.376
92.5574	15.6003		-25.0548
93.5003	14.9229		-24.288
89.1657	-22.6897		-34.5869
85.8788	-39.1779		-16.8547
85.3122	-38.9676		-14.3251
84.1785	-41.2705		-17.2553
84.3497	-1.39321		-7.59515
89.5611	14.1328		-20.6887
87.8482	11.2025		-17.965
88.4492	13.1839		-22.2073
85.7101	7.03171		-14.8054
84.7694	7.39385		-16.3851
92.0649	10.8529		-33.8947
83.9771	7.04545		-17.7986
85.0648	8.88346		-20.4618
86.4125	10.5973		-24.0335
84.2871	8.4107		-25.0092
88.6132	-30.781		-27.2836
88.8164	-32.0898		-19.8451
82.6167	-42.4636		-17.699
84.6343	-38.043		-12.201
85.8388	-35.162		-12.2595
86.7862	-32.8311		-13.1695
87.2647	-31.3094		-14.0969
94.705	-0.690737		-37.4673
95.1573	5.00741		-35.3948
92.4329	12.6242		-16.9136
92.6159	11.998		-16.5954
93.4273	14.118		-19.9541
92.6046	11.3957		-16.4403
93.6721	12.9731		-19.4542
92.4485	10.3151		-16.5919
94.9961	9.55766		-32.1949
94.5695	12.6532		-28.241
95.114	9.06136		-32.049
94.079	14.2334		-23.7857
94.3123	13.6358		-23.651
94.3393	13.0689		-23.3897
94.7336	11.628		-27.8673
95.0859	8.70583		-31.7372
94.2067	-4.95703		-36.3264
92.1832	8.98205		-17.0991
89.8355	1.84042		-14.4805
93.7186	8.29408		-25.3653
93.8399	-7.84939		-31.1771
93.8961	-5.95629		-30.9483
93.8379	-4.06418		-30.4415
93.6641	-2.52987		-29.6116
93.3599	-1.25659		-28.4344
92.5592	-0.298971		-25.9816
85.3647	-27.6964		-12.0632
86.4897	-29.3553		-13.6101
88.0986	-4.69393		-11.3587
84.4119	-19.61		-10.4016
87.3669	-30.6086		-14.6012
34.6394	30.1743		70.8386
34.7339	94.337		37.9852
35.6784	99.8798		27.0128
7.7716	102.115		40.0525
7.86458	108.698		28.273
-0.564729	102.58		39.9922
36.1275	104.776		13.9668
36.5259	108.082		-0.382853
7.8145	114.133		14.6122
-0.301309	114.605		14.4466
22.7973	115.938		-17.0431
30.0052	113.089		-16.4599
36.8138	109.493		-16.0954
37.0846	108.551		-32.0902
67.8925	52.9525		31.2
74.5687	60.469		0.0683041
76.2734	58.6147		-10.4004
60.7208	88.2458		-14.92
60.9268	87.3234		-27.5619
7.96727	113.443		-53.5397
7.94286	106.362		-70.3941
0.105395	113.802		-53.737
36.817	105.36		-48.0283
36.5282	99.1438		-64.0775
76.4938	56.9829		-20.9834
76.0335	54.9426		-31.6584
60.0024	85.5542		-40.1697
59.0915	81.6277		-52.4812
74.9353	51.73		-42.1753
73.8628	46.8749		-52.0527
72.8383	40.4137		-60.437
69.63	45.0787		-66.5875
45.6215	-94.2765		-59.4043
44.9287	-104.291		-60.0492
44.9635	-113.655		-60.4354
45.0984	-122.32		-61.0499
40.0845	-112.113		-65.1085
7.69669	96.5554		-85.605
7.47597	84.4576		-98.2162
0.258837	96.716		-86.0128
7.48044	71.587		-107.043
7.54306	58.2041		-113.217
0.345861	71.6746		-107.37
7.58461	45.0972		-117.297
7.46645	31.9233		-119.779
0.396106	45.2571		-117.594
7.19935	18.059		-120.865
0.441024	18.0593		-121.2
19.0012	-9.88884		-115.495
25.0792	-10.6861		-113.113
6.13372	-34.2045		-106.83
6.17407	-45.583		-98.3064
0.450336	-34.3322		-106.975
6.21314	-53.7346		-92.0652
0.574615	-53.9309		-92.0297
5.65761	-89.207		-78.8728
0.731879	-88.9764		-79.0298
34.7584	67.2867		-99.5506
35.2823	79.332		-90.8508
34.3351	54.4085		-105.711
35.8683	90.1622		-78.9973
33.7643	41.552		-109.842
33.2458	28.3828		-112.275
32.6183	14.9833		-113.214
32.0087	1.45291		-112.489
31.1819	-11.3708		-110.142
30.2085	-23.6963		-105.983
29.1951	-35.5132		-99.9401
28.501	-46.1746		-92.9919
28.4513	-55.1194		-86.7656
28.3455	-63.6026		-81.5738
27.6589	-72.5377		-77.7637
26.973	-81.9969		-75.334
26.3054	-91.2509		-74.2698
35.3893	-111.108		-68.6483
35.6037	-119.901		-68.6855
58.1932	75.4704		-64.5202
65.8861	49.7702		-72.3862
65.2404	39.824		-78.8057
64.407	29.753		-83.401
63.661	19.0014		-86.0352
62.8972	8.3065		-86.7859
61.9938	-2.64061		-85.6404
60.3667	-13.6484		-83.3817
58.5845	-24.1144		-79.9493
56.9902	-33.7013		-75.5228
60.3664	-32.8245		-70.6257
55.7791	-42.9772		-69.7876
54.6834	-50.9086		-64.4736
57.6038	-61.6512		-50.4161
59.8218	-60.0168		-47.2187
75.9035	17.2599		-60.6995
75.2068	9.78778		-63.4423
77.9615	13.8232		-54.6096
72.5505	-13.0235		-62.8232
73.7572	-5.3082		-64.0597
63.469	-31.3369		-66.2317
74.5031	2.48058		-64.5966
65.6609	-41.7064		-50.6996
64.1016	-48.5563		-47.2318
19.9546	-100.325		50.6151
64.6341	-72.806		6.1882
54.9902	-87.911		10.8136
14.0055	-44.9008		94.5628
17.1844	-45.5511		92.6212
20.5384	-47.1469		89.7744
8.31538	-56.1983		98.0938
8.62249	-57.1792		98.3198
8.90723	-58.2611		98.4244
25.0544	-61.7332		85.5688
24.4635	-59.9914		85.785
23.8727	-58.4946		86.0739
18.2051	-41.832		91.2201
39.8706	-51.3678		77.0225
30.0645	-31.5273		81.9826
31.61	-35.9064		81.7737
32.8434	-40.3412		81.2717
63.8408	-38.6013		59.5381
19.6884	25.2208		69.6173
79.867	10.4718		-48.1482
83.2221	10.086		-29.3123
84.0024	8.25001		-26.9366
75.4717	-45.8064		0.881365
26.974	13.0419		70.6081
53.3335	43.1753		61.7719
7.59125	-29.6075		93.2386
47.8448	20.3561		65.3618
11.3103	-27.708		91.2622
83.9366	8.09761		-25.8607
58.8132	-103.662		-36.8869
63.6791	-68.6091		-34.7116
62.6898	-62.3924		-40.1547
62.569	-56.8106		-44.1049
22.6763	-24.5455		84.0524
14.8981	-53.5521		92.7465
26.7046	-52.9683		80.6759
7.37077	-50.3183		94.1955
-72.1493	-47.7206		13.7874
-73.2011	-42.9372		15.0576
-73.0974	-46.1708		6.79998
-70.9933	-52.2137		12.5174
-71.3414	-49.0084		21.9058
-57.0545	-114.333		-3.29797
-56.6518	-104.04		-3.65354
-59.0681	-113.456		-7.7129
-57.8883	-124.838		-3.47853
-54.4715	-114.999		1.00336
-58.7325	-132.508		-4.01599
-56.4182	-134.039		0.673517
-60.3923	-131.023		-8.71358
-59.469	-138.546		-4.64944
-50.584	-97.4748		5.73573
-53.9969	-97.0223		0.814604
-50.6122	-105.117		5.30773
-47.0606	-98.3615		10.3789
-51.3071	-91.8058		6.49807
-60.2625	-96.4373		-11.9832
-58.7794	-96.5904		-7.79758
-60.6012	-91.1322		-11.8936
-61.1393	-95.584		-16.9226
-60.1334	-103.328		-12.0292
-65.683	-66.4418		23.8704
-65.9702	-65.39		16.2832
-63.4344	-70.0975		21.4263
-65.0632	-67.8202		31.5239
-67.3888	-62.8316		25.8708
-74.8233	32.2232		23.1425
-77.981	29.8197		11.4497
-74.6704	24.9293		26.7255
-70.7388	35.8856		33.7784
-75.2717	39.7163		18.0231
-78.8269	38.664		-30.6212
-80.206	31.6756		-25.4087
-79.472	41.0937		-20.1276
-77.0137	45.2865		-36.1375
-78.0459	35.0512		-40.0897
-6.02246	-107.644		49.0399
-6.32758	-104.216		51.4514
-10.3188	-107.452		47.3781
-7.10682	-115.206		46.4743
-2.7233	-107.688		49.9529
-8.73569	-127.184		42.6464
-9.94704	-139.051		38.8884
-5.31896	-127.394		43.9673
-12.4952	-126.231		40.8762
-3.1302	-147.719		38.4205
-3.5875	-153.042		36.9905
-2.72574	-139.721		40.7577
-6.85834	-147.378		37.7695
-67.0856	-55.5214		-30.3814
-67.9473	-48.397		-34.7269
-64.2961	-61.461		-32.4947
-66.5821	-61.3514		-25.1021
-69.8236	-49.5702		-28.3185
-68.8371	-43.2839		-37.8949
-72.0967	-38.657		-34.946
-69.7312	-38.8171		-40.4636
-65.0503	-49.0457		-40.9979
-61.1601	-125.194		-24.9725
-61.7255	-127.851		-18.5572
-59.6112	-122.852		-31.6909
-61.1585	-132.006		-26.6746
-2.12867	-127.733		44.7085
-1.01398	-115.707		48.4213
-70.5549	-50.3325		30.0558
-69.6067	-55.2994		29.009
-69.6401	-50.9674		37.3369
-71.4944	-44.7437		30.4531
-66.5307	-64.0997		8.66007
-68.2359	-60.2471		9.99707
-66.8832	-63.6185		0.830957
-64.635	-67.7792		6.98278
-11.2905	-91.2612		96.1364
-11.3859	-86.5357		97.1763
-16.0876	-90.3046		93.8476
-11.2252	-94.9884		94.1322
-7.04046	-91.7752		97.5746
-21.5287	-88.3879		90.6158
-21.5839	-83.8055		91.508
-27.1231	-86.0358		86.3794
-21.2465	-92.3706		88.9337
-3.65796	-82.3579		99.3614
-3.58785	-87.3075		99.3761
-3.36052	-77.4611		98.668
-7.29294	-82.0307		98.6131
-11.2829	-97.301		91.6187
-7.33092	-97.7351		92.876
-16.0202	-96.4416		89.5407
-11.8083	-98.9095		87.7423
-12.546	-99.742		82.4654
-12.5551	-99.869		76.2545
-7.82359	-100.408		83.3965
-16.5901	4.53887		80.8206
-14.0366	7.03598		82.1287
-15.8145	8.70422		78.0107
-19.2776	2.67123		79.4882
-17.3663	0.134027		83.5574
-51.1916	-29.0502		75.4537
-52.2899	-33.454		74.5892
-45.0996	-26.3556		78.8159
-50.2678	-24.081		75.8277
-57.3751	-30.7882		70.256
-61.6859	-20.9356		64.4446
-62.5599	-26.3914		63.9522
-55.5624	-20.3681		70.9893
-60.3963	-14.671		64.6675
-67.2867	-19.5309		56.0505
-71.8069	2.54373		42.931
-69.2482	4.12125		47.28
-70.9327	10.7527		42.0684
-73.7615	1.59148		38.0682
-53.0302	-37.5824		73.2262
-46.7049	-35.4595		77.581
-59.0012	-39.1549		67.2074
-53.1866	-41.8584		72.1676
-3.46175	5.82891		96.4447
-5.28827	5.21244		95.8839
-3.80674	0.621298		100.464
-3.26037	11.4186		91.9074
-32.1459	72.9608		61.8419
-33.1489	78.2312		57.4982
-37.6117	71.199		59.4408
-31.032	66.8397		66.519
-27.0193	73.9901		63.6487
-3.64298	-100.835		70.5284
-3.88662	-100.929		77.8498
-7.38171	-100.526		69.9396
-2.73039	-100.857		63.176
-68.1834	-51.1243		44.4458
-69.0888	-45.2378		44.8822
-66.9483	-57.2697		44.3408
-65.9366	-50.8524		51.5506
-3.59794	-97.9903		93.5195
-3.74693	-99.8339		89.2395
-3.33349	-95.659		96.2104
-3.84038	-100.737		83.9145
-44.6826	-84.1833		65.5028
-45.0186	-81.02		68.5672
-49.9355	-81.4104		60.0676
-43.4501	-86.7266		62.8645
-38.8212	-86.7153		71.3825
-45.4107	-87.9755		38.23
-41.0811	-90.4998		44.0003
-49.3559	-85.2505		43.2151
-49.2148	-85.1563		32.3777
-41.5875	-90.8767		33.0562
-1.16842	-101.745		56.496
0.335868	-103.914		52.8481
-4.31442	-101.852		55.7465
-8.28398	-5.47758		102.08
-6.01795	-4.72183		103.596
-7.91547	-0.855824		98.4233
-10.9213	-6.69223		99.5791
-8.68723	-9.15763		104.881
-27.2075	-20.335		83.4314
-23.7264	-17.4193		85.195
-25.5936	-15.0719		83.7638
-31.3974	-21.8968		82.2236
-31.6016	-54.7451		81.4919
-29.5046	-55.0326		82.0407
-30.1449	-54.0298		81.8491
-13.4237	-26.241		92.7854
-15.2047	-26.2224		91.2041
-12.6526	-27.2289		92.225
-15.117	-24.7641		93.129
-12.5824	-30.139		90.6563
-10.8374	-30.0017		91.9123
-12.4706	-29.317		90.8542
-15.0041	-30.1294		89.0636
-13.0539	-31.3488		90.5284
-2.94988	-28.8807		99.4737
-4.76523	-28.5801		98.6062
-3.10256	-29.9533		97.9115
-2.92622	-27.7816		101.637
-17.8232	-29.4059		87.4083
-18.3175	-30.678		87.2478
-17.4317	-28.4552		87.8197
-20.5032	-27.8512		85.9786
-8.93422	-18.9063		107.865
-9.13318	-17.177		108.206
-11.7704	-18.6328		104.182
-8.62257	-20.8717		106.835
-6.26783	-19.4317		110.132
-28.0358	-67.439		85.9003
-29.5949	-70.9878		85.1854
-23.9488	-69.2831		89.1856
-26.3699	-64.5617		86.674
-31.3199	-65.2478		83.1828
-29.7611	-48.2854		83.7914
-31.8836	-49.004		82.5683
-27.4368	-47.4137		85.4032
-29.1112	-44.2908		84.4596
-3.42602	-33.8021		95.783
-3.36379	-32.2866		96.1822
-5.24191	-33.302		95.3926
-3.23502	-35.1851		95.7907
-7.51477	4.10315		94.6227
-7.2936	9.06781		90.5531
-10.0717	2.25364		92.8127
-20.0637	-18.2615		90.2149
-20.4419	-17.7245		89.2445
-20.2463	-19.8295		89.4629
-19.4574	-17.6173		91.856
-19.2176	-16.5047		91.9419
-6.49183	-30.0115		95.4992
-5.04904	-30.5224		96.2982
-6.47584	-29.1085		96.1459
-7.85971	-29.9425		94.3772
-6.39823	-31.4658		95.0594
-6.2738	-28.263		97.4053
-6.21482	-27.3294		99.2483
-18.5921	-16.7334		93.6468
-19.0919	-18.4444		92.7872
-18.2835	-15.7695		93.8731
-19.9879	-22.4974		88.4686
-19.0698	-25.0142		88.034
-19.4534	-21.2272		90.4566
-2.71511	-39.4818		97.0458
-2.74509	-37.7209		96.3645
-5.36423	-39.0101		96.7482
-2.93971	-41.1193		97.7047
-24.814	-31.8011		84.3627
-23.5315	-28.5495		84.4815
-27.3043	-31.6178		83.4933
-26.4995	-35.4853		84.4529
-22.1668	-32.153		85.6247
-10.3019	-67.0675		96.7203
-14.431	-66.555		95.1415
-10.6407	-69.3471		96.3793
-6.25523	-67.3421		97.6799
-10.0394	-65.1674		97.2355
-25.1306	-50.0876		86.6409
-24.9276	-48.2096		87.2731
-27.7871	-51.6759		83.8976
-25.5801	-50.8536		86.0403
-18.015	-15.043		93.7531
-16.5042	-14.0087		96.0221
-18.0673	-14.0422		92.6038
-18.3417	-65.7808		92.9945
-17.8138	-64.104		93.5272
-21.8288	-64.452		90.4479
-18.868	-67.7823		92.566
-2.64501	-67.4321		98.0499
-2.57896	-65.8454		98.4873
-2.67694	-69.5892		97.8079
-62.5839	30.0965		55.582
-63.4546	31.4264		53.5169
-64.5487	24.2508		52.0699
-61.4988	29.0462		57.4654
-42.101	57.9441		63.987
-42.7754	63.3918		60.1191
-48.4093	54.8736		59.9514
-41.6545	53.0608		67.3492
-36.591	60.069		67.3642
-54.8895	51.0512		55.2604
-55.725	56.3454		50.8436
-60.7987	46.5252		49.6971
-54.2557	46.6633		59.0925
-42.2687	45.3681		70.6076
-41.8215	47.9516		69.9065
-42.8401	42.4679		70.9691
-37.3898	47.1133		73.8647
-64.7295	32.8704		50.2574
-67.6942	26.4381		45.3628
-59.8135	38.9506		56.6578
-65.4331	35.8299		47.1073
-25.6346	37.2725		74.2326
-21.9585	36.2717		74.4527
-25.2379	38.8966		74.8275
-29.3444	37.6674		73.9141
-25.933	35.4299		73.4436
-7.11155	19.917		81.6077
-7.03563	17.3063		83.5468
-4.76673	21.569		82.7745
-7.20203	21.9365		80.3387
-9.36141	17.5533		80.0758
-31.338	-3.24449		77.0613
-25.2767	-1.06461		78.2167
-29.3414	1.10671		75.7201
-38.9332	-5.21128		75.6141
-33.3869	-8.26855		78.6198
-60.6013	7.0814		56.7919
-58.1007	3.83936		60.2316
-57.7958	8.96119		58.8014
-61.5593	11.334		55.099
-63.1293	5.65878		54.7461
-7.05968	13.7199		86.6159
-4.78999	15.3159		87.553
-9.38942	11.4905		85.3923
-43.3661	40.1208		71.0962
-43.2844	38.109		71.2038
-38.2586	41.936		73.7962
-48.8738	38.6091		68.4009
-53.9611	36.3275		65.3565
-57.7387	32.5463		62.2997
-53.3678	34.3564		66.1283
-57.1631	17.1412		59.2552
-59.2043	16.8399		57.4716
-56.574	13.4696		59.2421
-55.0028	17.6821		60.9609
-57.4663	21.5146		60.2669
-44.9014	24.7977		68.3492
-43.0772	26.0952		69.4517
-46.4592	23.0984		67.0919
-41.1497	27.2117		70.0946
-38.8262	28.0882		70.3539
-41.1862	28.1344		70.4139
-43.4308	26.967		69.7243
-38.5751	29.055		70.6738
-35.9023	28.6485		70.468
-32.9136	28.51		70.3851
-35.5316	29.5052		70.7435
-32.346	29.2833		70.5864
-30.0724	27.7635		70.1434
-27.3661	26.4814		69.8402
-24.7519	24.7926		69.384
-22.5898	23.0246		68.8659
-23.4568	25.4723		69.5193
-26.1781	27.1049		69.9799
-21.2651	23.6076		69.0683
-21.2389	21.5071		68.45
-22.0922	25.9602		69.7674
-25.0833	27.8879		70.2552
-35.2389	30.4543		71.082
-31.7905	30.1818		70.8998
-49.9005	17.5378		64.0544
-48.8362	16.7165		64.6695
-33.3111	37.4206		73.6022
-33.4619	35.6618		72.9509
-33.3234	39.3658		74.1534
-38.1131	36.7584		72.8902
-49.8087	29.1219		67.926
-48.1001	27.7785		68.4531
-46.5114	30.8821		69.7646
-51.3825	30.8225		67.3393
-39.1512	10.0348		70.8967
-31.9925	10.4346		72.3049
-44.712	10.4219		68.4438
-39.7122	8.08846		71.0685
-26.307	11.6456		72.0433
-26.2813	10.0569		72.5899
-22.4914	13.0183		71.4412
-18.7049	16.5712		70.1809
-19.5549	15.3868		70.6121
-18.2309	17.4934		69.8691
-38.264	13.4044		70.5918
-32.1183	13.5302		71.6394
-43.2231	14.0824		68.6907
-22.1118	16.4068		69.4398
-21.2584	16.9805		69.04
-23.7995	15.5342		70.1255
-20.5522	17.4662		68.8593
-19.9122	18.1075		68.7653
-14.7801	25.9297		72.3198
-14.0084	28.1645		73.5408
-16.7428	27.9849		72.0651
-15.9401	23.61		70.8607
-17.8251	18.9696		69.664
-28.3416	29.2861		70.5927
-16.8843	22.6579		70.0834
-18.2683	24.4667		69.9972
-16.3471	21.0664		70.2836
-38.2138	14.772		70.4301
-32.1306	14.777		71.3774
-22.388	17.2533		68.771
-23.9671	16.7162		69.4271
-21.5294	17.541		68.5343
-21.0379	17.9163		68.3164
-47.522	21.3992		65.9439
-4.13041	35.638		78.9175
-4.85172	38.6793		78.695
-6.76577	35.4141		78.363
-3.51128	32.9127		79.2735
-19.6377	7.92296		75.0996
-22.8357	6.33366		74.7708
-20.4965	5.12477		76.664
-17.5422	9.51966		75.4429
-19.2894	9.91046		73.962
-15.3882	11.3286		76.2008
-13.3277	13.3791		77.2546
-15.6975	16.3251		72.3913
-15.9882	17.922		71.3347
-13.8667	17.2853		73.7561
-10.8103	25.3101		75.3613
-10.1789	26.403		76.0912
-11.9014	27.455		74.7678
-20.5765	14.2772		70.9947
-19.8026	13.1016		71.9087
-19.283	11.6002		72.9099
-21.9733	10.0077		72.97
-21.2337	-52.9999		86.4614
-17.6843	-52.2107		89.1468
-24.5683	-53.4314		83.7934
-21.1617	-52.9586		86.215
-26.3966	-53.6408		82.4919
-26.099	-53.5509		82.4905
-3.24016	-44.4839		98.3107
-3.19665	-45.964		98.2221
-3.15956	-43.1479		98.2399
-6.28868	-44.113		97.8031
-8.93929	-47.1833		96.699
-11.4414	-47.4153		95.8486
-8.62652	-48.4831		96.2702
-6.26577	-47.0352		97.4267
-8.9807	-45.7252		97.0101
-13.9991	-47.7102		94.6412
-17.0768	-48.5821		92.6728
-13.9248	-49.1305		93.9664
-14.1165	-46.4918		94.9911
-8.88687	-44.1995		97.1768
-8.74969	-42.8518		97.1966
-11.4573	-44.7456		96.3299
-13.1092	-43.1103		95.544
-13.8499	-44.1871		95.3484
-10.4926	-42.3381		96.5536
-12.6334	-41.9877		95.4996
-20.7789	-50.5907		89.3041
-20.5537	-49.1005		90.4035
-8.01348	-49.7319		95.6427
-11.0248	-49.9828		94.5705
-7.60197	-50.328		95.1055
-5.23797	-49.5403		96.4429
-14.1846	-50.5016		92.8181
-14.1925	-51.2178		91.9837
-27.1567	-52.4039		83.8581
-28.4854	-53.794		82.2984
-21.4733	-53.9981		87.1023
-21.5369	-54.1964		87.449
-17.7915	-53.6401		90.2444
-21.4271	-53.9406		86.8471
-22.1037	-55.5508		88.2499
-18.8025	-56.0731		91.9793
-21.8836	-55.0482		88.0747
-15.656	-56.3382		94.711
-16.132	-57.2135		94.782
-12.3789	-56.3839		96.8145
-15.3738	-55.4543		94.3527
-7.98881	-54.1472		97.3566
-4.83963	-54.2409		98.2507
-7.74238	-52.9256		96.4683
-11.5549	-54.1845		95.8508
-8.33543	-55.4558		98.0905
-2.54703	-57.2159		99.9722
-2.4223	-55.8992		99.4608
-5.24825	-56.8308		99.5295
-2.64014	-58.4306		100.273
-26.7563	-55.1236		81.8957
-26.5644	-54.5165		82.4398
-24.8023	-55.0164		83.5078
-26.7917	-56.515		81.4561
-2.04391	-52.899		93.9601
-2.03545	-52.1989		94.9791
-1.99865	-54.2842		93.0221
-4.41536	-52.9978		93.6579
-2.6658	-59.618		100.394
-5.53874	-59.1257		100.01
-2.71004	-60.7117		100.337
-2.59933	-64.2938		99.1009
-2.69095	-62.8758		99.7117
-5.74271	-63.7916		98.8832
-8.42826	-41.9226		97.1344
-6.01852	-41.6826		97.6179
-7.653	-40.6351		96.9889
-2.32209	-54.437		98.6845
-2.17082	-53.0854		97.7556
-2.08393	-52.4022		97.086
-2.12393	-52.0922		96.5225
-4.54481	-52.3618		96.7369
-7.60066	-52.3391		95.86
-7.50326	-52.1189		95.4034
-10.9611	-52.6286		94.618
-2.14932	-51.9956		95.8491
-4.46327	-52.0177		95.5125
-14.3095	-53.0121		92.6517
-14.5789	-53.4939		93.1565
-14.21	-52.8374		92.1948
-16.9297	-60.1239		94.717
-17.2129	-61.1848		94.406
-13.608	-60.4433		96.8756
-16.6908	-59.1719		94.8564
-9.57695	-60.6286		98.7594
-9.77101	-61.7747		98.3966
-5.67164	-61.1627		99.8347
-9.35414	-59.6697		98.9464
-2.71407	-61.7499		100.113
-14.172	-51.4318		91.4342
-14.0665	-51.3943		90.8685
-10.7898	-50.8739		93.3608
-26.5025	-54.2429		83.0527
-24.7821	-54.443		84.643
-7.39228	-53.1561		92.9943
-7.31745	-52.404		93.9276
-7.53612	-54.4655		92.1728
-10.7511	-53.3751		91.8897
-7.36654	-52.1031		94.7849
-10.6806	-52.4162		93.5386
-9.83372	-63.3023		97.8833
-13.9612	-63.0204		96.1233
-16.3904	-58.186		94.9025
-13.1366	-58.4415		97.0712
-17.4809	-62.5886		94.0072
-20.5609	-61.4851		91.552
-13.7464	-51.0397		90.3863
-16.9082	-51.696		88.5962
-13.1559	-49.6982		89.3366
-10.6608	-50.4336		91.6829
-7.53927	-50.1026		92.6518
-7.40976	-50.5057		93.7503
-7.98538	-48.7956		90.8844
-4.97239	-49.8396		92.9582
-12.617	-46.8418		87.7257
-15.1672	-47.346		86.6583
-12.5857	-43.2662		86.1298
-10.2421	-46.3862		88.4652
-26.7665	-59.5744		81.2382
-24.6399	-59.5233		82.9957
-26.3821	-62.8371		81.6049
-1.88997	-57.3728		92.3092
-2.13839	-61.3845		92.3776
-4.25664	-57.3759		92.1068
-7.95967	-46.0398		88.9555
-7.75591	-42.5108		87.361
-5.56067	-45.7388		89.2602
-7.36591	-57.451		91.5029
-7.58598	-61.6141		91.3288
-10.8411	-57.7173		90.4452
-30.5385	-54.6461		76.2149
-30.9032	-54.505		75.5888
-11.8126	18.7683		75.4829
-11.463	17.282		76.9563
-80.707	-12.273		-42.8018
-82.2496	-12.669		-41.0599
-81.3547	-7.74327		-42.9945
-78.7893	-11.8647		-46.1541
-79.9834	-16.5642		-41.8742
-81.7918	8.18018		-6.23634
-80.9869	10.5739		-1.3559
-81.9856	10.7955		-10.6505
-81.8453	12.5865		-16.0112
-82.1514	11.7486		-23.0814
-82.2543	7.57053		-16.8908
-81.4691	17.9196		-17.5467
-74.7992	-35.6314		-32.7315
-75.9719	-31.9153		-34.6582
-73.8028	-39.586		-30.057
-77.3113	-33.3325		-31.1672
-76.9511	-28.4331		-36.8285
-79.2811	-27.1744		-35.0052
-78.0622	-24.6349		-38.7749
-74.2671	-30.5384		-39.5994
-83.7658	-12.581		-40.1656
-84.1588	-7.65054		-40.5665
-83.1731	-16.6332		-39.0878
-85.2858	-12.0794		-39.8316
-83.9274	-28.2973		-31.8024
-84.9435	-29.3544		-30.6669
-82.6227	-26.7962		-33.2648
-85.733	-30.1023		-29.6049
-86.8346	-26.2478		-31.8056
-84.5595	-33.8847		-26.9826
-86.4888	-30.479		-28.3602
-90.3193	-20.4935		-30.026
-91.5647	-16.2243		-33.3138
-90.335	-19.893		-29.2806
-79.5006	-41.7845		-18.6496
-79.8074	-40.3171		-21.6796
-78.6056	-41.0358		-20.7044
-79.1204	-42.3454		-16.608
-79.9833	-41.9938		-17.9311
-81.9386	-34.02		-6.49566
-81.6261	-34.5625		-6.46139
-80.9547	-35.7706		-6.71443
-90.2937	-19.4996		-28.8893
-89.8142	-20.0304		-27.9168
-93.1227	-5.31059		-33.3297
-93.1535	-4.74905		-34.8873
-93.0426	-6.52592		-31.6044
-93.4915	4.93808		-31.3492
-93.7579	6.27236		-31.5269
-93.9149	8.40272		-30.6041
-93.6643	10.6306		-27.6094
-94.0826	8.83681		-31.028
-93.4143	8.34027		-28.3595
-84.5932	-11.3533		-7.28413
-85.8634	-5.95847		-8.06875
-83.649	-15.3424		-6.57595
-84.1549	-10.534		-5.96553
-79.5091	-26.9058		0.18417
-80.1623	-22.61		0.612759
-78.8771	-30.6557		-0.232214
-78.7013	-27.2057		2.97507
-83.0265	-22.5268		-8.99232
-83.0436	-20.5923		-9.17567
-83.2878	-24.562		-9.44884
-82.2561	7.09211		-16.8898
-82.2979	7.10213		-16.6603
-82.4803	8.12061		-20.4571
-90.2788	14.4351		-17.7394
-91.0923	15.9133		-20.96
-91.0652	13.783		-16.7029
-89.0003	11.5666		-14.6108
-89.4026	14.7887		-18.9467
-90.4619	16.2771		-26.0988
-89.8045	16.2366		-23.0667
-89.6347	15.1717		-27.4444
-90.8173	14.7913		-29.723
-90.7641	16.4514		-25.5815
-90.8123	0.195042		-39.6567
-91.8848	0.465706		-39.1285
-91.2353	6.27418		-37.0979
-90.0304	-0.274368		-39.8145
-86.7766	-1.40671		-8.84662
-87.033	-2.69596		-9.47478
-93.7109	-0.227509		-36.5632
-94.2373	4.9764		-34.5677
-93.7497	-0.346699		-36.9144
-93.3837	-3.01331		-36.6247
-93.2708	11.7483		-23.6698
-92.4792	11.4436		-19.6238
-93.3846	12.7626		-23.1044
-93.0353	10.3572		-24.3258
-88.1116	-0.808647		-11.7348
-88.637	1.45988		-12.5698
-87.5891	-2.52958		-11.0724
-93.343	0.611065		-33.8939
-93.3761	-1.52551		-35.661
-86.168	-7.58492		-12.7198
-86.7335	-5.93119		-11.6618
-86.2918	-7.34966		-13.4496
-90.3316	-7.56994		-26.8416
-92.2559	-5.08226		-28.867
-90.2043	-8.66321		-26.9512
-90.0993	-7.09172		-26.2383
-80.7539	-18.6787		0.508347
-80.0629	-18.7602		3.10013
-81.5144	-14.179		-0.455721
-84.4563	-2.38918		-39.3356
-85.4635	0.145096		-38.5135
-84.4116	2.34453		-37.4307
-83.2649	-3.02523		-40.4605
-87.8639	5.17593		-36.0803
-87.9007	0.975288		-38.7862
-90.2382	9.86149		-34.4111
-87.7359	9.10405		-33.0428
-89.0061	-1.21599		-39.743
-87.8049	-6.70959		-40.2765
-87.3758	-11.6345		-39.6833
-81.0906	-26.5227		-34.1595
-81.9077	-23.4386		-35.9527
-80.1306	-29.492		-32.2452
-82.5702	-20.1922		-37.6586
-80.8622	-20.4576		-38.6809
-89.287	-19.9109		-26.9107
-79.1419	-32.2661		-30.4553
-78.0541	-35.6992		-28.0261
-79.0184	-41.8816		-13.7895
-78.5134	-42.1225		-13.6084
-77.9651	-42.297		-13.3161
-77.6284	-42.3012		-18.6968
-90.3892	-9.42816		-27.3952
-92.229	-8.20064		-29.6392
-83.6259	-9.86705		-4.87524
-82.9784	-9.39215		-3.64601
-81.2595	-23.2471		-2.96831
-81.5429	-23.4496		-3.64059
-83.7934	-28.0074		-9.07315
-83.9394	-26.9681		-9.94112
-84.6847	-30.0867		-10.5702
-83.0433	-18.2922		-6.00186
-83.3748	-18.5624		-8.21244
-87.5336	11.0971		-29.9283
-86.6961	11.9259		-26.5942
-85.1144	7.31476		-32.5418
-84.1686	5.67126		-34.2766
-83.668	8.04805		-30.1208
-83.6983	5.30785		-35.3884
-92.7763	2.06773		-28.8696
-92.6061	0.594093		-28.4529
-86.6548	-6.73795		-14.9337
-87.5317	-5.67831		-17.6681
-90.0879	-6.22964		-25.771
-89.5752	-6.0911		-24.3863
-91.7794	-2.74031		-27.119
-8.73232	88.557		56.4398
-8.93919	95.1605		49.4829
-16.374	87.709		56.0862
-8.67782	81.9214		61.8696
-8.39016	75.2274		66.3472
-15.5802	75.0376		65.7521
-8.16975	67.8604		70.4906
-31.0788	61.0582		70.0034
-25.5161	61.6579		71.6523
-31.2824	56.2793		72.9
-2.83873	-26.6385		104.199
-4.901	-26.5395		102.742
-3.0887	-25.2693		106.542
-3.84187	-16.0062		111.545
-3.80406	-18.0093		111.687
-3.96471	-13.632		110.787
-6.45537	-15.8076		110.38
-3.72885	-19.8721		111.311
-3.59733	-21.6177		110.42
-3.28689	-31.049		96.8593
-2.89948	-36.4904		95.9869
-5.13745	-36.0272		95.7315
-3.41227	-23.4403		108.816
-5.70045	-23.316		107.377
-3.99239	-11.1791		109.54
-4.00346	-8.19762		107.488
-6.41376	-11.4536		108.584
-7.60016	50.0894		77.5972
-7.82721	54.4143		76.4535
-14.0072	50.8802		76.842
-7.37794	46.638		78.0957
-2.9093	22.4359		83.2419
-2.97871	24.5622		82.0051
-2.82786	19.8063		85.0702
-3.05442	26.4919		81.0852
-3.1423	28.4455		80.3627
-5.02661	25.6702		80.5733
-2.43128	-49.6362		93.0022
-2.13226	-50.3735		94.6882
-2.74944	-48.2152		91.3301
-2.12734	-50.4662		95.7692
-2.22096	-50.2791		96.2613
-4.4512	-50.4472		95.3904
-3.15586	-47.2653		97.9678
-2.95382	-48.5088		97.5295
-2.57838	-49.5547		96.9444
-3.14248	-42.196		98.0497
-2.84342	-45.5057		89.397
-2.73671	-42.0832		87.7011
-22.6838	86.6078		55.3959
-23.3134	92.6263		48.7833
-28.5191	85.0404		54.3762
-22.2019	80.7253		60.483
-20.0616	52.4007		76.0991
-20.1554	55.3655		75.38
-25.9124	53.3846		75.2054
-20.4541	48.6451		76.514
-21.7906	45.7996		76.3489
-23.7186	42.7334		75.8313
-27.2247	46.6663		75.6689
-24.7284	40.6707		75.3535
-28.8613	41.3172		74.9527
-20.2522	39.476		75.7885
-27.4107	30.1187		70.9641
-31.2223	31.094		71.2415
-23.81	28.6904		70.6583
-26.9502	31.4324		71.5446
-29.1965	28.4681		70.3233
-26.29	33.0732		72.3576
-22.7456	31.9584		72.3263
-30.0252	33.8229		72.372
-47.1807	87.5063		33.8944
-46.6389	82.5822		41.1661
-41.4268	91.224		36.1245
-48.1988	91.9566		23.9933
-33.8938	83.3248		52.7086
-39.624	80.9936		50.2802
-34.8067	88.5685		46.5137
-31.3936	53.6221		74.0337
-36.2257	52.0582		73.0942
-31.4163	50.1389		74.8865
-33.3804	41.4268		74.6084
-32.7578	43.9941		74.946
-31.8082	47.2285		75.1106
-33.7588	33.8276		72.3211
-38.1969	33.2615		71.9624
-34.5489	32.4088		71.7706
-45.7962	78.0323		46.8232
-44.8433	73.4518		51.6129
-52.0629	74.7147		42.3059
-41.6643	50.108		68.9774
-47.4775	47.4562		65.4116
-41.9849	29.7622		70.8456
-44.8024	28.4793		69.9207
-38.668	30.8686		71.2833
-42.1341	30.8598		71.0344
-43.4102	36.0314		71.1686
-48.4436	34.7217		69.1475
-42.9079	34.0535		71.1952
-42.4926	32.2142		71.1475
-43.7224	68.6172		55.9777
-50.2616	65.2738		51.6324
-57.8671	71.7182		36.3343
-62.9021	68.9551		29.0558
-57.2513	66.8587		41.5779
-45.3799	25.528		68.5639
-46.9767	23.6908		67.2395
-47.2281	26.7981		68.5119
-48.6786	24.8416		67.1896
-46.0462	26.1786		68.6723
-52.5793	32.5945		66.7365
-55.3841	29.3202		64.3285
-18.616	34.4874		74.4213
-17.7948	35.9633		75.2401
-19.0825	32.6665		73.4754
-15.9193	32.2984		74.3398
-16.409	37.4774		76.0552
-13.9894	35.1786		76.1042
-19.4431	30.142		72.1324
-20.117	28.3117		71.0988
-6.52058	43.0039		78.3898
-66.8455	-64.7279		-6.69766
-66.7414	-65.3736		-12.9954
-68.7045	-59.7753		-5.00428
-80.0794	19.4731		-38.1083
-81.4514	14.157		-32.6817
-80.7113	22.2465		-30.0634
-78.7923	24.7477		-43.1204
-79.6509	15.2801		-43.604
-76.2339	-11.901		-51.9689
