1815
-97.7858	59.646		-43.1643
-102.085	56.2298		-29.2198
-107.591	51.2094		-31.7479
-95.8708	60.8253		-26.5374
-20.359	63.0987		-101.086
-7.27061	61.1742		-100.985
-21.5811	58.5115		-106.687
-18.9818	67.08		-95.159
5.5256	58.6272		-99.5646
6.12175	62.6026		-93.8354
17.9634	55.6479		-96.4956
5.04993	54.1526		-104.805
29.495	52.0383		-92.1489
40.7487	47.8384		-85.7657
29.7801	47.8373		-96.9118
29.404	55.6017		-86.8727
51.0359	43.5652		-77.1415
50.0605	47.2172		-72.4917
59.5792	39.6306		-68.4082
51.1471	39.481		-82.2557
66.9244	36.0748		-60.7343
74.4717	32.6262		-53.8375
67.3862	32.0705		-65.5067
66.2482	39.3407		-55.5793
100.227	24.9993		-42.4594
110.073	22.9115		-40.9988
100.391	21.1369		-46.9525
90.998	27.2992		-44.5848
100.358	28.1777		-37.3677
118.075	13.4394		-46.6953
126.716	12.3808		-44.5691
117.374	9.0714		-49.4217
109.247	14.9938		-48.7484
118.786	17.6768		-43.2747
82.5502	29.6807		-48.3347
81.9373	32.8886		-42.8771
82.6279	26.0845		-53.1848
-55.8779	76.5205		-55.5194
-62.9016	75.7158		-45.5343
-50.6478	77.9029		-47.3862
-46.9719	77.0292		-63.9183
-60.5223	74.5312		-62.9618
-68.2757	74.3269		-35.318
-61.8403	75.4164		-27.6521
-74.5712	72.3884		-42.017
-72.4077	72.3996		-25.0193
-76.331	69.3308		-15.3313
-70.2346	69.5877		-8.40599
-82.7507	67.5684		-20.033
-17.7024	70.3498		-89.1753
-29.9454	71.7108		-87.3202
-16.1585	73.0351		-82.9108
-5.34813	68.469		-89.2591
-42.4634	72.3569		-83.8949
-54.1856	72.4116		-78.1313
-39.7218	74.9768		-77.1929
29.0333	58.9027		-80.8836
18.0392	62.9186		-84.8907
28.6018	61.833		-74.3521
39.547	54.4737		-75.1982
6.74483	65.9601		-87.8139
6.97467	68.8953		-81.5919
48.7442	50.3171		-67.7179
47.5547	52.9952		-61.9146
57.3005	46.2351		-58.5832
64.7153	42.2505		-50.7642
62.2937	44.9746		-46.5089
81.2694	35.7419		-36.2638
82.0556	37.3846		-28.5368
90.5874	33.0786		-33.1585
-22.2601	78.8982		-39.938
-14.4233	78.8328		-45.5606
-26.0525	79.29		-47.1477
-91.9305	56.5706		1.7238
-91.6584	60.8081		-11.1057
-43.4891	72.1806		-5.37368
-49.6116	74.2178		-12.262
25.5977	67.9303		-56.7096
26.9314	66.1902		-62.2863
17.0745	71.3572		-60.2097
24.5453	69.2608		-50.6752
34.0575	63.713		-51.8788
8.15677	73.9512		-63.141
7.79253	72.7172		-69.4545
-0.939309	75.9794		-63.9248
8.63942	74.8238		-56.1997
-10.7195	77.5658		-62.9805
-12.6791	76.5698		-69.9349
-20.355	78.6348		-59.8151
-8.5038	78.0784		-55.7507
54.1887	51.0194		-35.8494
57.1647	49.0312		-39.2587
48.1891	55.0117		-41.1611
51.2166	52.9321		-32.1965
60.37	47.2654		-30.6069
36.4935	63.0053		-37.978
42.356	58.9866		-33.3787
39.0318	61.241		-42.0973
30.2062	66.8124		-41.757
83.1372	38.3701		-21.8009
74.5952	41.0744		-23.7975
35.9713	52.9295		19.2752
32.0888	53.6716		20.3935
38.1022	50.0363		21.8335
30.0571	53.5851		21.311
6.05201	63.1676		13.6997
1.57645	65.6037		10.3913
6.55588	86.7432		-19.7047
0.241213	87.368		-18.9464
6.79965	87.1044		-18.7968
39.9811	65.5646		1.17589
41.6322	62.8168		4.83972
-5.37074	86.9629		-16.9823
-5.62705	86.2061		-17.7491
-9.65528	85.8561		-14.1252
-4.8008	87.5653		-16.0758
-6.91937	74.3981		2.1832
-6.8473	73.2622		1.22683
-12.2153	84.308		-10.6822
-11.6485	84.9042		-9.57336
27.3579	76.6456		-11.6954
38.8301	64.6611		8.70844
37.9429	63.236		11.0463
40.7963	62.681		8.40175
-0.44708	67.019		8.13486
-12.0996	79.471		-6.7966
-10.0106	76.3192		-3.95053
-10.9113	78.6354		-8.27524
-6.8454	72.3796		-0.499848
-6.90438	71.9936		-2.30496
-5.48943	85.5902		-18.0661
-6.35666	71.5615		-3.7677
-7.43242	73.8456		-6.47703
-8.14678	76.6474		-9.96434
-5.94796	74.3718		-10.9209
33.4486	72.299		-2.86901
32.9367	69.8977		4.75552
41.9354	60.9897		7.94089
36.4494	61.9801		12.8096
33.7689	63.7535		12.3409
31.8172	65.4703		11.1167
30.614	66.5613		9.92465
7.00127	87.1258		-18.2883
0.926133	88.016		-17.4923
-11.2763	81.09		-2.23907
-10.7118	81.0717		-1.74879
-11.9216	83.3749		-5.28011
-10.1592	80.8774		-1.44557
-10.897	83.2077		-4.42457
-9.0702	80.5202		-1.34256
-4.34147	87.7445		-15.5096
-8.38159	86.7154		-12.5472
-3.87727	87.7266		-15.2074
-11.0482	85.2		-8.79553
-10.4872	85.2711		-8.45504
-9.98564	85.0886		-8.02053
-7.45211	86.5583		-11.8556
-3.60516	87.5275		-14.8027
10.8854	85.4677		-16.2383
-7.66326	80.1231		-1.55629
-1.4912	75.4982		2.08934
-4.86917	84.1413		-8.94311
12.4318	83.0561		-10.7477
10.5204	83.3864		-10.9458
8.53068	83.5123		-10.9051
6.80227	83.3535		-10.4987
5.23331	82.9087		-9.73371
3.6178	81.5035		-7.79422
26.3895	64.5669		10.6166
28.4991	65.9321		9.76712
4.00032	71.4642		6.21875
17.9609	64.5394		9.98064
30.0575	66.9477		9.2894
-54.0403	12.0466		65.2346
-110.501	29.2083		20.8884
-113.331	33.3668		9.1699
-121.078	4.55117		15.7868
-124.902	8.07501		2.67788
-122.263	-3.32274		13.8159
-115.065	37.4706		-4.49752
-114.913	41.5825		-19.077
-127.135	11.7118		-11.9908
-128.31	3.98875		-14.089
-120.072	33.2501		-40.0014
-116.694	39.663		-37.2106
-112.565	45.5845		-34.5895
-107.812	49.2465		-49.881
-64.8713	52.1274		28.2717
-64.304	68.3551		-1.11851
-59.8152	72.4644		-10.2439
-89.524	64.5853		-23.8829
-85.5832	67.6518		-35.8079
-110.35	26.1924		-78.535
-99.3024	28.6957		-93.4995
-111.403	18.5609		-80.6471
-100.881	52.0076		-64.7706
-90.9087	54.3021		-79.1425
-55.6422	75.181		-19.8571
-51.099	77.2273		-29.6296
-80.9015	69.447		-47.7844
-74.146	70.8195		-59.0466
-45.4984	78.3397		-39.232
-38.4144	79.0399		-47.894
-30.0845	79.113		-54.7984
-33.5167	78.3769		-62.4828
101.07	30.8851		-31.2431
111.191	29.206		-30.0236
120.644	28.2901		-28.489
129.423	27.6681		-27.2632
119.825	25.045		-34.4832
-85.947	30.2374		-106.324
-70.9266	30.9276		-116.112
-86.7172	23.0038		-108.513
-56.0119	30.9313		-121.99
-41.2175	30.3659		-125.156
-56.7049	23.9308		-124.024
-27.1826	29.341		-126.365
-13.4795	27.8126		-126.035
-27.9624	22.268		-128.407
0.563299	25.7389		-124.227
-0.00724411	19.0786		-126.17
28.2414	32.2413		-110.23
29.0373	37.6557		-106.265
49.1534	13.9682		-99.6515
58.4691	10.319		-88.7826
48.7755	8.34504		-101.122
65.0924	7.66289		-80.8377
64.765	2.16055		-82.0734
97.2491	-1.12662		-60.5591
96.6163	-5.75123		-61.8951
-50.9066	55.6416		-107.305
-64.9275	56.0076		-101.284
-36.6495	54.7103		-110.654
-78.4794	55.5807		-91.9135
-22.9128	53.2039		-112.071
-9.28077	51.3475		-111.733
4.22361	48.9611		-109.966
17.4523	46.2122		-106.535
29.5487	42.99		-101.707
40.7435	39.1353		-95.3039
50.9415	34.8088		-87.1051
59.7959	30.6952		-78.1587
67.1633	27.6266		-70.1136
74.336	24.852		-63.2139
82.2624	21.8584		-57.7549
91.0644	19.2179		-53.583
99.9983	17.0432		-50.825
119.263	21.6387		-39.2111
128.037	20.828		-37.4041
-65.2346	71.7762		-69.5959
-37.115	76.9722		-69.9618
-25.7447	76.3353		-74.1793
-14.7047	75.07		-76.656
-3.45425	73.307		-77.0717
7.27577	71.0529		-75.6745
17.7804	68.1151		-72.4077
28.003	64.1268		-68.1902
37.3868	59.7317		-62.9792
45.6594	55.3558		-56.9495
43.869	57.3472		-51.5264
53.3338	51.0132		-49.6121
59.7844	47.1131		-42.9448
67.1607	43.9888		-26.0875
64.9033	45.3484		-22.7598
-6.80945	78.1715		-49.254
1.19499	76.9638		-50.4165
-4.71001	77.8745		-42.1202
23.3689	70.2608		-45.3986
16.1479	73.1264		-48.0386
41.5658	59.3045		-46.7962
8.64357	75.3445		-50.0989
48.0972	54.9569		-28.7055
53.8636	51.2313		-24.1554
78.3451	-19.6641		65.4628
63.961	30.9959		33.8404
78.3063	19.3142		37.5957
9.83049	-24.6773		105.28
11.2706	-21.6604		104.707
13.8983	-18.471		103.381
21.3013	-31.1988		109.044
22.3536	-31.1046		109.56
23.4689	-31.0107		109.92
30.8533	-16.0893		102.482
28.7034	-16.4985		102.805
26.8661	-16.9079		103.033
7.61416	-19.8496		102.794
22.3913	-0.629288		95.4317
-0.246155	-5.19231		93.5425
4.50929	-4.98246		95.3462
9.18503	-5.11883		96.6214
17.433	25.4484		79.5868
-50.158	-0.960008		63.7457
-2.80189	77.2925		-34.6828
-6.67026	74.9048		-15.596
-5.36894	74.5593		-12.6444
39.8393	47.0707		25.603
-38.8733	3.05605		67.1616
-64.274	33.015		56.4109
-8.32357	-26.0755		96.1206
-43.7326	22.8873		63.8397
-8.98665	-22.0365		95.1528
-5.47941	74.152		-11.6568
106.047	35.945		-4.37463
70.6345	43.8784		-7.82207
65.7136	45.5146		-14.6672
61.1493	47.4964		-19.7117
-8.76958	-10.4951		91.3054
20.2238	-24.7075		105.816
21.8561	-12.7637		97.7175
15.6455	-30.8582		103.856
28.369	-82.2748		7.70015
23.4601	-82.7702		7.51713
28.2031	-81.9035		-0.0642157
32.9929	-81.6129		7.74171
28.0223	-83.0301		16.3232
98.9825	-77.2542		5.20576
88.9018	-74.7323		3.31439
98.9343	-78.3645		0.307182
109.299	-80.2207		6.57165
98.9176	-75.5457		10.0326
116.876	-82.555		7.17407
117.512	-81.4122		12.4689
116.348	-83.0899		1.98747
122.844	-84.4289		7.42888
80.8742	-68.9886		12.6311
81.1669	-71.4417		7.11329
88.5802	-70.4358		13.413
81.1243	-66.4639		17.9207
74.8662	-68.7094		12.3211
82.9247	-75.5632		-6.94287
82.2314	-74.74		-2.41263
77.5939	-74.8999		-7.79292
83.1642	-75.5536		-12.2625
89.8013	-76.7566		-5.84474
43.772	-80.2962		22.5984
44.7848	-79.3127		15.2241
47.9671	-78.4228		21.4786
43.3063	-80.7827		29.6602
39.7322	-81.7026		23.3377
-53.1711	-76.4331		-5.48688
-48.5592	-77.9945		-16.9593
-46.4165	-77.5685		-0.277018
-59.0375	-74.0469		4.86959
-59.8566	-75.4406		-12.2503
-48.8282	-72.1289		-60.1961
-43.062	-75.0467		-53.7971
-53.6019	-74.0353		-50.6497
-54.0963	-68.7626		-66.6759
-43.0613	-70.3868		-68.4631
82.3865	-40.3311		59.335
78.2786	-40.6342		60.9207
82.7026	-43.0427		57.0966
91.3824	-41.4373		59.1321
82.2256	-38.1368		60.8033
104.561	-43.7136		58.3325
117.209	-46.0081		57.6542
104.62	-41.1283		60.1534
103.869	-46.3846		55.8903
126.402	-41.2717		60.7815
131.957	-42.2921		60.818
117.927	-40.1043		60.882
125.935	-44.4539		59.3561
46.0093	-72.8084		-34.9048
39.8364	-72.0329		-41.0697
52.6219	-70.726		-35.1714
50.6403	-73.8602		-28.1573
39.4044	-74.8371		-34.7218
35.3922	-71.7805		-45.6349
29.8524	-74.6905		-44.4526
31.4466	-71.6817		-49.4757
42.1458	-68.5103		-46.6416
114.304	-80.0063		-15.175
115.392	-82.1264		-8.51227
113.683	-76.9619		-21.8827
121.358	-81.0545		-15.6192
104.976	-38.6444		61.4707
91.5961	-37.2145		62.0261
27.0525	-83.826		24.2727
31.8338	-83.3627		24.4809
25.4856	-84.2288		31.312
21.5808	-84.0821		23.159
45.461	-78.5171		7.22898
41.3574	-79.757		7.49962
46.8413	-77.7077		-0.943623
49.5367	-77.0357		6.56603
60.4148	-51.0272		101.073
54.7632	-50.7405		102.316
59.4507	-53.9015		98.2671
64.7663	-50.7902		99.2378
61.0836	-47.9084		103.318
57.7458	-56.9451		94.4854
52.583	-56.9829		95.24
56.3469	-60.047		89.3097
62.4857	-56.3715		93.2059
49.9672	-44.2223		106.409
55.7828	-44.6781		106.148
44.8249	-43.7962		106.028
49.6053	-47.1989		104.838
67.3348	-50.3396		97.1279
67.7134	-47.579		99.1547
66.7224	-53.0066		94.5447
69.3857	-49.8066		93.6478
70.8962	-48.9811		88.8088
71.7943	-47.8039		83.0202
71.3933	-46.0114		90.7194
-36.9822	-41.9142		70.3356
-38.8842	-39.4459		71.4796
-39.677	-40.7002		66.4514
-35.4917	-44.3619		68.9844
-33.9386	-43.3608		74.124
-8.23264	-74.885		65.7235
-3.45045	-75.9203		66.0655
-10.7171	-70.062		69.9818
-13.184	-73.7433		64.7626
-6.07833	-79.2433		59.6728
-15.1613	-80.5955		50.381
-9.6227	-81.8267		51.2914
-16.6339	-76.8304		57.6691
-20.9298	-78.8365		49.1407
-14.1802	-83.1944		41.1677
-29.1526	-81.2898		21.7082
-32.4581	-79.898		25.6546
-36.351	-79.0948		18.8127
-26.297	-82.0095		17.0652
1.3918	-76.3662		66.0752
-1.12004	-71.8702		71.3189
3.83357	-80.1932		59.4659
6.39343	-76.3582		66.3992
-39.353	-30.7405		87.6431
-38.9769	-32.5079		86.8616
-36.3507	-32.5226		92.5893
-42.7472	-28.9282		82.4957
-100.311	-42.3719		34.4508
-104.755	-41.4578		28.8007
-98.5336	-47.0644		30.8786
-95.1611	-43.2182		40.8711
-101.297	-37.8801		37.4836
73.5642	-40.4642		79.6945
72.6668	-42.0441		86.5371
73.2679	-42.9752		78.193
74.382	-38.6843		72.8159
23.6162	-84.0775		38.3878
17.6336	-84.5477		37.4473
29.7624	-83.3154		39.5668
21.3609	-83.2927		45.4423
68.0478	-44.5559		100.682
70.2299	-44.0774		96.9804
65.6121	-44.7092		102.944
71.6971	-43.2424		92.2048
58.7362	-68.4193		65.3286
54.911	-69.332		67.715
55.5131	-71.6767		59.3672
61.6859	-67.0629		63.391
60.9931	-65.1476		72.1211
64.6355	-66.6684		42.485
66.7141	-64.0015		48.568
60.9443	-69.8326		45.5705
62.397	-68.9601		35.8922
68.777	-63.2854		38.8989
75.6521	-36.8889		66.5815
77.8929	-36.0546		63.4656
75.7062	-38.9989		65.2971
-32.9214	-37.9952		94.0745
-33.6835	-35.9597		95.8206
-35.3132	-36.3273		89.9722
-31.6272	-40.1892		91.6279
-31.1324	-39.236		97.2313
-16.0567	-54.8139		77.7605
-18.9921	-51.5822		79.3878
-20.907	-52.6812		77.0465
-14.4528	-58.4866		76.024
19.2684	-62.5732		82.9634
19.5348	-61.0109		84.1241
18.4725	-61.4473		83.6198
-12.985	-44.0044		90.3374
-12.4861	-45.5444		88.621
-11.7945	-43.3345		90.2269
-14.5603	-45.4333		89.9698
-8.178	-43.6475		89.6401
-8.74878	-41.956		91.0242
-9.17954	-43.3687		89.5999
-7.89404	-45.829		87.7265
-6.79527	-44.3882		89.8116
-12.6893	-35.6705		98.5536
-12.7813	-37.0312		97.3939
-11.2781	-35.6327		97.5151
-14.1811	-35.841		99.9608
-8.33559	-48.0056		85.7206
-6.92793	-48.7403		85.8553
-9.42102	-47.518		85.8866
-9.58222	-49.9354		83.7248
-24.2944	-41.0765		101.908
-25.9848	-41.052		101.822
-23.7541	-43.0341		98.3999
-22.1765	-40.9618		101.426
-24.4289	-39.0865		104.376
34.408	-60.7346		88.6105
39.0351	-61.7682		87.2867
36.1396	-58.286		92.5744
30.469	-59.6782		89.8971
32.1259	-62.7782		85.1662
12.298	-60.8106		85.1877
13.1769	-62.4732		83.5006
11.3084	-59.035		87.2483
8.2086	-59.8824		85.6068
-6.56472	-36.2549		96.6625
-8.47787	-35.9543		96.5404
-6.82486	-37.6769		95.8252
-4.43598	-36.5802		97.3791
-38.2141	-34.5541		85.5101
-41.1592	-33.1743		80.7514
-36.73	-37.1051		83.6768
-19.9447	-48.8319		85.1299
-19.9898	-49.0331		84.0593
-18.2011	-49.097		84.8772
-21.2589	-48.3069		86.5202
-22.2468	-47.97		86.3169
-10.359	-38.1902		94.8043
-10.2504	-37.0971		95.8808
-11.5097	-38.1482		95.139
-9.93388	-39.2943		93.5552
-8.71274	-38.2906		94.768
-12.6253	-38.081		95.9853
-13.9651	-38.2558		97.1499
-22.5923	-47.581		87.9254
-20.7971	-48.1576		87.5965
-23.4764	-47.2191		87.8933
-15.3733	-49.0608		84.616
-12.8458	-48.4375		85.0555
-17.3117	-48.6221		86.2335
2.45613	-38.4314		101.707
0.0956707	-37.7697		100.042
1.95971	-40.5137		100.727
4.07484	-39.0942		102.741
-4.73685	-54.6189		82.8027
-8.40673	-52.6866		82.0791
-4.70266	-56.7135		81.4409
-0.730993	-56.6396		83.998
-4.76071	-52.4567		84.4429
32.3415	-49.3255		102.892
31.734	-52.3005		100.442
35.3965	-49.7068		102.181
33.0133	-45.8461		104.988
29.8419	-48.9855		103.732
13.9429	-57.6213		89.1205
12.0202	-57.3862		89.6011
15.8069	-59.558		85.967
14.7866	-57.966		88.5258
-24.0306	-46.8898		87.6084
-25.5638	-45.6296		89.4264
-24.4563	-46.7291		86.2933
30.9145	-54.7385		97.7907
28.8369	-54.3951		98.5556
29.7505	-56.9732		94.5412
33.6921	-55.1732		96.9377
33.6056	-42.7326		106.297
31.4049	-42.5914		106.959
36.2243	-42.8565		105.866
-59.4489	-71.7428		29.7843
-60.0656	-71.8144		27.2208
-52.7362	-73.3622		27.0274
-58.9933	-71.4454		32.1322
-87.0355	-53.5296		37.3039
-91.5015	-52.8877		31.6007
-83.7341	-58.4151		32.2823
-83.1917	-54.1795		42.3248
-89.1373	-49.1942		41.9278
-79.2349	-63.2379		26.8314
-83.4294	-62.4947		21.1166
-73.5562	-67.4266		20.8665
-75.9249	-63.9694		31.8872
-76.8125	-56.1852		47.3195
-79.0262	-55.4028		46.2477
-74.3062	-57.0047		47.9072
-78.6106	-52.3692		52.5184
-60.433	-72.0207		23.1858
-52.4606	-74.4071		18.8905
-68.1246	-68.8108		29.6092
-62.3189	-71.744		19.082
-66.2752	-41.9741		58.6458
-64.8086	-39.28		59.983
-67.9759	-41.2538		59.5049
-67.3051	-45.5376		56.6708
-64.2348	-42.8785		57.2648
-48.2562	-30.5086		71.1284
-46.4668	-31.031		73.1799
-49.4278	-27.7753		72.9206
-49.6926	-30.0175		69.9768
-46.4085	-33.2415		69.0069
-30.746	-55.2313		65.3579
-32.4519	-49.8418		67.5152
-34.0219	-52.7927		63.1794
-29.4695	-61.7729		62.2931
-26.8121	-57.8001		67.8305
-38.5055	-74.4279		35.8239
-36.1081	-73.6581		40.5299
-40.6434	-72.1259		38.0334
-42.371	-73.9478		32.9722
-36.6306	-76.3207		33.6076
-44.0772	-31.897		76.427
-45.2675	-29.4173		77.585
-42.3575	-34.5649		74.9526
-72.1981	-57.6884		48.0993
-70.1584	-57.8459		48.3554
-74.0688	-53.3085		52.9609
-70.3362	-62.1762		43.9171
-67.2737	-66.4987		39.7441
-63.1462	-69.3587		36.5832
-65.4741	-66.3638		40.8513
-48.3184	-70.0438		37.0787
-47.8364	-71.4403		34.9289
-44.9569	-70.2247		37.8834
-48.7771	-68.4076		39.1604
-52.3415	-69.697		37.2116
-54.835	-59.8972		46.4307
-56.058	-58.4254		47.4935
-53.3234	-61.1487		45.4427
-56.897	-56.9285		48.2168
-57.1607	-54.9265		48.792
-57.8934	-56.8377		48.4174
-57.0333	-58.65		47.5576
-58.1241	-54.6082		49.0789
-57.2138	-52.3383		49.5194
-56.7964	-49.8347		50.2896
-58.0671	-51.9703		49.8256
-57.5475	-49.3098		50.652
-55.8131	-47.4966		51.0589
-54.2802	-45.3605		51.7734
-52.4205	-43.4922		52.2988
-50.6352	-42.1612		52.7044
-53.0273	-42.4847		52.7567
-54.7976	-44.3594		52.233
-51.2042	-41.2489		53.1378
-49.1466	-41.449		52.9258
-53.4622	-41.4604		53.3835
-55.5058	-43.4365		52.8443
-59.0844	-51.6596		50.2441
-58.4933	-48.7954		51.1776
-48.2771	-64.3376		43.4298
-47.4398	-63.6323		44.3804
-67.8805	-49.5986		54.4624
-65.7627	-49.8895		53.5506
-70.1008	-49.2558		55.1868
-68.0468	-53.8547		51.8318
-60.0559	-63.8548		44.2554
-58.4272	-62.4614		45.3732
-61.9058	-61.092		46.4659
-61.9443	-65.0788		43.0404
-41.1658	-58.143		52.9468
-41.1057	-52.5185		55.8358
-41.78	-62.2907		49.6065
-39.712	-59.1307		53.5475
-41.6905	-47.5749		57.0459
-40.5448	-48.1855		57.9711
-42.4935	-44.2165		57.239
-44.9154	-40.7347		56.1229
-44.0704	-41.5985		56.6291
-45.5907	-40.252		55.6514
-43.8658	-56.5617		51.8546
-43.6651	-51.5944		54.2152
-44.8467	-60.1906		49.2099
-44.8243	-42.8386		54.7571
-45.1705	-42.0746		54.4722
-44.3525	-44.3319		55.0806
-45.5161	-41.5022		54.3365
-46.0083	-40.9886		54.2008
-53.5124	-36.7363		57.9961
-55.5457	-35.4236		59.9452
-55.5412	-37.6552		57.4289
-51.4259	-38.1705		55.8575
-46.8861	-39.771		55.1494
-57.2478	-46.0079		52.0569
-50.4697	-38.8839		54.9563
-52.1738	-39.4998		54.4959
-48.9177	-38.6596		55.5586
-45.0193	-56.2477		51.3033
-44.7343	-51.2695		53.581
-45.3945	-42.7857		53.897
-45.204	-44.1254		54.1273
-45.5552	-42.0838		53.8229
-45.8002	-41.6594		53.633
-51.8246	-62.0451		44.6986
-63.8593	-24.5623		68.0565
-67.4825	-24.7614		67.3717
-63.7039	-26.9435		67.1888
-60.5651	-24.3595		68.724
-38.874	-43.9034		62.7614
-37.7806	-46.5401		62.2215
-37.0259	-44.9903		65.0185
-40.0314	-41.9774		63.1403
-40.2092	-43.2311		61.1126
-41.439	-39.927		63.9319
-43.0189	-37.8642		65.1032
-44.9214	-39.1854		58.7391
-46.1197	-39.0447		57.2447
-45.8068	-37.7378		60.2843
-52.5593	-33.1256		62.9977
-53.6133	-32.187		64.0586
-54.6952	-33.659		61.9986
-43.2736	-42.574		57.0207
-42.4426	-42.6112		58.2187
-41.3754	-42.7598		59.6435
-40.3226	-45.0682		59.4961
17.5978	-54.4779		90.0396
16.9441	-52.0125		93.0948
17.9318	-56.756		86.8124
17.6111	-54.3456		89.7924
18.2525	-58.1324		85.1576
18.198	-57.842		85.1804
7.34905	-40.0068		103.914
8.86036	-40.2106		104.082
6.00841	-39.739		103.612
7.0663	-42.4724		102.736
10.3287	-45.0817		101.588
10.7783	-47.2356		100.171
11.968	-44.9574		101.425
10.2172	-42.8818		102.848
8.74591	-44.8986		101.673
11.3332	-49.4491		98.4027
12.488	-51.9588		96.0167
13.0442	-49.4847		97.9801
9.83053	-49.4157		98.5497
7.14893	-44.5789		101.606
5.74515	-44.2444		101.412
7.63392	-46.8024		100.271
5.91056	-47.9376		98.7885
7.03613	-48.8093		98.5756
5.15959	-45.5684		100.299
4.80605	-47.297		98.6815
14.8457	-54.5935		92.4516
13.1667	-54.4968		93.3397
13.6676	-44.5416		101.067
14.0499	-47.1177		99.2989
14.5422	-44.1577		100.697
13.3564	-42.2824		102.446
14.8254	-49.6635		96.9779
15.7899	-49.5472		96.3001
16.5849	-59.0418		86.1745
18.2334	-60.0268		84.4973
18.4401	-55.0331		90.7008
18.5797	-55.2063		91.0304
18.1959	-52.6185		94.3132
18.4287	-54.9174		90.4703
19.7357	-56.0479		91.8377
20.3228	-54.2722		96.0898
19.2838	-55.7609		91.6456
20.4137	-52.1769		99.5094
21.2821	-52.7424		99.6094
20.3129	-49.7907		102.333
19.5805	-51.7244		99.0644
18.0569	-45.6054		103.487
18.2061	-43.0393		105.105
16.9575	-44.9814		102.497
18.2071	-48.4879		101.168
19.3189	-46.307		104.37
21.4175	-41.8335		107.993
20.0614	-41.4277		107.264
20.8176	-44.1105		106.798
22.67	-42.1395		108.485
19.8864	-58.3595		84.6242
19.1204	-58.3595		85.1758
19.6331	-57.0513		86.6618
21.5278	-58.215		84.2744
17.756	-39.4623		101.388
16.779	-39.6072		102.304
19.7059	-39.361		100.579
17.7855	-41.4622		100.527
23.8863	-42.3429		108.774
23.0895	-44.7973		107.561
25.0081	-42.5128		108.844
29.2945	-42.5483		107.738
27.4604	-42.598		108.382
28.4389	-45.3094		106.636
4.84865	-43.8326		101.231
4.64649	-41.7957		102.157
3.61125	-42.9293		100.964
18.5734	-40.9532		106.219
17.2389	-40.4151		105.055
16.6015	-40.0919		104.254
16.38	-39.9727		103.659
16.4558	-42.157		103.317
16.4626	-44.6148		101.844
16.3303	-44.3854		101.392
16.8327	-47.4212		99.7982
16.4069	-39.8568		103.038
16.3382	-41.7819		102.188
17.4709	-50.0421		97.262
17.8461	-50.4783		97.7508
17.3894	-49.8152		96.819
24.2338	-53.7144		99.8077
25.3976	-53.9618		99.5387
24.4339	-51.4436		102.593
23.2201	-53.4518		99.8791
24.5262	-48.3897		105.415
25.8082	-48.6176		105.072
25.2352	-45.1455		107.58
23.5019	-48.0958		105.573
26.1301	-42.5891		108.722
16.1122	-49.4304		95.8268
16.1951	-49.1869		95.3162
15.3471	-46.7807		98.2738
18.676	-58.4705		85.8209
18.7003	-57.2861		87.794
17.9472	-43.9296		99.1823
16.9317	-43.9688		100.058
19.7059	-44.0183		98.4275
18.2255	-46.6754		97.3314
16.4437	-44.1426		100.837
16.8654	-46.9005		98.8184
27.6075	-48.7395		104.544
27.386	-51.8505		101.811
22.2336	-53.1098		99.8305
22.3175	-50.7879		102.716
26.9867	-54.1666		99.1342
26.0365	-56.1288		95.9808
15.9575	-48.7356		94.8798
16.6234	-51.1335		92.6355
14.8014	-47.7164		93.7887
15.277	-46.2231		96.7095
14.8824	-43.5972		98.3591
15.0471	-43.7823		99.4964
13.8706	-43.3403		96.3274
14.6779	-41.3739		99.2481
12.0337	-46.3689		91.8452
12.5685	-48.4566		90.3735
8.2874	-45.4072		89.6374
11.5523	-44.3434		93.0113
25.1915	-58.1464		84.3198
24.9348	-56.8419		86.5066
29.6272	-58.1072		84.8537
23.4753	-39.511		100.42
27.903	-40.3136		100.959
23.3379	-41.5204		99.5826
11.2102	-42.3694		93.9533
7.48317	-41.2864		91.7446
10.9457	-40.3069		94.7571
23.2637	-44.0959		98.2152
27.8464	-44.841		98.5684
23.4229	-46.889		96.4089
21.1186	-59.363		77.8763
21.621	-59.4731		76.8916
-47.05	-35.6774		62.63
-45.9742	-35.5009		64.6966
4.56112	-78.6538		-60.6794
4.4523	-80.4451		-59.2124
0.0198793	-78.673		-62.0897
5.05121	-76.2211		-63.698
8.70947	-78.6295		-58.56
-23.5757	-81.7868		-29.6228
-26.856	-81.3069		-25.3119
-25.3253	-81.1189		-34.6526
-26.0198	-80.1054		-40.3378
-23.7493	-79.6341		-47.1149
-20.8543	-80.9952		-39.984
-31.018	-78.919		-43.1023
26.1315	-77.2267		-43.5383
22.7648	-77.6342		-46.654
29.548	-77.1174		-39.6562
23.2935	-79.5731		-43.0825
19.7001	-77.8638		-49.9191
17.8558	-80.2091		-48.9274
16.2506	-78.2051		-53.0597
22.6281	-75.1267		-51.6008
4.02307	-82.0072		-58.7026
-0.835511	-81.6849		-60.3647
7.87609	-82.103		-56.5214
3.26423	-83.5202		-58.8448
17.7305	-85.4103		-46.5952
18.3941	-86.7563		-45.462
16.731	-83.6685		-48.1002
18.803	-87.7828		-44.4276
15.3509	-88.0785		-47.8333
22.0932	-87.4659		-40.5877
18.8343	-88.7196		-43.2907
8.95219	-91.046		-48.2908
5.28838	-91.3224		-52.9254
8.19639	-91.0846		-47.6731
28.6681	-84.4459		-28.826
27.842	-84.1865		-32.3994
28.4621	-83.1781		-30.9373
28.8079	-84.3739		-26.5053
28.6531	-85.0494		-28.1838
18.273	-87.2567		-18.9584
18.8285	-87.0098		-18.7069
20.1079	-86.473		-18.4989
7.7273	-91.0422		-47.3579
8.09597	-90.7486		-46.1287
-5.72967	-91.4936		-55.9074
-5.94884	-91.2407		-57.5682
-4.89063	-91.8098		-53.9165
-16.412	-90.8424		-56.4588
-17.734	-90.9245		-57.0177
-20.0745	-90.9497		-56.6366
-22.9157	-90.837		-54.1465
-20.4382	-91.0086		-57.2014
-20.4449	-90.7607		-54.3073
-4.21583	-86.8389		-26.3478
-9.55295	-87.3682		-28.8438
-0.305159	-86.4641		-24.3535
-5.23219	-86.4351		-25.1274
10.1839	-84.6186		-13.3867
5.82064	-84.7332		-14.2625
13.9927	-84.4425		-12.6633
10.0211	-84.1799		-10.2757
7.32235	-86.4939		-24.7376
5.42691	-86.2239		-25.44
9.41227	-86.9913		-24.7541
-20.3471	-81.0634		-39.8198
-20.4049	-81.1321		-39.6328
-20.7109	-80.7219		-43.6705
-28.4517	-88.2245		-44.5447
-29.3503	-88.5032		-48.3237
-28.1082	-89.2589		-43.5806
-26.0476	-87.6317		-40.4306
-28.4352	-87.1253		-45.5766
-28.5592	-87.1551		-53.2585
-29.071	-86.8649		-50.0703
-27.0635	-86.2398		-54.055
-26.3431	-87.2308		-56.5608
-28.8492	-87.507		-52.9036
-9.65312	-87.6583		-62.957
-10.1401	-88.751		-62.7601
-16.3162	-87.6947		-61.9464
-9.06656	-86.9014		-62.8137
-14.0251	-87.6598		-31.0062
-12.6579	-87.9949		-31.3621
-10.1529	-90.998		-60.4732
-15.8331	-91.1524		-59.8527
-9.96027	-91.0009		-60.8201
-7.33502	-91.0118		-59.7892
-24.8269	-90.8374		-50.4214
-25.2889	-90.6078		-46.1661
-25.9742	-90.9083		-50.1379
-23.2767	-90.6794		-50.7014
-14.2078	-88.5996		-34.3224
-16.3587	-88.7642		-35.8402
-12.5703	-88.3463		-33.1076
-11.5283	-90.885		-57.9063
-9.01815	-90.9482		-59.1498
-7.04348	-87.3207		-33.0651
-8.97463	-87.8127		-32.5986
-7.14166	-87.3321		-33.8775
-4.57732	-89.7921		-48.1794
-6.82471	-91.1998		-51.2857
-3.45168	-89.7838		-47.9944
-5.15824	-89.5699		-47.6275
1.91313	-84.788		-15.5728
1.57604	-84.4054		-12.7684
-2.42206	-84.8481		-17.9296
-6.39537	-81.4892		-60.4504
-9.19112	-82.2745		-60.4554
-11.5371	-81.0905		-59.6648
-5.41357	-80.2894		-61.1225
-15.0408	-84.4762		-59.83
-10.2688	-84.6768		-61.5339
-20.3571	-86.5633		-59.8628
-19.599	-84.2746		-57.7106
-8.01287	-85.9474		-62.2442
-2.29387	-85.3801		-61.1838
2.52476	-85.657		-59.3327
16.8442	-81.9845		-48.6822
14.0839	-82.1617		-51.4363
19.4653	-81.6678		-45.788
11.1646	-82.1679		-54.0956
11.8344	-80.409		-54.6355
7.81516	-90.321		-44.9959
21.9177	-81.2919		-43.0601
24.8924	-80.9854		-39.4964
27.7557	-84.5468		-23.7426
28.0131	-84.1014		-23.418
28.1722	-83.6044		-22.9023
29.3709	-82.6165		-28.3477
-2.61368	-90.0158		-48.3028
-3.54751	-91.4649		-51.3103
-6.05641	-85.9409		-24.0641
-6.7004	-85.3527		-22.7833
7.02846	-85.5198		-17.9939
7.3312	-85.7604		-18.6912
12.6775	-88.0363		-23.6046
11.8181	-87.9359		-24.834
14.9414	-89.0288		-24.8198
2.5604	-86.3122		-22.8353
3.21955	-86.411		-25.1021
-22.2354	-84.2449		-55.0516
-23.6709	-83.7496		-51.7589
-17.6125	-81.8788		-56.1665
-15.5362	-80.8523		-57.2494
-18.7233	-80.6298		-53.5309
-14.9076	-80.3437		-58.1073
-14.0053	-90.8105		-53.1523
-12.6076	-90.8829		-52.3536
-7.48996	-87.4457		-35.6027
-8.07674	-87.8811		-38.8127
-6.11281	-89.5122		-47.3646
-6.48902	-89.1512		-45.8866
-9.47962	-90.6404		-49.9901
-112.742	-16.6167		31.6324
-117.766	-14.3719		23.1026
-112.464	-23.9601		29.6696
-107.348	-18.7383		38.6444
-101.697	-20.5252		44.8034
-101.904	-27.4037		42.4696
-95.4468	-22.4989		50.7155
-90.1273	-44.5086		46.2989
-90.8122	-39.74		49.249
-86.1439	-45.7617		50.9011
-15.832	-36.0844		101.629
-15.6461	-37.6037		100.048
-17.672	-36.5037		103.111
-27.7591	-36.663		105.337
-26.2235	-36.8798		105.888
-29.2415	-36.4209		104.237
-27.6869	-38.7758		103.824
-24.3767	-37.0278		105.98
-22.3064	-37.0786		105.532
-9.96049	-35.7798		96.8486
-2.15	-37.0162		98.6007
-2.30364	-38.7817		97.9525
-19.9966	-36.9432		104.506
-19.8768	-38.7418		102.854
-30.631	-35.985		102.694
-32.1313	-35.2706		100.395
-30.3606	-37.9762		101.444
-79.5226	-25.4576		63.1895
-83.5268	-24.8932		60.746
-80.2417	-31.157		61.0446
-76.1698	-25.8241		64.6564
-49.9386	-25.7241		73.7374
-51.5162	-25.1865		72.4625
-48.2123	-26.4806		75.3859
-53.2179	-24.7827		71.341
-55.2538	-24.4785		70.3407
-52.6723	-26.8452		70.5803
14.6021	-39.1768		99.901
14.9873	-39.3782		101.661
13.4433	-38.8439		97.9454
14.8433	-39.5745		102.626
14.5472	-39.6838		102.999
14.7544	-41.5302		101.713
10.3162	-40.3599		104.058
11.8111	-40.3111		103.887
13.3325	-40.039		103.536
5.08154	-39.5346		103.247
10.7992	-37.9978		95.5026
7.1765	-36.9389		93.1893
-111.755	-29.9513		27.6676
-116.333	-28.2605		19.5788
-110.472	-35.446		25.5076
-106.955	-31.5255		34.1655
-81.5813	-36.0584		58.7431
-84.6592	-35.8255		56.9244
-82.8839	-40.976		56.1509
-78.0178	-36.6037		60.1781
-74.9322	-37.7748		60.6294
-71.7765	-39.5323		60.4427
-76.1527	-42.5783		58.1767
-69.7603	-40.5492		60.0445
-71.046	-44.3806		57.9439
-68.2767	-37.2309		61.8073
-58.0468	-45.2321		52.7843
-59.4627	-48.3118		51.7738
-56.2347	-42.392		53.7082
-59.5547	-44.6614		53.8136
-56.4373	-46.7531		51.486
-61.4907	-43.8141		55.3391
-59.8988	-41.0925		56.4442
-62.7496	-47.0529		53.9159
-109.878	-48.1955		0.00275993
-106.597	-49.7432		8.35267
-113.621	-42.8334		2.83515
-112.12	-46.657		-10.9881
-108.866	-40.3398		22.8292
-106.503	-45.4262		19.4324
-112.782	-39.1461		15.3501
-83.6757	-45.9804		53.0885
-82.8174	-50.6184		50.8458
-80.5146	-46.6628		54.7904
-72.2001	-49.0191		55.5561
-74.5688	-48.321		55.783
-77.6754	-47.2666		55.5997
-63.4213	-50.2921		52.4882
-63.3164	-53.9799		50.6
-61.616	-50.9625		51.4265
-103.304	-50.6993		15.0693
-99.7493	-51.4447		20.9064
-99.4562	-55.782		9.75292
-80.8207	-54.8543		44.7872
-78.0009	-59.489		39.9247
-59.8959	-57.4043		48.5346
-58.8805	-59.6838		47.2882
-60.2261	-54.55		49.6087
-61.2611	-57.4643		48.6386
-67.8142	-58.1277		48.4175
-66.3701	-62.4543		45.0041
-65.3772	-57.896		48.5948
-63.0094	-57.7004		48.6446
-95.8145	-52.0748		26.35
-92.1002	-57.1547		21.2326
-95.4996	-60.1271		3.0869
-91.3696	-63.5427		-4.73342
-91.8212	-61.0054		9.39728
-55.6677	-60.2345		46.4167
-53.9934	-61.5302		45.3681
-57.2418	-61.741		45.7856
-55.3545	-62.9172		44.7484
-56.4396	-60.7625		46.2765
-63.8009	-65.9322		41.8723
-60.3314	-68.0696		39.6131
-62.7647	-37.2343		60.7395
-64.4104	-36.1416		61.9944
-60.6162	-38.1948		59.1339
-60.214	-35.6365		61.1694
-66.1236	-34.7118		63.0857
-63.5318	-33.274		63.7654
-57.7971	-39.1256		56.9834
-55.8286	-40.0013		55.2661
-72.354	-25.618		65.9632
49.6986	-76.9192		-8.48466
51.8126	-76.1733		-14.8448
44.3099	-78.1477		-8.14096
-28.0914	-74.5702		-63.3744
-24.071	-77.3519		-57.0518
-32.6525	-76.0006		-56.2395
-32.1551	-71.9259		-69.2488
-22.6692	-73.8809		-67.732
6.60509	-72.8593		-68.9418
0.859867	-73.0107		-70.775
8.53755	-69.7883		-73.8352
12.0937	-72.9488		-65.6153
-5.33985	-72.8395		-72.2449
-5.25836	-76.1563		-66.086
-11.2938	-72.9755		-72.089
-5.04299	-69.5848		-78.5329
27.5834	-71.5994		-53.8561
22.5437	-72.1125		-58.1686
32.191	-68.3939		-56.0362
-89.2852	-24.1183		56.1331
-89.7427	-29.8724		54.264
-90.3348	-35.0734		51.8206
-96.2499	-34.6178		45.8082
71.4565	-52.839		68.2699
72.1749	-48.9659		73.3982
70.0391	-57.1209		61.3542
73.3754	-50.1602		62.0707
57.631	-72.311		48.0619
54.7044	-73.8505		50.6954
54.4301	-74.847		41.5559
61.2372	-68.8917		54.74
-87.6197	-61.8342		15.2204
-82.6315	-65.779		8.41762
-101.851	-32.9761		40.017
-86.7138	-66.6295		-14.0226
-82.0053	-68.1512		-6.74104
-82.1831	-68.8792		-23.6646
-120.945	-25.673		8.59095
-122.079	-19.0111		10.2878
-124.536	-22.5495		-4.24978
-119.095	-31.7633		7.09432
-66.0285	-71.171		13.3071
-71.5677	-70.1777		6.94545
-53.3367	-63.7843		43.8507
-58.3582	-71.0275		34.0219
-57.5471	-70.2821		36.0325
-52.6832	-71.957		32.6373
-56.6701	-69.2705		37.9172
82.3365	-36.0218		61.8561
44.0171	-80.2048		38.4306
48.2297	-78.5533		36.0947
47.0231	-77.9193		46.7634
39.918	-81.3836		39.9107
1.96337	-42.0111		100.12
-0.112875	-41.0811		98.8284
2.24818	-43.6451		99.4499
9.67058	-56.7238		89.7992
7.39783	-54.413		92.3257
5.70871	-55.5602		89.7007
-1.30925	-43.6629		96.0632
-3.6256	-42.4826		94.6764
-0.625317	-46.0839		94.669
0.863485	-44.8445		97.2997
-2.01914	-41.57		96.8711
13.7693	-63.7855		82.2004
9.69068	-63.2988		82.314
15.0192	-65.4966		80.4394
17.4361	-63.8775		81.9679
-45.6672	-75.2532		25.52
-45.1091	-75.9984		21.8366
-39.5992	-76.9535		26.6836
-46.3864	-74.2178		28.9327
-44.3401	-76.7361		17.4492
-42.3339	-77.759		11.8873
-49.2508	-66.6667		41.065
-47.0853	-66.9742		41.0879
-46.9276	-73.087		31.9119
-14.8966	-78.7312		-59.9954
-18.478	-79.1447		-56.8601
-15.6149	-76.3781		-64.1853
-10.3293	-78.5883		-62.03
12.7473	-78.3495		-56.04
14.3066	-75.8707		-58.5146
39.6083	-78.24		-20.9656
37.9429	-77.5195		-27.7987
45.7446	-76.5431		-21.6819
39.9033	-78.8657		-14.1305
34.7461	-79.8614		-20.1131
-5.18355	-78.6037		-62.6288
10.1657	-83.8341		-6.59997
10.0159	-83.6135		-1.6691
5.75324	-84.04		-7.71379
14.4088	-83.5319		-5.79288
-22.4361	-82.5701		10.028
-18.9367	-82.8151		1.49032
-15.099	-83.6898		13.693
-30.5065	-80.9169		6.22002
-42.2051	-70.3489		39.44
-40.477	-69.5726		42.1923
-43.8419	-68.6081		40.6273
-45.2748	-67.158		41.5972
-44.216	-66.2829		43.3259
9.03194	-83.6192		5.17255
3.85546	-83.8123		3.41872
13.9027	-83.3745		6.10228
7.65623	-83.9052		12.4252
-25.6457	-50.5917		75.1515
-28.0924	-47.6976		76.4622
-30.1294	-48.6636		72.0913
-23.9221	-54.2828		73.1914
-22.234	-60.152		70.1729
-17.6228	-62.1416		72.0882
-20.3892	-66.681		66.784
-30.4238	-44.7942		78.0296
-27.4387	-46.0478		80.9598
-32.9133	-42.1089		79.5638
-20.2724	-49.6878		81.9503
-22.8063	-48.34		82.5595
-20.5881	-47.3056		89.8084
-19.6171	-47.8853		88.5656
-18.6479	-47.12		89.8486
-21.6973	-46.3383		91.6479
-18.5828	-48.2685		87.3985
-16.2234	-47.9228		87.4477
-3.1129	-66.787		75.2171
-7.91902	-65.7956		74.3848
2.01605	-67.6761		76.0292
-4.07572	-62.5132		78.0474
-12.9626	-63.9332		73.3875
-6.74563	-38.7033		95.1803
-6.45562	-39.8513		94.4305
-4.54784	-39.3667		96.0757
18.5542	-81.722		52.9027
25.0378	-80.7728		53.8082
15.0946	-79.2777		60.2322
12.1753	-82.4169		52.2893
3.79304	-58.5062		85.0487
4.44013	-60.5193		83.4608
2.94567	-56.4419		86.7771
7.26656	-68.1126		76.6085
5.91768	-64.8775		79.7462
9.32632	-71.958		72.5171
12.4484	-68.2769		77.1829
-2.3219	-40.152		97.3844
31.7541	-79.5243		54.904
37.3726	-77.5964		57.6757
27.2569	-77.309		62.1927
34.6203	-80.9705		48.0342
-4.18477	-82.667		51.2553
-2.17623	-84.5777		42.4934
1.10453	-83.0199		51.4445
62.9622	-61.7527		79.7301
64.2633	-58.4338		86.484
59.5486	-62.6758		81.3747
50.1841	-69.7676		70.2834
52.9863	-66.5702		76.1801
44.9347	-69.1831		73.7528
46.5727	-72.5573		65.6885
-26.4645	-76.6891		47.4757
-27.0457	-72.7194		53.8384
-31.4896	-73.8412		46.4767
-42.9953	-64.846		46.0058
-41.1083	-66.2564		46.0371
-34.7886	-71.6625		45.8953
-37.2356	-69.5838		45.9954
-34.4226	-68.2155		51.2153
-46.2389	-62.4083		46.3112
61.7085	-44.7979		104.839
23.2447	-74.5233		68.3338
19.6572	-71.1299		73.773
17.8209	-75.2703		67.6039
27.9512	-73.3727		69.7349
39.7096	-68.1417		76.7607
42.3003	-65.5735		80.8922
34.2252	-66.3198		80.0279
36.0986	-70.0943		73.9873
-28.1279	-68.0686		58.2282
-31.955	-65.6863		56.538
-23.4773	-70.4765		60.4601
11.9591	-75.9345		66.8327
-18.2975	-72.2665		62.8231
49.0572	-50.3233		102.56
48.1343	-53.4555		99.5248
43.8452	-50.0082		102.248
47.3546	-56.7507		95.4917
42.0902	-56.2629		95.7084
46.0604	-59.772		90.8764
-34.4842	-63.7016		55.4319
-35.2087	-57.4052		59.0206
-36.4923	-61.9627		54.7037
-39.2449	-67.8279		45.9826
-38.3841	-64.9487		50.276
-38.1995	-60.4682		54.0272
-38.4363	-54.4675		57.3032
-34.8915	-39.6029		81.7376
-37.8766	-38.2222		77.4085
-32.1399	-41.0483		85.5009
-27.2678	-43.9765		92.7549
-26.4143	-44.4368		93.2967
-28.7308	-42.1146		96.2386
-28.2663	-43.3728		91.3171
-44.6298	-35.6459		66.9232
-42.9435	-36.1353		69.5782
-33.8942	-46.7839		68.4132
-45.8111	-27.5467		78.2337
-34.5417	-78.2414		30.4123
-40.575	-37.0382		73.3279
35.7256	-82.2279		40.8402
35.2079	-83.066		31.7959
-13.1827	-84.4206		31.6196
-10.9914	-84.4964		23.6292
-6.17933	-84.9541		32.8844
11.7631	-84.8903		36.3689
14.1177	-84.7407		29.0166
9.20584	-84.3742		43.889
5.98984	-85.0908		35.1888
0.013938	-85.1401		34.0019
2.81098	-84.941		26.4057
65.6123	-55.6733		91.38
39.346	-49.9135		101.963
38.5716	-52.948		99.2925
39.8205	-46.5173		104.18
37.6844	-55.7562		96.1295
-44.9356	-46.8842		54.2983
-36.1817	-51.1873		61.3735
-37.9355	-49.9944		59.9849
-39.2668	-49.064		58.8781
40.1648	-43.2124		105.736
-57.2033	-27.9282		67.7095
-54.2718	-28.116		68.5809
-57.6056	-26.2072		68.6715
-60.1142	-28.3509		66.9324
-56.2898	-29.5485		66.5962
-46.8454	-40.553		54.0314
-48.0525	-40.3545		53.7493
-47.38	-38.8168		56.2849
-54.9291	-31.0445		65.2857
-57.7094	-31.4939		64.5878
-57.7862	-24.3462		69.4333
-15.6434	-38.8759		98.45
-17.3541	-39.6267		99.4264
-27.3585	-40.857		101.396
-26.695	-42.8778		97.8464
-28.6042	-40.5852		100.458
-11.0326	-47.3123		86.147
-9.96596	-45.2503		87.9807
-12.4501	-46.9998		86.9226
-29.7764	-40.0136		99.3462
-51.3094	-29.3379		69.1681
-63.1776	-28.9544		66.3111
-62.1657	-30.6839		65.3659
-49.5297	-40.5313		53.4765
-60.7958	-32.2813		64.1095
-59.1087	-33.5344		62.78
-57.3703	-34.4503		61.4728
-4.62497	-50.3944		86.2127
-1.59564	-52.1748		87.3878
-4.65995	-47.9561		88.4034
2.10108	-54.112		88.5834
0.966793	-51.4035		90.7473
17.8192	-57.1238		85.4475
17.6233	-55.6547		87.5133
16.9461	-56.5506		84.6937
15.4066	-58.0137		88.1341
13.9606	-56.4056		90.8916
14.3319	-55.4032		83.0548
10.9663	-54.1196		81.4921
13.7452	-52.9852		86.1298
-4.81206	-45.6817		90.432
-2.47482	-47.1267		91.5627
-5.25796	-43.4558		92.1638
0.173803	-48.8621		92.6567
2.69521	-50.3484		93.6911
17.3102	-53.7028		89.9407
15.9799	-52.1586		89.9454
13.1519	-50.6457		88.5081
9.46688	-49.7136		86.2453
-5.87517	-41.5051		93.4862
-7.79355	-40.8286		92.672
3.12162	-46.3018		98.0984
4.00661	-49.1394		96.2418
-25.5231	-46.5616		83.4105
-27.8342	-44.452		85.9118
-34.0406	-34.0815		96.8924
-29.9423	-42.3137		88.8464
-19.8619	-40.4448		100.674
-19.429	-42.1515		97.6554
-18.7297	-43.9477		94.4719
-17.7351	-45.5985		91.6138
-20.8455	-44.6179		94.5676
-16.6217	-46.554		89.8349
-15.2836	-46.8984		88.6801
-13.8255	-46.9522		87.7046
-25.5664	-44.6673		93.9344
-24.3885	-44.7997		94.4653
-22.7673	-44.8553		94.6262
121.231	-69.6932		36.0947
112.842	-66.5884		35.4245
120.297	-72.6466		31.7662
127.333	-72.0603		36.6145
122.076	-66.3045		40.4128
101.19	-62.7094		34.3636
101.774	-59.7105		39.0048
90.9001	-59.8287		33.3876
100.494	-65.4907		29.754
73.5792	-60.584		35.5111
78.4762	-59.2985		33.2631
74.8085	-58.1217		40.7465
72.2872	-62.8157		30.1499
83.7172	-58.9312		32.8425
82.895	-61.3873		28.0289
84.2611	-56.3276		37.8972
32.3088	-72.0349		71.3428
27.8485	-69.3311		75.9373
37.2297	-73.999		66.4891
42.254	-75.4314		60.9414
47.0293	-75.6081		56.6707
51.1261	-75.0653		53.3126
24.1166	-66.8733		79.1123
26.9404	-65.7421		80.6003
21.4141	-64.843		81.1652
20.7996	-67.4744		78.3516
20.0767	-63.6089		82.2279
21.8842	-62.9168		83.0763
70.8544	-65.018		24.9195
69.8058	-67.195		18.8888
76.0077	-63.9973		23.3895
65.9163	-67.2352		26.716
61.0143	-70.3985		29.28
56.4653	-73.5793		31.7579
60.3439	-71.2006		22.3802
52.2132	-76.4154		34.0679
51.5812	-76.6997		26.513
99.6572	-68.0903		25.0645
111.131	-72.0369		26.5278
89.4879	-65.1058		23.7364
99.2317	-70.688		20.3174
119.481	-75.2336		27.419
118.783	-77.5803		22.8426
125.734	-77.9118		27.8442
81.9234	-63.88		23.1127
5.35933	-84.4279		19.4146
-0.772252	-84.4827		17.761
10.8135	-84.3255		20.7367
51.9372	-76.3775		19.8977
52.6315	-75.8279		12.8135
56.0041	-74.01		17.8488
-39.2198	-79.006		3.18495
-34.3616	-80.2918		-7.20194
35.8882	-82.6789		24.1051
36.8189	-81.7336		16.3117
16.2086	-84.2342		22.1064
17.9064	-83.5882		14.8628
-8.07387	-84.3102		16.2712
-4.57973	-84.048		8.64624
18.7336	-83.1166		7.09377
18.8962	-82.976		-0.18189
70.8196	-72.3996		1.81267
70.1121	-70.8448		7.02865
66.1466	-72.5424		2.31718
71.702	-73.6483		-3.23251
75.9709	-72.6276		1.72145
81.5935	-73.3079		2.29921
61.5735	-73.2739		3.51683
57.3883	-74.2344		4.64472
62.4675	-73.9668		-2.37673
60.8571	-72.4605		9.32004
-15.8541	-83.0099		-6.97562
-8.49771	-83.6621		-1.9827
-23.0608	-82.0506		-12.0857
-30.5347	-80.9122		-17.6374
-37.6145	-79.7793		-22.5741
-44.6145	-78.5006		-28.1197
-51.3877	-77.1306		-34.0638
-40.8947	-78.2193		-38.4493
37.2804	-80.7898		7.73184
38.0492	-80.0164		-0.640543
-2.08308	-83.8937		1.37814
0.0546513	-83.9375		-4.88233
98.8711	-73.2272		15.2024
110.052	-76.8143		16.888
60.4055	-71.9384		15.8222
64.9313	-70.1299		13.9759
118.142	-79.6873		17.8402
124.183	-82.1162		18.046
99.1524	-78.8569		-4.2467
108.719	-81.2136		-3.27762
72.5302	-74.5276		-8.23541
67.8189	-74.4492		-8.38178
72.3306	-74.6431		-13.6668
63.0729	-74.6973		-8.2421
115.991	-83.0266		-3.01582
121.887	-84.3712		-3.53992
39.44	-79.3328		-7.98459
18.5899	-83.1384		-5.27988
22.5651	-82.6946		-5.58183
17.5862	-83.5428		-9.27367
1.1203	-84.116		-9.14568
82.1376	-74.1189		-19.4307
75.705	-73.6945		-19.8923
80.1775	-71.2968		-26.6547
69.7005	-73.7244		-20.4783
65.4017	-71.524		-27.7494
52.3538	-75.2266		-21.6239
31.8876	-80.9339		-19.7687
31.0304	-80.9688		-27.2431
113.365	-72.7368		-29.1598
104.951	-71.3022		-29.7534
113.089	-68.0688		-35.7492
121.225	-74.2042		-28.5895
34.3817	-77.1953		-33.9927
30.2212	-79.3406		-33.8151
28.2735	-80.8606		-33.9591
27.4449	-81.7193		-34.1902
122.792	-62.679		44.5172
128.86	-64.9022		44.6205
123.501	-58.953		48.3188
114.278	-59.9289		44.1644
84.3672	-53.2267		43.5161
79.9921	-53.8526		44.0895
91.3971	-53.6935		43.6106
84.0246	-49.828		48.9096
68.5368	-60.9313		54.9446
66.1108	-63.466		58.5128
71.6522	-57.8197		50.6154
75.8445	-55.1355		46.5464
76.3058	-51.7192		52.1444
101.98	-56.3261		43.7761
102.632	-52.8941		48.3939
29.8271	-64.5292		82.3992
26.0408	-62.9621		83.9297
64.0217	-65.4626		61.3186
23.8011	-61.9702		84.579
22.0934	-61.0859		85.0197
25.5965	-60.5452		87.1772
20.736	-60.2928		85.2839
22.0786	-59.1361		87.7036
44.668	-62.817		85.654
49.9763	-63.284		84.3154
55.2392	-63.2995		82.7241
18.9083	-55.3537		91.6241
19.0193	-53.3839		95.3604
18.5394	-54.7224		90.3301
18.2556	-52.142		93.4809
18.8339	-54.7489		89.8976
18.6307	-57.0932		87.1466
19.4041	-54.7308		89.6092
21.0593	-54.7201		89.2706
19.1256	-52.0765		92.5585
24.7068	-54.6714		89.3479
24.2719	-52.1067		92.0847
29.0894	-54.7375		89.943
83.334	-46.2811		53.6745
91.2693	-46.8348		53.2389
79.4946	-46.9813		54.7081
124.34	-55.1282		51.886
130.177	-57.0826		51.688
125.003	-51.2387		55.0357
115.806	-52.7126		52.0221
103.192	-49.4961		52.5522
75.8793	-41.2535		63.7954
73.9412	-43.4491		69.6972
76.1238	-44.0828		61.2655
125.532	-47.7409		57.4728
131.198	-49.4475		57.1979
72.786	-45.8974		76.5872
17.5201	-49.5258		96.3242
17.9178	-49.3494		95.7398
18.5961	-49.2658		95.2505
20.2391	-49.4593		94.5264
23.8121	-49.5482		94.3705
28.2939	-49.9571		94.7684
-66.1261	-74.2067		-19.2687
-71.1674	-72.1757		-9.06299
-72.0949	-72.5878		-26.5129
-61.7397	-75.3492		-29.9062
-37.0103	-77.1908		-47.7431
17.5746	-72.4505		-62.2913
21.0109	-69.2237		-65.9065
93.4293	-61.0466		-42.9643
92.982	-56.9886		-47.501
103.681	-62.4849		-41.5216
94.5202	-65.15		-37.6386
83.205	-60.1472		-44.5439
112.733	-64.0094		-40.5946
112.783	-59.9368		-44.7356
121.305	-65.7854		-39.691
77.1088	-67.4472		-34.4485
68.4922	-67.5634		-35.4219
74.8634	-63.4684		-41.0041
86.5119	-68.3081		-32.525
-126.708	-18.7456		-18.7823
-128.059	-11.6187		-17.3734
-126.77	-14.9501		-34.2609
-124.522	-25.6662		-19.8594
-87.0824	0.160633		-110.784
-87.3336	7.94852		-110.758
-72.6724	1.82633		-120.206
-86.3503	-7.46394		-110.121
-100.193	-2.31168		-98.18
-58.3974	2.20794		-125.975
-57.9117	9.41549		-126.085
-43.4082	1.77122		-129.28
-57.9553	-5.05331		-125.291
-110.869	-4.95319		-83.5637
-118.964	-8.01406		-67.4418
-111.619	2.85268		-83.2833
-109.597	-12.6534		-83.0613
-125.884	3.91741		-48.7418
-120.257	7.53231		-65.8222
-125.47	-3.79687		-49.9523
-128.615	0.0708122		-31.8305
-29.2618	1.05091		-130.463
-29.0678	7.81005		-130.507
-15.313	0.045001		-129.946
-29.2241	-5.77647		-129.686
-1.14733	-1.25122		-127.84
-1.01252	5.4069		-128.025
12.3849	-2.89254		-124.232
-1.45469	-8.06505		-126.999
46.7003	-8.99441		-103.156
36.1556	-6.73391		-112.245
47.4719	-3.31996		-102.981
55.8701	-11.8489		-93.0127
46.235	-15.1759		-102.257
25.6071	8.21561		-119.093
37.0351	5.78369		-112.244
25.1264	1.81345		-119.495
13.2635	10.3528		-123.961
96.0165	-20.3291		-63.8301
96.2787	-15.3307		-63.5017
105.079	-21.6464		-61.035
95.8779	-25.6661		-63.5722
87.0597	-19.0127		-67.2481
114.064	-23.0031		-58.4435
114.362	-18.2185		-57.9223
122.943	-24.5841		-56.0141
113.852	-27.9946		-58.5658
62.9584	-14.5121		-84.8501
63.3413	-8.76681		-84.6042
69.5923	-16.2214		-78.2742
62.5611	-19.9515		-84.4325
77.729	-17.5613		-72.2017
77.7348	-12.2535		-72.1381
77.768	-23.3537		-71.551
78.0628	-7.08744		-71.4189
87.5016	-8.90083		-66.3738
70.1678	-5.18667		-77.3371
-113.529	-44.3907		-23.7845
-117.9	-38.437		-22.3395
-113.282	-42.0891		-37.7243
-108.315	-50.3468		-24.8615
-55.8333	-26.6315		-118.367
-69.0527	-27.1029		-112.628
-56.7348	-19.7861		-121.336
-42.2403	-26.8395		-121.569
-54.5633	-33.2371		-114.787
-81.7396	-28.3096		-103.823
-79.031	-35.0267		-100.55
-92.6868	-30.6115		-92.4491
-83.76	-21.6104		-106.527
-101.14	-33.5079		-79.8108
-106.961	-36.9096		-66.3906
-104.67	-26.8698		-81.2015
-96.6965	-40.2285		-77.9947
-111.172	-39.5417		-52.234
-106.019	-45.9182		-52.1437
-115.57	-32.9927		-52.01
-29.0089	-27.172		-122.887
-28.6299	-33.6105		-119.469
-29.1398	-20.3823		-125.749
-15.8024	-27.8587		-122.499
-2.8301	-28.5537		-120.646
-2.26327	-22.162		-123.262
9.79729	-29.5694		-117.11
-3.20848	-34.7588		-117.372
21.5927	-30.4623		-112.116
20.6338	-35.9767		-109.039
22.836	-24.6598		-114.458
33.1367	-31.7228		-105.041
43.6505	-33.7715		-95.9179
44.712	-27.8837		-98.6003
52.3829	-35.8442		-86.7925
41.8342	-38.9132		-93.414
59.9137	-37.54		-78.7371
58.4403	-42.6203		-75.6464
61.2893	-31.9502		-81.1472
67.652	-38.9959		-71.4329
93.8461	-42.0129		-59.0584
93.1855	-47.1089		-56.0558
84.4515	-41.4342		-61.5955
94.893	-36.6397		-61.2421
103.84	-42.5917		-57.2127
113.646	-33.1641		-58.1958
113.443	-38.5369		-57.1549
104.776	-32.0322		-60.3646
122.246	-34.7245		-56.1797
75.8816	-40.3366		-65.6122
76.8113	-35.0122		-68.2352
74.4674	-45.5026		-62.2616
-68.3173	-53.4068		-86.7912
-72.1917	-47.4711		-92.3117
-59.2861	-51.6293		-94.8798
-63.8048	-59.2777		-80.3489
-75.5424	-56.0262		-77.1801
-81.0281	-58.5872		-67.1415
-85.1764	-60.9427		-56.8825
-86.5308	-52.7057		-72.0244
-75.2573	-64.2187		-61.0454
-88.9008	-62.0567		-46.6605
-94.6611	-57.1777		-49.8478
-83.2972	-66.6075		-40.7731
-28.2221	-39.4375		-115.674
-15.7367	-39.9472		-115.445
-27.4617	-44.9298		-111.376
-40.5808	-39.3054		-114.095
-53.1475	-39.2181		-110.782
-51.2174	-45.0635		-106.109
-64.9268	-39.8212		-105.156
19.4163	-41.5397		-105.201
30.3052	-42.1433		-98.6253
18.1823	-47.0135		-100.711
8.06099	-41.254		-110.087
-3.46145	-40.5643		-113.561
-4.03392	-46.0219		-109.363
39.7766	-43.5705		-90.5363
48.5326	-45.6928		-81.0094
37.8743	-48.3504		-86.5622
56.2042	-47.0857		-72.658
53.1487	-50.9769		-70.0349
73.0066	-50.8676		-57.7398
82.5107	-51.5684		-54.2139
73.1394	-55.9206		-51.7668
-36.4076	-68.6993		-75.3915
-39.8824	-65.0466		-81.8403
-28.4368	-67.4451		-80.7582
-102.648	-55.9271		-25.0293
-102.574	-53.7677		-38.4687
-57.6965	-75.106		-40.2975
-63.7335	-72.5664		-47.1679
13.3749	-59.8862		-87.6679
22.2447	-59.912		-81.8824
11.8425	-63.6244		-82.8601
4.52968	-59.7647		-91.9227
15.239	-56.0483		-91.8953
-4.58002	-59.1069		-95.2861
-4.56292	-63.1372		-89.5235
-13.8574	-58.9068		-96.481
-4.44318	-55.0703		-100.329
-23.8011	-58.9937		-95.9056
-22.0304	-63.1527		-89.7913
-33.6048	-59.6706		-93.1234
-25.2442	-54.586		-101.566
43.6301	-59.7004		-62.9874
50.1484	-59.8866		-57.0016
40.2035	-62.5207		-60.4768
37.2445	-59.7077		-69.1676
47.0617	-56.9274		-65.2428
24.1712	-66.0878		-69.3603
17.4665	-66.5726		-74.112
27.1607	-63.1083		-72.3444
30.4579	-65.7162		-63.7805
73.7167	-59.9842		-46.3805
64.9214	-59.9855		-48.9427
22.7995	-83.5689		-13.887
25.2478	-82.5655		-10.4848
18.802	-84.0439		-12.9331
16.7747	-84.019		-11.9336
-8.14694	-84.681		-21.6051
-12.8389	-84.5009		-25.4312
-10.3387	-89.8609		-62.2592
-10.2059	-90.6358		-61.6214
-16.7035	-89.646		-61.5434
25.3872	-86.8698		-35.9611
27.3192	-86.4604		-31.5996
25.5436	-85.709		-36.5122
-22.2486	-89.218		-59.3177
-21.8375	-90.2595		-58.8039
-26.4054	-88.8272		-56.0353
-22.3272	-88.1637		-59.6513
-22.4149	-86.8937		-36.3255
-22.0991	-85.4732		-36.6737
-28.8108	-88.6278		-52.1062
-28.4096	-89.7519		-51.4096
11.5945	-88.3978		-51.6492
24.0672	-89.4643		-28.6994
26.3504	-87.9287		-28.2593
23.2706	-89.3502		-25.8636
-14.9844	-84.3372		-27.9854
-28.0121	-86.2568		-46.4312
-25.5237	-85.1928		-42.5485
-26.6215	-85.0458		-47.4488
-21.8605	-83.9017		-37.8294
-21.7703	-82.7185		-39.2826
-22.0602	-87.5112		-59.6665
-21.0774	-81.7655		-40.428
-22.4194	-82.3158		-43.8377
-23.4632	-83.0192		-48.2027
