1832
-23.2471	-86.4183		-20.4672
-26.6764	-85.754		-54.3117
-49.8394	-70.6234		-31.6473
-45.1354	-73.6225		-22.3018
-19.0437	-85.2461		-49.7692
-8.27506	-93.9637		-31.7827
-14.3174	-94.536		-31.4729
-17.1694	-93.2661		-37.5438
-12.77	-92.6194		-39.4255
-14.3421	-93.9652		-26.4822
-17.9399	-93.032		-29.5648
-2.27252	-89.9736		-27.9472
-8.68921	-93.9464		-25.8541
-5.36345	-92.3837		-26.0465
-20.0048	-90.2705		-25.639
-17.2725	-90.9707		-22.3968
-55.4752	-75.5548		-33.6764
-49.4139	-76.1096		-29.1845
-49.6589	-80.4441		-55.0345
-43.9947	-82.5842		-56.1487
-54.6522	-76.2712		-34.3277
-51.735	-76.9647		-34.7389
-49.8783	-77.585		-31.9703
-56.3286	-77.3537		-49.3821
-54.7194	-77.8629		-48.5489
-35.9319	-86.1742		-47.934
-49.1772	-77.8336		-37.0829
-43.8045	-81.401		-44.1267
-30.8993	-87.164		-45.164
-26.5757	-83.9844		-24.8381
-23.4089	-86.1733		-24.8564
-30.6597	-82.6042		-26.042
-31.6292	-82.6008		-24.178
-40.7609	-79.8493		-26.4887
-38.5802	-80.5428		-28.524
-46.1684	-78.7237		-34.4599
27.1551	-74.9231		-61.2557
-15.9485	-48.2324		80.5542
-21.497	-42.4563		80.1824
-19.551	-53.1069		77.1752
-15.5668	-42.4187		84.1072
-21.4112	-39.7333		83.8519
-59.5143	-48.3329		45.9161
-64.3337	-45.5061		45.8663
-45.8144	-35.7846		63.7095
-77.7775	-42.0485		40.566
-81.3318	-31.2468		48.6457
-13.2152	-34.2362		98.2314
-13.5404	-36.3916		94.3547
-11.2308	-35.4159		95.4378
-16.8391	-34.7324		99.705
-24.7886	-35.9803		94.1038
-26.2028	-35.2185		92.2362
-23.807	-37.2955		90.5616
-109.822	-20.8773		-27.7434
-102.984	-31.0664		-20.717
9.82387	-63.8114		77.4472
6.71521	-61.8407		77.0996
-17.0431	-37.5309		93.4739
-8.06797	-24.6362		100.67
-10.8098	-37.7972		92.1367
66.2538	44.5132		-2.79079
63.5749	47.65		-8.68565
54.5276	30.5453		39.8664
63.9781	23.6004		39.5343
57.4871	34.8977		26.071
113.509	-6.88243		19.8346
110.69	-12.8063		27.941
143.252	-25.8402		30.7714
144.146	-19.8692		21.4691
131.575	-15.0674		21.7495
130.059	-21.3393		30.2869
98.9381	-6.48658		27.2031
95.5571	-14.2695		36.7264
107.386	-21.1056		36.1964
115.234	-2.93142		10.5958
104.231	3.45149		9.10039
102.364	-0.910071		18.5599
71.9066	16.6384		38.6063
70.9993	9.67941		55.0996
77.4636	3.44247		51.3693
78.6103	9.65934		36.4773
-10.8727	75.6971		13.7825
-23.9296	68.3624		32.8851
-14.514	57.918		44.791
-0.0282087	66.4288		23.7711
8.03031	80.3395		-25.266
-1.89289	85.2353		-38.6671
-12.22	86.9991		-19.3242
-1.15188	80.1352		-6.79898
79.5329	-58.1777		59.768
90.2469	-64.3857		58.7126
93.0317	-58.6526		57.5107
82.5606	-53.2678		59.3967
111.622	-74.3057		56.649
114.84	-66.8709		55.7298
124.078	-79.1995		55.5092
108.62	-80.3285		56.0888
120.413	-86.3977		54.7785
68.4533	37.1466		-13.345
76.3957	28.1728		-2.99406
77.1205	26.8218		-17.8266
69.1422	34.5446		-25.8335
62.5942	44.0852		-19.2694
143.976	-16.0192		10.3718
142.344	-14.6795		-3.58513
87.8751	-69.1819		58.4616
51.9153	25.2495		54.7764
62.6032	17.0879		55.7727
73.9648	21.3444		23.0822
47.9348	-54.2317		103.265
56.2268	-58.2925		101.267
60.9467	-50.8657		98.5911
51.752	-46.4945		101.044
64.5901	-41.2505		93.7593
55.9768	-36.5983		95.9992
39.6793	-48.9783		101.908
37.121	-54.2798		101.538
45.5095	-59.4155		103.038
63.3765	-60.0866		94.7645
68.7049	-58.9231		84.2026
-25.0087	-4.66084		84.5646
-17.1109	-2.30173		82.46
-24.3913	0.0300455		76.9931
-30.6858	-1.48827		77.8409
26.7599	18.801		80.2142
17.0556	24.2081		78.0086
7.59644	11.0532		84.8715
17.1314	8.34059		87.3443
25.1328	32.8532		67.1703
6.04466	27.1977		75.9898
2.81356	52.997		46.1554
-1.92292	48.9625		53.7722
26.5183	3.91362		88.6192
36.6466	13.0315		80.9973
-39.0693	-9.08124		89.3691
-41.5902	-11.1083		88.9245
-35.0763	-16.7616		99.2207
-32.4736	-14.0462		99.2172
-79.963	45.0998		50.5195
-71.9532	35.6775		59.966
-64.6815	44.0819		58.4402
-71.5716	53.16		49.0324
70.2514	-63.4848		69.98
73.1176	-57.987		70.2625
65.4393	-65.2785		83.8872
46.1419	19.9623		68.769
57.7216	10.6905		70.0106
54.2353	-63.495		100.903
60.622	-65.4723		94.461
68.69	-28.5662		85.5961
76.8489	-18.7987		72.9943
70.1168	-15.5866		79.0255
84.8356	-27.4826		58.0164
86.4074	-16.8918		50.4629
81.4413	-10.1862		57.9291
80.6659	-22.1255		66.5971
77.2391	-62.5345		59.4873
-27.3637	-18.068		107.177
-22.0986	-13.9178		103.042
-26.9668	-10.8662		96.3004
-2.14397	-1.08548		86.2369
-9.66664	-5.87964		87.4996
33.5268	-18.0209		90.9348
-4.5078	-17.2989		95.87
-2.35494	-18.8396		94.6743
-0.103366	-23.6115		96.1566
2.2685	-19.8924		93.951
0.0100546	-19.6413		93.8567
-9.78335	-27.0068		102.785
-11.572	-29.897		103.624
-8.48806	-30.5766		100.233
-7.16779	-27.5778		100.023
3.57634	-14.8764		91.7038
-21.3021	-21.89		112.187
-17.636	-23.6801		111.04
-13.939	-18.9952		105.765
-17.1485	-16.7879		106.632
47.4941	-23.2795		92.3448
38.8872	-22.7769		92.9197
38.5759	-30.7007		96.7149
46.2387	-32.7632		96.5084
23.7612	-12.3779		92.9751
19.633	-15.9213		94.1967
-2.06256	-33.398		98.1296
-0.787551	-29.9613		98.5267
-4.52397	-28.4671		98.7675
-5.85112	-31.5783		98.7471
-33.0695	-6.64761		87.6955
-10.4657	-10.2078		93.157
-10.6865	-11.0506		94.9917
-8.0562	-11.6434		94.1275
-2.92727	-26.3737		97.8733
-4.14648	-14.3183		93.6646
6.64214	-38.5673		99.6525
7.84884	-33.7774		100.162
3.55234	-31.9013		99.0165
2.47147	-36.0862		98.4628
10.904	-14.3789		93.127
14.2718	-10.1118		92.3598
32.0183	-36.7372		99.9473
29.5425	-43.5116		100.648
33.1324	-45.3053		100.536
35.9334	-38.5518		99.7397
23.102	-21.6139		95.0888
28.3276	-18.9023		91.5838
-15.5511	-11.2096		96.6315
34.1791	-29.91		97.1026
27.3413	-48.61		99.9435
30.6786	-50.1427		99.9239
-17.5327	48.0234		58.6431
-16.0637	51.7288		53.9358
-31.9529	51.3541		60.4992
-58.5675	38.0439		66.0662
-47.6395	47.0372		62.2227
-53.4417	53.3853		54.3786
-33.6383	54.2632		56.2313
-39.4182	61.426		46.6288
-44.9287	45.0141		65.0234
-55.2653	36.1417		69.1933
-48.2467	17.002		69.6206
-46.5719	23.9541		69.9696
-50.8737	24.6674		71.0816
-52.1332	17.0984		70.753
-37.9383	-2.64773		79.4948
-47.6471	-1.92101		76.044
-44.3639	-4.58569		80.3239
-10.8761	1.60071		81.8386
-2.26763	13.0408		81.0155
-10.7384	13.526		77.5908
-18.868	2.81137		77.2582
-6.35187	44.4644		59.4479
-11.0784	40.601		62.995
-7.38781	35.2217		67.6146
-39.4112	41.9097		67.6722
-50.4033	35.5145		69.5806
-45.9609	34.0441		69.4939
-29.2157	46.1753		64.6022
-18.9262	44.2854		62.2289
-21.5489	33.0674		68.3022
-41.7988	31.8062		69.6768
-26.476	36.2126		68.6261
-32.5498	33.9892		70.0799
-46.7615	10.4488		69.2153
-44.133	5.21003		70.1254
-40.7493	8.12727		68.4264
-61.1363	2.96109		69.9728
-56.9871	0.417017		71.1594
-54.7906	3.3663		71.6181
-58.4299	7.69253		71.0594
-23.3311	4.03127		74.397
-48.1522	5.98991		70.6373
-26.1329	5.75895		72.5331
23.5914	-27.4445		93.1984
27.9339	-21.9642		90.5783
12.6497	-35.6907		100.364
10.0609	-34.562		100.635
8.50832	-39.639		100.073
10.6237	-40.6454		99.8561
14.992	-31.1805		99.746
14.7346	-36.7059		99.2646
17.2764	-32.1174		98.5122
18.7921	-26.2327		97.7934
12.6057	-30.3921		100.203
16.6173	-25.4821		98.4271
16.0656	-38.0243		97.3795
18.982	-32.8633		96.6132
30.4352	-18.7115		90.503
24.6364	-27.9647		94.3254
24.9771	-28.016		95.1221
26.2014	-28.2675		96.1949
22.8651	-34.0313		99.0956
24.8493	-34.3668		99.954
19.9449	-39.7688		99.9265
20.9212	-33.6906		97.6948
17.915	-39.0433		98.4078
19.9972	-45.277		100.439
22.0826	-40.5218		100.928
18.0438	-44.0898		99.5285
29.0619	-22.155		90.7793
16	-42.2711		95.5035
17.7985	-38.8075		95.982
22.0959	-46.3759		100.779
24.2659	-41.2681		101.37
26.4172	-42.0927		101.22
24.3449	-47.4082		100.519
9.99813	-30.6521		100.129
16.2078	-42.8934		98.0078
17.4038	-38.773		97.4988
15.6572	-42.4337		96.9103
20.3197	-33.6339		96.7683
28.9773	-35.4847		100.318
26.8608	-34.8744		100.379
19.2567	-32.8993		95.2307
20.7535	-33.7535		95.4442
18.1734	-32.0841		93.3223
21.5521	-27.9155		92.3213
31.0206	-23.0391		90.2809
20.0342	-39.3917		94.2679
18.2134	-42.833		93.6834
16.3708	-37.9553		95.7535
15.5766	-36.0553		93.3281
22.971	-34.2311		94.023
24.1005	-16.289		85.9908
30.316	-15.5039		84.8807
12.7623	-29.2993		90.5712
15.8314	-25.3504		89.8043
39.2433	-23.3164		88.5913
37.0826	-27.3932		91
10.279	-32.9942		90.4231
29.4748	-37.5038		93.9076
26.5466	-42.1408		94.2195
37.159	-19.0603		86.0512
50.9114	60.7547		-23.3515
50.4517	58.4022		-28.9671
42.73	64.7267		-31.4251
44.0236	66.3075		-25.616
27.0829	63.6949		8.59525
23.5022	69.006		-0.0905666
11.2232	71.426		3.31497
21.6366	62.1604		14.8934
17.6802	74.339		-14.4818
23.7752	70.6918		-8.74861
59.9871	50.1113		-14.9104
64.0412	44.3909		-9.91684
57.0688	51.0933		-24.74
55.9563	55.454		-19.4144
43.2337	69.5049		-24.1405
51.8213	63.5871		-21.1918
63.7712	52.5793		-8.57908
59.0167	59.3633		-14.16
67.3546	45.27		-0.92836
66.9639	41.8463		2.05321
61.2454	45.9685		10.1251
52.0389	67.9827		-11.6416
41.8607	77.54		-17.9079
55.445	57.5858		-0.617405
43.9132	48.9297		19.1119
51.0664	43.8961		19.4225
46.7126	55.0559		8.68061
50.518	53.3421		8.98784
23.9557	70.1457		-7.3436
45.2783	73.0435		-23.5644
21.869	82.451		-6.32755
20.7432	81.6731		-8.93327
21.6228	80.2801		-11.1668
35.824	82.1317		-18.9495
27.9114	74.7652		-0.309828
30.7208	69.6774		4.1433
44.0215	73.5738		-12.1636
41.1042	74.5401		-11.4426
34.7682	71.2195		-24.169
32.5685	73.8687		-21.2341
60.3494	53.0068		-12.9791
45.027	66.1984		-6.29678
26.359	73.8585		-15.4983
27.5553	72.8851		-17.9004
28.9615	78.6059		-6.70927
-93.9394	24.281		47.6026
-86.9908	36.1036		49.9474
-95.6462	45.715		36.4
-103.802	33.237		33.1878
-83.0578	15.8781		58.0115
-77.3597	26.3261		59.8823
-65.1921	28.7445		67.207
-13.0938	-25.9139		107.008
-15.5811	-29.2377		108.481
-24.0696	-20.132		110.953
-26.7834	-24.3619		111.455
-23.6584	-26.207		112.861
-20.1166	-27.7792		112.055
-30.1661	-21.6367		107.298
-72.7341	9.14046		65.9143
-67.9847	6.8208		68.4554
-63.5123	15.413		69.5669
-68.4612	18.7319		66.7913
-46.8365	-6.63513		79.85
-50.1263	-4.16136		75.5716
-51.0592	0.276037		73.5051
-53.203	-2.01571		73.1183
14.6576	-41.5489		95.2983
13.2617	-40.1954		92.5107
14.3649	-41.7562		96.8374
12.514	-41.3844		98.8247
8.0893	-36.8924		89.5671
-87.0661	54.5803		38.1629
-61.443	27.1383		70.1372
-55.7755	25.8614		71.5532
-41.1453	23.3605		69.5289
-42.2292	16.0463		68.8026
-81.8028	72.512		17.891
-77.291	62.0713		37.5153
-37.3336	29.6192		70.2447
-59.6193	61.8896		44.6542
-35.9433	38.4315		68.8002
-46.6109	70.45		35.1378
-27.7185	41.904		66.4869
-50.8014	11.1864		69.9805
77.5852	23.5755		9.89229
25.0513	73.6466		-25.2238
19	76.953		-39.0228
52.6929	54.0311		-40.0512
42.3261	63.2658		-44.5151
30.6726	71.0068		-45.067
33.4671	70.2591		-30.6657
61.3387	43.9585		-33.672
76.3801	-51.1209		69.1507
81.1798	-39.4016		64.8571
76.5278	-5.57904		64.7399
-32.8047	78.3274		20.0137
-93.3976	65.5318		16.398
-103.35	56.1959		13.5782
68.0113	-1.12705		71.5958
5.48319	-29.3617		99.0656
14.2054	-19.9175		95.9856
0.862428	-27.7589		98.2015
9.28635	-24.9723		98.0452
4.21397	-24.3585		97.0107
34.1884	-12.5758		91.1354
27.8439	-8.47099		91.8565
68.8935	36.4465		0.369316
49.5665	40.4986		26.6656
41.7069	46.1032		26.1378
12.4204	58.4408		30.3751
24.7513	50.5244		36.1227
-12.251	33.3783		68.1965
35.6838	43.4917		38.4031
45.0973	37.09		39.3169
-18.8923	-8.39877		91.3721
-9.76861	-15.5367		99.5404
-6.77246	-14.3034		96.0718
18.7028	-4.81406		91.5165
46.8161	5.20037		81.877
35.6915	-2.05872		89.0875
54.8947	-3.622		83.0405
35.5544	27.0127		67.9039
58.6105	-13.8634		85.6608
58.8929	-24.9452		89.7295
-3.29965	27.5029		74.303
-9.32366	26.5982		73.508
42.1225	-8.14011		89.3697
45.858	-15.1102		90.2125
42.9292	-41.7423		100.337
-15.9101	13.4603		75.8227
-19.4171	-15.2699		105.649
30.6427	39.2612		52.5562
41.3993	32.4174		53.6631
-51.6907	5.43076		71.2843
7.54532	-19.5465		94.8968
25.5117	-23.0055		90.3481
19.6385	-20.6716		88.1106
122.109	-47.2647		48.9389
135.819	-51.5227		49.2323
139.047	-42.0396		44.7015
124.949	-37.8147		43.8943
93.5562	-23.3826		44.7225
91.4958	-33.0635		51.0009
101.675	-39.485		48.9742
104.83	-30.1138		43.0743
37.3869	-16.8808		91.1995
88.1076	-8.39826		40.4179
82.4955	-2.23111		46.0196
127.466	-29.3384		37.9389
141.526	-33.426		38.6436
84.2282	4.01785		32.7308
93.9079	4.12873		18.9123
90.7966	-1.2237		28.86
112.974	0.211413		-4.47394
57.0989	39.9147		18.1956
99.1567	9.00376		-5.6687
139.474	-15.7729		-18.3722
123.964	-8.39436		-19.365
118.325	-57.2342		53.0486
131.991	-61.4448		52.5757
87.436	-44.3662		56.6758
97.1939	-49.9041		54.2574
34.2777	-22.3668		92.5215
25.0058	-28.0945		93.359
26.8525	-28.6435		92.5695
127.931	-70.9553		54.7316
33.3061	-32.3108		92.8237
-21.1012	84.4998		1.06145
101.465	0.356696		-33.4918
106.501	1.38922		-20.841
119.732	-10.5824		-31.7124
135.903	-18.728		-31.0391
89.1391	13.9028		-23.3401
-95.0912	74.3354		-12.5675
-105.731	64.5391		-16.5052
-81.0545	67.6356		-83.5283
-71.8777	78.2606		-76.7325
-48.386	70.1814		-101.395
-56.3695	59.3836		-108.337
-22.9707	58.5278		-113.109
-30.0096	48.1448		-119.729
-88.1332	79.2934		-45.1927
-98.3439	69.0759		-50.7982
-106.675	56.2016		-54.8287
-114.161	51.8984		-20.2656
1.52945	45.4867		-116.199
-5.17054	35.6472		-122.669
25.4426	31.078		-112.851
19.2952	21.1367		-119.549
45.7564	16.4041		-103.168
62.273	2.03149		-86.7065
57.5375	-7.15845		-91.4485
40.0885	7.03827		-109.8
34.3723	-3.29374		-113.741
13.2792	9.95286		-123.57
84.3839	-27.9272		-68.3375
89.8415	-19.546		-63.5523
105.529	-29.8132		-59.2788
100.389	-37.7856		-63.2328
116.582	-47.1424		-59.2347
112.06	-55.568		-61.5764
95.2205	-45.8209		-65.8096
75.039	-8.16706		-72.5981
69.1177	-16.5881		-78.0206
64.1859	-26.3185		-80.6092
79.6274	-36.5327		-70.9526
-67.5794	86.5315		-6.29277
-82.236	81.6212		-9.13831
-30.9659	84.2748		-81.0062
-8.24959	74.4425		-92.1593
-15.383	67.6925		-103.428
-39.9074	78.563		-92.0306
-61.9708	85.5651		-68.7247
-50.3014	90.2712		-59.5019
-61.3223	91.3824		-33.4424
-75.6243	86.7664		-39.3436
14.0637	62.2275		-95.7894
8.25107	54.8777		-106.696
35.015	48.2671		-93.3341
30.9935	40.5173		-103.697
53.7577	32.784		-84.6557
50.7389	25.4162		-94.2319
69.8335	19.034		-68.312
67.1159	10.9295		-78.3114
80.1589	-0.028532		-64.2948
114.797	-15.3276		-44.1263
110.655	-22.1308		-52.9991
94.6082	-11.1799		-55.9712
97.8151	-4.01606		-45.9792
126.282	-30.807		-50.4579
121.284	-38.8303		-55.863
-37.3484	92.2683		-48.5655
-24.1923	91.2632		-34.2859
-11.8494	87.6949		-53.8723
-21.6494	87.263		-68.7308
-32.4747	90.6461		-13.4167
-46.3965	92.885		-25.7948
-1.49332	78.5747		-79.9835
19.0428	67.3309		-84.0251
38.3795	54.4437		-80.9552
55.584	39.2621		-72.7654
69.8905	25.6736		-58.7133
12.4308	79.45		-52.4213
55.7814	44.774		-60.9798
40.5775	58.585		-68.9349
41.8801	61.5192		-56.3813
54.6041	49.7376		-50.2567
23.518	70.1116		-71.8135
27.7945	71.0969		-58.2706
5.36496	80.1835		-66.6908
68.0472	31.5204		-49.9757
64.9957	37.6403		-41.5584
74.7581	26.2217		-32.5603
35.1944	82.2468		-19.7803
34.1132	81.1308		-21.4474
24.3737	83.3014		-15.6393
25.9256	84.2905		-13.9392
21.9578	76.3032		-2.61157
22.9915	77.2158		-0.197336
22.3377	74.4646		-5.82265
34.9154	78.8995		-22.3941
25.3602	81.6695		-16.8385
45.81	75.9246		-19.7027
23.0723	82.4751		-5.19889
27.1725	84.1764		-13.1352
-111.938	43.3442		10.0589
-89.0453	54.7827		-87.8424
131.378	-23.8026		-42.0101
-63.3334	47.2047		-112.582
-36.699	35.974		-123.878
-11.8783	23.7832		-126.827
52.728	-17.3424		-93.9908
-8.88172	-88.6652		13.353
-8.29956	-88.2526		-1.51304
1.36526	-92.0582		13.5651
58.414	-108.661		-3.68473
59.8368	-106.11		6.2824
89.6018	-126.753		7.67873
78.0541	-118.183		8.01683
75.584	-119.671		-2.26303
87.1118	-127.292		-3.10553
47.7299	-99.692		5.45496
62.9049	-102.015		17.3384
50.0766	-96.2808		17.4948
47.1027	-102.352		-4.94742
46.7677	-102.849		-15.3548
58.1799	-108.932		-13.7773
10.7568	-94.1496		13.0641
20.2924	-95.0796		12.0559
20.5396	-96.1999		27.2513
10.8393	-95.5072		29.7786
-77.8941	-52.2962		-15.0823
-65.9527	-59.3255		-4.21568
-71.8543	-51.0252		21.0361
-83.5627	-45.0567		7.41947
-63.2371	-55.8575		-56.4477
-71.8576	-54.9931		-37.5686
-81.4513	-45.604		-49.7539
-70.4456	-46.0286		-68.8625
75.0674	-67.2807		58.2312
72.2679	-73.1972		55.5166
82.4191	-78.5329		53.141
85.3896	-73.6278		56.7121
101.466	-91.8849		50.0754
105.43	-85.9105		54.0322
116.663	-93.1713		52.3452
3.70037	-84.6		-41.004
17.7613	-84.5302		-43.1935
13.2987	-89.572		-29.787
-4.00165	-81.6313		-47.8582
8.56961	-79.6429		-51.8454
86.0383	-125.298		-14.6301
86.646	-119.917		-27.6675
1.9762	-93.3391		31.0418
-10.1958	-88.8864		29.1861
11.7807	-92.9272		-3.00513
43.032	-63.9207		100.866
39.2125	-69.6554		95.377
48.7463	-73.884		93.2268
51.6693	-67.859		98.8334
34.6309	-75.9741		86.4832
43.879	-79.597		84.6937
34.1982	-59.1284		99.3724
57.7344	-70.4678		92.3257
62.0573	-71.0001		81.5915
-35.9668	-25.4217		79.9128
-40.6262	-20.2413		73.8484
-37.9489	-25.5213		71.4955
-33.1325	-31.7585		75.3922
-26.3633	-74.3764		58.1645
-24.309	-64.726		69.556
-31.2255	-58.0631		68.3676
-34.9385	-68.072		57.9078
-35.3734	-75.7433		42.1139
-42.3455	-61.0493		56.5554
-59.0954	-59.0993		29.9605
-57.7698	-62.4359		20.7782
-15.1023	-70.4411		70.2691
-15.5694	-79.9781		58.4476
-41.7589	-14.1833		88.0364
-35.7789	-19.9975		97.7499
-102.809	2.27583		39.7944
-103.892	-7.29414		34.0289
-95.3652	-11.7649		44.1058
-93.4972	-3.27577		49.9339
67.449	-68.6044		67.7979
-12.8764	-86.5038		43.9955
1.09901	-91.3429		46.1183
36.93	-85.9039		72.2382
27.741	-91.0829		61.4386
35.3122	-92.7514		56.1146
50.6874	-88.9731		43.9241
41.575	-91.839		50.89
33.7445	-95.0599		38.8367
44.4043	-92.6628		33.0263
-31.1594	-25.3992		105.391
-34.4108	-25.0516		92.97
-30.4865	-29.8176		99.2653
-27.0737	-37.4025		79.7123
-26.254	-45.5292		75.6109
8.02515	-66.1921		79.0995
-16.1359	-39.0888		90.207
-13.467	-39.6629		89.1089
-8.51913	-39.4052		91.9384
-11.328	-40.8311		88.1996
-9.72654	-42.5906		87.9227
-12.7255	-32.4432		101.523
-10.1479	-33.1484		98.6418
-12.7253	-45.296		83.8375
-25.5123	-29.8207		110.37
-26.1	-33.4119		102.701
-22.2614	-34.4671		102.015
-21.7371	-31.2887		109.302
19.7648	-74.7321		79.7147
25.9752	-70.5943		87.2075
20.0608	-65.8032		88.034
14.5618	-68.618		81.6304
-2.55847	-61.7452		81.1192
-2.25282	-57.1977		84.4387
-7.64678	-34.3115		97.2641
-4.06586	-36.5083		96.8055
-39.6347	-19.5433		84.6942
-24.9514	-36.757		86.5035
-22.5348	-38.3191		87.494
-24.6886	-36.877		88.5456
-8.35541	-36.43		95.118
-17.9626	-39.9986		87.1207
-0.0558767	-39.3473		97.1126
3.45598	-42.0623		97.9543
-10.1347	-55.5519		81.3378
-8.64311	-51.3914		84.099
20.6022	-58.4924		94.6079
24.2467	-60.5794		94.3627
27.948	-55.0745		98.2038
24.5547	-53.0216		98.4167
4.28825	-57.6924		86.3277
5.56802	-61.8897		80.989
-27.6148	-33.7665		90.9537
16.895	-62.9372		88.8762
-79.8808	-40.9275		38.6915
-69.6394	-50.0092		31.469
-68.3319	-49.0222		36.6445
-94.5051	-22.6519		35.6402
-87.1064	-26.3972		44.6741
-87.6691	-16.5223		53.7193
-90.3732	-34.3751		24.4343
-82.7728	-38.9603		34.4584
-85.2154	-18.8868		56.4763
-84.0703	-28.2315		47.8479
-64.8005	-14.2446		61.8975
-67.9126	-11.4222		62.7419
-73.1439	-16.7686		59.8637
-69.4686	-19.1794		59.4941
-44.2315	-14.934		76.7824
-46.8785	-9.57878		79.1606
-50.2876	-7.17244		74.6634
-32.554	-38.4312		72.4465
-37.1138	-31.1923		69.631
-41.5715	-43.1726		64.5374
-37.4909	-50.4199		65.9556
-54.3752	-53.012		47.5592
-59.541	-51.583		42.2181
-59.3407	-55.674		36.7374
-78.275	-33.7443		49.2445
-76.5518	-24.2243		56.5125
-81.5209	-21.5784		56.9546
-74.8544	-42.466		42.9288
-66.8322	-47.5879		41.053
-72.2259	-26.2196		56.5991
-66.3096	-40.2896		50.7566
-68.5869	-35.204		53.8056
-52.8431	-10.7286		66.5189
-58.4424	-11.386		64.0981
-53.9156	-14.6533		62.9763
-63.4339	-1.64123		67.94
-58.261	-2.68394		69.9271
-40.1643	-27.5492		67.4205
-55.8429	-8.31422		67.3888
-42.9061	-25.8715		65.5603
9.44405	-54.5258		86.3651
8.04857	-59.6012		81.3396
7.7613	-44.8005		97.9573
5.25082	-43.4853		98.2461
5.7514	-48.6554		95.1821
8.22369	-49.3854		94.0459
10.1588	-45.5269		96.9284
4.70579	-53.4175		90.7887
3.55883	-47.3924		95.7351
2.62117	-52.4028		91.4827
10.3344	-49.4861		92.3387
12.4652	-45.1018		95.5271
10.2865	-55.9533		88.016
10.212	-55.462		87.3561
10.9853	-57.1394		88.8757
14.4796	-54.2374		94.9299
13.2072	-52.6323		94.3814
16.0101	-47.6895		98.0385
14.3089	-46.1881		96.596
11.9301	-50.8698		93.2367
17.7888	-49.0884		98.9153
8.79607	-60.4842		81.3636
14.3636	-45.4981		94.2367
19.6451	-50.4051		99.2281
21.6456	-51.4729		99.0322
2.23158	-45.2638		96.2733
13.8547	-45.7324		95.6813
11.6786	-50.1914		92.491
17.7224	-56.9421		94.962
15.9818	-55.6861		95.1198
10.7828	-49.1996		91.0303
12.2828	-50.0181		91.254
8.75127	-52.5195		86.0812
9.80728	-48.2213		89.1343
10.7571	-61.3618		80.8986
16.5285	-46.1656		92.5368
12.8937	-44.7854		93.9852
11.3423	-44.3097		91.1539
14.2404	-50.945		89.7645
1.79063	-57.8075		75.6754
4.90013	-62.5968		73.2217
3.63241	-48.5986		83.8249
4.78492	-44.6476		86.5058
15.8651	-66.9576		77.8191
17.5222	-64.1258		81.8926
22.6956	-49.4303		92.4196
24.5242	-45.8255		93.7742
6.2132	-40.8515		88.3004
20.7414	-54.023		89.7869
11.5868	-66.5503		74.3388
-23.0846	-79.7601		-55.388
-31.0492	-76.491		-58.2177
-29.4852	-72.6847		-62.8415
-20.4679	-76.2723		-59.7169
-48.2298	-70.8022		-14.8811
-59.57	-63.5503		-27.1559
-54.8304	-63.9548		-45.9659
-49.4343	-68.7415		-40.3902
-11.0533	-84.1784		-45.4175
-5.18437	-86.0579		-39.5106
-16.7292	-82.282		-50.7637
-11.6705	-79.0927		-54.405
-34.2895	-78.0202		-57.8407
-25.1762	-82.6614		-54.5594
-12.0004	-90.5383		-41.1424
-19.0038	-88.4683		-47.8525
-5.68826	-92.1106		-32.1425
-3.8091	-91.0238		-28.0554
-30.2701	-88.3617		-47.2816
-42.5346	-83.2544		-54.6686
-25.6796	-82.6572		-10.3657
-17.7285	-85.6682		-9.63001
-27.0158	-84.406		-22.7671
-23.5279	-86.5745		-22.5739
-49.1686	-69.0682		-38.9302
-35.9781	-81.6764		-58.9552
-59.7925	-72.0421		-43.9739
-60.2236	-74.2187		-42.0376
-57.7596	-71.2243		-45.7099
-46.9185	-78.0258		-29.2764
-49.4806	-80.5721		-56.1907
-39.2316	-84.8389		-48.2961
-41.8234	-83.3113		-47.4415
-44.5007	-72.9565		-54.7601
-40.5987	-72.3073		-56.9397
-13.4645	-86.6043		-44.7194
-41.6881	-76.8505		-22.5159
-49.1884	-70.0767		-48.2925
-47.2845	-69.6814		-50.3835
-52.9805	-77.5896		-42.2848
-33.9454	-83.7848		-40.373
-109.32	19.4318		29.9856
-99.7176	12.1948		43.8656
-89.1544	5.43151		54.2587
-84.7562	-7.62254		58.2665
-16.4206	-32.1835		105.467
-28.3256	-28.1955		109.03
-78.7878	-0.08005		62.2052
-72.509	-2.29115		64.6518
-53.7455	-4.85714		72.1565
-111.508	7.7657		26.7648
-80.1986	-10.4207		60.3
-76.5448	-14.263		60.213
-65.2459	-22.6465		59.2251
-60.2644	-17.6881		61.1771
-111.456	-3.15639		21.759
-118.25	2.21883		1.24932
-67.8046	-28.9028		57.1056
-102.504	-18.8961		25.2114
-73.871	-35.0629		50.9256
-99.2892	-29.6925		11.8138
-70.8387	-42.047		46.2706
-61.6254	-8.90307		64.9912
14.9148	-92.4551		-16.5633
-47.9992	-65.6482		-57.0557
-51.6075	-57.9215		-69.9825
-26.1375	-67.1749		-74.445
-13.6446	-72.0263		-68.9202
-39.3973	-68.5857		-62.4274
-38.9592	-61.8861		-75.5841
-1.87936	-75.7527		-61.0127
63.8651	-74.3345		63.8516
57.3195	-82.6639		55.0105
25.2806	-95.958		43.8718
-94.188	-38.9793		-6.80327
-117.503	28.7903		7.05382
-119.394	15.2749		4.45735
-62.4314	-43.5539		49.1942
15.8185	-93.9457		49.8854
-1.00897	-42.107		95.7636
-2.64544	-52.2315		88.0594
-4.83354	-38.9299		95.2428
-5.34924	-42.8821		92.1855
-2.12661	-46.9146		92.3186
-3.31027	-66.6576		77.6623
4.08302	-69.4063		77.191
1.81783	-89.1723		-28.1026
-17.1875	-85.2995		-1.44266
-25.9275	-82.001		-2.45262
-53.4453	-67.1764		2.5553
-40.9765	-74.781		8.34149
-55.7276	-49.0814		49.3197
-29.3552	-80.5168		10.8177
-19.0666	-84.739		12.2091
-30.8589	-30.6048		85.9736
-19.9277	-38.7964		89.954
-21.3256	-37.2319		93.8508
-12.0116	-61.1799		77.7915
-2.89645	-84.4898		60.0709
-4.16114	-74.9837		71.1072
8.67548	-86.6844		62.9428
-24.8183	-81.3686		42.842
27.9007	-81.4567		76.3436
18.9839	-85.3836		68.4492
-47.8601	-53.6455		55.8218
-50.0289	-48.9947		56.4954
4.76405	-77.2289		72.2703
12.4829	-76.9151		74.9196
30.461	-64.7807		94.6219
-43.9506	-38.774		63.9752
-28.3951	-32.106		101.681
-32.7301	-79.0674		25.8599
-21.4504	-84.2147		27.4127
-57.9646	-5.74954		68.4567
-6.82228	-47.0752		87.9482
7.55577	-57.1094		82.0019
2.41918	-53.0672		79.9836
90.9271	-105.197		35.7023
85.7867	-110.459		27.2162
97.5211	-120.04		26.8796
102.426	-114.271		34.9322
54.8101	-92.9189		28.4093
60.6067	-88.7195		38.0387
67.4739	-97.7979		27.3103
72.3957	-92.6632		36.6334
9.40277	-69.722		78.2466
39.9782	-94.727		20.1537
30.0733	-95.4661		24.1058
81.4937	-114.678		18.3009
93.1859	-124.253		17.8592
28.9924	-95.3246		9.5197
38.1563	-96.4861		6.62389
37.8904	-98.3269		-4.81317
57.366	-103.656		-28.2758
-10.9877	-87.835		-10.4958
42.4434	-96.6507		-29.9104
73.6688	-103.114		-41.0425
88.6086	-112.055		-40.4135
107.561	-107.387		42.136
96.1385	-98.5834		43.6566
67.1276	-81.6425		48.3063
77.7843	-85.5228		46.1641
11.7168	-65.0628		82.0799
10.7237	-55.3353		86.4881
12.3735	-56.1579		85.6977
112.443	-100.112		48.1208
18.9849	-59.3425		86.0884
-88.511	-44.5538		-28.4407
56.1016	-85.0226		-53.0264
75.2787	-94.5144		-50.9285
55.7845	-93.7056		-42.58
91.2284	-103.434		-50.4389
36.1005	-85.5211		-46.0307
-119.72	37.485		-22.8679
-121.788	22.7281		-24.6898
-95.1854	40.4275		-89.8374
-69.5795	33.9834		-114.199
-74.5933	19.8169		-113.051
-99.3312	25.409		-88.9876
-43.1946	22.795		-125.521
-48.2743	9.90367		-124.362
-115.53	26.4426		-57.5092
-112.552	41.6616		-57.1902
-18.0155	10.9573		-128.369
-22.9373	-1.55266		-127.085
7.31324	-1.88727		-124.88
1.91407	-14.1313		-123.316
23.6864	-25.9698		-112.962
28.9109	-14.4313		-114.768
47.069	-27.1907		-96.0746
41.7456	-37.2079		-95.7635
75.1129	-45.5392		-72.379
91.4067	-54.8466		-67.1491
87.3815	-64.2836		-67.1872
70.7909	-55.705		-71.847
107.615	-64.2087		-63.1487
103.175	-73.2819		-63.7665
58.911	-36.0344		-82.4928
54.7333	-46.8083		-81.4783
-120.498	7.73307		-26.4448
-116.194	-7.17727		-28.1629
-79.0851	-8.16795		-102.386
-77.8668	5.60998		-108.909
-52.7342	-4.0602		-120.029
-55.8923	-17.0229		-113.307
-99.1414	-3.67804		-81.2637
-100.665	11.0951		-85.9891
-111.286	-4.86178		-55.8044
-115.049	10.7538		-57.0401
-32.4314	-27.0047		-116.423
-28.08	-14.9192		-122.843
-3.89215	-26.4839		-119.195
-9.52341	-37.1461		-113.084
12.1106	-46.8993		-103.063
17.9039	-37.5217		-108.784
36.0315	-48.3845		-91.983
29.3654	-58.0169		-86.0476
49.7581	-57.7679		-77.5533
78.5125	-84.0403		-59.8739
59.8392	-75.7674		-62.4161
65.5387	-66.2555		-68.5989
83.1382	-74.3383		-64.9716
98.7611	-83.1333		-62.456
-95.0488	-18.5956		-74.2239
-78.1748	-21.2495		-93.8162
-75.4458	-34.2601		-82.0282
-89.1251	-33.2275		-63.0522
-97.3586	-33.8647		-42.1204
-105.047	-19.9031		-51.9248
-35.6819	-37.569		-108.26
-57.3917	-28.649		-104.76
5.85419	-55.675		-94.6426
-14.7043	-47.1711		-104.417
22.3363	-64.6803		-79.4676
-54.9587	-49.4838		-82.1131
-0.594134	-62.6318		-85.6777
-7.21974	-67.8744		-77.2441
-22.8068	-61.899		-84.7721
-18.9157	-55.1063		-95.144
-38.2709	-55.1753		-87.3458
-37.497	-46.6883		-98.7648
-57.0625	-39.4275		-94.298
19.7203	-77.5343		-56.2321
6.74384	-72.7284		-66.7986
14.9694	-69.1606		-73.0465
-49.7797	-79.8581		-56.8973
-49.229	-77.8815		-57.8529
-57.8874	-75.7085		-50.5273
-57.7059	-73.4206		-51.4823
-56.5478	-74.4644		-34.6133
-55.997	-72.3519		-36.3454
-53.7566	-70.5836		-38.7567
-46.8368	-77.033		-58.0818
-55.6244	-72.9227		-52.183
-38.626	-84.8836		-56.4838
-59.7439	-75.5406		-41.216
-57.2225	-76.8862		-49.953
94.6387	-93.5728		-57.9967
69.8542	-49.5701		89.7874
69.2687	-52.2883		89.6837
71.548	-46.8908		86.77
68.3572	-48.8369		92.0727
13.126	42.907		60.1106
10.6193	41.522		62.9091
16.3651	41.7644		60.0654
11.1973	45.605		56.1431
7.69876	40.4739		64.5406
4.20923	42.0404		62.5187
6.83191	37.6421		67.4448
-58.8918	12.3886		71.4213
-57.1	13.9708		71.5493
-60.5418	16.8149		70.6479
-60.652	10.8112		71.0519
-56.6853	9.27102		71.1379
-42.4055	1.11558		73.2601
-40.8981	0.884047		73.329
-43.5176	2.23092		72.1588
-43.1743	0.991796		73.5459
-39.8744	3.21261		70.4117
-37.0346	3.32662		69.7666
-41.1157	4.45972		69.7016
-42.8061	3.46879		70.8501
-38.7623	2.01877		71.4774
-20.245	29.1628		70.3797
-20.6409	25.5106		72.4375
-20.3996	31.3031		68.8335
-30.8844	2.02731		72.4918
-31.9381	2.25498		71.9289
-30.4371	1.21962		73.5969
-29.2481	2.99772		72.3389
30.2945	-19.8461		89.7066
30.0652	-19.907		89.8909
30.5719	-19.7596		89.347
30.1075	-19.9366		89.9599
28.0212	-20.3959		91.5905
29.0406	-20.3305		90.558
29.1683	-19.6709		90.896
27.5056	-20.1487		92.0843
26.6237	-21.611		92.5745
31.504	-17.4572		90.6916
29.1025	-16.3487		91.6082
31.141	-19.4851		88.693
30.0641	-19.5346		89.0484
31.8937	-18.738		87.6038
31.2298	-19.8811		89.0254
30.1534	-25.678		94.746
31.1885	-25.6807		94.7129
30.5034	-22.3831		92.1096
29.5071	-25.4408		94.5532
29.9533	-29.1555		97.3921
18.9738	-23.2616		97.1379
17.4145	-23.058		97.4305
15.6811	-25.3723		98.5878
19.8927	-23.3805		96.9395
22.1087	-21.6489		95.5898
29.5962	-20.6421		90.5784
29.6722	-20.5771		90.5889
29.6865	-20.5292		90.493
28.6783	-22.029		91.2343
59.2685	43.3426		12.5897
59.1279	42.5236		13.3624
63.0545	41.5373		10.2637
58.6458	44.3364		12.5838
58.3694	56.4447		1.1788
57.7719	58.1211		-1.64604
56.0766	56.1055		1.80026
58.4338	55.1568		3.68095
59.9656	56.2945		0.881714
58.5013	47.8441		10.9135
56.0371	49.1955		11.0883
58.2331	47.0449		11.5429
60.4204	47.9884		9.74503
48.5838	54.4535		5.40935
47.902	54.9921		4.37663
46.9371	55.2984		5.26731
48.7481	54.3044		6.83713
50.2545	54.1192		5.40468
34.1188	68.8612		1.75383
35.8253	67.5304		1.29452
33.7174	69.5548		1.10993
33.3966	69.072		2.54964
27.4206	77.6071		-3.68828
26.6285	77.8001		-2.82998
28.0497	76.7947		-3.55856
27.8846	79.5806		-6.66078
49.8604	58.4715		-1.248
47.725	58.1888		-0.352863
52.1921	55.902		1.93945
54.4315	59.2404		-2.8667
49.9099	62.1526		-5.04618
35.6628	71.868		-4.42001
34.9474	72.7994		-4.91005
34.3841	70.1497		-0.866961
37.0906	71.3029		-5.20021
50.0633	70.9081		-13.3644
49.6623	70.8548		-12.8656
52.2705	68.5887		-12.519
49.5125	71.8819		-14.4373
48.6744	73.1376		-16.304
46.5961	74.2243		-15.6573
49.5438	72.8334		-17.2113
46.4814	75.0086		-18.0483
57.1186	59.5428		-3.76723
55.8829	61.2394		-5.87329
58.4738	59.5078		-4.27822
47.3324	68.5796		-9.92113
48.2693	66.5844		-8.6329
48.7051	69.8008		-11.407
46.0804	69.2228		-9.91443
52.1654	48.3863		13.4816
54.4036	47.3803		13.2382
52.3452	49.2427		12.6711
51.1118	48.5178		13.9115
49.3961	49.1483		14.3106
47.7303	50.4581		14.0088
49.0889	48.6379		15.1237
42.1994	54.9389		12.572
42.4325	54.3899		13.0493
42.9259	55.1745		11.8326
39.666	56.9263		11.8632
42.8362	53.6741		13.5991
42.2673	53.3317		14.4103
44.9533	52.3641		13.7338
53.2097	55.0221		3.47448
53.5043	54.1552		5.37534
41.7229	60.4536		3.88975
44.4845	57.6079		4.66181
42.5622	60.273		2.52768
38.9842	63.333		3.116
40.5781	61.2145		4.92898
35.6053	79.309		-14.1907
35.0917	79.8151		-14.5583
35.7441	78.8999		-13.5868
37.2436	79.139		-15.6173
40.6516	77.3823		-15.7185
41.129	76.5219		-14.1595
42.387	76.6904		-16.2623
39.7745	78.2178		-16.7567
38.4435	77.8624		-14.2268
28.5533	76.337		-3.63602
29.6177	77.4534		-6.04523
28.6977	75.2315		-2.4809
31.1311	78.6562		-9.03526
31.6527	77.676		-8.22183
33.076	79.9886		-12.718
30.5367	79.8986		-10.0362
-33.0622	30.1953		70.7397
-30.956	31.6698		70.5601
-34.9687	28.3721		70.5463
74.0568	-42.7748		82.6222
75.1189	-43.276		79.1928
74.2332	-40.259		82.7116
-23.5515	33.7202		68.694
-26.0461	33.6497		69.2872
-21.423	33.7346		68.1435
-23.4313	38.3804		66.9717
-23.5326	41.3694		65.5627
-26.9759	38.942		67.6281
-23.7978	36.1063		68.0338
-20.5442	37.7805		66.4352
66.6937	30.8848		18.1731
66.9074	33.0389		13.5915
65.033	31.9223		19.3169
68.5021	29.1351		18.1013
-33.4111	6.44132		68.0135
-32.5209	6.57438		68.1097
-34.2493	6.87587		67.8834
-36.7453	6.45361		68.1115
-37.8314	8.90201		68.003
-35.5389	5.44484		68.3813
-44.8063	1.13381		73.6365
-45.2911	0.702312		74.1202
-46.6626	2.21631		72.7575
24.7676	-25.0544		93.6601
25.8018	-24.5047		92.549
24.4889	-24.5546		94.0797
22.3977	-27.648		95.3138
85.3201	13.1103		16.551
83.6008	11.692		21.7198
87.9516	11.4832		15.1858
83.6086	15.2491		15.5874
29.95	58.3112		15.5965
34.9766	53.7856		19.3851
31.8218	58.9698		13.3212
24.6965	63.091		10.8149
27.2057	57.4299		19.4956
91.5149	13.7776		4.19682
93.6673	12.4076		2.89346
88.0635	16.6306		2.99864
92.0415	11.4923		9.1558
122.67	-5.3314		5.23249
130.475	-9.0745		5.39262
120.818	-4.06372		-3.27445
114.782	-1.14112		3.65143
123.385	-7.1015		11.7258
30.094	-20.5398		90.7531
30.2959	-20.4866		90.7776
29.45	-22.2063		91.8079
30.6225	-20.4077		90.8469
28.9903	-25.5328		94.5951
28.6231	-25.1352		94.2031
28.2814	-28.7715		97.1452
74.1655	-38.1748		82.8108
76.0608	-33.2452		78.36
72.2297	-37.9957		85.5095
84.3023	11.0623		-44.9811
81.4333	12.2714		-49.9684
83.6474	13.4374		-40.9939
86.533	8.67276		-44.3533
-62.1347	75.7022		25.9055
-61.1814	79.1972		19.2184
-67.1694	73.7561		26.9751
-59.0627	73.8978		29.7144
57.5032	63.8124		-12.8796
54.5395	67.796		-16.3496
56.755	64.5625		-11.9429
59.8822	60.4267		-9.80561
57.6108	63.3799		-14.1893
30.168	66.2929		6.4718
33.1675	63.3581		8.25012
30.9006	67.2027		6.03475
27.3062	69.246		4.22491
29.216	65.1714		6.89824
47.4814	53.7419		10.5078
47.5491	52.9		11.583
50.3511	52.9498		9.84653
48.3329	54.0867		9.09437
45.91	54.5274		10.5188
53.1978	50.4449		11.2805
50.1192	51.3163		11.892
53.729	51.4668		10.0635
50.6956	71.8066		-19.5972
50.5709	71.2165		-20.5347
45.9421	75.5492		-21.6618
50.6744	72.1192		-18.6725
50.182	70.4637		-21.4006
54.0784	66.7897		-18.611
49.6071	69.6995		-22.0152
45.4243	73.957		-23.3025
25.5754	66.2031		4.65053
24.2841	67.7341		2.54265
24.4668	66.4617		4.72321
26.6746	65.3009		6.11778
55.5935	62.195		-17.9293
54.54	61.0405		-19.1408
52.6034	65.1953		-20.3808
56.4127	62.7672		-16.916
57.9685	59.0953		-15.559
59.7189	59.2128		-4.81481
57.9829	61.5263		-7.65219
60.6541	57.6469		-2.44283
60.8343	58.7532		-5.83267
65.5152	52.3243		-1.79189
66.0223	50.552		1.1804
66.4168	50.5212		-2.80622
63.9413	55.0799		-4.80534
63.3804	54.7592		-0.636374
62.3783	53.1425		4.4737
63.7395	51.83		4.35947
62.1146	54.3287		2.81818
61.1911	52.9704		5.54563
65.6066	37.9488		8.26509
66.3465	37.0335		7.87327
65.7678	39.5699		6.67415
63.5382	38.0109		12.2583
65.02	44.1474		7.47218
66.5477	44.32		5.37504
64.2467	45.9243		7.85685
62.3078	44.3481		9.98606
65.3521	42.7997		7.20519
27.0946	73.064		3.22197
25.8378	73.8229		2.84146
29.2251	70.0569		4.40999
27.3814	73.3614		2.93388
25.0953	74.2648		2.4376
23.4466	77.2637		0.211055
24.9456	73.9393		2.35803
50.4207	72.3228		-17.93
53.3456	68.9269		-14.7945
46.1805	75.8034		-20.2186
37.9987	80.1654		-18.461
38.7042	79.4437		-18.0469
38.8747	80.0509		-19.1663
36.212	80.721		-17.2787
27.2982	74.6717		1.19263
27.2803	74.3788		1.73395
28.5172	73.5355		1.14609
26.4386	75.9965		0.0442314
27.6236	73.5446		2.61347
29.961	71.2636		3.10916
24.8899	76.7126		0.614858
49.3462	70.5618		-12.354
47.1828	72.6328		-13.0716
51.5461	67.539		-10.9295
30.1761	72.6415		-0.113817
29.1337	73.8576		-0.838092
30.1304	72.4374		0.356151
31.6064	72.6339		-1.61699
28.9603	74.7142		-2.05326
30.1015	75.1528		-3.79701
50.2859	64.1865		-7.29293
52.4434	63.9802		-7.88112
39.5946	61.6649		5.93002
36.3279	64.8152		5.26501
39.1757	61.4231		6.96532
43.1711	58.3773		6.54827
33.5059	69.9085		0.762735
31.9369	70.9206		1.0667
82.1937	15.6807		-39.1768
79.0053	18.4729		-42.5771
82.296	16.5049		-36.1978
2.49666	-6.98201		88.8154
6.54502	-6.78331		89.8131
1.44254	-5.95082		88.3196
1.02441	-8.75749		89.0396
-2.45746	-10.7966		89.9175
-1.17482	-10.7729		89.718
-4.67026	-9.23562		89.6042
-2.84422	-12.0122		90.9284
-38.8279	48.0954		64.0395
-37.469	47.1879		64.9112
-31.3573	50.3368		61.7096
-39.5261	48.9992		63.0377
-43.7109	44.3078		65.8956
-4.70176	-23.224		97.2799
-5.71208	-23.4725		98.0932
-4.06398	-23.7653		97.0992
-4.05044	-22.2941		96.6591
-7.70825	-20.7199		99.838
-8.04845	-21.9713		100.366
-6.14873	-20.0301		98.0925
-8.66243	-19.9091		100.6
-20.8585	32.2156		68.4108
-21.6806	32.2884		68.4252
-12.2	-12.228		97.9674
-11.3054	-12.6568		98.0228
-11.8778	-11.8304		97.1672
-13.6656	-12.8308		99.4296
60.3756	55.8948		-12.9363
61.6819	53.4673		-11.2943
58.7723	55.6519		-14.8963
61.5239	56.1386		-11.4334
-50.0407	84.8624		9.7038
-54.3769	84.4798		9.6508
-47.1097	82.5095		15.1285
-47.0158	88.1292		0.68748
37.4994	-20.9315		87.4908
36.2374	-19.4343		86.7052
38.9356	-21.2736		87.2682
36.2701	-21.7578		88.3759
27.7147	-15.8222		85.6761
26.8625	-17.1714		86.7047
26.8949	-15.2553		85.1944
29.8768	-16.0993		85.6208
54.0448	-78.5164		83.0402
52.235	-78.4279		85.2649
53.3319	-80.0008		79.2102
55.9034	-76.7941		83.9144
-47.5166	-69.5228		34.5559
-49.5001	-68.3698		30.5593
-44.9359	-71.4143		34.3221
-48.5816	-67.5704		38.1858
-49.7766	-65.0489		40.8646
-48.7421	-63.7741		44.7286
-52.321	-62.7105		39.2584
-67.895	-3.95827		65.6807
-66.798	-6.13955		65.188
-63.7165	-3.55112		67.1282
-67.5652	-1.66816		66.4671
-71.6208	-5.45698		64.1538
-48.8126	-11.164		70.5114
-49.2588	-10.6214		70.9466
-50.2391	-10.4513		69.3448
-47.7353	-12.2326		70.4468
-48.6692	-13.1112		67.0457
-47.2693	-15.3348		65.6954
-47.1898	-13.7034		68.2904
-50.6044	-11.137		67.6852
-50.5596	-12.6498		65.8074
-57.4462	-41.93		53.966
-55.2763	-40.4393		57.3687
-58.931	-42.4229		51.7609
-42.6599	-19.9589		67.9828
-42.37	-21.7637		67.184
-41.9239	-20.2181		69.2307
-43.4529	-19.1259		67.4728
7.80603	-62.2962		79.2555
7.68672	-62.1505		79.4922
7.72394	-62.1982		79.5584
7.96082	-62.4204		78.8481
6.62083	-60.8708		81.6183
6.80141	-61.9602		80.4328
6.68016	-59.4473		83.3317
6.03926	-60.758		82.0851
3.97275	-63.7764		79.9966
8.18711	-62.7602		78.0385
8.49733	-62.7504		78.4811
8.19916	-63.3165		76.6171
7.53847	-62.0148		78.5883
11.666	-61.059		86.0479
12.2298	-61.8031		85.8346
13.6913	-60.0358		89.6582
11.1508	-60.5781		85.9475
9.58103	-61.9796		82.3832
2.64096	-54.7767		89.2127
1.44788	-53.8514		89.645
3.66243	-57.1633		86.9371
3.34732	-55.3214		88.9367
1.93438	-51.8104		91.7615
7.9001	-61.6506		80.4831
8.39298	-60.4081		81.8019
7.8753	-61.7501		80.347
7.89038	-61.7486		80.4591
-11.3392	-89.5304		-17.2329
-12.5105	-89.6786		-17.517
-7.34593	-90.6521		-19.5404
-10.9957	-89.1994		-16.2316
-19.9544	-91.6391		-32.4013
-21.0892	-91.0879		-35.5126
-18.8539	-92.7072		-32.9288
-19.3818	-91.8675		-29.6306
-21.1428	-89.8775		-31.2696
-15.3084	-91.2666		-20.513
-14.1943	-92.4442		-22.0848
-15.0449	-90.9685		-19.7377
-17.6713	-89.7215		-20.1804
-24.8612	-84.4136		-25.9212
-25.4834	-83.8125		-26.9436
-23.6513	-85.511		-26.1124
-24.9108	-84.9584		-24.5874
-26.4389	-83.5287		-26.0537
-43.8627	-79.4217		-31.8288
-44.5932	-79.2436		-31.0314
-44.5219	-79.2483		-32.6041
-41.7408	-79.8942		-32.091
-53.6465	-76.9047		-38.8298
-54.4139	-76.6833		-37.9553
-54.3832	-77.2761		-42.3956
-52.6665	-77.0148		-38.5306
-32.8489	-81.7585		-32.9606
-36.4143	-81.8872		-37.3825
-30.4073	-82.3924		-32.7679
-32.3538	-81.7787		-29.5666
-36.7773	-80.8487		-32.962
-46.6887	-79.4193		-40.2087
-45.2553	-79.833		-39.6087
-47.6722	-78.2754		-35.8687
-48.1075	-79.0916		-41.4476
-45.7644	-80.9318		-45.3202
-11.7052	-88.0911		-42.2857
-13.3799	-88.4512		-43.5772
-11.1428	-86.9128		-42.5518
-10.0356	-89.1503		-40.2148
-33.3936	-87.7552		-49.5761
-34.2756	-87.4664		-50.8217
-30.4445	-88.561		-48.3592
-33.6783	-87.585		-49.0171
-35.3974	-86.8299		-52.8491
-37.5847	-85.992		-52.2578
-37.8209	-85.4964		-54.7366
-34.482	-87.0405		-53.7441
-22.1866	-90.5989		-37.874
-23.8386	-89.8061		-40.2094
-21.272	-91.4669		-38.5931
-23.6899	-88.65		-36.4254
-33.801	-85.579		-45.0295
-31.9325	-85.7119		-43.2869
-35.0351	-84.9379		-45.0242
-33.6806	-86.7831		-47.0998
-29.1355	-86.4938		-41.5513
-27.6086	-87.8685		-42.4214
-28.1879	-85.9104		-38.6576
-19.5636	-86.8461		-16.9145
-20.3095	-86.2065		-16.3819
-19.9711	-87.1567		-17.9987
-17.4994	-88.133		-17.3047
-21.8603	-85.3389		-15.918
-21.7857	-85.1109		-14.9303
-23.7804	-84.6203		-16.3559
-30.214	-82.1741		-18.2614
-33.1022	-80.9948		-19.1613
-29.849	-82.6067		-19.1665
-29.7342	-82.234		-17.6654
-29.0387	-82.3656		-16.9735
-26.8183	-83.3715		-16.774
-29.2419	-82.0269		-15.9927
-22.282	-87.6306		-28.7947
-23.2726	-86.7845		-30.3478
-21.7779	-88.0626		-26.7763
-33.2346	-81.6879		-28.211
-29.5475	-82.6162		-26.9846
-34.6954	-81.5482		-27.3199
-36.9417	-80.7943		-29.4619
-27.8894	-83.124		-26.0479
-28.2818	-83.3589		-25.2494
-48.2699	-80.568		-50.7083
-46.9149	-81.2681		-52.2729
-47.9807	-80.6708		-50.0247
-48.8996	-80.305		-51.1385
-43.5258	-82.9773		-52.3607
-42.8629	-83.4365		-50.692
-45.4713	-82.0166		-50.7424
-44.5012	-82.3726		-53.4631
-41.8678	-83.785		-52.9358
-51.9961	-77.1427		-38.5284
-51.2498	-77.0753		-37.0776
-51.8091	-77.7284		-41.368
-51.3209	-78.509		-44.861
-50.3939	-78.6842		-43.8428
-52.4652	-78.3497		-46.1347
-50.5548	-79.4562		-49.1227
-49.295	-78.8343		-42.5856
-48.3991	-80.0874		-46.9602
-50.1297	-77.6742		-38.5317
-66.0136	-32.7505		56.3826
-65.5611	-30.205		57.4511
-65.8464	-35.1732		55.1185
52.1327	-82.3703		73.7881
50.1899	-83.7225		72.9094
53.9025	-81.6059		70.628
-62.5881	-41.1767		51.3695
-61.2612	-42.5931		50.5156
-64.0856	-39.4408		52.4211
-66.1427	-42.9072		48.0319
-68.6059	-41.1824		48.5679
-67.6735	-43.9267		45.8801
-63.2516	-44.3684		47.8908
-64.5638	-41.9981		49.8732
1.36263	-90.5675		-9.28443
3.74989	-91.0449		-9.11068
-0.574174	-90.2091		-8.24055
0.728957	-90.3099		-14.2962
-48.2085	-20.3174		61.2406
-47.7651	-20.9446		61.2049
-49.1299	-20.0492		61.0585
-50.0433	-17.4738		62.1933
-52.4405	-17.7906		61.7167
-48.4084	-17.8582		62.7016
-50.4057	-9.54041		71.1802
-52.2743	-8.36737		70.3662
-50.4735	-9.1666		71.823
8.21684	-56.7565		85.8011
8.42934	-54.3556		88.5334
7.59866	-56.9539		86.0597
8.59347	-57.3425		84.5164
26.143	-95.3563		-8.42127
23.6523	-94.7745		-9.71173
29.2966	-96.1238		-9.60251
25.0981	-95.0171		-2.90869
-40.4791	-75.488		-14.3803
-34.678	-78.3677		-10.182
-42.0714	-74.2777		-9.93491
-46.4463	-72.2346		-19.5744
-39.5043	-76.4798		-17.079
32.0335	-96.3332		-21.0244
33.0642	-97.2803		-15.8386
27.9973	-94.6887		-22.4781
34.6963	-96.8912		-22.1475
65.6557	-111.872		-19.1962
73.3163	-116.288		-19.1646
66.2077	-113.74		-12.7595
57.8838	-107.136		-20.6762
65.2096	-108.178		-27.1138
8.0861	-62.1673		80.534
8.88758	-61.1095		82.2794
8.01876	-61.9613		80.5592
8.15937	-62.3493		80.5069
7.207	-63.3857		79.5411
8.54979	-63.4042		80.3936
10.8955	-60.1181		86.125
12.4366	-58.8314		89.5922
10.44	-59.8746		85.7119
48.4457	-84.7094		72.1908
46.7648	-84.2991		74.6501
46.1212	-86.9479		66.1428
39.7255	-73.1472		-64.2514
42.8098	-73.8938		-63.2522
36.6874	-75.1698		-61.2589
38.0467	-69.8391		-68.7845
-110.691	-17.3413		4.00229
-108.241	-20.112		7.58009
-112.357	-12.9234		6.49985
-111.526	-17.4715		-3.43621
-23.5962	-90.032		-47.9697
-27.7913	-88.6111		-52.0743
-22.9551	-89.4452		-49.0584
-20.1405	-91.1712		-44.3418
-24.7916	-90.1584		-47.2214
-44.9884	-76.6356		-25.7863
-41.2603	-78.0471		-23.6286
-44.7387	-75.458		-24.8171
-48.5599	-75.1829		-28.4165
-45.1977	-77.5264		-26.6525
-25.8696	-84.9476		-20.7322
-25.365	-84.9275		-19.4468
-27.3918	-84.141		-20.7095
-25.393	-85.3041		-22.3349
-23.476	-86.5354		-21.5991
-20.1802	-87.9937		-19.8679
-22.7072	-86.2107		-19.073
-20.4382	-88.5114		-21.4672
-32.57	-86.589		-55.8205
-32.9955	-87.0505		-55.0676
-37.8949	-84.1196		-58.2061
-32.0097	-85.8666		-56.4588
-31.4933	-84.8801		-56.9233
-26.8611	-86.9591		-53.734
-36.653	-82.3412		-59.0658
-31.1215	-83.8362		-57.1124
-47.2875	-72.3918		-26.6154
-46.1967	-73.2822		-25.1233
-48.1443	-71.7		-26.4205
-48.8661	-71.4556		-28.9115
-22.5041	-85.9917		-51.7298
-21.98	-84.1582		-52.2434
-19.137	-87.0382		-48.8583
-22.6689	-87.2698		-51.1484
-26.1398	-84.3859		-54.5272
-20.2178	-92.102		-39.2258
-22.5054	-90.9933		-42.3648
-19.0216	-92.3876		-40.2205
-18.8953	-92.8187		-36.6376
-12.0671	-94.0658		-35.0734
-15.4085	-94.0554		-34.4478
-14.553	-93.2461		-38.552
-9.96044	-93.4843		-35.5647
-10.9619	-94.5717		-31.7715
-15.6958	-94.2039		-28.9089
-16.4586	-93.5739		-27.5903
-16.4581	-94.0222		-30.8438
-13.8636	-94.5823		-28.7804
-2.76596	-90.0395		-20.6695
-4.7642	-89.8261		-16.5902
-3.61696	-90.4708		-22.7389
-1.55969	-90.0115		-20.858
-8.32777	-92.8297		-23.3886
-6.76394	-93.2396		-25.727
-6.56839	-92.0733		-23.2572
-10.447	-91.9907		-21.0662
-10.2151	-93.5019		-23.7332
-51.5223	-76.6543		-30.6884
-51.5392	-76.9349		-31.1212
-48.1282	-77.1501		-28.8878
-52.7777	-75.9448		-31.0849
-53.4782	-75.4641		-31.4809
-53.2912	-75.1517		-31.4079
-56.3985	-74.9797		-34.3408
-46.75	-81.417		-55.4239
-48.4512	-80.7164		-54.1977
-46.0166	-81.8002		-56.2005
-45.849	-81.733		-54.907
-52.2964	-76.9563		-33.1972
-53.6305	-76.5819		-34.5897
-50.6837	-77.2968		-33.0519
-52.1779	-76.9751		-32.5877
-51.4849	-77.1088		-31.5321
-55.2094	-75.9466		-34.0417
-48.4215	-77.909		-30.6748
-33.7272	-87.3586		-48.3745
-30.3444	-87.9872		-46.3679
-36.4846	-86.5024		-49.3922
-50.7675	-77.1566		-36.5375
-50.2162	-77.2606		-35.129
-48.7853	-77.687		-34.206
-48.7351	-77.7071		-33.6852
-35.8039	-81.3619		-26.3724
-40.0439	-80.2376		-27.5135
-31.2732	-82.6401		-25.2842
-36.0423	-81.2663		-25.2401
-44.8591	-79.1499		-33.0147
-46.6227	-78.5617		-32.8098
-44.2397	-79.3946		-34.7834
33.7037	-75.7763		-60.0826
32.5285	-77.2683		-57.6202
30.2838	-73.5651		-63.63
-19.3328	-47.1408		78.9967
-18.7115	-45.0306		80.1601
-20.7905	-46.7001		78.3279
-17.2426	-50.659		79.0845
-19.2142	-41.5655		82.3368
-18.6322	-41.0684		83.6959
-21.8215	-40.4796		81.8769
-18.4795	-42.5015		81.892
-82.0946	-35.9769		43.4348
-80.7502	-37.2585		43.7959
-82.7118	-29.6329		48.4141
-83.1311	-35.0536		42.7899
-78.8773	-41.5475		39.741
-12.6926	-35.1423		96.0504
-13.4673	-35.0882		96.5485
-12.265	-35.7915		94.8237
-12.1601	-34.5174		97.0025
-14.5371	-35.0182		97.4774
-15.2548	-35.5076		96.8883
-14.7777	-34.2468		99.408
-59.8552	-42.3845		51.1248
-60.4509	-41.7466		51.282
-25.1193	-36.3129		91.878
-25.7526	-35.4681		93.6385
-25.114	-36.4401		91.0028
-24.2714	-36.8053		91.988
-107.521	-25.5315		-15.9105
-106.588	-26.3519		-25.8193
-104.987	-28.4833		-10.583
-109.778	-21.9882		-15.1177
13.218	-66.4437		76.3397
13.0359	-65.4058		77.6738
14.2334	-67.2592		75.9305
11.4068	-65.9616		75.2958
3.62906	-60.7612		74.5461
5.13505	-62.3074		74.1739
2.67737	-60.1825		74.0515
4.11009	-59.7839		76.18
-15.9594	-36.2289		95.8445
-17.3505	-36.2098		96.3803
-15.2478	-37.1775		93.6437
-8.0917	-22.9914		100.542
-9.21101	-23.7843		101.997
-7.22894	-23.4625		99.5484
-6.62904	-23.8601		98.9625
-6.97122	-24.9247		99.4725
-11.6921	-36.4532		93.7098
-11.9296	-37.1587		92.7303
-10.8842	-36.6263		93.5984
65.5008	47.6805		-5.53987
65.1288	45.8253		-5.57666
63.6989	50.0275		-8.58742
66.1811	48.4809		-4.62081
66.9309	44.7076		-1.82596
60.8549	29.3362		32.0975
59.3523	27.0927		39.8297
65.1325	25.9841		31.6542
61.7854	31.7281		25.376
56.3137	32.6231		32.536
121.382	-13.981		25.3006
112.185	-9.58481		23.922
120.023	-17.2065		29.2619
130.975	-17.9608		26.1176
122.344	-11.1179		21.0466
138.117	-20.6084		26.3329
143.813	-22.6124		26.2798
138.521	-17.788		21.7912
137.48	-24.0059		30.6982
102.097	-13.3193		31.8856
97.0549	-10.1612		32.0466
100.59	-17.4882		36.1016
108.956	-16.7572		32.186
103.988	-9.39228		27.3208
108.505	-1.53184		14.8561
114.644	-4.82487		15.6684
109.1	0.497295		9.64409
103.798	1.22249		14.2064
107.196	-3.62134		19.0357
74.8794	10.1229		45.5537
71.438	13.5659		46.7111
74.4432	6.49744		53.5259
77.9977	6.72095		43.9338
75.4005	13.0945		37.7572
-12.0052	67.0015		29.7424
-16.9534	72.1905		23.8459
-19.4388	63.2006		38.8495
-6.7606	62.6576		34.227
-5.55181	70.9394		19.2448
-2.1787	84.0085		-22.7641
3.00403	83.1311		-31.6814
-7.47489	86.7224		-29.4394
-6.64297	83.9644		-12.7123
3.31141	80.8017		-16.4164
84.9575	-58.1577		58.2975
83.6925	-60.3954		58.4876
91.576	-61.7941		58.3068
86.5045	-55.2813		57.8479
80.7843	-56.0383		59.7063
102.37	-66.3993		57.5661
113.26	-70.852		56.383
103.62	-62.7206		56.7779
100.757	-69.4159		57.9631
117.349	-80.8195		55.7519
118.911	-77.3975		55.9241
110.144	-77.469		56.5398
115.645	-83.938		55.2488
122.238	-82.8875		55.3459
77.4849	27.3397		-10.1042
72.6817	32.2812		-8.6356
81.4834	23.1566		-3.85396
82.2519	22.3174		-11.6218
72.2837	32.2248		-15.5212
68.7386	36.0263		-19.3702
73.0638	30.3296		-22.1991
