1833
114.433	-9.56244		2.55894
63.0386	34.4281		19.157
102.054	0.54806		-0.0187073
139.4	-29.4213		-8.57892
125.129	-20.1492		-10.8545
109.896	-68.0175		66.9631
122.761	-73.6663		64.9956
82.0814	-50.7144		76.3317
90.3708	-58.6435		72.6805
33.4848	-31.6302		97.6196
22.0046	-34.8182		94.5321
23.5161	-35.7356		94.2332
117.628	-83.0128		67.5132
28.9607	-39.0224		95.2129
-8.63181	85.4662		0.990706
104.965	-9.54351		-26.4855
109.258	-8.49055		-13.8747
121.511	-22.3449		-23.1989
136.374	-32.3752		-21.2442
93.8065	5.48038		-17.8576
-81.507	82.2496		-16.3643
-92.7943	73.5931		-21.1345
-63.8567	73.6819		-86.6223
-54.1533	83.216		-79.274
-30.3607	72.6159		-102.276
-38.893	62.8		-109.661
-5.93093	58.3835		-112.269
-13.5049	48.8859		-119.262
-72.049	86.1634		-48.8672
-82.8118	77.1157		-55.1641
-92.1329	65.2813		-59.7253
-102.255	61.9134		-25.4917
16.8963	42.9362		-113.738
9.69608	33.9444		-120.552
38.5656	26.2542		-108.866
31.9072	17.0994		-115.863
56.2878	9.75269		-97.9864
69.8769	-5.76575		-80.8577
64.5179	-14.4131		-85.804
50.1343	1.09992		-104.883
43.6796	-8.46315		-109.137
25.0744	6.73051		-120.217
87.1159	-37.1949		-61.4675
93.1317	-29.2706		-56.4254
107.111	-41.0038		-51.0412
101.401	-48.5348		-55.2626
115.993	-59.4659		-50.1173
110.747	-67.4449		-52.7395
95.5721	-56.0711		-58.1621
80.4202	-16.7501		-66.3212
73.998	-24.6114		-72.01
68.2271	-33.7798		-74.9004
81.6257	-45.3205		-64.3712
-53.5366	91.7094		-8.17468
-68.2926	88.2291		-11.9744
-13.0971	84.8356		-80.956
8.84405	72.6803		-90.625
1.85568	66.6736		-102.212
-21.7632	80.0446		-92.4497
-44.1744	89.4386		-70.6565
-32.8152	92.956		-60.7317
-45.1779	95.4764		-35.3099
-59.3426	92.3015		-42.1485
29.6443	58.2907		-92.8263
23.8591	51.5433		-103.937
48.5415	42.4074		-89.0815
44.4245	35.046		-99.5029
64.7258	25.4144		-79.4059
61.566	18.2677		-88.9308
78.031	10.7239		-62.5203
75.0863	2.72038		-72.386
85.8521	-8.95994		-57.9118
116.907	-26.9987		-35.6207
112.625	-33.67		-44.5598
98.29	-21.1849		-48.7361
101.641	-14.0186		-38.8283
126.801	-43.9771		-40.8788
121.333	-51.5919		-46.496
-20.5928	93.7333		-49.0633
-8.70023	91.6403		-34.1657
4.2768	86.5807		-52.9649
-4.42832	86.952		-68.2238
-18.199	92.2505		-13.7422
-30.8426	95.5843		-26.7815
15.1317	76.1909		-78.1925
34.3271	62.9584		-80.956
51.7231	48.3574		-76.783
66.4734	31.8912		-67.7712
78.2266	17.5501		-53.2628
27.1323	76.0549		-50.3089
66.5445	37.5841		-56.3474
53.581	52.4434		-64.9332
54.4024	55.4575		-52.658
65.2782	42.8329		-46.0545
38.2455	65.4314		-68.7185
41.6969	66.2116		-55.2477
21.1836	77.2583		-64.6984
76.5281	23.7415		-44.9938
73.6985	30.2728		-37.1015
81.5656	18.517		-27.8472
47.714	76.991		-17.3859
46.647	75.9902		-19.0672
36.9065	79.2055		-13.8418
38.4297	80.027		-12.1258
32.9718	72.853		-1.48333
33.907	73.6487		0.87734
33.366	70.9713		-4.58951
47.2488	73.7023		-19.9808
37.7806	77.4701		-14.996
57.4856	69.7727		-16.8776
34.8626	78.6764		-3.84039
39.5919	79.7933		-11.3157
-102.979	53.1221		5.78304
-72.8076	61.8564		-91.4141
132.057	-37.2891		-32.2823
-46.7581	51.5456		-114.307
-21.0896	37.6212		-123.79
2.12197	22.9816		-125.088
58.8473	-23.9745		-88.6329
-15.7669	-85.193		8.15403
-14.9197	-86.3236		-5.8955
-5.74568	-89.7073		8.76123
47.679	-114.73		-0.969229
48.5977	-112.405		9.5149
75.896	-135.372		14.1509
65.2141	-125.914		13.4195
63.331	-127.164		2.47821
74.0761	-135.744		2.88242
37.6211	-104.799		7.00893
51.186	-108.959		22.0204
39.4605	-102.073		20.0619
37.4712	-107.31		-3.63188
37.8608	-107.802		-13.9236
48.1754	-114.994		-11.065
3.31625	-93.2375		9.09265
12.0968	-95.8492		9.0429
14.3388	-94.8323		25.296
5.92198	-91.0711		27.1045
-79.9442	-44.0093		-20.0723
-69.7785	-51.6191		-9.50605
-77.2138	-42.7506		15.2026
-86.9529	-36.3473		2.34711
-62.2207	-49.4443		-59.7481
-72.2112	-47.4951		-41.7746
-79.5717	-37.5083		-53.8311
-67.2447	-39.1769		-72.036
66.4269	-78.5554		81.6065
62.2508	-84.2638		76.8265
71.5308	-89.515		72.2366
75.1622	-84.7775		77.0968
89.1124	-102.605		63.5168
93.6453	-96.8319		68.2567
104.09	-104.617		64.6737
-0.406529	-84.9405		-42.1492
13.4991	-86.5409		-43.1619
7.77636	-90.816		-30.944
-7.2287	-81.2112		-49.0754
5.58942	-80.7331		-51.993
74.0057	-133.786		-8.8076
76.0943	-128.65		-21.6932
-4.35925	-86.3717		26.1247
-15.2697	-81.7687		23.8752
4.56883	-93.4492		-5.99721
40.9994	-68.2262		109.857
36.7662	-74.9152		104.366
44.2927	-79.9009		104.398
48.5738	-72.7277		109.815
30.5198	-81.3672		94.3488
37.9354	-86.8919		94.2925
30.9341	-60.6982		104.999
55.3616	-76.628		104.613
59.616	-78.4254		95.5088
-40.7299	-22.4734		72.9922
-46.4779	-16.1856		68.2438
-44.767	-21.6221		65.5597
-38.5757	-30.1527		67.2296
-25.0653	-64.4999		49.5249
-24.1291	-56.8983		60.0968
-32.1231	-51.4599		58.8649
-34.1954	-59.1728		49.5681
-36.7463	-66.5969		35.1818
-43.1453	-52.8288		49.3998
-64.3521	-50.8249		24.6675
-63.4322	-54.0053		14.9566
-15.2269	-62.431		62.6722
-15.4548	-69.1901		51.3625
-44.2582	-9.48763		81.469
-37.4547	-16.7201		89.5375
-101.269	9.76886		37.2909
-103.551	0.377887		31.289
-96.652	-5.35367		42.5845
-93.8095	2.48522		48.8826
62.6843	-77.5315		86.2395
-14.8273	-76.2974		38.315
-2.96112	-81.1972		42.6837
30.4494	-90.8019		80.2404
22.0939	-90.6		65.8904
28.9669	-94.1318		61.5082
42.1201	-95.2821		51.6188
34.8784	-94.9634		56.7987
27.7049	-96.1762		39.421
35.0392	-97.5443		36.1903
-32.3188	-23.2396		96.61
-37.1172	-22.1205		85.3716
-32.9889	-27.8923		90.9553
-32.2805	-37.9729		69.1553
-30.6598	-44.8668		64.6486
5.63138	-65.713		84.556
-22.2047	-39.8807		81.6776
-19.5116	-40.4492		80.9456
-15.0862	-38.713		85.3016
-17.3826	-41.6748		80.2928
-15.9313	-43.4046		80.3541
-17.8645	-31.1509		95.0442
-16.5051	-31.6054		92.5729
-18.6141	-46.3133		75.077
-26.3932	-28.8829		101.21
-28.8774	-32.1713		94.1218
-25.8104	-33.421		93.7818
-23.1935	-30.4122		100.59
16.819	-76.165		85.3953
22.803	-73.6068		92.9966
17.2017	-67.274		92.4832
12.734	-69.5849		87.4957
-6.02503	-59.3034		80.6836
-5.87554	-56.4842		83.5376
-14.4104	-32.7397		91.3179
-9.91472	-35.9425		91.3951
-42.9208	-15.6354		78.3826
-30.4983	-37.458		76.8645
-28.3928	-39.3795		77.9906
-30.4327	-37.4287		79.2182
-15.1449	-35.0667		88.7886
-23.6806	-41.4423		77.9695
-3.66424	-40.8208		93.0366
0.896932	-44.9526		94.6207
-13.5694	-53.766		75.8878
-12.8725	-51.2261		79.3048
16.4362	-58.8682		96.2213
21.2133	-61.8051		97.6611
23.2698	-55.2119		100.363
18.5416	-52.574		98.6821
2.28819	-58.3573		87.8906
2.87513	-61.8361		85.5428
-32.3799	-32.9856		82.5719
13.021	-63.5548		91.9671
-83.7128	-32.907		38.3678
-75.2549	-42.1129		27.1851
-73.4406	-41.4699		34.052
-96.871	-15.5265		33.1403
-90.5924	-19.8008		43.8338
-90.9283	-10.6923		53.7495
-93.8649	-25.7246		20.6364
-87.0213	-30.5967		32.0219
-88.8551	-13.1556		57.5855
-87.5034	-22.1156		48.3967
-69.007	-9.67521		63.0072
-71.654	-6.13249		65.8526
-76.3631	-11.6642		62.8912
-73.4173	-14.6583		61.116
-48.3719	-10.3779		72.1034
-49.7564	-4.32399		75.2512
-53.5168	-1.39239		71.9253
-37.6569	-36.8613		63.5137
-43.7315	-27.6992		63.1838
-46.2195	-37.9201		57.4509
-39.8714	-44.8927		57.7011
-58.4724	-44.8534		43.2026
-64.15	-43.6941		39.0182
-63.9352	-47.7808		32.4265
-81.0811	-27.1114		51.546
-79.9174	-19.1233		58.1213
-85.6828	-15.5698		58.4079
-78.6292	-34.5984		44.5012
-71.8839	-40.1008		39.1961
-75.8618	-21.3309		57.522
-72.3744	-33.0877		49.4931
-73.9512	-28.8186		53.212
-57.6461	-6.56688		63.2977
-63.2505	-7.3624		62.8107
-60.2643	-10.1571		59.3675
-66.7034	3.59822		70.1778
-61.1187	2.18984		70.0032
-47.6466	-23.2574		61.6596
-59.7867	-4.14294		65.4958
-50.5801	-21.3099		59.9246
6.41911	-55.8624		87.9898
5.47291	-60.229		85.8724
4.809	-48.2994		95.0711
2.60153	-46.7834		95.0595
2.63816	-51.2921		93.148
4.68573	-51.586		92.8865
6.58525	-48.5478		94.7161
3.00018	-54.9814		90.7603
0.59406	-50.0008		93.1
0.756009	-53.9554		90.8454
6.49278	-51.5073		91.6741
8.16368	-47.6198		94.0492
6.3696	-56.5967		89.3147
6.60424	-56.2932		88.7425
6.40525	-57.2904		89.9781
8.29059	-53.6105		94.536
7.66992	-52.4836		93.9733
9.50834	-46.9781		96.846
9.19071	-46.2939		95.4664
7.37864	-51.4664		92.8877
10.0873	-47.884		97.5101
6.28291	-61.2338		86.0506
10.2429	-46.1344		92.9393
11.5084	-49.2332		97.8926
14.3656	-50.7526		98.1108
-0.616984	-47.6914		93.2257
9.26248	-46.1943		94.4376
7.50737	-51.1081		91.9444
12.2195	-56.608		95.4003
9.54596	-54.9325		94.896
7.13974	-51.0825		90.4065
8.42535	-50.9397		90.8362
5.95132	-53.9494		87.0239
6.63083	-50.1738		88.3492
8.12568	-62.584		85.5838
11.7989	-46.7765		91.8827
8.77652	-47.0826		92.2576
7.84858	-46.6553		89.4063
9.91338	-51.7531		90.0992
-1.19587	-56.8966		75.9278
1.39477	-61.3869		74.6297
0.697213	-50.1088		82.4788
1.71657	-46.6161		84.1261
10.7863	-68.7943		82.3896
12.3066	-66.481		86.0362
15.6808	-50.2967		92.3617
17.3808	-46.8015		93.3153
3.21752	-42.9023		85.3243
14.3962	-55.3821		90.8745
7.05752	-66.7984		77.8092
-25.3004	-77.2575		-57.2711
-32.5788	-73.172		-60.3252
-30.2805	-69.6903		-64.5978
-22.0163	-74.1911		-61.1838
-52.2036	-64.7312		-19.4908
-61.8375	-56.8577		-31.4973
-55.6412	-58.1141		-49.4085
-51.2526	-63.3087		-43.9454
-14.6147	-82.8696		-47.2397
-9.40154	-85.3131		-41.355
-19.6423	-80.416		-52.5815
-14.0478	-77.9056		-55.6876
-35.9631	-74.3194		-60.1339
-27.7099	-79.8842		-56.6068
-16.5055	-89.1042		-43.2814
-22.6939	-86.2889		-49.9669
-11.1618	-91.3808		-34.5447
-9.46837	-90.433		-30.6255
-33.8109	-84.8372		-49.9835
-44.796	-78.5021		-57.5163
-31.2147	-78.9456		-14.7783
-23.6548	-82.9103		-13.8764
-31.9718	-80.9643		-26.6327
-28.7682	-83.5463		-26.3506
-51.1354	-63.635		-42.5639
-37.8162	-77.7534		-61.278
-61.5005	-65.4714		-47.7653
-62.276	-67.5019		-45.9722
-59.2793	-64.9121		-49.3684
-50.5433	-72.4515		-33.383
-51.2289	-75.1146		-59.255
-42.1785	-80.3368		-51.3079
-44.6369	-78.5294		-50.581
-45.697	-68.192		-57.5862
-41.6225	-67.9929		-59.5054
-17.3058	-85.0029		-46.7481
-45.7353	-71.6909		-26.7155
-50.5143	-64.784		-51.56
-48.4249	-64.6253		-53.4957
-55.4522	-71.6019		-46.0283
-37.4595	-79.8031		-43.5052
-104.538	28.4094		26.6464
-96.7644	19.701		41.6869
-88.3369	11.2094		53.7108
-87.3201	-2.45132		59.3394
-19.7626	-31.1092		97.9024
-29.3555	-26.6492		99.8422
-80.3782	5.03853		64.3741
-75.4327	3.23383		67.6738
-56.9078	0.786892		70.4176
-108.21	16.7532		23.1841
-83.2776	-4.94728		62.8567
-79.3352	-8.59096		63.6108
-70.0895	-17.6483		58.4594
-65.7742	-12.7489		59.4037
-109.456	5.87957		18.0317
-113.858	12.5972		-3.54268
-72.6942	-23.6119		56.2732
-103.389	-10.6297		21.9643
-77.1427	-28.6537		52.4459
-100.738	-20.5505		7.64579
-75.2273	-34.3526		47.2342
-65.7946	-4.33441		66.0428
8.28493	-93.6522		-18.4297
-48.2139	-60.6809		-59.823
-49.9235	-52.8327		-72.3608
-25.522	-64.7203		-75.4514
-14.1722	-70.8375		-69.5062
-39.6387	-64.5692		-64.6364
-37.4773	-58.1278		-77.1826
-3.5961	-75.7733		-61.3186
58.0035	-83.7234		80.6732
49.4644	-90.8326		67.6641
20.6016	-93.7398		43.5226
-95.1906	-29.6844		-11.6794
-110.056	39.0561		2.358
-113.475	25.6995		-0.369434
-69.4248	-35.5773		46.7749
10.847	-87.7338		48.5963
-4.43902	-43.408		92.0619
-5.72966	-52.8869		86.3981
-10.5958	-38.3834		89.9467
-10.7137	-42.7487		87.2966
-5.65687	-48.02		89.3198
-5.87725	-62.5778		76.5847
1.6287	-66.3689		80.6785
-3.56441	-89.0638		-30.2357
-23.5176	-82.3186		-6.14086
-31.8502	-77.9511		-7.30027
-58.3664	-59.9289		-2.82403
-46.6376	-68.1224		2.86712
-61.166	-40.7466		45.5692
-35.5559	-75.0397		5.21553
-25.8022	-80.3466		6.61629
-35.371	-29.0275		77.6459
-25.9872	-39.6989		80.8717
-27.0788	-37.1715		85.3313
-14.3627	-57.0565		70.96
-4.26792	-74.8308		55.9808
-5.70324	-67.8234		68.0276
6.46219	-80.3218		62.7935
-26.2752	-71.7671		35.6219
23.0969	-84.5757		82.6278
15.4446	-84.0033		71.8576
-50.3118	-45.9669		49.8291
-54.0613	-41.5853		50.8021
2.95662	-72.3844		73.4872
10.1875	-75.2269		79.025
27.7787	-67.6219		100.514
-49.7004	-33.4842		57.6567
-30.9928	-30.5408		93.0823
-37.4979	-71.2336		20.5013
-26.3697	-76.8957		21.8679
-61.3655	-1.25939		67.9493
-11.9422	-47.9749		82.7473
5.02762	-57.843		84.9224
-0.46514	-53.5157		79.6523
77.7039	-114.766		45.7402
72.4619	-119.26		35.355
83.3064	-129.51		35.1483
88.3759	-124.335		44.3834
44.1984	-100.206		33.777
49.8325	-97.2643		48.2918
55.4135	-105.878		34.6196
60.2755	-101.981		47.7698
7.35866	-68.6804		83.5216
30.1117	-98.7907		20.8113
21.7396	-97.0147		22.5818
68.3021	-122.856		24.8782
79.0796	-133.225		25.1122
20.2189	-97.7297		7.95996
28.7793	-100.351		6.71706
29.0668	-102.195		-4.65477
49.0103	-109.791		-25.245
-17.1279	-85.9285		-14.4541
35.3532	-101.276		-28.3487
66.05	-110.921		-36.0461
79.7922	-121.155		-34.0659
93.8927	-118.039		52.7823
83.2574	-108.84		55.6586
55.9812	-91.4073		64.8701
66.0328	-95.8658		62.0417
9.77504	-66.0414		87.8146
7.3173	-56.1956		88.145
8.58439	-57.1224		87.8981
99.2927	-111.24		59.7722
13.3478	-61.3534		88.784
-88.2542	-35.6589		-33.1701
51.6502	-91.2692		-49.2019
69.3074	-102.579		-45.4989
49.6222	-99.8493		-39.2064
84.0431	-112.922		-43.65
31.4995	-89.6279		-44.2932
-109.205	48.1888		-28.4363
-112.872	33.7411		-30.3018
-80.2674	48.3724		-93.7835
-54.2042	39.2051		-116.307
-60.7455	25.8159		-115.492
-86.0567	34.0295		-93.1935
-28.7635	25.3686		-125.827
-35.2217	13.248		-125.01
-103.998	36.8455		-62.8972
-99.3618	51.5561		-62.4355
-5.16804	11.0323		-127.004
-11.4154	-0.71776		-126.06
18.0429	-4.2677		-121.895
11.3387	-15.7053		-120.709
30.73	-29.6101		-109.086
37.2027	-18.8247		-110.507
52.3607	-33.1213		-91.0727
46.0188	-42.454		-91.1838
76.2682	-53.8717		-66.1248
90.883	-64.7166		-59.7795
85.841	-73.7322		-60.1692
70.8174	-63.5668		-65.9976
105.5	-75.6276		-54.6244
100.146	-84.2228		-55.5974
62.0943	-42.9091		-77.1374
56.7142	-53.1691		-76.5189
-113.317	18.7297		-31.9097
-110.82	3.55868		-33.4034
-68.9971	-1.20465		-105.252
-65.8132	12.2025		-111.606
-41.4242	0.00795174		-121.029
-46.4216	-12.3848		-114.63
-89.6994	5.37521		-85.5151
-89.1836	20.0784		-90.2879
-103.623	5.48138		-60.8806
-105.387	21.2916		-62.3443
-24.2552	-24.6827		-116.236
-18.2091	-13.2787		-122.229
4.02077	-27.2023		-117.067
-3.10628	-37.0777		-111.506
16.3559	-48.9444		-100.366
23.4855	-40.3369		-105.46
38.9004	-52.8777		-88.0162
30.8456	-61.6909		-82.8565
50.3029	-63.5308		-73.1782
74.3027	-92.5152		-53.8641
57.0616	-82.4344		-57.8835
64.212	-73.5349		-63.3351
80.3466	-83.3246		-58.3995
94.595	-93.5702		-54.7032
-87.9039	-9.72358		-78.3433
-70.1799	-14.1459		-96.7765
-69.8319	-27.1778		-85.0886
-84.6244	-24.6795		-67.0927
-94.482	-24.4415		-46.7825
-99.5783	-9.9792		-56.7349
-29.1864	-34.7053		-108.504
-49.7866	-23.6347		-106.362
8.63912	-56.8891		-92.7556
-9.90995	-46.361		-103.484
22.7195	-67.5213		-77.1223
-51.3683	-44.2754		-84.2213
0.890817	-63.0401		-84.6307
-6.80509	-67.4744		-77.0309
-20.9092	-59.9373		-85.1286
-15.5849	-53.7015		-94.8321
-35.1876	-51.668		-88.4473
-32.6569	-43.4531		-99.4156
-51.4174	-34.2305		-96.1486
17.051	-79.9318		-55.3193
5.60872	-73.7608		-66.23
14.5269	-71.1437		-71.5738
-51.3927	-74.4073		-59.9265
-50.5728	-72.5409		-60.8002
-59.4566	-69.3622		-54.0885
-58.9868	-67.1505		-54.9546
-59.2957	-68.0002		-38.7683
-58.4263	-66.0617		-40.3617
-55.8451	-64.6181		-42.5486
-48.1029	-71.9462		-60.8962
-56.8072	-66.8806		-55.5395
-40.9854	-80.5646		-59.089
-61.993	-68.8391		-45.2203
-58.9511	-70.573		-53.5479
89.0443	-103.508		-50.7221
71.8705	-52.2303		102.719
70.933	-55.5748		102.695
73.5353	-49.6977		99.6784
70.7168	-50.7229		104.303
14.8267	39.1712		56.6756
11.8833	38.0182		59.155
17.7	37.7151		56.3895
14.0018	42.4984		53.3826
8.89175	37.3782		60.6954
6.4688	39.5909		59.4285
7.43541	34.5921		63.1755
-60.278	19.8801		75.3202
-56.9954	21.5329		75.2273
-59.4489	24.2983		74.9914
-61.3328	18.5459		75.057
-57.6103	16.5975		74.4199
-43.2253	8.13526		71.0911
-41.9027	8.0959		70.9904
-44.0627	9.41832		70.3372
-44.0378	7.89471		71.4085
-40.8868	11.7993		68.2292
-38.2429	12.6124		67.1324
-41.6591	13.2582		67.7833
-43.3451	11.2239		69.2062
-40.0197	10.4101		68.9813
-19.2478	32.941		68.7705
-19.827	29.7155		69.7755
-19.2469	34.7932		68.0714
-32.3714	10.176		69.6578
-33.3418	10.6871		69.0986
-32.1006	8.93351		70.6675
-30.6811	10.9334		69.6367
27.7314	-30.1966		93.7255
27.5215	-30.285		93.9284
27.9632	-30.1131		93.406
27.5647	-30.3227		93.968
25.6536	-30.3737		94.9549
26.5159	-30.5223		94.4385
26.7102	-29.8405		94.761
25.1058	-30.094		95.2197
24.3188	-31.2299		95.2536
28.9007	-27.5171		94.8147
26.4726	-26.0752		94.6298
28.3351	-29.9053		92.6578
27.4222	-29.9014		92.685
28.8769	-29.0859		91.1939
28.619	-30.3542		93.1149
27.2003	-33.5212		97.874
28.7032	-33.6637		98.0452
28.1678	-32.0379		96.4528
26.3297	-33.4982		97.7521
25.4122	-34.8106		98.6717
18.4454	-30.6092		96.9026
17.0058	-29.7684		96.8742
15.0355	-30.736		97.4733
19.3005	-31.0142		96.861
20.7581	-29.7477		96.1556
26.9737	-31.071		94.6889
27.1318	-30.9161		94.7104
27.1478	-30.9142		94.5419
26.2233	-31.9343		95.027
65.6862	37.3942		14.042
65.4485	36.6447		14.7543
69.3854	35.3438		12.0518
65.1583	38.3804		14.0166
66.6597	49.955		3.4418
66.3981	51.5993		0.753353
64.3283	49.8441		3.8917
66.4573	48.7221		5.79143
68.2502	49.6551		3.24927
65.4339	41.7316		12.4838
63.1062	43.238		12.5379
65.0653	40.9951		13.0421
67.4158	41.7019		11.4974
56.5091	48.9733		6.84392
55.9622	49.5404		5.88145
54.9906	49.9425		6.65875
56.5996	48.7954		8.23135
58.1632	48.4872		6.92528
43.8954	64.3402		3.03604
45.4776	62.8701		2.64522
43.6093	65.0517		2.41943
43.1518	64.625		3.77066
38.5431	73.4989		-2.2928
37.7284	73.7783		-1.49124
39.0714	72.645		-2.15887
39.3927	75.3314		-5.10596
58.5964	52.6765		0.714029
56.401	52.61		1.45588
60.4623	50.0014		3.81021
63.2838	52.9741		-0.571285
59.2307	56.1869		-2.83746
46.1193	67.0534		-2.74973
45.54	68.0276		-3.23319
44.4573	65.5481		0.570975
47.5187	66.3496		-3.44419
60.7687	64.5609		-10.64
60.3367	64.5572		-10.1863
62.6566	62.1089		-9.75075
60.3895	65.5438		-11.6814
59.807	66.8243		-13.4983
57.831	68.093		-12.9683
60.6887	66.4311		-14.3276
57.9482	68.8405		-15.2635
66.0179	53.0102		-1.27487
65.0898	54.7394		-3.31975
67.3867	52.8413		-1.68565
57.6315	62.6198		-7.51562
58.273	60.6031		-6.26429
59.1982	63.6538		-8.85265
56.4621	63.3709		-7.56223
59.0587	42.8077		14.572
61.2016	41.6508		14.4445
59.3633	43.6116		13.8308
57.9993	43.0266		14.9254
56.3328	43.7864		15.2298
54.8184	45.1963		14.8891
55.9359	43.3276		15.971
49.8346	50.0447		13.3729
49.9846	49.4895		13.8234
50.6246	50.2029		12.7079
47.5555	52.2217		12.6415
50.2834	48.758		14.3476
49.638	48.4825		15.0847
52.2555	47.292		14.5409
61.2999	49.0713		5.28962
61.3925	48.2149		7.09123
50.4298	55.4287		5.22788
52.8364	52.4116		6.02048
51.3208	55.1629		3.98154
48.057	58.4856		4.43227
49.3183	56.2703		6.18379
47.4446	74.1697		-12.0214
47.0151	74.7095		-12.3921
47.4997	73.7649		-11.4391
49.1306	73.8191		-13.3211
52.3088	71.7609		-13.279
52.5893	70.8919		-11.7696
53.9804	70.9055		-13.7264
51.5971	72.65		-14.311
50.0897	72.4714		-11.9432
39.5234	72.144		-2.21801
40.8387	73.0875		-4.47148
39.4757	71.064		-1.11583
42.6434	74.0612		-7.26577
43.004	73.0611		-6.47326
44.9308	75.1081		-10.7085
42.2516	75.3203		-8.24235
-30.4202	35.0907		72.2262
-28.3801	36.186		71.921
-32.1978	33.3958		71.9063
75.236	-46.5595		96.351
75.7106	-47.4423		93.0452
75.6764	-43.0063		95.4209
-21.6982	37.2594		69.033
-23.6569	37.2423		70.0567
-19.9542	37.1445		68.2184
-20.5138	40.913		68.7194
-19.8009	42.5958		68.0286
-23.439	40.4747		70.3465
-21.4211	39.1689		69.2478
-18.0902	40.2609		67.4866
71.7577	25.2779		19.6455
72.2989	27.1406		15.3429
70.1893	26.3986		20.6127
73.3551	23.5075		19.6921
-34.3387	15.5423		65.5398
-33.4059	15.5265		65.6361
-35.1455	16.0551		65.4826
-37.5593	15.8206		65.8151
-38.1691	17.8248		66.2175
-36.5453	14.8736		65.8595
-45.6215	8.07922		71.6202
-46.2621	7.57569		72.0766
-47.2297	9.35959		71.2165
22.6842	-32.9451		95.563
23.5963	-32.8995		94.9524
22.5441	-32.5815		95.7931
20.5077	-33.9849		96.0476
87.9298	7.16487		19.7973
85.8482	6.33136		24.5851
90.355	5.33035		18.8062
86.5708	9.24567		18.6676
37.8038	54.5432		15.8403
42.1128	49.6232		19.5076
39.882	54.9863		13.7668
33.4196	59.7608		11.2091
34.7314	53.98		19.4296
94.6403	6.48951		8.61298
96.6437	4.8878		7.6099
91.6545	9.46661		7.11662
94.6358	4.55012		13.4485
122.621	-15.7877		12.9954
129.793	-20.5906		13.9167
121.516	-14.6998		4.49672
115.543	-10.6647		10.6391
122.706	-17.3051		19.5093
27.4701	-30.891		95.0462
27.7284	-30.8281		95.1795
26.9864	-31.9715		95.8577
28.2104	-30.6954		95.3827
25.5282	-33.5535		97.784
25.6337	-33.1777		97.205
23.4899	-34.2309		98.14
75.6461	-40.1025		94.8208
76.519	-36.4235		89.6855
74.1965	-39.6512		97.178
89.9927	2.28141		-39.0109
87.6017	3.56544		-44.0154
89.3842	4.83921		-35.2282
91.8831	-0.267267		-38.2228
-51.282	81.2778		25.3011
-49.5915	84.4394		18.3553
-56.4522	79.8092		26.2405
-48.7124	79.3531		29.393
67.3682	56.9648		-9.87267
65.0557	61.0556		-13.296
66.6461	57.778		-9.01429
69.1986	53.5109		-6.85344
67.5124	56.5151		-11.1156
39.4156	62.2937		7.32458
41.9727	59.1304		9.0851
40.253	63.1092		6.95476
37.0432	65.4721		5.11095
38.3489	61.2977		7.67313
55.0871	48.3773		11.6268
55.0118	47.5644		12.631
57.8998	47.3479		11.1278
56.0481	48.6204		10.3434
53.6014	49.286		11.58
60.4001	44.6877		12.5865
57.3942	45.8036		13.0206
61.0924	45.6182		11.4829
61.8807	65.2758		-16.5619
61.7618	64.6997		-17.4742
57.7189	69.3529		-18.7485
61.8283	65.5972		-15.6764
61.3656	63.9905		-18.3345
64.6498	60.0923		-15.4926
60.7596	63.2925		-18.9728
57.1633	67.8242		-20.3778
35.0477	62.6589		5.40998
34.0731	64.2855		3.36814
33.9641	63.0382		5.44152
35.9232	61.6761		6.83108
65.6241	55.5239		-14.8339
64.5248	54.5029		-16.0839
63.1306	58.6803		-17.312
66.4374	56.0048		-13.7998
67.5094	52.3371		-12.4794
68.6252	52.4271		-2.12876
67.3033	54.7911		-4.89819
69.262	50.854		0.156496
69.7423	51.8629		-3.03992
73.5026	45.2781		0.97901
73.6647	43.5687		3.78476
74.2669	43.4569		0.0625992
72.3912	48.0357		-1.9319
71.5709	47.8338		1.98188
70.1347	46.425		6.72033
71.3609	45.0402		6.6715
70.0821	47.5718		5.16938
68.8833	46.3755		7.66257
71.6685	31.7178		10.2685
72.3264	30.7899		9.93549
72.0408	33.2043		8.79444
69.4831	32.0368		13.9174
71.7459	37.6483		9.52486
73.3684	37.668		7.64039
71.136	39.4032		9.87798
68.9411	38.0777		11.7607
71.9298	36.3243		9.2887
37.2913	69.1938		4.2381
36.1487	70.0703		3.83431
38.9998	66.058		5.39435
37.6295	69.4443		3.98143
35.4873	70.5779		3.424
34.3231	73.6465		1.28333
35.3175	70.281		3.33593
61.5487	65.8356		-14.9787
63.891	62.2966		-11.8661
57.8735	69.6072		-17.3563
50.1588	74.6961		-16.011
50.7516	73.9309		-15.5897
51.0544	74.4822		-16.6507
48.3848	75.4387		-14.9513
37.8006	70.7071		2.34183
37.7187	70.4278		2.85243
38.8868	69.4703		2.32196
37.1698	72.0786		1.23337
37.9118	69.5886		3.68963
39.9473	67.1222		4.20773
35.6802	72.9509		1.72519
59.9648	64.3149		-9.71775
58.0871	66.5269		-10.4897
61.7419	61.1874		-8.28343
40.511	68.4113		1.1627
39.6581	69.6988		0.448914
40.4121	68.2222		1.60742
42.0183	68.2431		-0.220146
39.6528	70.5374		-0.705397
40.9359	70.8251		-2.32794
59.9401	58.0983		-4.92417
62.086	57.6886		-5.377
48.3293	56.8087		7.0976
45.4506	60.2027		6.39349
47.8245	56.6274		8.05564
51.5152	53.2645		7.77861
43.4591	65.4144		2.08592
41.9928	66.5635		2.33044
88.1001	7.25482		-33.603
85.4685	10.1719		-37.1094
88.1202	8.16936		-30.7439
4.27982	-4.77163		81.6656
7.05768	-5.95278		82.3832
3.64247	-3.55698		81.1058
3.15443	-5.93034		82.2503
0.0336695	-7.36191		83.5812
1.21037	-7.50008		83.3327
-1.75002	-5.67361		83.2068
-0.712508	-8.61086		84.7822
-33.2105	49.2784		68.6017
-32.0266	47.7773		69.7261
-25.7129	50.8983		65.2418
-33.7981	50.847		67.0606
-38.1777	47.2764		70.436
-8.37802	-20.6031		91.5663
-9.58177	-20.9455		92.3101
-8.04024	-21.0903		91.4541
-7.18368	-19.558		91.0366
-10.1865	-18.3401		93.8981
-11.0755	-19.8729		94.2838
-8.26707	-17.2195		92.3287
-10.7981	-17.5752		94.5843
-19.6402	35.6646		67.9484
-20.3517	35.8837		68.069
-12.3212	-9.00615		92.3975
-11.4899	-9.34073		92.4608
-11.8266	-8.36617		91.6026
-14.0061	-9.87738		93.5389
69.4067	49.0603		-9.88097
70.3539	46.6247		-8.27687
67.8971	48.9584		-11.8655
70.4892	49.1986		-8.36027
-37.496	88.7713		8.92907
-41.7831	88.7844		8.72706
-35.2316	86.3344		14.5528
-33.6173	91.4775		-0.127909
34.3778	-30.9086		91.6197
32.9261	-29.4757		90.5097
35.5153	-30.4191		90.7004
33.4459	-31.8437		92.6983
24.646	-24.5595		86.6358
24.0388	-26.0994		88.0173
24.0581	-22.8637		84.9727
26.4939	-25.3432		87.1797
49.234	-86.728		95.1485
47.0685	-86.4803		96.8264
48.1005	-88.4333		90.8466
51.926	-84.6417		96.3965
-50.9485	-60.6352		28.8698
-53.8861	-59.521		24.8955
-48.1646	-62.6114		28.4579
-51.5754	-58.6177		32.5376
-52.6087	-56.1615		35.4134
-50.9923	-55.0064		39.1203
-55.7749	-54.0134		34.0199
-71.5288	1.61432		68.9033
-70.6985	-0.670349		68.359
-67.5373	1.5923		69.4237
-70.7168	3.93905		69.4869
-74.77	0.200121		67.6818
-53.2425	-6.6089		66.8249
-53.4112	-5.98027		67.4462
-54.558	-5.99505		65.9401
-52.6583	-7.66185		66.3871
-54.9363	-8.59723		62.5124
-54.5347	-10.7677		60.4984
-53.4385	-9.14906		63.5444
-55.6703	-6.7636		64.0216
-56.5744	-8.30524		61.6746
-64.4799	-33.9771		49.8046
-62.1323	-32.8788		52.0285
-65.9931	-34.2355		48.4236
-50.1615	-15.7064		62.326
-50.0577	-17.5301		61.4887
-49.1595	-16.0052		63.5642
-50.9717	-14.8035		61.8639
5.15251	-62.7296		84.2272
5.10162	-62.5932		84.5076
5.13904	-62.6355		84.5077
5.23779	-62.8233		83.8966
4.1463	-61.3722		85.8769
4.10785	-62.3849		85.2625
4.26919	-59.82		86.9548
3.53688	-60.9628		86.2208
1.06237	-62.6455		83.9939
5.40799	-62.89		83.1096
5.91358	-63.2398		83.5732
5.30519	-63.1547		81.3815
5.00487	-62.1195		83.2568
7.46203	-61.773		89.0772
8.43236	-62.6456		89.2593
8.10076	-59.8676		90.8304
6.9894	-61.1957		89.0814
6.70965	-62.8456		87.3268
1.33291	-55.9465		89.5664
-0.0983839	-55.0228		89.5103
1.69563	-57.8808		88.0362
2.07993	-56.4863		89.4952
-0.251845	-53.3402		90.7595
5.38927	-62.0065		85.7543
5.82377	-61.163		86.4856
5.33248	-62.2268		85.4482
5.2731	-62.2614		85.6166
-17.3651	-87.8092		-20.8371
-18.5313	-87.8391		-21.1808
-13.4145	-89.474		-22.8354
-17.019	-87.4846		-19.8601
-25.1209	-89.1507		-35.5071
-25.9497	-88.5024		-38.4797
-24.1061	-90.3506		-35.9599
-24.7704	-89.4139		-32.8848
-26.1793	-87.2648		-34.4876
-21.3048	-89.1971		-24.1739
-20.2429	-90.5537		-25.6175
-21.0638	-88.9196		-23.4441
-23.4811	-87.3447		-23.9325
-29.6868	-81.283		-29.5651
-30.1551	-80.6645		-30.51
-28.5501	-82.5735		-29.7289
-29.8497	-81.8142		-28.2721
-31.1444	-80.2386		-29.7199
-47.4583	-74.2292		-35.7235
-48.2212	-73.9523		-34.9865
-48.0357	-73.9988		-36.4804
-45.3951	-74.9489		-35.9047
-56.3169	-70.8018		-42.7287
-57.1206	-70.4861		-41.9116
-56.7924	-71.1393		-46.1809
-55.3849	-71.0137		-42.4105
-36.7584	-77.8524		-36.4197
-39.9377	-77.6049		-40.7542
-34.4235	-78.7691		-36.1489
-36.5388	-77.8609		-33.1973
-40.5366	-76.4838		-36.5576
-49.6033	-74.064		-43.8196
-48.2794	-74.6243		-43.1971
-50.7973	-72.7533		-39.6939
-50.8718	-73.6027		-45.0528
-48.4447	-75.7282		-48.6882
-15.8931	-86.6727		-44.3629
-17.4807	-86.8605		-45.6606
-15.2028	-85.5425		-44.5875
-14.5141	-87.9131		-42.322
-36.6423	-83.9013		-52.2912
-37.3868	-83.5284		-53.5103
-33.9209	-85.0216		-51.0135
-36.9475	-83.6928		-51.7745
-38.279	-82.7995		-55.488
-40.3838	-81.7179		-55.0127
-40.389	-81.2376		-57.3907
-37.3369	-83.1232		-56.3009
-26.8027	-87.9156		-40.7486
-28.1683	-86.9591		-43.0155
-25.9411	-88.8891		-41.3901
-28.1717	-85.8017		-39.4284
-37.1643	-81.6656		-47.9613
-35.4659	-81.991		-46.2221
-38.3172	-80.8937		-48.0029
-37.0175	-82.886		-49.9441
-32.9215	-83.0678		-44.4708
-31.5023	-84.6171		-45.2497
-32.138	-82.5689		-41.6888
-25.2366	-84.1497		-20.8824
-25.9311	-83.3899		-20.3864
-25.6094	-84.4424		-21.9359
-23.3121	-85.7002		-21.2094
-27.4027	-82.3152		-19.9768
-27.3531	-82.0518		-19.0251
-29.2053	-81.379		-20.4532
-35.2114	-78.2181		-22.4351
-37.8913	-76.7189		-23.3493
-34.8363	-78.7232		-23.2938
-34.778	-78.3133		-21.8461
-34.1428	-78.5015		-21.1606
-32.0593	-79.7718		-20.9291
-34.3658	-78.098		-20.2204
-27.2292	-84.8884		-32.2066
-28.0085	-83.9521		-33.6746
-26.9212	-85.3314		-30.2754
-37.4894	-77.6362		-31.9568
-34.044	-78.9814		-30.6949
-38.9485	-77.311		-31.1533
-40.9554	-76.3381		-33.253
-32.5119	-79.6736		-29.7483
-32.9459	-79.8542		-28.9918
-50.4596	-75.1716		-53.9397
-49.0794	-76.0331		-55.3893
-50.2366	-75.2939		-53.2737
-51.0197	-74.8498		-54.3756
-45.9109	-78.0891		-55.343
-45.4259	-78.5854		-53.7211
-47.8486	-76.9043		-53.868
-46.7282	-77.4006		-56.4373
-44.3198	-79.0771		-55.8284
-54.7391	-71.2115		-42.3808
-54.1146	-71.2018		-40.956
-54.3872	-71.8503		-45.0982
-53.7079	-72.7246		-48.4354
-52.8911	-72.9827		-47.4233
-54.7162	-72.4605		-49.7065
-52.7161	-73.8016		-52.5016
-51.9242	-73.2353		-46.1826
-50.824	-74.6274		-50.3501
-52.951	-71.9388		-42.3197
-71.851	-26.577		54.4832
-71.1356	-24.4543		55.4337
-71.945	-28.5722		53.2236
46.4859	-90.3574		85.8362
43.7515	-91.6807		83.951
48.2119	-89.6424		82.7299
-69.4421	-33.4607		48.8277
-68.3681	-34.4796		47.7753
-70.5558	-32.1931		50.1461
-72.2865	-35.311		46.8428
-73.717	-33.7321		48.5793
-73.2896	-36.3654		45.0338
-70.0033	-36.4472		45.7112
-71.1712	-34.4094		48.0734
-5.24928	-90.0609		-12.7728
-2.93157	-90.8052		-12.3982
-7.18187	-89.4488		-11.8769
-5.59076	-89.862		-17.4362
-55.8431	-15.3556		55.9205
-55.386	-16.0075		55.8384
-56.6592	-15.0255		55.8512
-57.2849	-12.6869		57.2631
-59.2834	-12.7482		57.2634
-55.9992	-13.071		57.4767
-54.2766	-4.83492		67.9197
-56.009	-3.73873		67.4424
-54.2111	-4.33312		68.6295
5.43208	-58.0291		88.1381
5.49734	-55.8205		89.6234
4.98014	-58.1253		88.2673
5.80862	-58.557		87.3973
18.4214	-97.7772		-9.57675
16.1705	-96.9132		-11.1012
21.4266	-98.9608		-10.3441
17.1563	-97.2334		-4.46328
-44.9566	-70.1683		-18.863
-39.7409	-73.542		-14.7633
-46.7313	-68.6219		-14.6418
-50.2108	-66.49		-23.9518
-43.9008	-71.3738		-21.4264
24.7418	-99.6604		-20.9769
25.3072	-100.656		-15.9267
21.1029	-97.5373		-22.7593
27.3142	-100.537		-21.7666
55.5897	-118.653		-15.5298
62.6633	-123.739		-14.6733
55.4571	-120.501		-9.14061
48.5844	-113.232		-17.8324
56.1265	-115.033		-23.3085
5.32978	-62.637		85.7993
6.08967	-61.9429		87.0668
5.48998	-62.3221		86.0621
5.41266	-62.9204		85.823
4.36947	-63.4966		84.8512
5.93463	-63.9454		85.8611
6.89067	-60.5417		89.3567
6.88619	-58.4644		90.4825
6.57247	-60.5957		88.7252
41.2986	-92.4734		82.4285
39.6076	-92.0242		84.6996
39.2147	-93.1868		75.9324
37.7381	-77.7542		-61.3364
40.6092	-78.8182		-60.1253
34.3032	-79.4548		-58.7334
36.7861	-74.2953		-65.7688
-109.379	-7.50433		-0.476311
-107.69	-10.5196		3.26989
-110.591	-3.10765		2.096
-109.57	-7.36309		-8.15939
-27.3608	-87.2842		-50.3256
-31.0311	-85.4316		-54.3981
-26.5859	-86.7964		-51.3076
-24.353	-88.7918		-46.7446
-28.6084	-87.255		-49.684
-48.7698	-71.1875		-29.9561
-45.3758	-72.9546		-27.7908
-48.4633	-70.0393		-28.9969
-51.9757	-69.4274		-32.5886
-49.014	-72.0642		-30.8095
-31.035	-81.5864		-24.6877
-30.6225	-81.5969		-23.4585
-32.4581	-80.5924		-24.7042
-30.4903	-82.0445		-26.1763
-28.7829	-83.4879		-25.4477
-25.7904	-85.3004		-23.7118
-28.1531	-83.1933		-23.0333
-25.9983	-85.821		-25.2375
-35.2394	-82.9373		-58.169
-35.7672	-83.3266		-57.4821
-40.0362	-79.9366		-60.6749
-34.5611	-82.3036		-58.7394
-33.9058	-81.4067		-59.1441
-29.8161	-83.946		-55.9026
-38.5476	-78.3479		-61.4196
-33.4114	-80.4198		-59.3001
-50.5156	-66.8206		-30.7476
-49.6434	-67.753		-29.2995
-51.3294	-66.0209		-30.5742
-51.8297	-65.7982		-32.9955
-25.6038	-83.4633		-53.7975
-24.885	-81.703		-54.2599
-22.6149	-84.855		-50.9254
-25.9276	-84.7097		-53.2537
-28.8032	-81.4885		-56.6213
-24.9143	-89.657		-41.9409
-26.8163	-88.3112		-45.0013
-23.6881	-90.0963		-42.8227
-23.8742	-90.5046		-39.4479
-17.3868	-92.5598		-37.6508
-20.7207	-92.138		-37.2392
-19.4947	-91.4732		-41.0307
-15.2231	-92.2462		-37.9735
-16.5891	-93.1684		-34.525
-21.4199	-92.1825		-32.0828
-22.1998	-91.4482		-30.8724
-22.0132	-91.9322		-33.9138
-19.6639	-92.7924		-31.8769
-8.69096	-89.3622		-23.6131
-10.8907	-88.8434		-19.9229
-9.46958	-89.7492		-25.6013
-7.46704	-89.4608		-23.7116
-14.4013	-91.716		-26.6343
-12.7677	-92.3396		-28.7469
-12.6089	-91.1452		-26.3796
-16.5505	-90.5503		-24.5177
-16.3097	-92.1629		-27.0475
-54.8525	-70.612		-34.8659
-54.8522	-70.902		-35.2819
-51.7035	-71.4309		-33.0413
-56.003	-69.7759		-35.2843
-56.6197	-69.2315		-35.6829
-56.4156	-68.9514		-35.6066
-59.2165	-68.5017		-38.5089
-48.69	-76.235		-58.3996
-50.3861	-75.3449		-57.2957
-47.9441	-76.7021		-59.1146
-47.8775	-76.6392		-57.8717
-55.4384	-70.8915		-37.286
-56.6095	-70.4133		-38.659
-53.8924	-71.3993		-37.0961
-55.3654	-70.9105		-36.7015
-54.7761	-71.0921		-35.6733
-58.1424	-69.6027		-38.1916
-51.8951	-72.1951		-34.7613
-37.0244	-83.4593		-51.1662
-33.9144	-84.4516		-49.1147
-39.5659	-82.3057		-52.2493
-53.6896	-71.3231		-40.4257
-53.265	-71.4593		-39.0645
-51.9661	-72.0156		-38.1368
-51.962	-72.027		-37.637
-40.0853	-76.9697		-30.2941
-44.0875	-75.3846		-31.5031
-35.8117	-78.769		-29.1265
-40.4014	-76.8173		-29.2325
-48.3281	-73.8717		-36.8826
-50.0257	-73.0853		-36.7411
-47.6081	-74.2248		-38.5483
31.2213	-79.7428		-57.8615
29.7276	-81.0935		-55.6206
28.3721	-77.1764		-61.4974
-24.2908	-46.9927		68.2989
-24.0947	-45.9694		69.3843
-25.6476	-46.5354		67.4581
-21.6632	-49.1249		69.0731
-24.697	-43.2878		72.0532
-24.1111	-42.814		73.8811
-27.2029	-42.0375		71.1897
-23.9856	-44.1567		71.5701
-85.1019	-28.3508		45.2502
-83.7219	-29.4654		46.1004
-86.0151	-23.44		49.548
-86.3041	-27.5241		43.7457
-82.5755	-33.5862		40.132
-18.9161	-33.8286		89.0708
-19.4579	-33.8351		89.4314
-18.7257	-34.583		87.7943
-18.3282	-33.0588		90.2793
-20.1714	-33.8429		90.2319
-20.933	-34.5219		89.4187
-20.003	-32.9595		92.2958
-66.9331	-34.1507		48.0474
-67.5406	-33.6385		48.296
-30.5664	-36.2367		83.1769
-30.7655	-35.0045		85.119
-30.6982	-36.5052		82.1653
-29.8642	-36.8749		83.1842
-105.65	-15.4114		-20.8492
-103.989	-16.2243		-30.7989
-104.022	-18.565		-15.4351
-107.465	-11.7475		-20.0693
9.16721	-67.6196		81.4058
9.37273	-66.8703		82.9436
9.32983	-68.4076		80.154
7.58851	-66.3993		80.2022
0.713582	-59.2877		76.6672
2.02231	-60.8141		77.0413
-0.483397	-58.8923		74.7161
1.4631	-58.7407		78.6336
-21.7481	-35.5801		88.1136
-22.9371	-35.6287		88.4664
-21.4239	-36.874		85.7937
-11.5414	-21.0252		94.4563
-12.6916	-22.1536		95.7021
-11.0619	-21.2873		93.6
-10.7313	-21.5838		93.1584
-11.5023	-22.8133		93.6926
-18.2484	-35.3522		86.6498
-18.4507	-36.4145		85.447
-17.6379	-35.4362		86.6742
73.219	40.798		-2.6493
72.655	39.0556		-2.75579
71.8408	43.1721		-5.62597
73.9288	41.5143		-1.7029
74.1278	37.8809		0.919008
65.3829	24.1634		32.218
62.9834	21.6067		39.111
69.2637	20.8477		32.0915
66.7757	26.4957		26.0738
61.1005	27.5156		32.3851
119.169	-23.2204		33.3712
110.919	-17.3831		30.9766
117.268	-26.0775		37.6263
127.958	-28.7867		35.0781
120.677	-20.6948		28.9319
134.605	-32.6209		35.8684
139.979	-35.6079		36.2872
135.597	-29.9498		31.1745
133.334	-35.8799		40.4618
100.648	-18.8303		38.7702
96.2166	-14.8368		38.0325
98.7777	-22.3955		43.7715
106.661	-23.5038		40.0567
102.994	-15.6245		33.7682
108.776	-9.52497		21.0686
114.271	-13.5644		22.583
109.871	-7.96699		15.9182
104.59	-6.27268		19.8603
107.067	-11.0918		25.2154
75.419	5.06495		46.1846
72.1128	7.9456		46.8095
73.495	0.479129		54.0035
78.2893	2.59077		45.0191
77.1002	8.64763		38.6452
-3.4479	68.3268		28.9597
-7.38158	73.7334		23.3689
-11.8078	65.7054		38.0227
0.956029	63.551		33.0913
3.98536	71.1274		18.8311
11.3867	82.5333		-21.8738
16.9456	80.9775		-30.4101
6.90435	85.5929		-28.6357
6.36199	83.148		-12.1808
16.0247	78.9601		-15.4875
77.3268	-69.4139		81.6971
75.9414	-71.9748		82.0664
83.0173	-72.3705		79.1888
79.0211	-65.9489		80.8193
73.9373	-66.0683		83.7114
92.9804	-76.9194		74.7048
103.144	-81.8727		71.0699
94.7191	-73.1057		73.7689
90.9809	-80.0249		75.2419
105.959	-92.2351		69.2691
107.926	-88.8954		69.4902
99.219	-88.4476		71.2561
103.924	-95.2838		68.6776
110.651	-94.6585		68.1681
83.1437	20.1091		-6.24921
78.8762	25.3167		-5.21693
86.2954	15.9649		0.00216675
87.3524	14.7913		-7.28781
78.8407	25.1127		-11.7721
75.9622	28.9986		-15.6726
79.7695	23.0103		-18.0719
73.46	32.4733		-18.8261
72.8542	33.91		-13.2568
135.911	-24.5517		13.9266
141.846	-28.4561		13.4905
135.116	-23.9387		6.46975
136.526	-26.15		20.9451
89.2938	-82.9498		75.2088
79.7822	-77.7744		79.8266
87.514	-85.5533		74.7823
60.1519	17.8507		46.5032
55.5887	21.625		45.8355
56.9442	13.8762		53.1076
64.4708	14.3488		46.866
78.6802	11.0666		31.5998
81.4516	7.80032		31.0835
80.7771	12.4974		24.4999
75.7605	14.4046		31.8189
56.4165	-54.2254		111.61
53.9622	-57.6312		112.457
60.2982	-56.0264		110.923
59.2553	-50.3862		110.089
52.2098	-52.0394		111.137
61.9303	-45.9529		107.863
65.5798	-47.4671		107.315
64.0005	-41.0397		104.871
57.1252	-43.8296		107.37
41.8421	-55.22		110.174
44.2302	-52.3661		110.019
35.7812	-51.9693		107.042
39.4678	-58.173		109.813
47.5277	-58.5493		112.231
63.845	-57.6874		109.172
66.7769	-59.0837		106.482
66.3114	-53.5495		107.894
61.3942	-61.511		109.921
69.0381	-60.0653		102.851
67.0361	-64.0988		102.996
70.5471	-60.4318		98.3322
-25.6273	3.2575		76.288
-21.3267	1.11989		78.6086
-21.8687	4.16672		75.7984
-29.2889	5.45682		74.0113
-29.565	2.64754		76.913
14.1278	12.5958		73.3337
18.8091	16.9903		69.8568
9.8152	15.6392		72.767
10.1728	7.80416		76.1843
18.4618	9.25674		74.0236
14.5721	27.8398		65.3498
18.5834	31.311		61.2595
9.63154	29.8159		65.8232
9.47353	23.7038		69.1894
19.2792	24.786		65.367
11.0872	46.3104		50.4406
14.4001	47.8855		46.3295
5.13712	50.4651		48.6056
7.28848	44.9571		53.8541
22.9293	5.63277		74.9229
27.6465	1.60721		76.363
27.6803	9.14453		71.2531
18.8083	1.67887		78.1659
-38.7743	-8.461		87.0291
-42.4932	-4.98239		82.9582
-39.9578	-9.60461		86.6798
-35.1436	-12.0624		91.3091
-36.9763	-7.40071		87.1708
-65.7069	52.0481		55.6543
-69.5523	48.1373		55.9551
-62.5781	47.4105		61.216
-61.0339	55.946		54.9083
-68.5953	56.747		50.2901
67.3485	-68.7293		93.6111
68.0895	-68.9871		89.012
69.3136	-65.1974		93.7438
66.5179	-68.4369		98.2379
65.3131	-72.0634		93.0558
53.2731	10.1007		59.0315
48.96	6.5828		64.5088
58.1521	5.56451		60.5884
48.4181	14.5127		57.7004
59.1102	-65.1423		110.124
55.6251	-63.163		112.005
56.8479	-68.5495		109.849
62.2159	-66.769		107.116
64.8086	-67.8312		103.049
62.6385	-71.2873		102.601
73.6183	-27.9892		87.5976
72.9386	-33.1448		93.724
75.7616	-29.4868		85.6346
73.3878	-22.6988		81.6051
70.4026	-26.5378		89.435
82.4827	-23.3108		64.9342
84.5411	-25.6853		62.7325
83.09	-17.6928		59.0427
80.3302	-21.3266		67.528
81.2823	-29.3433		71.2703
68.9389	-69.7161		86.4085
70.6289	-67.0177		86.3325
67.3728	-72.3455		85.9964
70.977	-71.1877		83.9498
-27.8919	-12.1677		94.6805
-25.3782	-14.2214		97.7589
-24.7839	-10.2277		93.0995
-30.9538	-9.39434		90.8357
-30.309	-13.8938		95.406
1.98014	-2.28834		80.6967
4.16705	-0.497528		79.8896
-2.43211	-0.495977		80.0467
-2.05243	-3.22143		81.6068
29.8669	-28.6189		95.2473
30.4186	-26.6255		94.8338
-6.06874	-16.5201		90.8405
-6.17589	-14.64		91.0453
-5.62034	-17.5301		90.4234
-3.93854	-14.9813		89.5587
-2.43085	-19.199		89.5641
-0.948405	-19.8057		89.8509
0.04564	-17.2381		88.3804
-3.32701	-18.7152		89.5283
-4.93606	-20.5671		90.4945
-14.313	-27.3026		95.955
-15.1176	-27.2407		97.4538
-15.2028	-28.7803		95.8044
-13.4519	-27.409		94.8438
-13.3542	-25.5758		95.4159
1.73762	-14.5377		87.0071
2.4688	-11.4631		85.4357
0.709004	-14.324		87.0799
3.07369	-14.9928		87.2999
-18.1012	-19.5388		101.786
-19.5478	-22.1418		103.273
-16.6882	-20.6225		101.135
-16.2093	-16.6273		99.2331
-19.4234	-18.4718		101.871
43.6099	-32.8654		99.9135
43.4025	-29.8534		98.1289
39.4423	-33.302		99.6107
42.7802	-36.1078		101.641
48.7127	-32.6409		100.228
23.257	-23.7413		94.1411
19.4518	-20.9778		93.0254
21.2117	-24.7809		94.5827
24.7867	-22.482		93.6077
-9.08561	-29.1751		93.2145
-6.34941	-30.6876		93.4243
-8.18352	-27.5569		93.184
-11.2391	-28.1866		93.5105
-10.2135	-31.078		92.8443
-34.4156	-6.28235		86.8812
-30.931	-5.02127		85.9656
-37.7945	-3.10712		83.0822
-6.29391	-6.78404		86.7933
-9.40193	-6.79557		88.4915
-8.38208	-7.14628		88.6653
-4.61168	-7.37471		86.3305
-5.76171	-6.12404		85.5285
-10.704	-24.3924		93.2542
-9.45616	-25.3171		92.9618
-9.20737	-23.1309		92.4048
-11.5802	-24.0573		93.7081
-11.6401	-25.8918		93.8187
-12.3441	-24.0773		94.512
-13.1912	-24.066		95.7482
-10.7191	-7.80963		90.4283
-11.692	-7.62788		90.472
-8.62258	-8.05132		89.8734
-2.30139	-9.07195		86.0805
-4.6654	-8.97935		87.8596
-1.02125	-11.2575		86.5422
4.12081	-37.2524		96.3349
6.34321	-38.2873		97.2168
4.6612	-34.6156		96.4669
0.752751	-34.9539		95.1414
3.29148	-39.9843		95.9518
8.27044	-12.2085		86.2339
7.05103	-14.1109		87.3165
11.8794	-15.1418		88.8689
9.58456	-10.5037		85.2839
5.11493	-9.85515		84.4038
28.6698	-43.2166		101.858
26.369	-42.6798		101.302
26.2512	-44.9353		101.536
31.4983	-43.8033		102.771
31.2881	-41.0035		101.806
22.8092	-28.9301		95.5692
23.6696	-29.4525		95.5316
25.4877	-28.3562		95.0768
21.4376	-27.5661		95.4251
-12.3194	-7.48505		90.1279
-12.3624	-6.70496		88.6281
-14.9995	-8.7066		91.9676
33.6235	-38.6434		101.31
36.9176	-38.9457		102.068
35.1493	-36.1044		100.379
30.7241	-38.458		100.78
24.3113	-46.4901		100.971
22.6361	-48.3606		100.392
27.2039	-47.4537		102.145
22.0098	-45.8769		100.318
-18.1114	51.3879		60.9102
-18.4664	49.5998		62.9721
-11.2987	50.8933		57.0659
-18.0451	53.2604		58.5299
-50.2477	51.7561		63.3226
-55.6711	47.8513		65.2218
-47.8468	48.7848		67.4414
-44.096	55.3229		60.9045
-52.5688	55.5318		58.6053
-37.4035	58.489		57.4521
-35.5481	54.7103		62.2439
-30.0019	61.3625		52.3917
-39.7002	62.9427		52.0846
-43.071	44.9446		71.9254
-44.7547	46.1805		70.8243
-48.811	42.2289		73.8673
-41.1361	43.806		72.5646
-17.508	55.9434		54.7284
-18.5591	59.0551		50.9269
-26.6125	54.4198		61.0423
-9.4434	56.08		49.8213
-48.3908	27.9005		74.5503
-45.7313	27.3576		73.4203
-46.2908	31.1813		74.6609
-50.633	28.426		75.3257
-49.1771	24.5735		73.881
-44.8127	4.2502		74.7933
-40.9809	4.95682		74.1878
-46.2708	5.67346		73.5203
-48.1509	3.11186		74.9973
-43.1231	2.37242		76.6998
-10.4877	10.3385		74.4858
-5.8098	9.04976		75.4808
-6.64136	15.5637		73.3858
-14.8557	11.1954		73.7549
-14.9199	6.52413		75.3404
-2.18602	38.8271		62.1106
0.794753	40.5252		60.1439
-4.51556	41.9596		60.7354
-5.48075	37.5882		63.7602
-1.92874	35.2322		64.5322
-40.8091	-0.106371		79.5271
-37.0347	0.814606		78.9444
-43.7324	-1.08689		79.6605
-39.1571	42.6216		73.0875
-35.3858	44.5176		72.1302
-43.094	39.793		74.2366
-37.47	41.2625		73.3936
-30.9738	46.2121		70.6293
-29.8926	44.4645		71.3509
-24.7075	47.542		67.9504
-12.0522	41.5558		64.1181
-15.6426	43.1862		65.3864
-14.2335	40.2184		65.6019
-9.4908	39.3003		64.0187
-10.326	42.8876		62.6112
-25.313	35.6427		70.3541
-23.2957	36.0403		69.4859
-27.3886	34.9617		71.0253
-29.1778	34.1553		71.3186
-30.7487	32.9092		71.1258
-29.8075	34.5879		71.7473
-31.5094	33.0294		71.4457
-27.9014	35.5452		71.4547
-32.503	31.0931		70.6156
-34.1509	29.1646		69.9379
-33.2729	31.1212		70.8656
-35.0773	29.0721		70.1475
-35.3654	27.2259		69.1327
-35.7535	25.0358		68.286
-35.7601	22.2138		67.3409
-35.7219	19.4972		66.3243
-37.0464	21.5434		67.2397
-36.9411	18.8028		66.2327
-36.8997	24.457		68.2926
-35.6888	17.3679		65.6496
-38.3867	20.7894		67.28
-38.1191	23.9801		68.4773
-34.1231	31.3102		71.3042
-36.0916	29.1117		70.5562
-17.6231	35.9193		67.7481
-18.2299	36.875		67.72
-17.6057	34.5605		68.0811
-42.9378	34.2743		74.4457
-39.2194	37.3288		74.0472
-45.0116	35.1848		74.8812
-40.8296	33.3483		73.8202
-26.6897	39.5174		71.8165
-26.3214	38.5516		71.6886
-27.5377	41.0374		71.8828
-29.7739	38.588		72.8388
-17.3604	24.0981		71.1612
-14.8795	28.3634		70.1599
-21.3139	19.1782		71.3495
-15.706	23.5718		71.3812
-25.0395	15.8694		70.491
-28.1843	14.3218		69.2961
-23.7755	14.577		71.1197
-32.6643	13.757		67.1947
-33.8002	13.8298		66.6712
-31.3851	13.9484		67.7165
-20.4734	25.2827		70.5157
-18.4498	29.1699		69.9517
-23.7786	21.1937		70.4893
-30.8842	15.982		67.1004
-29.4091	16.6569		68.0316
-31.7406	15.6211		66.5559
-32.504	15.2977		66.2084
-33.4051	15.0777		65.9252
-42.6111	15.3074		67.9411
-45.1565	15.6251		69.1902
-40.1737	15.0487		66.6467
-43.3204	17.7853		68.5456
-35.3261	14.1343		66.2259
-37.4081	26.7801		69.5719
-38.8446	15.2489		66.1623
-37.8806	14.0152		66.3006
-39.6055	16.9577		66.4556
-21.6329	25.9799		70.2053
-24.8463	22.0071		70.1066
-31.3986	16.53		66.4302
-32.044	16.0047		66.0926
-30.1488	17.5043		67.3452
-32.7457	15.6957		65.7784
-21.631	36.128		68.6529
-59.0082	10.304		72.7494
-60.8038	7.71913		71.9847
-57.2754	8.61519		72.2629
-57.1895	12.3084		73.1499
-61.042	12.2827		73.3344
-26.2859	8.04791		72.3685
-27.8916	9.53118		71.1937
-28.7071	7.72464		72.1546
-23.3597	6.56662		73.9442
-22.9845	9.17361		72.7235
-31.2169	7.23996		72.1565
-34.0942	6.62101		72.5423
-34.3458	11.2958		68.4468
-36.4627	10.0698		69.1933
-35.3653	12.4582		67.3483
-45.2455	11.275		69.8462
-46.2432	13.3939		69.7129
-46.7308	11.2927		70.3259
-30.0704	13.8942		68.4159
-29.6529	12.5735		69.19
-28.9014	11.1047		70.0637
-26.3621	11.5002		70.8467
23.8515	-32.9414		94.6239
23.7255	-33.0246		94.3245
25.6122	-31.5937		94.2457
21.456	-34.1692		94.7833
26.7091	-30.5873		94.0363
26.5784	-30.6796		93.7657
9.69972	-40.0221		98.0421
10.7579	-37.1537		98.2462
8.52133	-39.3408		97.9101
8.28851	-43.3442		97.5004
10.5597	-40.6341		97.9544
13.812	-36.4017		97.9791
13.058	-35.7996		98.2294
12.5929	-38.3234		97.9225
14.2906	-37.1114		97.5601
14.9269	-34.9377		97.9123
16.4692	-33.9118		97.6115
15.5328	-33.176		97.8951
17.3649	-34.5834		97.1321
19.05	-33.3302		96.9556
11.9975	-35.2404		98.3034
12.9191	-33.6232		98.2087
10.6579	-34.6639		98.1965
12.0374	-31.5619		97.7287
13.2487	-31.8463		97.8999
10.8888	-31.159		97.4771
10.7467	-33.0264		97.9837
22.018	-32.2527		96.0987
21.1567	-31.8959		96.4245
14.5127	-37.9293		96.8988
12.996	-39.7514		96.9641
14.6583	-38.4605		96.1697
16.1886	-36.3035		96.8003
18.272	-35.0547		96.4218
18.7837	-35.3569		95.7379
25.755	-29.3655		95.1021
24.3166	-33.104		95.4671
24.2541	-33.2034		95.1787
21.7291	-34.0666		95.7971
24.4317	-33.0474		95.8257
25.3344	-33.0678		96.902
24.9867	-33.0413		96.6213
22.6329	-33.9535		97.5522
20.5817	-35.5372		98.4826
20.1717	-35.4025		98.0888
18.7311	-37.104		99.1049
21.1098	-35.7058		98.7877
15.9036	-38.1928		98.3246
16.296	-38.4919		99
17.831	-36.6104		98.034
15.6322	-37.8839		97.4749
14.0491	-39.7232		98.2577
13.0633	-41.6552		98.8676
13.4638	-41.936		99.1649
14.6939	-40.2499		99.2406
12.7833	-41.3926		98.4502
11.6728	-43.2693		98.3747
28.3358	-31.214		93.7442
27.6262	-31.0003		94.1204
29.8066	-31.778		93.4171
27.1662	-32.4305		94.3006
13.9465	-41.572		93.6282
13.2737	-41.1329		94.504
15.1273	-40.307		93.9075
14.5944	-42.129		93.1588
12.8894	-42.967		93.2633
14.1337	-42.3813		99.4185
12.5932	-44.1536		98.8634
15.111	-42.8837		99.5937
15.9612	-41.0876		99.856
19.9314	-45.1497		99.9105
21.9245	-43.6239		100.498
18.1335	-44.3985		99.7415
18.4044	-47.0023		99.3256
9.61747	-34.4162		97.9874
7.98074	-34.2336		97.5365
8.38147	-36.1263		97.8517
12.5722	-41.0605		97.7692
11.349	-42.6949		97.4643
12.4688	-40.8687		97.1295
12.438	-40.8378		96.6941
13.8336	-39.318		96.9357
12.5723	-40.7928		96.2023
11.287	-42.4192		96.2062
15.5732	-37.7751		96.9799
17.3715	-36.3978		96.8756
15.582	-37.7853		96.505
12.8493	-40.8449		95.4484
14.1084	-39.4216		95.6973
11.683	-42.4572		94.9258
19.3531	-35.2763		96.4123
19.3669	-35.3548		95.925
19.5024	-35.2419		96.9258
23.9428	-36.9201		99.6646
25.7811	-37.4986		99.9561
22.6125	-36.4035		99.3686
22.4853	-38.9748		100.274
20.4476	-40.6928		100.44
22.23	-41.3267		100.597
19.0522	-40.0853		100.265
18.3639	-42.2544		100.148
16.4653	-43.6251		99.6774
14.9084	-45.6012		99.0952
19.0009	-35.5424		95.0513
16.7311	-36.9475		95.3369
18.9895	-35.609		94.3927
28.0312	-28.1576		94.8037
28.0588	-29.3406		94.8035
27.2041	-30.9052		94.8227
26.4543	-31.9353		95.4448
16.6484	-38.9406		94.1564
16.0507	-38.3558		94.9304
18.3631	-37.6034		94.2917
17.4347	-39.5485		93.7564
15.7024	-37.9766		95.7935
17.4669	-36.6551		95.7247
24.2074	-42.0265		100.883
26.4818	-40.2542		100.856
21.732	-35.9986		99.0927
20.1008	-37.843		99.7934
28.0748	-38.0661		100.339
29.4229	-35.6687		99.3587
