1816
23.9849	-84.0933		79.4711
24.2376	-88.119		77.7234
16.0742	-57.7661		86.4907
13.3884	-57.6056		88.3298
15.7104	-57.0346		85.4844
18.4448	-57.7462		84.1891
15.6843	-57.2464		85.1964
12.6201	-56.2239		86.7251
15.6003	-57.7463		84.8825
15.5487	-59.2921		84.2931
12.487	-56.8344		86.0399
15.3692	-62.6518		83.5932
14.935	-66.5446		83.3081
12.2378	-61.8114		84.7965
6.31724	-118.575		34.4364
7.51696	-114.561		36.6319
5.59022	-124.762		32.7393
5.73076	-152.644		24.907
5.59541	-145.152		27.1258
0.705132	-152.994		26.7928
6.11236	-157.862		23.2483
5.55903	-134.415		30.2599
0.196413	-110.953		44.6873
4.07233	-110.948		43.2899
1.50739	-108.545		53.808
-3.70377	-153.128		28.1388
-3.37198	-158.111		26.4608
2.77794	-106.888		62.8452
9.3519	-55.2245		88.3772
9.24401	-55.43		87.8264
9.13548	-55.9338		87.3348
9.31503	-57.4891		86.5065
9.12386	-60.9701		85.7663
8.81887	-65.2823		85.4697
83.158	37.6476		13.7273
85.346	35.9023		2.80537
83.8186	45.3094		8.6825
80.1715	40.2837		24.4002
85.7386	16.9441		-20.5709
73.0619	-28.9567		-50.0437
69.8926	-30.424		-54.8724
41.9576	-101.531		-54.3914
43.856	-91.5212		-53.2347
44.769	-105.096		-48.8452
40.5418	-111.594		-55.6667
38.9197	-98.7692		-59.3524
39.5273	-120.392		-57.1263
38.8023	-128.77		-58.4781
36.3644	-118.231		-61.8573
50.8869	-90.6068		-40.5323
49.061	-100.023		-41.0908
48.5432	-85.6978		-46.9967
53.2569	-82.3703		-39.1642
38.7096	108.289		23.1411
45.2825	104.695		22.7575
38.7317	113.098		7.70147
31.72	111.078		23.5628
34.7442	98.6453		-78.1514
36.7064	107.094		-62.2085
41.6122	95.7943		-76.389
32.4502	88.0433		-91.3751
27.4705	100.934		-79.4355
30.4121	76.3458		-100.967
37.0783	73.8929		-99.0896
28.4406	63.3576		-108.213
23.544	77.9383		-102.448
37.8419	112.793		-45.0395
44.7565	109.463		-43.5507
30.5509	115.48		-45.9593
38.4913	115.644		-27.088
24.0156	120.729		-9.70323
16.1038	122.065		-9.66339
24.0944	118.179		7.77595
31.5671	118.605		-9.56248
23.6268	120.552		-27.9996
26.5557	50.5377		-113.169
32.8014	48.4341		-111.245
24.5951	37.2325		-116.467
20.1542	52.0679		-114.508
22.3992	23.3441		-118.291
28.6058	21.6294		-116.222
20.2576	9.63241		-118.482
16.2168	25.0246		-119.68
13.8286	-28.4755		-107.551
19.5567	-29.9432		-105.467
12.2778	-40.2087		-100.157
8.29277	-27.6977		-108.621
16.02	-16.0076		-113.426
5.93396	-0.770417		-119.429
-0.401878	0.0544986		-119.639
7.67562	12.2677		-120.827
12.0922	-1.93069		-118.531
4.17674	-13.4995		-115.887
5.17413	-86.9607		-82.6681
6.62303	-77.5025		-83.5978
10.4142	-88.3946		-81.383
3.83245	-96.3373		-82.353
0.114843	-85.8976		-83.374
-7.21074	-103.638		-82.9638
-2.28745	-104.68		-82.7233
-8.23326	-113.219		-82.8153
-11.9757	-102.841		-83.0021
-5.96607	-94.0424		-83.2381
11.4588	-49.5457		-94.0562
16.6994	-50.7802		-92.5663
10.1941	-57.8257		-89.4812
5.79579	-48.3879		-94.9759
8.35901	-67.2485		-85.8678
13.893	-69.0749		-84.1972
3.14539	-65.7936		-86.7887
-2.13625	-64.8663		-87.1592
-0.851822	-55.56		-90.7858
-3.61378	-75.3459		-84.7852
-7.49519	-64.4089		-87.1301
62.4952	90.4874		19.216
67.6699	84.3337		17.6906
63.2608	94.2444		5.48487
57.1117	95.7746		20.8059
55.3824	64.5859		-89.3935
60.555	60.8066		-85.2503
53.4993	52.8052		-96.2234
49.7922	67.9414		-93.117
57.2191	75.2518		-80.1802
58.9057	84.5255		-68.1199
53.5937	88.8067		-71.2587
60.656	91.3111		-53.95
63.9926	79.4654		-64.6503
62.1736	95.3469		-39.1853
67.3287	89.0225		-37.5642
56.8538	100.701		-40.6597
63.4951	96.6298		-24.3047
63.638	96.4403		-9.27992
58.1013	102.201		-8.98351
68.8244	89.9484		-9.55988
51.3501	40.8821		-101.167
49.1351	28.486		-104.447
45.6276	43.4995		-105.002
56.591	37.9944		-96.9463
46.6386	15.9506		-106.291
51.8784	13.8409		-102.024
44.1465	3.23806		-106.408
41.0672	17.7742		-110.035
41.4159	-9.04729		-104.943
38.6685	-21.7325		-101.381
36.1541	-8.0453		-108.518
46.2248	-10.4197		-100.805
36.5062	-34.2425		-95.4614
41.3444	-34.6127		-91.6666
34.7841	-45.1759		-89.0054
31.1851	-32.9284		-99.332
33.2016	-54.6761		-83.2685
31.5002	-64.1379		-78.3222
27.9275	-53.7729		-86.9439
37.8926	-55.5193		-79.0101
26.1215	-92.2851		-73.4548
23.9788	-102.006		-74.4299
20.9965	-91.1703		-76.8381
28.209	-82.8855		-73.3247
30.7397	-93.8977		-69.4408
12.5999	-108.066		-79.9505
11.7301	-116.849		-80.1959
7.56022	-106.735		-81.3316
13.9819	-99.1117		-79.6758
17.7029	-109.629		-77.9013
29.8494	-73.6397		-74.9113
34.63	-74.657		-70.3735
24.8987	-72.3203		-78.6436
76.4585	61.3866		-51.6084
78.3319	65.0324		-40.1304
79.8588	54.1112		-45.9131
74.6625	55.4882		-62.0853
72.6886	67.8788		-56.7159
79.7237	67.0209		-28.7633
82.8376	58.725		-23.7824
76.0877	74.864		-32.7253
80.6089	67.7823		-17.5377
80.272	68.488		-6.66941
82.5362	60.6847		-2.09661
77.1964	75.8792		-8.7762
61.1911	35.1491		-92.4934
63.2797	46.1653		-87.523
65.3187	31.9463		-87.7348
59.0186	23.4869		-95.7435
65.0415	56.9537		-80.8622
66.7557	66.2901		-72.141
69.1805	52.5002		-76.027
51.0018	-11.7567		-95.884
54.1297	-0.035264		-97.274
55.5842	-13.2094		-90.3774
47.9478	-23.571		-92.7102
56.6268	11.5865		-97.3664
61.0552	9.62509		-92.3234
45.7127	-34.7191		-87.5553
49.9598	-35.2692		-82.4561
44.0576	-45.8112		-80.6992
42.1802	-55.4547		-74.7498
46.1587	-54.3688		-70.7292
39.4079	-75.9958		-64.6902
43.2989	-79.1154		-58.1287
37.2934	-85.8848		-63.847
82.5265	25.1963		-47.627
80.7797	19.4623		-55.086
80.9644	30.9153		-53.2278
72.2188	77.6577		16.7727
72.8951	81.382		3.69205
86.2434	34.7376		-7.98193
86.0976	42.5988		-12.9181
66.4087	-15.4677		-74.5888
63.1405	-15.1125		-79.7237
68.9249	-6.21822		-76.0754
69.4139	-16.2349		-69.0355
63.5203	-25.1108		-71.6869
70.8226	3.18512		-76.7553
67.9323	5.37076		-82.1921
72.7651	12.0822		-75.2819
73.5517	0.690422		-70.7062
74.7575	21.0827		-71.9138
71.9989	24.956		-77.5337
76.8241	29.2653		-66.4195
77.1526	16.8684		-66.0217
55.4281	-49.6995		-60.0291
52.3914	-51.5698		-63.5451
57.8882	-42.1739		-64.0398
58.4739	-47.9049		-56.2671
53.167	-57.3896		-56.1663
66.8238	-31.6706		-59.4959
64.1973	-38.8246		-56.1084
63.8555	-32.9067		-63.6231
69.5067	-24.3925		-61.9659
46.2416	-82.2261		-52.441
48.6761	-73.3594		-52.5113
74.8891	-48.319		-5.30555
75.9789	-44.8235		-3.36272
72.9325	-51.2188		-2.99493
76.1987	-43.1049		-1.94673
83.0274	-17.6088		-3.87497
84.3677	-12.3541		-6.02598
94.9961	-7.50017		-39.3606
95.8922	-1.70618		-36.9537
95.5967	-7.98332		-38.6652
80.8475	-46.4587		-25.4162
79.3954	-49.25		-21.9623
96.1676	3.0154		-33.4096
95.2324	3.44402		-33.8789
96.0237	6.18347		-29.2768
96.9854	2.23623		-32.8735
90.2088	-1.60101		-12.7943
88.8684	-1.45271		-13.424
95.6055	7.52012		-25.0256
96.4632	6.69427		-24.309
87.5498	-30.0918		-35.9134
82.3384	-47.5275		-18.0373
81.7837	-47.3984		-15.3887
80.3839	-49.4596		-18.4383
85.0259	-9.75704		-7.75135
92.35	6.07959		-20.5584
90.2322	3.14358		-17.8842
91.1226	5.33473		-22.0792
87.5343	-1.01822		-14.8025
86.6453	-0.468343		-16.3413
94.5601	3.35977		-34.0834
85.8128	-0.628019		-17.7397
87.1564	1.27114		-20.3845
88.7492	3.077		-23.9578
86.3286	1.15688		-24.9485
86.0343	-38.6722		-28.6589
86.092	-40.4654		-21.0568
78.6813	-50.4987		-18.8579
81.2099	-46.509		-13.1409
82.7464	-43.7055		-13.186
83.9654	-41.3963		-14.1027
84.6208	-39.8516		-15.0479
95.763	-8.3195		-38.2562
96.9152	-2.75879		-35.9454
95.0644	4.04848		-16.9448
95.1684	3.37664		-16.653
96.2777	5.63315		-19.9852
95.0742	2.76104		-16.5104
96.3679	4.41758		-19.5079
94.7735	1.69681		-16.6863
97.3105	1.63561		-32.5238
97.2592	4.54716		-28.3984
97.3701	1.10823		-32.3915
96.9545	5.91206		-23.8437
97.1135	5.27813		-23.7277
97.067	4.68219		-23.4736
97.2981	3.46756		-28.0484
97.2979	0.73178		-32.0821
94.7415	-12.6461		-37.2188
94.3361	0.414623		-17.2273
91.0499	-6.67334		-14.7493
95.8528	0.0707367		-25.6232
94.0244	-15.8366		-32.0864
94.3095	-13.9489		-31.7876
94.4773	-12.0681		-31.2031
94.4829	-10.556		-30.2992
94.3251	-9.31347		-29.0502
93.6213	-8.41345		-26.5072
83.0952	-36.1059		-12.8119
84.0528	-37.8144		-14.4726
88.4586	-13.2386		-11.7375
83.0006	-27.9216		-10.9355
84.8006	-39.1188		-15.555
41.6533	20.8556		73.8586
49.5079	88.4858		46.529
50.6659	94.7821		35.2363
23.2362	98.8934		50.3365
23.7466	106.562		38.0524
14.8213	100.205		50.6378
51.3076	100.643		21.8412
51.7683	104.995		7.11072
24.0027	113.211		23.8689
15.8858	114.599		23.9651
38.6366	115.724		-9.292
45.5289	111.968		-9.02252
51.9227	107.525		-9.01443
51.8107	107.674		-25.4581
76.4969	43.8969		34.2716
83.5872	52.8635		3.1698
84.9223	51.5206		-7.57077
73.2186	83.3075		-9.73878
73.1126	83.2359		-22.7018
22.8925	117.504		-46.3552
21.7669	111.539		-63.9083
15.0463	118.805		-46.3474
50.9134	105.593		-41.8857
49.6418	100.47		-58.5664
84.8308	50.5576		-18.3385
84.0302	49.2642		-29.2054
71.7938	82.4277		-35.6101
70.2412	79.4254		-48.328
82.4426	46.8669		-39.9839
80.687	42.7762		-50.2244
78.7927	36.9683		-59.0539
76.1106	42.4444		-64.9796
35.1498	-96.413		-64.5314
33.2688	-106.308		-65.8992
32.2036	-115.611		-66.9731
31.309	-124.162		-68.2197
27.3924	-113.066		-71.6124
20.1182	102.753		-79.9424
18.2593	91.4968		-93.4819
12.6659	103.827		-80.1754
16.5877	79.1956		-103.234
14.9495	66.2077		-110.316
9.42887	80.1613		-103.402
13.3494	53.3146		-115.255
11.5964	40.2678		-118.554
6.14097	54.3589		-115.392
9.62841	26.4551		-120.474
2.83085	27.29		-120.668
18.1687	-3.33869		-116.957
24.2058	-5.0139		-114.717
2.38304	-26.7839		-109.313
1.04993	-39.0039		-101.157
-3.3465	-26.2196		-109.349
0.0914165	-47.8153		-95.1482
-5.61397	-47.3455		-95.0106
-4.79115	-84.8193		-83.7126
-9.75327	-84.003		-83.7747
43.5347	71.1046		-96.4641
45.6297	82.5356		-86.9184
41.4752	58.6594		-103.489
47.6873	92.5351		-74.2437
39.2951	46.1204		-108.449
37.1487	33.1605		-111.699
34.8928	19.8441		-113.438
32.6494	6.3033		-113.498
30.2842	-6.57667		-111.866
27.8435	-19.1711		-108.313
25.4231	-31.4308		-102.746
23.4537	-42.6987		-96.1385
22.3304	-52.2976		-90.173
21.2065	-61.362		-85.2673
19.4479	-70.6956		-81.8492
17.6328	-80.4119		-79.9254
15.8591	-89.7383		-79.4269
22.7297	-111.186		-75.1169
21.921	-119.977		-75.7512
68.4378	74.1638		-60.898
72.8884	47.988		-70.5324
70.9601	38.5073		-77.6009
68.8489	28.8011		-82.8212
66.7631	18.2655		-86.0862
64.6825	7.6544		-87.4188
62.4507	-3.34242		-86.8114
59.4918	-14.4203		-85.0259
56.4515	-25.0463		-81.9861
53.7074	-34.9054		-77.8615
57.236	-34.7889		-72.8019
51.3972	-44.6318		-72.3602
49.3619	-53.0014		-67.2218
51.1183	-65.4267		-53.1955
53.5659	-64.2394		-49.8083
78.9898	13.3466		-60.5672
77.3569	6.08809		-63.7098
80.6534	9.24173		-54.5735
71.9054	-16.6674		-64.0744
74.0487	-8.91935		-65.0228
60.5542	-33.9664		-68.232
75.7478	-1.1127		-65.2251
61.5777	-45.9021		-52.6219
59.2139	-52.9768		-49.2969
9.38095	-110.33		41.6527
57.3863	-81.1817		5.14235
46.4362	-97.6929		8.41925
10.3768	-47.0171		92.6985
13.0675	-48.4171		91.2524
16.0537	-50.686		89.0212
4.72086	-59.1326		93.8634
4.98305	-60.4081		94.1141
5.14745	-61.617		94.2169
19.0054	-66.9066		85.5826
18.3841	-65.0957		86.1182
17.8347	-63.4395		86.5324
14.7641	-44.4756		90.3946
33.734	-57.5889		78.8174
27.6668	-35.3829		81.2641
27.9196	-40.274		82.2688
28.1471	-45.3013		82.918
57.8889	-45.3737		57.0932
27.1716	19.9552		71.3996
82.167	5.22185		-48.1942
85.4811	3.22113		-29.1762
86.0171	1.13376		-26.8409
71.2609	-54.0572		0.52804
32.4938	8.5891		68.6793
61.3017	35.7838		66.4397
6.95713	-26.7436		90.7593
52.8327	12.8347		63.1992
11.2697	-26.76		88.9085
85.9238	0.923225		-25.768
47.6608	-109.357		-42.0744
56.572	-74.3773		-37.3375
56.2331	-67.4967		-42.6314
56.7305	-61.4817		-46.4367
23.5916	-27.4313		81.8768
10.3124	-57.2563		90.3651
20.1191	-58.1079		83.3587
3.6447	-51.9074		90.3804
-76.6167	-37.8702		15.4925
-76.7996	-33.158		16.9691
-77.5991	-36.0488		8.37267
-76.3045	-42.4154		13.9323
-75.4086	-39.5483		23.6863
-71.7744	-109.354		-7.56322
-70.4804	-99.173		-7.09514
-73.7063	-107.681		-11.8256
-73.51	-119.461		-8.51994
-69.219	-110.917		-3.43843
-75.0354	-126.715		-9.58128
-72.7768	-128.98		-5.09577
-76.6091	-124.588		-14.1153
-76.2996	-132.395		-10.6221
-63.9476	-94.8434		2.54382
-67.2555	-93.0863		-2.16499
-64.5661	-102.443		1.51054
-60.4502	-97.0732		6.9445
-64.1304	-88.8206		3.76516
-73.1146	-89.889		-14.7111
-71.7598	-90.7623		-10.579
-72.7997	-84.367		-14.2045
-73.7918	-88.3732		-19.5948
-73.7492	-96.9091		-15.2992
-72.3722	-58.3446		23.5163
-73.3775	-56.9348		16.4056
-71.2457	-62.5204		20.7948
-70.7313	-60.0726		30.3842
-73.1416	-54.2989		26.0174
-68.5158	39.4269		28.0145
-72.1146	38.503		16.1897
-68.976	31.9992		30.7777
-63.9868	41.4464		39.0922
-68.2842	47.327		23.7235
-72.8641	50.8327		-25.385
-74.9798	43.631		-20.5363
-73.0147	52.5037		-14.6071
-70.3604	57.6592		-30.5919
-72.7126	47.8661		-35.213
-17.4667	-117.154		36.7679
-17.0734	-113.186		38.8147
-21.1726	-116.279		35.6659
-19.0055	-123.54		35.6039
-14.5669	-117.682		37.4325
-21.9882	-133.367		33.1748
-24.7114	-143.487		30.0245
-18.5659	-134.031		34.3513
-25.6873	-131.969		31.5935
-18.8143	-152.079		29.4838
-19.9311	-156.775		28.0294
-17.4206	-145.047		31.7043
-22.5772	-151.296		28.9082
-73.866	-45.0537		-30.4446
-73.6876	-37.4063		-34.4649
-71.9768	-51.4311		-33.0202
-74.2119	-51.4161		-25.3924
-75.6627	-38.6916		-27.9329
-73.8622	-31.9008		-37.407
-76.3942	-26.9395		-34.0779
-74.1314	-27.1017		-39.7745
-70.9442	-38.0945		-40.982
-76.8643	-117.277		-29.9897
-77.694	-120.381		-23.7098
-75.0493	-114.583		-36.6438
-77.4996	-123.841		-32.2359
-15.3944	-134.73		35.0318
-13.1694	-124.819		37.2902
-73.7923	-41.4631		31.4121
-73.7035	-46.4356		29.9942
-71.8376	-42.2579		38.3643
-73.8915	-35.7855		32.2269
-74.1456	-55.3633		8.92656
-75.0905	-51.018		10.6878
-74.6428	-54.6839		1.01466
-73.0255	-59.6251		6.82
-17.9967	-92.2663		90.0159
-17.5904	-87.8992		90.9009
-22.0022	-91.132		87.9157
-18.388	-96.2121		88.0352
-14.2073	-93.1387		91.359
-26.7819	-88.9734		84.8138
-26.5099	-84.2793		85.6975
-31.7738	-85.9216		80.9497
-27.107	-93.0287		82.9518
-10.1444	-84.7933		92.8879
-10.4868	-89.4795		92.9427
-9.41025	-79.7317		92.1759
-13.5065	-84.0396		92.1525
-18.8076	-99.0553		85.2638
-15.1429	-99.8374		86.5683
-22.9899	-97.886		83.1332
-19.5948	-101.16		81.1778
-20.4793	-102.535		75.847
-20.6224	-103.523		69.4839
-16.1934	-103.732		76.9472
-14.2546	3.19794		80.2804
-10.9302	5.46856		82.3348
-12.7214	6.93991		77.9581
-17.3724	1.48247		78.5576
-16.1814	-0.781098		82.3539
-48.4403	-17.9995		73.5745
-49.8501	-22.6658		72.9904
-42.5249	-18.3557		76.7107
-47.1735	-13.4147		73.7631
-54.6911	-17.6838		68.8046
-57.856	-6.92125		64.054
-59.3523	-11.9753		63.344
-51.9169	-7.93777		69.6665
-56.0491	-2.19771		64.7077
-63.2898	-6.13175		57.0417
-67.0239	10.4551		45.3476
-64.2492	11.8882		49.6406
-65.8569	17.4463		44.75
-69.252	9.48471		40.6432
-50.983	-27.4655		72.0818
-44.7795	-27.8375		76.2511
-57.046	-27.5943		66.4901
-51.6344	-33.0187		71.388
1.03265	4.7702		96.1214
-1.05334	4.42262		95.6788
-0.30911	1.00184		99.5022
2.30073	9.35553		92.4305
-21.703	70.8768		74.5229
-21.8264	76.8656		69.9814
-27.6048	69.8776		71.8119
-21.4478	63.9904		79.4189
-16.1389	71.2753		76.4768
-12.2875	-106.822		63.7531
-12.6526	-105.59		71.3497
-15.9193	-106.079		62.9604
-11.8904	-108.268		55.0261
-69.3834	-42.496		44.9337
-69.4972	-36.0712		45.8526
-68.9938	-48.9133		43.9591
-66.3638	-41.9616		51.3815
-11.5152	-100.578		87.1518
-12.023	-102.933		82.8765
-11.0066	-97.7754		89.9638
-12.4525	-104.499		77.5359
-48.308	-82.1462		59.8246
-48.2259	-78.823		63.2137
-53.4401	-78.0641		54.6611
-47.6834	-85.0446		56.9539
-43.0248	-85.4447		65.7994
-53.8834	-86.3439		34.5347
-48.9208	-89.9929		39.6043
-56.1846	-82.3689		38.8705
-58.3658	-82.6011		29.121
-51.5212	-90.6899		29.4519
-11.3252	-110.275		45.7863
-11.2172	-113.895		39.6737
-14.2548	-109.963		45.025
-6.27582	-3.30408		100.751
-3.67714	-2.74814		102.073
-4.9562	0.0571947		97.8223
-9.33583	-4.2525		98.507
-7.22736	-6.00141		102.975
-29.3978	-18.0452		80.5098
-25.8708	-15.5593		81.8323
-27.6117	-13.3826		80.4963
-32.2291	-19.0401		79.8253
-33.698	-54.0635		81.2762
-31.5001	-54.5905		81.6309
-32.0476	-53.5259		81.5801
-14.1944	-22.6424		90.3347
-16.2344	-23.109		88.6332
-13.3629	-23.6915		89.6936
-16.0845	-21.1694		90.7866
-13.7294	-27.1079		87.9868
-11.6024	-26.401		89.2784
-13.4373	-26.1674		88.2243
-16.3983	-27.3202		86.4017
-14.4072	-28.5181		87.843
-3.12813	-23.3338		96.7632
-4.86005	-23.0211		95.9579
-3.28045	-24.2583		95.3588
-3.21305	-22.385		98.6274
-19.4009	-26.6684		84.8687
-20.0033	-28.0292		84.7568
-18.909	-25.7011		85.2601
-22.2312	-25.086		83.6042
-8.81155	-14.0397		104.611
-8.75605	-12.3885		105.059
-11.605	-13.7563		101.893
-8.75637	-15.8734		103.601
-6.3195	-14.5939		106.333
-31.9515	-67.2541		82.42
-33.7199	-70.6018		81.1184
-28.1899	-69.6093		84.6874
-30.074	-64.3959		83.5591
-35.0081	-64.5379		80.6443
-31.452	-47.7567		83.404
-33.561	-48.2337		82.499
-29.2495	-47.072		84.4964
-30.806	-43.6148		83.9378
-4.10622	-28.3782		93.0745
-3.72159	-26.4953		93.6171
-5.88738	-28.0619		92.5723
-4.46594	-30.69		92.9734
-3.62459	3.59952		94.7421
-2.49366	7.48926		91.3968
-6.81228	2.20014		92.9487
-21.6363	-15.5777		87.8126
-22.0711	-15.4075		86.5357
-21.9026	-17.2231		86.8661
-20.8038	-14.3937		89.9948
-20.4849	-13.4251		90.1668
-6.64293	-24.6475		92.9209
-5.17903	-24.8203		93.7609
-6.48927	-23.7243		93.5975
-8.1005	-24.9729		91.7704
-6.74538	-26.1944		92.3297
-6.2846	-22.9138		94.782
-6.2501	-22.0507		96.4025
-19.586	-13.1268		92.1758
-20.3581	-14.8774		91.0271
-19.1825	-12.248		92.5504
-21.6909	-19.7719		85.8595
-20.6671	-22.2198		85.491
-21.0279	-18.1284		88.1227
-5.77924	-38.5829		94.6818
-5.32212	-35.8869		93.9004
-8.58147	-37.7692		94.2559
-6.30293	-40.4348		95.2036
-26.1089	-29.6699		82.8169
-25.196	-25.9008		82.3779
-28.2409	-29.3763		82.1283
-27.4432	-33.9805		83.604
-23.738	-29.9929		83.7451
-14.4509	-68.3275		91.1346
-18.6849	-67.3706		89.8829
-14.7554	-70.6202		90.639
-10.6246	-68.9296		91.7584
-14.1642	-66.4344		91.7954
-27.0739	-49.832		85.0013
-27.0744	-47.8334		85.5127
-29.3754	-51.398		83.2768
-27.3799	-50.644		84.6056
-18.8163	-11.6531		92.4456
-16.7292	-10.3329		94.9496
-18.8986	-11.137		91.1232
-22.6715	-66.1809		88.1205
-22.109	-64.4279		88.7277
-25.936	-64.5106		86.2421
-23.2191	-68.3727		87.5615
-7.49021	-69.2828		91.9848
-7.19459	-67.6149		92.6268
-7.81118	-71.4533		91.5622
-54.7208	33.6173		61.4246
-55.7283	34.9193		59.4629
-57.3594	28.5339		56.5137
-53.509	32.5412		63.2261
-33.3798	56.9777		75.6605
-33.8499	62.5646		71.8963
-39.7005	55.083		71.0765
-32.7598	52.0888		78.9243
-27.5985	58.0954		79.709
-46.2145	52.5669		65.4452
-46.8194	58.2446		61.1668
-52.5981	49.2278		58.2992
-45.5007	47.9918		69.2337
-32.9621	44.9344		81.5389
-32.6698	47.2728		81.1448
-33.3899	42.3616		81.4751
-28.0816	46.4133		85.358
-57.3278	36.4272		56.1057
-61.216	31.1119		49.5341
-51.4049	41.3371		64.939
-58.2445	39.4484		53.0003
-16.8551	35.6318		83.5241
-13.2641	34.3262		83.141
-16.3834	37.5409		84.6727
-20.3699	35.9929		83.3763
-17.2653	33.1869		81.7931
-0.351788	17.4666		84.5367
-0.855062	14.8476		85.9372
2.9784	19.1385		85.8012
0.049678	19.7009		83.6149
-3.54768	15.2413		82.5248
-29.1611	-2.20718		75.7813
-23.7919	-1.36479		76.8337
-26.645	1.24288		74.7202
-35.3435	-2.03941		74.5934
-31.7921	-6.05044		76.8075
-54.8625	13.5145		59.3163
-52.5903	10.1711		62.3501
-51.7828	14.3782		61.34
-55.4236	17.5847		58.074
-57.5965	12.7082		57.294
-1.52696	11.4457		88.3384
1.34221	12.8599		89.2057
-4.6538	9.47541		86.8371
-33.8633	40.1373		81.1481
-33.8272	37.9572		80.7308
-28.8022	41.537		84.4044
-39.3465	39.5465		78.0166
-44.5273	38.3079		74.2684
-48.952	34.9781		69.7623
-43.9975	36.2297		74.5682
-50.2245	20.8745		62.4852
-52.3759	21.4265		60.8783
-50.0253	17.8103		62.0732
-47.9268	20.3175		63.9788
-49.8727	24.4708		64.3055
-36.2833	22.1087		72.4422
-34.2969	22.79		73.9168
-38.1545	21.4534		70.734
-32.1077	23.4407		75.0455
-29.7327	23.9319		75.8253
-32.2694	24.4305		75.6502
-34.6679	23.739		74.4444
-29.5641	24.8541		76.3955
-27.0159	24.1864		76.11
-24.334	24.1386		75.788
-26.6635	25.0639		76.5813
-23.7957	24.9753		76.1575
-21.9001	23.8093		74.9612
-19.6624	23.0013		73.9146
-17.4332	21.7953		72.6283
-15.6391	20.6042		71.3053
-16.1263	22.4108		72.7592
-18.4811	23.6064		74.0644
-14.3586	21.056		71.5089
-14.5626	19.4947		70.3322
-14.776	22.8876		72.9867
-17.3686	24.3859		74.4911
-26.3738	26.131		77.209
-23.2862	25.9968		76.7433
-42.5757	18.1522		66.4586
-41.4512	17.1031		66.9673
-24.2675	35.781		82.9162
-24.5382	33.5584		81.5775
-24.2194	38.0837		84.083
-28.9042	35.5131		81.9131
-40.9805	28.9528		74.1996
-39.4083	26.5634		73.9195
-37.4815	29.7675		76.4869
-42.3161	31.5529		74.4664
-31.7552	9.49453		71.5288
-25.519	9.34055		72.2816
-37.3277	10.889		69.948
-32.8296	8.19665		71.5131
-20.7967	10.4583		72.0824
-21.5532	8.97215		72.4337
-17.2747	11.7695		71.6962
-13.1418	14.9515		70.9794
-14.1941	13.9258		71.194
-12.5784	15.7768		70.7875
-30.1251	12.2141		71.6327
-24.6716	12.1376		72.088
-35.1197	13.5299		70.4469
-15.8912	15.1186		70.1963
-15.1068	15.6096		69.8962
-17.4708	14.3303		70.73
-14.4493	16.0219		69.7921
-13.8199	16.5884		69.7999
-8.49387	23.5543		75.4904
-7.23878	25.83		77.6736
-9.771	25.3026		76.0622
-10.0282	21.2745		73.0471
-12.0545	17.1192		70.8387
-20.2685	25.4603		75.7344
-10.9176	20.3674		72.0021
-11.7641	21.8897		72.5306
-10.6338	18.9316		71.8265
-29.738	13.3249		71.7001
-24.4541	13.2969		72.023
-15.9889	15.9352		69.6865
-17.3455	15.4673		70.2193
-15.2386	16.1591		69.5083
-14.7688	16.4835		69.3455
-39.5413	20.7355		69.0887
5.09576	32.759		85.79
4.67521	35.6543		86.6593
2.23906	32.6751		85.3993
5.69533	30.2755		85.1212
-16.6105	6.565		74.659
-19.7124	5.29722		74.2249
-17.8554	3.9112		76.0382
-14.3915	7.86749		75.195
-15.9155	8.4985		73.6654
-11.9034	9.33539		76.3795
-9.19874	11.1183		78.2067
-10.9261	14.2353		73.1972
-10.7867	15.8593		72.3606
-9.08868	14.92		74.9135
-4.28634	23.151		78.695
-3.32867	24.2203		79.7866
-5.14747	25.2397		78.6826
-15.4354	12.9014		71.3909
-15.3528	11.7246		72.0442
-15.4402	10.2086		72.7946
-18.192	8.84597		72.7209
-23.6792	-52.9535		83.6467
-20.6145	-52.2993		85.2629
-26.444	-53.2728		82.437
-23.5375	-52.8994		83.4817
-28.1878	-53.4117		81.6603
-27.865	-53.3209		81.5856
-6.93956	-43.9262		95.4003
-6.94302	-45.3887		95.1191
-6.74267	-42.5757		95.5058
-10.1358	-43.2145		94.8142
-12.776	-46.3553		93.1768
-14.8418	-47.1667		92.084
-12.363	-48.0836		92.4068
-10.1465	-46.4009		93.9653
-12.83	-44.7413		93.7346
-17.1132	-47.8082		90.78
-20.0723	-48.7049		88.8622
-17.11	-49.3233		89.8515
-17.2038	-46.3512		91.4076
-12.6804	-43.1735		94.1047
-12.4604	-41.8045		94.3065
-14.9224	-43.8954		93.1342
-16.2201	-42.3387		92.5781
-16.9411	-43.5222		92.2224
-13.9317	-41.3263		93.7166
-15.7404	-41.1237		92.6947
-23.5163	-50.5629		86.0915
-23.3225	-49.0289		87.0893
-11.6327	-49.7124		91.3809
-14.4313	-50.1273		90.1732
-11.1021	-50.5667		90.5232
-8.98953	-49.5245		92.3204
-17.3626	-50.8097		88.5071
-17.3837	-51.5434		87.601
-28.7935	-52.1721		83.1152
-30.2429	-53.4258		81.8383
-23.9619	-53.8955		84.2697
-24.0763	-54.0836		84.5625
-20.8318	-53.6458		86.2214
-23.8666	-53.8442		84.0564
-24.8097	-55.3676		85.2729
-22.156	-56.071		87.7804
-24.5307	-54.8958		85.121
-19.1513	-56.7157		90.1846
-19.7175	-57.5612		90.2475
-15.8727	-57.1894		92.0737
-18.7791	-55.8068		89.8392
-11.3628	-54.8462		92.4991
-8.32982	-55.1349		93.3588
-11.1809	-53.3771		91.6421
-14.9455	-54.7222		91.0922
-11.6413	-56.482		93.2544
-6.18968	-58.6865		94.9368
-6.02633	-57.185		94.4832
-8.66953	-58.2257		94.5607
-6.3502	-60.0042		95.1768
-28.6652	-54.8097		80.9853
-28.3862	-54.2501		81.5723
-26.6685	-54.8406		82.1444
-28.92	-56.1628		80.3244
-5.80855	-53.5727		89.4793
-5.79087	-52.836		90.5229
-5.79352	-55.2613		88.3265
-8.06985	-53.5011		89.1392
-6.49667	-61.2139		95.2298
-9.05164	-60.7462		94.9212
-6.66614	-62.298		95.1031
-6.96966	-65.9568		93.4895
-6.87398	-64.4773		94.2895
-9.7872	-65.367		93.3535
-12.0399	-40.8118		94.3442
-9.66632	-40.709		94.9284
-11.1697	-39.4957		94.3365
-5.91598	-55.483		93.778
-5.79632	-53.8714		92.9191
-5.73695	-53.0681		92.3028
-5.82173	-52.7445		91.8424
-8.13525	-52.7923		91.9016
-11.0635	-52.681		91.0671
-10.9905	-52.4542		90.6879
-14.2824	-52.9103		89.8247
-5.8879	-52.6394		91.29
-8.1405	-52.4425		90.9534
-17.5417	-53.3107		88.187
-17.8545	-53.8091		88.6737
-17.411	-53.1291		87.7705
-20.8635	-60.4418		90.0993
-21.2685	-61.4936		89.75
-17.5875	-61.3559		91.9712
-20.5017	-59.5028		90.2767
-13.2583	-62.1111		93.6758
-13.5874	-63.2183		93.2213
-9.37456	-62.7881		94.5888
-12.9164	-61.1444		93.9311
-6.7753	-63.3406		94.8012
-17.3461	-51.7364		87.0893
-17.2117	-51.6801		86.631
-14.1168	-51.1321		88.693
-28.3175	-54.0081		82.1897
-26.7019	-54.2938		83.2471
-10.8808	-53.5618		88.4586
-10.8287	-52.7439		89.4001
-11.0329	-55.1457		87.4917
-14.0562	-53.7079		87.4208
-10.8828	-52.4393		90.1834
-14.0106	-52.6955		88.9197
-13.8276	-64.6882		92.5814
-18.1837	-63.8798		91.0565
-20.0874	-58.5391		90.3475
-16.8426	-59.3393		92.2855
-21.6725	-62.892		89.2823
-24.4913	-61.4135		87.3583
-16.8751	-51.3297		86.2831
-19.7719	-51.8144		84.8634
-16.2092	-49.9047		85.4872
-13.9715	-50.7076		87.4208
-11.0196	-50.346		88.3803
-10.9037	-50.7474		89.2653
-11.3446	-48.9719		86.9363
-8.53881	-50.115		88.7975
-15.5122	-46.7401		84.2763
-17.9018	-47.2291		83.4162
-15.1621	-42.69		83.2158
-13.2647	-46.2507		84.9431
-29.4878	-59.1416		79.5948
-27.446	-59.2711		80.8722
-29.8652	-62.4134		79.23
-5.84289	-58.7699		87.4329
-6.43386	-63.0222		87.2124
-8.09457	-58.6087		87.2018
-11.0957	-45.8692		85.4417
-10.5423	-41.8774		84.4088
-8.78679	-45.5806		85.8344
-11.0875	-58.4887		86.6737
-11.6913	-62.7963		86.3055
-14.4926	-58.4968		85.8157
-32.564	-53.5106		75.5871
-33.139	-53.0004		74.6177
-6.54702	16.4117		77.3061
-6.2667	14.8848		78.896
-81.4429	1.1778		-40.5779
-83.0013	0.866756		-38.8069
-81.4891	5.8028		-40.5205
-79.5302	1.56078		-44.0044
-81.2814	-3.27108		-39.8719
-78.7883	19.0974		-2.68891
-77.5276	20.9931		2.25107
-78.833	22.0253		-6.94369
-78.6509	24.1703		-12.2032
-79.276	23.8986		-19.3187
-79.6908	19.3212		-13.3269
-77.6874	29.5221		-13.4536
-78.6158	-23.6432		-31.6098
-79.2795	-19.6372		-33.3679
-78.1554	-27.9127		-29.0958
-80.7519	-21.0782		-29.8537
-79.8016	-15.8817		-35.3905
-81.9081	-14.4192		-33.4323
-80.4129	-11.8055		-37.164
-77.4649	-18.1905		-38.3737
-84.472	1.09599		-37.8794
-84.2124	6.10079		-38.0185
-84.405	-3.10064		-37.0045
-85.9094	1.78307		-37.4936
-86.6178	-15.0867		-30.1729
-87.7598	-16.0642		-29.0587
-85.1294	-13.6878		-31.604
-88.6194	-16.767		-28.0114
-89.2208	-12.6374		-30.0457
-87.9413	-20.8575		-25.5422
-89.387	-17.1185		-26.7611
-91.8531	-6.5414		-27.9017
-92.5969	-1.91676		-31.0133
-91.7678	-5.98518		-27.1092
-83.9311	-29.9038		-17.4589
-84.071	-28.2392		-20.4837
-82.952	-29.1801		-19.5306
-83.5837	-30.6139		-15.3932
-84.4223	-30.0808		-16.7352
-84.7805	-22.3945		-4.64445
-84.558	-22.971		-4.63703
-84.0939	-24.2381		-4.95079
-91.6623	-5.62176		-26.6903
-91.2302	-6.2734		-25.7323
-92.7012	9.1644		-30.4409
-92.6967	9.82775		-31.981
-92.7387	7.83368		-28.7665
-91.693	19.2749		-27.8849
-91.7946	20.6498		-27.9891
-91.6581	22.7239		-26.9359
-91.0481	24.695		-23.7952
-91.7826	23.2084		-27.3391
-91.1075	22.4412		-24.6862
-84.0998	0.347637		-4.57897
-84.6789	5.88309		-5.12762
-83.6821	-3.75105		-4.02957
-83.4861	1.00611		-3.22869
-80.9877	-16.0429		2.36535
-80.9404	-11.7742		2.93783
-80.9691	-19.7768		1.81227
-80.1105	-16.5936		5.16955
-84.2061	-10.7634		-6.74065
-83.9438	-8.84107		-6.85591
-84.7848	-12.7122		-7.27678
-79.7515	18.8446		-13.3466
-79.7859	18.8446		-13.1231
-79.9627	20.1676		-16.8669
-86.9053	27.3008		-13.7014
-87.6523	29.1226		-16.8575
-87.7437	26.6939		-12.6947
-85.865	24.0429		-10.7448
-86.0181	27.608		-14.9003
-87.1231	29.7627		-22.0162
-86.3734	29.4034		-18.9576
-86.4561	28.6396		-23.4295
-87.7674	28.594		-25.7513
-87.3925	29.9375		-21.4894
-89.8436	14.771		-36.5932
-90.8582	15.1463		-36.0323
-89.4385	20.703		-33.6639
-89.1351	14.2119		-36.7883
-85.0393	10.5434		-5.69049
-85.4853	9.35593		-6.37358
-92.7086	14.5188		-33.4384
-92.517	19.6344		-31.1299
-92.7701	14.4276		-33.8019
-92.7449	11.7057		-33.6545
-90.4052	25.4721		-19.7689
-89.5312	24.7751		-15.7293
-90.3772	26.4543		-19.1429
-90.3634	24.1097		-20.5142
-86.4158	11.5179		-8.52485
-86.6865	13.8855		-9.24227
-86.0827	9.7047		-7.95181
-92.1648	15.1231		-30.6899
-92.5193	13.1188		-32.5903
-85.3861	4.6253		-9.83712
-85.6894	6.27031		-8.70288
-85.506	4.92127		-10.5563
-90.0272	6.12136		-24.0199
-91.6877	8.98219		-25.9169
-90.0473	5.02551		-24.1879
-89.7125	6.52637		-23.3874
-80.9329	-7.84329		2.95837
-80.123	-8.17304		5.55106
-81.0741	-3.27734		2.14572
-83.7927	11.3097		-36.4781
-84.4375	13.9093		-35.4949
-83.0842	15.8947		-34.29
-82.7248	10.5925		-37.6617
-86.1597	19.0815		-32.7299
-86.7988	15.0885		-35.6982
-87.9146	23.9505		-30.7593
-85.4543	22.7583		-29.4453
-88.2216	13.1275		-36.776
-87.7479	7.52383		-37.6246
-87.9541	2.51346		-37.2932
-83.5894	-13.5755		-32.5184
-84.0108	-10.2698		-34.1797
-83.0143	-16.7902		-30.7266
-84.2594	-6.82885		-35.7433
-82.6247	-7.25933		-36.8137
-90.6604	-6.28335		-24.7091
-82.3954	-19.8032		-29.0505
-81.7684	-23.5299		-26.7536
-83.3392	-30.2827		-12.4816
-82.868	-30.6044		-12.3127
-82.3523	-30.8662		-12.0241
-82.1317	-30.6901		-17.5422
-90.3472	4.31805		-24.6728
-92.0918	5.92725		-26.8576
-82.8136	1.52012		-2.11255
-82.0356	1.81829		-0.87013
-82.3021	-12.0491		-0.684485
-82.6455	-12.1727		-1.36752
-85.7946	-16.0695		-7.0165
-85.8148	-14.9787		-7.8663
-87.0425	-17.9268		-8.61292
-83.4814	-6.7687		-3.56012
-83.9429	-6.85769		-5.80609
-84.9189	24.4896		-26.1926
-83.8869	24.9582		-22.7965
-83.0327	20.5877		-29.07
-82.3315	18.9591		-30.9126
-81.4251	20.9487		-26.5808
-81.955	18.6109		-32.0497
-91.279	16.1579		-25.5456
-91.2877	14.6438		-25.2066
-85.8433	5.67331		-12.0167
-86.6806	7.0199		-14.7088
-89.5736	7.34936		-22.8708
-88.9995	7.3273		-21.4698
-90.8509	11.1307		-24.0382
5.19499	85.2012		68.346
5.62137	92.6091		60.9693
-2.89638	85.0801		68.2445
4.57105	77.9013		74.1317
4.16854	70.6224		78.869
-3.66633	71.0964		78.5189
3.5472	62.7741		83.088
-21.6211	58.4873		82.7194
-15.8373	58.5067		84.3893
-21.822	54.1193		85.2511
-3.31701	-21.3619		100.881
-5.19151	-21.1918		99.6569
-3.6292	-20.1322		102.93
-3.32499	-11.5074		107.911
-3.59008	-13.3065		107.861
-3.06388	-9.58373		107.507
-5.89823	-11.1738		106.918
-3.8053	-15.1142		107.355
-3.92461	-16.8316		106.404
-3.50182	-25.231		94.3774
-4.8846	-33.4004		93.3177
-7.16498	-33.0678		92.9822
-3.88679	-18.4916		104.94
-6.13849	-18.1949		103.753
-2.69359	-7.78551		106.737
-2.19744	-5.46717		105.202
-5.11537	-7.70082		105.859
3.11776	46.2526		88.3069
3.17137	50.1987		87.7959
-3.53907	47.8022		87.9879
3.11999	43.1116		88.1933
5.38233	19.8157		86.1847
5.8037	22.0683		85.3468
4.63888	17.1396		87.4632
6.0716	24.1032		84.8427
6.08906	26.0664		84.6331
3.58229	23.4516		84.4411
-6.04815	-50.06		88.9985
-5.75949	-50.8485		90.3761
-6.2838	-48.549		87.6496
-5.68452	-50.9827		91.2481
-5.77724	-50.7817		91.7741
-8.03226	-50.7522		90.83
-6.93801	-46.7345		94.6527
-6.71278	-48.1728		93.9405
-6.22417	-49.65		92.9314
-6.6329	-41.5696		95.4283
-6.12927	-45.4639		86.1256
-5.59148	-41.5684		84.9675
-9.64222	84.6371		67.6712
-9.53769	91.5136		60.6448
-15.9494	83.716		66.6769
-9.95505	78.0481		73.0857
-9.69858	49.7122		87.7724
-9.74478	52.205		87.4427
-15.777	51.063		87.1342
-10.4717	46.1683		87.7135
-12.2629	43.8518		87.2232
-14.5912	41.2952		86.36
-17.6426	44.9983		86.8231
-15.7962	39.4248		85.601
-19.6399	40.0916		85.4042
-11.2435	37.7628		85.4595
-19.3043	26.3632		76.3304
-22.709	27.0468		77.3733
-16.0703	25.2464		75.0973
-18.6956	27.9452		77.5915
-21.0418	24.548		75.2308
-17.8704	30.0765		79.3213
-14.5565	28.9936		78.5542
-21.4121	30.6918		79.8307
-34.6357	90.3075		44.8797
-34.7671	84.4842		52.5374
-28.325	93.2372		47.3515
-35.1158	95.9155		34.4594
-21.7677	82.6742		64.9342
-27.9715	81.1367		62.313
-21.9324	88.7747		58.3697
-21.68	51.7971		86.0798
-27.1152	50.6246		85.1167
-21.8596	48.3387		86.5264
-24.1782	40.4613		85.0751
-23.398	42.8376		85.842
-22.3081	45.6534		86.4011
-24.9259	30.8989		80.0101
-29.0688	30.3135		79.3531
-25.6823	28.8437		78.7756
-34.6031	79.1534		58.4949
-34.3753	73.8589		63.4747
-41.2496	76.9852		53.4009
-32.6482	49.2573		80.3977
-38.4213	47.6156		76.4449
-32.9663	26.6073		76.7908
-35.9758	25.9116		75.3246
-29.6114	27.0099		77.6597
-33.1036	28.1163		77.4984
-34.009	35.4799		80.0112
-39.1401	35.3995		77.6121
-33.646	32.7815		79.2016
-33.3585	30.1175		78.2789
-34.0528	68.3311		67.8877
-40.7484	66.2824		62.9298
-47.3488	75.2754		46.6605
-52.6585	73.8377		38.5045
-47.3179	69.7661		52.0148
-36.7842	22.9411		72.8715
-38.6724	22.12		71.0445
-38.5891	25.0345		73.4541
-40.3331	23.7831		71.4673
-37.4352	23.8397		73.2337
-43.3275	34.186		74.6481
-46.7414	31.2815		70.9458
-10.0801	32.2756		82.1147
-8.97469	33.9239		83.6301
-10.8389	30.0109		80.0291
-7.81684	29.9289		80.7944
-7.31452	35.4543		84.894
-5.23192	32.9184		83.8746
-11.7466	27.2331		77.238
-12.7111	25.1514		75.1374
3.56168	39.7847		87.6645
-74.8999	-55.6865		-6.76506
-74.9474	-56.1541		-13.2544
-75.8807	-50.2542		-4.63714
-76.6193	32.4289		-34.0928
-78.5334	26.9099		-28.8797
-76.7341	34.665		-25.7882
-74.7854	37.9045		-38.8877
-76.8315	28.6031		-39.9121
-77.0803	1.58718		-49.9832
-77.2983	7.47644		-49.9397
-74.8622	1.1838		-55.7005
-76.8793	-4.47803		-48.5302
-77.1337	13.6917		-49.49
-79.4404	11.858		-43.1466
-77.0343	19.2144		-47.5444
-74.923	15.2354		-56.0674
-74.4848	-22.2508		-42.6436
-75.3907	-16.3254		-44.9806
-71.7584	-26.0017		-46.6708
3.00982	56.0888		86.0181
-3.67114	56.9308		85.8276
-9.94294	57.8556		85.2422
-10.7336	64.4033		81.9233
-30.6093	-100.465		55.976
-24.6381	-103.073		59.8114
-37.3152	-96.9777		50.217
-28.6266	-103.321		47.8842
-57.849	-78.8758		42.58
-58.3453	-76.1887		46.2504
-62.24	-74.6881		37.1096
-52.3414	-83.6465		47.9469
-47.254	63.9621		56.6284
-53.177	61.4901		49.166
-10.2364	71.4102		77.686
-57.7854	72.3657		28.7038
-58.4706	65.7229		34.6556
-61.9899	71.088		18.5175
-9.13248	99.3509		50.6577
-1.9192	100.268		50.9738
-8.61864	106.801		38.5427
-15.7719	97.7185		50.2133
-58.9112	44.6937		48.9687
-58.8735	51.8302		44.8074
-41.7474	22.4515		69.3743
-52.3174	31.2893		64.6513
-50.7694	29.7998		66.0259
-53.7661	26.5881		61.0369
-49.1128	28.2859		67.1315
-11.7708	-118.241		37.8142
-67.6398	-63.1672		38.0031
-67.0605	-67.0931		34.2626
-63.0835	-68.0765		44.7279
-67.9995	-59.291		40.8194
-10.3817	-37.7393		93.9262
-9.56191	-35.4925		93.3092
-12.1945	-38.0888		93.4996
-26.6305	-45.4275		85.9139
-23.7061	-43.2772		87.8056
-25.4497	-41.4615		86.4792
-12.663	-34.3992		91.6408
-11.5721	-31.8203		90.9895
-15.2076	-35.1945		90.598
-13.6781	-36.7082		92.2148
-10.3421	-33.5486		92.3133
-35.4447	-48.3233		81.7185
-35.007	-44.1803		82.1051
-37.8814	-48.68		80.5219
-35.5145	-51.9703		81.1264
-59.7349	22.9702		53.0465
-61.8361	23.86		49.83
-60.9307	17.3868		52.3586
-57.3439	22.3746		56.0105
-64.0134	24.7831		45.8238
-66.564	25.0299		40.308
-45.6366	19.9343		65.3009
-45.8415	18.0095		64.6122
-55.1025	21.7868		58.4243
-80.6647	19.1512		-34.1134
-80.4648	21.6339		-30.0605
-78.9941	21.0001		-38.2331
-81.0018	15.448		-37.3959
-80.8172	-7.72495		-38.8209
-78.8027	-8.5116		-42.0703
-77.3389	-42.3901		-14.8242
-77.3981	-39.0506		-20.6691
-75.9549	-48.276		-17.6025
-77.1475	-44.3603		-8.59606
-78.6639	-37.842		-12.2834
-81.2988	10.8087		-39.482
-79.2522	-17.5536		8.41506
-78.2688	-18.505		12.9148
-79.2982	-13.1966		8.80851
-79.143	-21.7045		7.77342
-72.0301	8.28775		33.2746
-74.5957	7.22195		24.5948
-72.6293	0.688692		34.3597
-71.1615	16.349		32.1263
-49.5297	14.9699		62.553
-47.8666	12.4821		64.2879
-47.4678	15.6421		63.6457
-45.7836	16.2888		64.5319
-44.3398	14.7496		65.6087
-76.9991	-19.0482		19.4158
-77.059	-13.8699		19.4637
-76.9864	-23.8247		18.7129
-75.5698	-19.3616		26.4129
-25.5386	-8.86767		79.9751
-22.1178	-7.02767		81.4995
-23.1937	-4.4343		78.9461
-29.1256	-10.1289		78.9483
-34.0437	-10.3552		77.6914
-35.4221	-14.5919		78.3815
-39.7712	-9.66568		76.0178
-18.2679	-4.9864		84.0553
-19.3387	-8.13809		85.8933
-14.0481	-2.14376		87.4627
-23.4309	-14.872		84.3129
-21.7005	-12.5983		85.7585
-18.7438	-15.1464		93.3914
-19.7811	-16.0477		91.608
-18.5745	-17.0674		92.5059
-17.0657	-14.317		95.6713
-20.4176	-16.9821		89.929
-19.8867	-19.2955		89.0001
-38.9198	-28.3058		78.9096
-37.8898	-23.4578		78.8512
-40.0418	-33.5145		78.8946
-34.2103	-28.746		80.494
-36.4336	-18.7269		78.7617
-7.20887	-28.2409		92.0904
-8.66469	-28.6437		91.4046
-7.89609	-30.6354		92.1888
-62.4371	-41.0292		58.0726
-62.0101	-47.807		57.3231
-57.496	-39.9741		64.8423
-62.4865	-34.3033		59.0132
-29.2881	-38.9171		84.0517
-31.6562	-39.2469		83.1417
-26.788	-38.3116		85.0965
-40.9796	-38.8907		78.7326
-36.8935	-39.1708		80.8625
-46.0371	-39.0393		75.5869
-41.4429	-44.2772		78.6358
-8.7343	-33.0989		92.6792
-61.1267	-54.7857		56.5562
-58.8625	-60.8955		57.6254
-56.48	-52.4843		63.9606
-64.8206	-55.9041		49.6384
-60.7484	-17.1337		62.0444
-65.5453	-17.4365		54.9159
-61.8054	-22.5314		60.8447
-37.4645	-88.9816		72.0233
-31.8408	-92.8453		77.0325
-37.4758	-85.9185		74.3114
-47.6838	-75.0917		66.4968
-42.6132	-78.7014		71.2212
-45.8425	-71.4026		70.5134
-51.8662	-71.0018		62.9936
-54.0967	1.8215		64.9164
-48.2609	0.341845		69.4871
-51.2605	5.35993		65.5391
-41.6945	12.9409		67.522
-43.0892	11.5872		67.2272
-48.9708	7.5466		65.906
-46.6091	9.13353		66.5008
-43.7669	5.49256		69.5028
-39.044	15.4552		68.4359
-10.6021	-93.9207		92.0098
-51.581	-50.7488		70.0006
-46.2372	-49.5465		75.0845
-51.8913	-45.283		70.3427
-50.4774	-55.6427		70.3324
-43.6611	-67.8323		73.861
-39.7881	-71.2833		76.4272
-40.4834	-64.5093		77.1844
-46.4256	-63.9797		72.37
-42.1831	-0.899969		72.4192
-39.7399	2.01283		72.1215
-44.3306	-4.47012		72.9411
-51.9319	-39.1959		70.7376
-45.8691	-8.83814		73.4376
-17.1604	-83.0763		90.8842
-21.2397	-81.5783		88.8916
-16.4355	-78.0537		90.4515
-25.9131	-79.6312		86.1839
-25.0413	-75.2162		86.4942
-30.6011	-77.1686		82.9883
-37.7372	4.03885		71.7475
-30.8227	3.37052		73.1699
-35.8381	5.56102		71.634
-44.7109	10.3426		66.8721
-40.1849	8.24085		69.666
-34.2236	6.92314		71.517
-27.6967	6.55319		72.5432
-10.1814	0.265376		90.6275
-8.95285	3.87231		87.589
-11.5346	-3.0893		93.3472
-13.839	-9.12967		98.4289
-14.2925	-10.1185		98.6694
-10.762	-8.22838		101.603
-13.407	-7.83491		97.4266
-6.38598	13.0893		80.3997
-6.87939	10.6968		82.2379
-20.2192	-0.157613		77.7406
3.53458	13.5842		89.5354
-60.7614	12.0914		54.2148
-7.81036	7.40099		84.7894
-68.1818	-55.2483		43.0575
-71.5399	-52.2739		35.4195
-67.6626	-5.44342		49.271
-70.6924	-5.49575		41.9067
-68.4647	-11.8391		48.6158
-69.4848	-29.8136		46.5657
-71.927	-30.3343		39.8773
-66.4375	-28.9533		53.0958
-69.3332	-23.6745		47.2287
-69.0119	-17.6914		47.8573
-71.7122	-18.7253		40.7928
-27.3403	-95.8806		80.5851
-15.3592	-73.9277		90.3792
-19.5425	-72.8647		89.0115
-11.7787	-74.5894		91.1454
-24.0481	-71.5295		86.9845
-20.2393	14.4195		71.2355
-24.9622	3.74543		73.8093
-23.6367	5.83543		73.183
-22.5984	7.43946		72.7096
-8.46004	-75.0654		91.551
1.49528	27.4566		83.6165
1.60799	24.9769		83.4062
3.60436	27.8686		84.3262
0.742494	29.7444		84.024
-0.387645	26.6483		82.5728
-13.2591	17.3922		69.9798
-13.0477	18.4746		70.2175
-10.6673	17.3219		71.9349
-2.10285	25.4344		81.1577
-2.87244	27.7999		81.619
5.9697	28.1294		84.7287
-6.83629	-20.9359		98.3434
-7.52873	-19.6657		100.125
-8.50679	-10.8794		105.165
-11.4588	-10.7718		102.336
-8.25672	-9.34825		104.821
-18.7851	-24.173		85.9539
-15.8109	-25.4005		87.1816
-18.3978	-22.9455		87.0918
-7.6939	-7.84628		104.307
0.580255	21.7864		83.1857
-0.14831	32.2985		84.8156
-2.11763	31.5098		83.947
-13.3061	19.7005		70.644
-3.89158	30.4414		82.6759
-5.29601	28.997		81.084
-6.25773	27.5207		79.4899
-21.3115	-30.4065		84.884
-22.4961	-33.6383		85.6222
-18.3067	-30.6595		86.4732
-24.1256	-37.6436		86.2081
-21.0783	-36.685		87.6752
-27.0323	-52.8953		81.5843
-25.1348	-52.8539		82.527
-26.7373	-51.779		80.9073
-27.4806	-51.2009		84.2572
-25.6358	-49.7838		85.715
-26.3134	-48.5826		79.5697
-25.7275	-44.3274		78.3315
-23.2277	-48.292		81.181
-15.562	-30.6115		88.0261
-16.7544	-33.1405		88.5781
-12.9566	-30.0927		89.3894
-18.2416	-36.0146		89.0708
-19.4346	-38.7522		89.527
-22.8481	-52.5109		83.4819
-21.4079	-50.9556		83.2944
-20.4603	-47.7519		82.3817
-20.1752	-43.6267		81.1908
-10.6616	-29.2912		90.544
-10.0064	-27.1935		90.3545
-14.9185	-39.1565		92.4613
-17.7533	-40.3479		91.1877
-19.3761	-10.0319		88.1318
-16.0075	-7.75375		92.1082
-1.43575	-2.53413		102.754
-12.5003	-5.71049		95.744
-8.28155	-17.7227		102.243
-10.6593	-17.5807		99.7467
-13.5376	-17.5575		96.9095
-16.1696	-18.1135		93.9184
-14.3317	-15.6112		97.8798
-17.7303	-19.0541		91.6588
-18.3452	-20.3652		89.7819
-18.3997	-21.7124		88.2765
-14.4606	-11.1039		98.9467
-14.5178	-12.352		99.0193
-14.5489	-13.9108		98.6362
-55.2777	-139.886		13.5398
-52.9182	-132.271		14.6285
-59.4379	-137.655		10.3549
-57.0338	-145.456		12.7592
-50.6357	-142.032		16.6539
-50.1259	-121.607		16.008
-45.5061	-123.867		19.5105
-48.2866	-112.089		17.4611
-54.4172	-119.285		12.489
-49.7713	-95.2302		24.6045
-48.9204	-100.001		20.7938
-44.8938	-98.5208		28.6943
-54.1954	-92.0214		20.1855
-48.1825	-105.275		18.8337
-52.5784	-102.543		14.9808
-43.2023	-108.11		22.8672
-49.0108	-60.0267		70.8528
-44.5706	-57.6269		75.4274
-52.7086	-62.8963		65.6552
-56.0636	-66.2034		59.4079
-57.7015	-69.8152		54.3228
-58.4506	-73.0988		49.9853
-40.7387	-56.1877		78.2596
-39.2431	-59.053		78.749
-37.3019	-55.2122		80.0518
-41.2783	-52.901		78.3083
-35.3246	-54.4929		80.8252
-34.2943	-56.3683		81.0024
-58.0186	-88.8831		15.8077
-61.6095	-85.9208		10.8037
-57.1771	-93.9656		12.803
-59.6832	-84.1853		19.1688
-61.8479	-79.5008		23.2798
-64.0849	-75.0485		27.0681
-64.6647	-76.7059		17.073
-65.908	-70.8779		30.801
-68.3876	-68.2121		24.1143
-58.4145	-116.837		8.8717
-60.9146	-127.722		7.89006
-56.8631	-107.074		9.87689
-62.2293	-114.768		5.0761
-63.1647	-135.526		7.04213
-66.6296	-133.436		3.43316
-65.1362	-141.308		6.21836
-56.59	-99.7672		11.0699
-73.8188	-19.2728		33.6858
-73.654	-13.2366		34.0134
-73.8795	-24.8277		33.3526
-69.8834	-66.4439		17.9263
-70.9388	-64.9659		11.2793
-68.328	-70.3565		14.5605
-69.8572	24.7564		31.8384
-73.2868	23.1637		21.1193
-73.5089	-50.4643		28.2402
-74.8891	-48.427		20.5363
-73.8731	-30.3444		32.9871
-75.527	-29.6752		25.5732
-73.1609	-6.25671		34.5896
-75.3264	-7.34631		26.7173
-76.8822	-28.6103		18.1019
-78.0502	-27.1646		11.3882
-69.3875	-80.8516		-4.17195
-67.2066	-82.0032		0.516318
-69.5665	-76.1919		-2.4417
-71.223	-80.0148		-8.76378
-69.4673	-86.0287		-5.54527
-69.7497	-91.7749		-6.37095
-70.0939	-71.7286		-0.00414026
-70.8552	-67.5989		2.3394
-71.5452	-70.7729		-5.45658
-68.5019	-72.9361		5.31621
-76.644	6.4456		15.999
-76.8464	-1.40133		18.3717
-76.2864	14.211		13.4018
-75.7891	22.3803		10.4271
-75.1865	30.0955		7.86696
-74.4608	37.9497		4.65051
-73.6618	45.7701		0.914357
-75.8795	37.3469		-6.19973
-75.7858	-46.7794		12.3921
-76.4347	-45.6676		4.40917
-76.9681	-7.98876		19.4659
-78.3116	-8.56191		13.1385
-65.9141	-112.65		0.910641
-67.9987	-123.535		0.143929
-66.7979	-74.5918		11.2435
-65.4812	-78.998		8.07827
-69.8918	-131.262		-0.622457
-71.6567	-136.886		-1.6102
-74.9205	-106.371		-15.9393
-76.3448	-115.73		-17.2053
-72.6338	-79.175		-13.3435
-72.6615	-74.3689		-12.2322
-73.3869	-77.232		-18.1476
-72.9182	-69.5596		-10.7763
-77.5246	-122.666		-18.632
-78.4897	-128.118		-20.5295
-76.817	-45.3671		-2.79947
-78.9699	-25.7502		6.86226
-78.851	-29.448		5.26053
-79.8759	-23.9152		3.61396
-79.2538	-8.58036		8.95015
-73.3434	-85.122		-26.1685
-73.1575	-78.6789		-24.9444
-71.5359	-80.9671		-32.8424
-73.338	-72.548		-23.8304
-72.0266	-66.1297		-29.7142
-74.8185	-54.8777		-19.7127
-79.5546	-35.1533		-10.889
-80.4759	-32.494		-17.4332
-72.073	-111.979		-44.1661
-71.1303	-103.823		-42.6428
-68.5125	-109.579		-51.1548
-73.0215	-119.573		-45.5968
-77.7077	-34.018		-25.3343
-79.6373	-30.0589		-23.5189
-81.082	-28.1613		-22.7515
-81.927	-27.3358		-22.5156
-45.7673	-143.981		19.5493
-47.653	-149.29		18.3531
-40.8467	-145.822		22.1538
-43.4636	-136.528		21.0179
-37.5144	-110.756		27.0104
-38.1482	-106.43		28.9789
-37.9877	-116.831		25.1835
-31.5308	-113.162		30.7869
-43.4592	-93.4438		44.9738
-45.3801	-90.3172		49.8704
-41.146	-97.2488		38.9983
-39.2096	-101.737		33.09
-33.2558	-104.58		37.0624
-40.3652	-125.867		23.0931
-35.1795	-128.19		26.4027
-37.5862	-61.9668		79.352
-34.8568	-59.8229		80.8032
-46.6612	-87.7246		53.8635
-33.063	-58.2581		81.4938
-31.6705	-57.0351		81.8751
-31.1775	-60.2321		82.5716
-30.5386	-55.9198		82.0771
-28.9519	-57.4669		83.2192
-35.423	-74.5693		79.5078
-36.5165	-78.558		77.9307
-37.2934	-82.5041		76.0989
-24.1229	-54.4587		84.9902
-21.3557	-54.6104		87.1384
-23.6641	-53.9025		83.8763
-20.5251	-53.5693		85.4619
-23.7346	-54.1165		83.5825
-26.5175	-54.0594		82.7235
-23.7776	-54.5905		83.3195
-24.05	-56.0753		82.8276
-20.5933	-54.2515		84.6758
-24.4956	-59.2454		82.2662
-21.1777	-58.9239		83.5897
-24.6982	-62.8982		82.0784
-25.8756	-115.015		33.7588
-27.0496	-121.012		31.8239
-26.1612	-111.232		35.7976
-35.8589	-147.675		24.4857
-37.7348	-152.603		23.0001
-30.9119	-149.219		26.4693
-33.5124	-140.489		26.4586
-30.1389	-130.209		29.3235
-17.4504	-109.375		44.3519
-18.662	-106.75		53.2383
-21.4418	-108.597		42.8269
-26.5632	-150.405		27.9104
-28.3554	-155.117		26.3132
-20.0526	-104.79		62.1928
-17.2296	-53.1392		87.2903
-17.1784	-53.3922		86.7159
-17.1769	-53.9303		86.2175
-17.5849	-55.3713		85.4155
-17.8807	-58.6613		84.7639
-18.1667	-62.8263		84.5194
-67.7352	55.0029		18.8641
-63.7668	56.541		29.7736
-66.8384	62.578		13.5099
-70.7291	54.0644		7.67331
-76.4346	36.3293		-16.2805
-76.1125	-10.5286		-47.2086
-73.569	-12.7289		-52.2151
-63.1124	-88.5741		-53.7332
-59.6934	-86.6259		-58.6218
-64.1257	-98.7805		-54.9932
-66.4713	-91.3672		-48.2931
-62.5785	-78.2931		-52.5062
-65.2399	-107.635		-56.3737
-61.8289	-106.281		-61.068
-66.5472	-116.012		-57.6194
-68.6737	-75.5948		-39.9768
-68.9748	-66.8916		-38.435
-65.5247	-71.39		-46.224
-69.1543	-85.2946		-40.6511
-7.83591	113.429		24.3439
-0.369047	114.623		24.3814
-7.34454	118.298		8.78516
-15.0819	111.351		24.359
-9.92531	103.924		-77.213
-2.36864	104.461		-78.8107
-10.6709	93.1776		-90.4649
-17.205	102.744		-75.1447
-9.29999	112.503		-61.2301
-11.8684	81.4604		-100.022
-4.95598	81.3187		-101.825
-13.3382	68.3307		-107.332
-18.7514	80.5643		-97.9428
-8.46523	118.201		-44.0485
-7.79242	121.006		-26.0876
-0.78337	119.142		-45.2932
-15.913	116.545		-42.2389
8.09764	122.556		-9.35771
7.77044	122.39		-27.6627
0.265734	122.196		-8.87973
8.08204	119.989		8.14288
-14.6262	55.35		-112.362
-8.15903	55.44		-113.906
-15.8531	42.0422		-115.676
-20.9972	54.8344		-110.198
-17.015	28.0593		-117.525
-10.6667	28.2403		-119.156
-18.1667	14.2304		-117.738
-23.3682	27.8469		-115.211
-20.4944	-24.365		-106.905
-19.8964	-11.7141		-112.735
-14.9724	-24.9133		-108.182
-21.4926	-36.1447		-99.5584
-26.332	-24.4404		-104.61
-6.74036	0.74613		-119.185
-7.89627	-12.0556		-115.655
-12.9603	1.06752		-118.046
-5.41593	13.8341		-120.573
-24.9285	-83.3014		-82.3158
-19.7852	-83.4789		-83.1387
-25.8045	-92.741		-82.0183
-30.3133	-83.4394		-80.9161
-24.1592	-73.7547		-83.2129
-26.7529	-102.035		-81.8895
-21.8142	-102.316		-82.5021
-27.9469	-111.171		-81.8275
-31.8261	-101.965		-80.8924
-22.6792	-45.4161		-93.4979
-16.9382	-45.6382		-94.602
-23.2316	-53.7634		-88.9787
-28.0087	-45.3671		-91.8407
-23.5272	-63.3662		-85.4311
-18.1508	-63.2021		-86.4929
-29.2744	-63.811		-83.6189
-12.8118	-63.5657		-87.011
-13.7396	-74.1122		-84.6569
-12.0129	-54.2029		-90.617
-35.2618	101.274		22.0018
-28.7402	105.231		23.2013
-35.6906	105.369		8.08546
-41.7761	96.4382		20.8867
-38.3515	75.7255		-87.4305
-37.3163	86.4507		-78.1609
-32.2616	77.6992		-91.4195
-39.5216	63.8885		-94.3131
-44.1214	73.2415		-83.0335
-36.3652	95.7598		-66.0432
-42.3694	92.0011		-62.3036
-35.9842	102.644		-51.8029
-30.3122	98.7087		-69.4469
-35.9954	106.782		-36.9567
-36.4519	108.175		-21.9732
-29.6243	110.781		-38.7313
-42.422	101.799		-35.0292
-36.0915	107.835		-6.85099
-42.6516	102.691		-6.7741
-29.3527	112.196		-6.90181
-40.4033	51.8353		-99.3145
