1829
-20.541	-62.2451		94.3215
-20.0587	-60.1309		95.1472
-16.1097	-50.3277		91.4112
-16.2923	-52.4388		91.3967
-21.2544	-48.4968		86.6212
-15.5702	-48.3152		89.1974
-30.2983	-52.4702		81.5512
-9.24249	-55.3772		91.5692
-9.04659	-50.7124		93.697
-9.81068	-48.263		90.5674
-16.6581	-54.6219		89.4342
-30.7275	-42.1741		76.8624
-34.1828	-46.5904		74.437
-19.4247	-41.1376		84.1853
-14.0907	-40.8893		86.2313
-33.183	-59.2154		77.9815
-29.374	-60.882		81.461
-10.0836	-63.3166		89.7253
-4.55035	-63.7994		90.3163
-8.72978	-40.826		87.2229
-16.6804	-62.6582		87.8716
-34.9341	-54.4073		75.0849
-80.2336	-9.98818		-42.317
-80.6954	-1.28951		-43.6394
-77.2603	-0.499242		-48.6237
-76.6473	-10.3132		-47.2032
-77.3492	9.50845		-0.182619
-76.6165	24.4992		-9.72487
-77.1424	22.9504		-28.3386
-78.8018	15.4133		-23.8979
-78.3358	-23.7271		-35.0743
-77.0105	-30.4524		-30.5932
-79.4856	-17.229		-39.0685
-75.1446	-19.9096		-43.7663
-83.2978	0.908886		-42.47
-83.5489	-9.43914		-40.8346
-83.803	-26.0934		-30.2812
-85.4907	-18.1714		-35.2996
-81.6545	-33.509		-23.0503
-79.4678	-35.2899		-19.7561
-89.6105	-8.3053		-32.4593
-90.619	5.63154		-37.3129
-78.1627	-15.9626		0.353586
-77.6226	-24.1493		-0.351679
-81.8671	-13.3894		-10.7011
-82.4057	-17.324		-11.0496
-78.8304	14.8112		-22.4782
-87.2017	1.07803		-42.8194
-85.9831	23.8126		-24.7012
-87.8279	23.0213		-22.5546
-84.6981	22.6111		-26.8808
-84.7808	7.73942		-13.1359
-91.0261	13.0669		-37.5057
-90.0121	1.14113		-31.8784
-89.5513	3.90867		-30.6817
-82.2776	11.4839		-37.9261
-80.4367	8.59342		-40.879
-81.3774	-22.6928		-33.6872
-80.9729	2.49399		-8.08883
-80.7524	15.8271		-31.133
-79.9049	14.6005		-33.6165
-88.1273	15.2887		-24.0324
-86.1633	-4.30121		-25.7282
-6.71902	95.2897		51.1357
-7.3372	82.3739		63.9044
-7.65005	69.0306		72.7368
-18.1879	58.6283		77.1363
-6.88081	-19.9767		103.11
-7.53436	-8.36436		107.241
-7.67758	55.9753		78.824
-6.63373	48.4859		79.9366
-0.729276	28.285		78.676
-19.5076	92.9296		49.5393
-17.9144	52.5372		78.7293
-19.744	47.0609		78.2884
-24.8328	33.3221		72.5435
-18.0089	31.1489		71.9901
-31.1144	88.9957		45.5263
-31.7684	99.803		25.8356
-32.3652	33.0054		71.9996
-42.9874	73.9739		48.3313
-40.5261	37.4767		70.0479
-54.6201	68.4465		34.6246
-46.8988	32.7961		65.1709
-9.19675	35.4253		76.4841
-71.9928	-53.514		-12.5428
-77.3042	17.838		-40.0013
-73.2379	25.9684		-52.0932
-72.4933	0.356518		-60.6542
-71.3965	-13.3657		-57.5376
-77.3088	9.82855		-46.5667
-72.7316	13.9688		-59.616
-69.2347	-26.2774		-52.159
-22.4652	-104.698		62.9609
-34.8741	-99.9256		54.4293
-59.579	-71.2643		45.2673
-64.3468	62.5098		15.6352
-5.25736	108.99		28.7893
-19.194	105.649		27.9821
-45.624	24.3299		63.3205
-59.8848	-63.4632		52.6997
-11.7631	-35.552		95.4803
-24.4645	-37.7248		89.6198
-10.4558	-31.0499		93.9109
-15.3571	-31.6288		91.9636
-17.8376	-36.4159		93.2309
-40.3136	-41.6299		79.8248
-40.6066	-48.631		78.9379
-75.638	-39.3983		-21.098
-75.9053	-25.9483		7.10439
-76.526	-16.9273		7.71063
-74.1423	12.868		16.804
-74.5046	-2.64323		20.4043
-48.0158	15.7952		61.9245
-74.3452	-15.9211		20.7215
-73.9156	-26.8741		20.0415
-15.6244	-2.44536		89.0977
-20.0514	-16.3792		91.6086
-18.0214	-15.0089		95.3345
-38.0375	-32.3342		80.4536
-56.6744	-47.2715		64.6288
-47.9603	-44.0822		74.3636
-53.5098	-57.7107		66.3222
-66.1815	-27.2203		51.1928
-39.9696	-74.5151		76.5612
-47.6991	-66.7302		70.5849
-47.9317	3.46573		67.0559
-44.1716	8.59319		67.1536
-46.385	-52.493		74.7443
-42.9048	-59.5224		76.4064
-21.0029	-76.2735		90.3667
-31.1992	8.14284		71.6811
-12.8584	-8.57929		102.111
-71.2063	-15.4036		36.2566
-71.1052	-27.1798		35.5638
-4.35881	32.3564		77.2632
-21.2788	-31.5522		88.5967
-27.2223	-48.1035		82.8944
-25.238	-41.3619		80.8121
-45.0435	-134.581		28.7084
-53.3455	-130.557		21.1077
-56.7983	-144.71		19.071
-48.2646	-148.135		25.8265
-50.8938	-95.9878		25.3531
-42.9749	-101.905		36.0826
-50.1062	-109.475		23.6531
-41.7658	-113.878		33.4249
-38.7445	-53.873		79.3771
-59.193	-80.4782		18.5894
-62.5593	-71.9893		23.9324
-60.331	-126.82		12.9619
-63.8329	-141.049		11.1807
-65.3962	-69.6189		9.86923
-63.4859	-78.0052		5.90376
-66.8431	-77.2232		-4.83896
-67.0779	-93.8297		-29.7072
-77.0444	-30.6084		-2.34973
-66.8729	-77.542		-29.4207
-61.8811	-106.596		-44.7334
-63.8576	-123.701		-45.9044
-38.7456	-151.177		31.6009
-35.4849	-138		35.6566
-32.2805	-106.916		47.748
-31.3017	-117.55		43.4051
-33.0713	-55.0288		82.727
-23.5901	-52.0889		87.0371
-23.8031	-54.0063		85.8356
-29.1579	-153.603		36.1092
-23.5526	-61.9187		84.9387
-69.9872	58.1608		-5.95684
-54.1343	-82.1568		-54.6943
-54.9011	-103.331		-55.2439
-60.6737	-86.646		-43.9746
-56.5568	-121.28		-56.7963
-61.4298	-65.4915		-44.4825
-3.30841	118.168		-1.34081
-18.0447	114.427		-1.18633
-2.65973	106.567		-71.4544
-2.90457	84.6181		-99.3362
-17.3681	83.3071		-95.858
-17.6845	104.194		-68.3381
-4.92053	58.2776		-114.325
-18.2189	57.53		-110.956
-17.6668	114.697		-34.8143
-2.6024	118.013		-36.6245
-6.60183	31.569		-120.833
-19.4344	30.8059		-117.423
-8.07671	3.43912		-121.181
-20.8022	3.16262		-117.435
-21.5635	-22.3996		-110.622
-9.56618	-22.1901		-114.48
-11.2495	-45.8618		-99.0036
-22.2811	-45.1412		-96.7386
-13.5187	-81.0211		-80.2105
-14.9169	-99.9024		-77.3964
-25.0791	-100.07		-75.7861
-24.3909	-81.2699		-77.9503
-16.5653	-118.63		-75.7167
-26.6135	-118.212		-74.6015
-12.6526	-61.587		-87.6337
-23.9063	-62.2748		-84.8759
-31.8298	107.563		-1.64988
-44.5238	97.9972		-2.78966
-42.7281	74.7231		-81.9989
-30.7834	80.0131		-89.8418
-31.7977	55.3613		-104.561
-43.6763	52.0928		-96.2432
-42.9202	91.4271		-58.0926
-30.7245	99.2979		-63.7766
-44.6695	98.2689		-30.9234
-31.8243	107.995		-32.8848
-44.2927	27.6883		-102.896
-32.7084	29.4974		-111.054
-33.4211	2.85492		-111.174
-44.2811	2.80942		-103.224
-43.4287	-21.661		-97.0002
-33.5635	-22.351		-104.427
-34.045	-44.9598		-91.036
-44.5092	-43.5984		-83.2678
-35.2395	-62.6814		-79.2097
-45.4501	-100.915		-65.3103
-45.5785	-80.6382		-65.1174
-35.5736	-81.1729		-72.9146
-35.5583	-100.557		-71.9383
-37.0573	-118.366		-71.5875
-54.0477	80.8762		-50.7261
-53.0187	67.5216		-72.7032
-62.2039	58.2737		-60.7611
-63.7978	68.2087		-39.8878
-64.7338	72.3327		-17.981
-55.7917	86.1666		-27.0411
-53.8872	25.2565		-93.4678
-53.5151	47.6199		-86.6567
-52.5642	-20.6712		-87.0466
-54.0647	2.2665		-93.0458
-52.3455	-40.8297		-75.1248
-68.388	34.012		-63.6429
-60.1017	-18.8993		-76.7086
-66.2586	-16.2492		-67.008
-67.8	0.928475		-71.5133
-61.5639	1.59317		-82.6975
-67.925	17.6682		-71.4681
-61.4972	21.9344		-83.2201
-61.6918	41.585		-75.7241
-61.8923	-46.5979		-51.7484
-63.9268	-31.8856		-59.5449
-58.3601	-36.9086		-67.3006
-90.5846	13.7274		-38.1633
-88.7005	14.1729		-39.3751
-89.1935	21.6414		-30.8485
-87.18	22.5449		-32.0055
-85.9617	18.577		-16.4169
-84.0682	19.2179		-18.3727
-81.8944	18.2797		-21.2656
-87.0813	12.4087		-40.1824
-86.0752	20.9762		-33.2042
-90.8109	1.79755		-39.6565
-88.7154	21.9463		-21.7417
-89.935	20.4778		-30.3582
-47.4421	-119.417		-65.5764
10.5166	-101.481		79.6164
7.38017	-102.484		79.852
13.1481	-101.109		76.718
11.3555	-99.9228		81.6364
68.3976	-12.92		50.5202
66.4642	-11.6741		53.894
68.3431	-16.4584		49.8925
70.2264	-9.05206		46.5563
64.6352	-9.70283		56.2049
65.0563	-5.35255		54.7491
61.6863	-10.8696		59.6082
16.2362	39.6666		81.3788
18.6682	38.3135		81.0138
20.0231	42.2768		81.2849
13.4073	41.0944		81.474
13.2569	36.4013		80.2608
11.8961	19.9554		76.4312
12.5173	18.741		76.0961
12.5039	21.4367		75.6607
11.3529	20.5076		76.8885
15.6017	19.5749		72.8496
17.1253	17.7923		71.3388
16.2692	21.1616		72.4271
14.2138	21.6723		74.1827
14.9969	18.046		73.5944
44.9182	12.2965		67.6118
41.6949	11.282		69.2928
46.6854	13.2675		66.4822
18.2884	11.9641		72.7374
18.0569	12.9751		72.3856
17.7724	11.1316		73.7388
19.6854	11.0422		72.2166
26.315	-53.83		80.6789
26.2013	-53.6762		80.9329
26.4133	-53.9873		80.243
26.2141	-53.7427		80.997
25.0153	-52.4612		83.1332
25.4095	-53.0948		81.8598
26.2023	-52.9277		82.05
25.0571	-52.0074		83.6928
23.119	-52.1671		84.75
29.3271	-53.9546		80.918
29.38	-51.4691		81.9821
26.6623	-54.2907		79.4071
26.2885	-53.4302		79.9817
27.1613	-54.48		77.9939
26.4665	-54.5435		79.7905
21.097	-58.6854		86.8595
21.4644	-59.5474		86.5886
24.1086	-55.9398		83.5003
21.0445	-57.8966		86.792
18.1491	-61.835		90.1168
18.7997	-46.4926		91.1726
18.307	-45.0702		91.6716
15.5132	-44.6541		93.5535
19.0807	-47.3571		90.8646
21.4171	-48.5365		88.6984
25.3857	-53.7507		81.8048
25.4687	-53.7875		81.8004
25.5354	-53.7485		81.6859
23.6184	-53.8519		82.9235
78.1686	-44.2167		-5.16746
77.5378	-44.5364		-4.34296
77.452	-47.6928		-7.92961
78.8285	-43.3109		-5.12778
87.2622	-36.4907		-16.8435
87.9767	-34.8584		-19.542
86.2701	-34.718		-15.7835
86.638	-37.4572		-14.3806
87.6325	-37.8808		-17.4059
81.5831	-41.5636		-6.96911
81.9448	-38.9649		-6.43326
80.9003	-41.7492		-6.25756
82.1665	-42.9435		-8.45629
82.8793	-29.5003		-10.7842
82.9101	-28.5133		-11.6713
83.0193	-27.7125		-10.6303
83.0938	-29.9421		-9.42663
83.1724	-31.0484		-11.0835
89.9141	-10.5618		-12.4483
89.2334	-12.5131		-13.1258
90.2587	-9.82705		-13.0403
90.0131	-9.97526		-11.5608
94.1794	-0.296045		-16.9899
94.2562	0.341326		-16.0369
93.7108	-1.19505		-16.9207
95.4466	0.554959		-20.0832
85.5707	-27.8921		-17.6281
84.7495	-26.2992		-16.3317
84.7399	-31.4331		-14.8678
87.542	-31.3057		-20.1392
88.0972	-25.8895		-21.5502
91.8401	-9.7119		-18.8787
92.3122	-8.63581		-19.2787
90.6131	-9.85141		-15.1055
91.6798	-11.0634		-19.8644
94.232	-21.2983		-30.2101
94.1428	-21.0445		-29.6532
93.1342	-24.2657		-29.6531
94.6822	-20.2722		-31.2068
95.1207	-18.7615		-32.9365
95.4707	-16.6117		-31.9934
94.9804	-19.5052		-33.9469
95.642	-15.8399		-34.3318
88.5852	-33.3897		-21.5432
89.2345	-31.3167		-23.4391
88.9318	-34.5024		-22.2781
91.9068	-20.3568		-26.1988
90.7341	-22.1614		-24.9981
93.1691	-20.8459		-27.9924
92.0361	-19.0099		-25.9947
80.3136	-36.3812		-3.35119
80.1648	-38.647		-3.93852
80.9843	-36.0587		-4.21853
80.1415	-35.5032		-2.74956
80.1729	-33.8558		-2.08699
80.6944	-31.8529		-2.14372
79.7662	-33.941		-1.22181
82.4752	-25.0317		-2.74077
82.1594	-25.5387		-2.29593
82.7926	-25.4365		-3.60242
83.2337	-21.9083		-3.05169
81.7675	-26.2728		-1.80322
81.4202	-26.063		-0.899019
81.3647	-28.6522		-1.9988
84.6265	-32.9203		-13.5466
84.3501	-33.8501		-11.7316
85.5142	-20.9111		-11.3017
84.097	-24.5698		-10.8914
85.3751	-21.4881		-12.7711
86.9681	-17.249		-11.7095
86.0019	-19.7848		-10.1187
96.3636	-5.17899		-28.8288
96.5524	-4.4701		-29.121
96.1756	-5.55589		-28.2422
96.5012	-6.46829		-30.5059
96.1384	-10.1417		-31.1288
95.8633	-11.1385		-29.6513
96.0333	-11.8554		-31.9377
96.3541	-8.88311		-32.0261
96.0832	-8.24033		-29.3
93.4687	-1.80952		-17.0678
94.3171	-1.91795		-19.6829
92.7921	-2.56359		-15.9181
95.2808	-2.30141		-22.9485
94.7739	-3.27947		-22.2067
96.3714	-2.91058		-26.9723
95.9497	-1.12524		-23.8723
41.6333	22.5306		72.0579
43.7529	21.2744		71.2181
39.0154	23.5695		72.4705
17.1855	-100.377		72.6337
16.151	-101.404		69.5155
19.697	-98.9547		72.41
48.0756	16.5203		67.2659
47.2607	18.2106		68.5137
48.7687	15.0303		66.2197
52.9791	18.352		65.6684
56.035	19.6775		64.2028
52.4871	21.0494		67.177
50.5492	17.6726		66.7803
53.1949	15.8924		64.3917
70.7892	-55.9546		-0.204748
71.9031	-54.5802		-4.74887
71.3302	-54.4248		1.07353
69.8561	-58.0371		-0.440199
20.4496	16.5015		68.7134
20.8073	15.7922		68.5994
20.5447	17.3749		68.7627
19.6518	19.1254		69.5942
20.9973	20.7446		69.8547
19.3437	17.7606		69.4891
10.712	21.9111		77.3439
10.0188	22.1355		77.9521
10.8732	24.06		77.0893
19.129	-52.7423		86.8563
19.9302	-53.2114		85.4289
19.5687	-52.2209		87.2627
15.8709	-52.3244		89.4946
61.172	-77.1474		-3.30103
60.291	-76.6867		2.1069
60.359	-79.8038		-4.90389
62.3096	-74.8619		-4.13891
81.8883	-13.5102		2.34377
80.2552	-20.4437		5.22567
82.674	-14.4876		-0.24193
83.45	-6.10853		-1.46269
80.9201	-12.136		6.67087
61.5091	-80.8939		-16.2644
60.7728	-83.1244		-17.7541
62.6305	-76.7467		-17.0538
60.6199	-82.701		-11.4021
55.2545	-116.089		-18.9374
54.6141	-124.764		-19.82
54.1691	-113.006		-26.8979
56.0221	-107.097		-19.4608
55.101	-118.14		-12.6341
25.6958	-54.1828		81.8777
25.8412	-54.3356		81.8396
23.7943	-54.8296		83.4221
26.0712	-54.5935		81.8064
20.7565	-57.5293		86.9735
20.9168	-56.7576		86.59
17.9249	-60.2471		90.2428
21.7347	-97.4632		72.3573
26.0241	-95.5788		67.1919
21.8522	-95.7544		75.0752
46.5998	-69.9956		-61.3733
45.6847	-66.4137		-65.6735
49.2912	-68.9553		-57.6856
45.3868	-72.9732		-60.9786
64.6784	75.3634		31.3535
66.7645	76.6688		24.1683
60.9946	79.0256		33.6787
65.185	71.47		34.6656
90.7049	-30.6378		-30.5953
92.4784	-25.9764		-33.6552
91.2873	-29.8367		-29.6245
89.1668	-34.4919		-27.8546
90.0936	-30.7023		-31.8306
87.2652	-8.90342		-6.94991
86.0307	-13.0188		-5.648
88.2323	-9.11187		-7.59459
88.4648	-4.81723		-8.72526
86.0259	-8.58182		-6.24515
82.8533	-29.7174		-5.64638
82.3368	-30.3		-4.58301
83.035	-32.394		-6.77386
83.188	-30.0646		-7.16704
83.0008	-28.047		-5.38587
82.0875	-36.0778		-5.79433
81.8942	-33.1961		-4.67769
82.9519	-35.9241		-7.1266
93.9998	-20.5579		-36.3364
93.2331	-20.537		-37.1587
95.1904	-14.6107		-37.6835
94.461	-20.5555		-35.4741
92.2338	-20.3572		-37.8448
90.9448	-25.6207		-35.645
91.2104	-20.0518		-38.2513
93.2272	-14.5293		-39.0139
85.2215	-4.56472		-7.71751
85.6671	-2.47462		-9.54712
85.1031	-3.51147		-7.47624
85.1093	-6.14857		-6.46668
87.5538	-28.816		-34.8908
85.9265	-28.1525		-35.7132
88.6525	-24.6705		-36.8897
88.5501	-29.4703		-34.1487
86.1305	-32.4434		-32.8392
89.0083	-35.6044		-22.9927
89.8806	-32.7505		-25.5421
88.42	-37.3999		-20.7901
88.8028	-36.5846		-24.1345
85.5786	-43.7302		-20.6487
84.7739	-45.3141		-17.781
84.1004	-45.0265		-21.6315
86.8641	-40.8455		-23.4403
87.1934	-41.1508		-19.3609
86.4004	-41.7531		-14.2193
85.7019	-43.3971		-14.4775
87.0322	-40.7977		-15.8199
86.04	-40.9862		-12.9752
74.7755	-50.8228		-9.97019
74.1442	-51.7201		-10.3998
75.9582	-50.1105		-11.6559
74.8677	-49.7294		-5.82724
79.9779	-47.8885		-11.1354
80.2708	-48.7725		-13.3892
81.345	-46.6394		-10.7849
79.6573	-45.9535		-8.28908
78.8216	-48.6436		-11.335
91.519	-2.94087		-9.95519
91.6923	-1.46549		-10.1222
89.8433	-6.21746		-9.01252
91.8113	-3.02712		-10.3038
91.7518	-0.565543		-10.392
93.35	2.45205		-12.4157
91.4172	-0.545427		-10.4058
94.6984	-20.3642		-34.7448
93.3645	-24.7259		-32.0481
95.8015	-14.9354		-36.3772
97.092	-6.29633		-33.4676
96.7922	-7.26256		-33.1538
97.1563	-7.00656		-34.302
97.19	-4.681		-32.0266
92.5781	-2.14781		-12.0754
92.4251	-2.33822		-11.5221
91.9876	-3.67038		-12.2768
93.2099	-0.674136		-13.106
91.9886	-3.1173		-10.6759
90.8796	-6.16848		-10.4946
93.4138	0.890192		-12.269
93.8764	-20.9612		-29.0824
94.7908	-18.1425		-29.4965
92.2685	-24.2887		-27.913
91.5119	-5.28344		-13.7467
92.0746	-3.76252		-14.3238
91.4132	-5.40107		-13.2739
91.6885	-6.29851		-15.4582
92.5171	-3.07072		-15.5229
92.9344	-3.61996		-17.4498
89.5872	-25.0661		-23.9244
90.0473	-26.9344		-24.8946
86.2594	-18.9163		-8.99344
87.7969	-14.6955		-9.22366
86.1027	-18.825		-7.9128
84.7007	-23.4401		-8.86017
90.4279	-9.44469		-13.3631
90.8433	-7.71239		-12.8377
51.1429	-67.0168		-55.8971
51.8413	-62.7261		-58.7797
52.5178	-67.1413		-53.1758
26.6069	-24.758		82.7131
27.357	-28.6918		82.9507
27.3424	-23.2477		82.4065
24.9132	-24.1931		83.3221
22.1922	-22.0172		85.0952
22.5785	-23.1769		84.6085
22.897	-19.1237		85.2247
20.9248	-22.2765		86.2988
57.0421	35.6389		66.2809
56.8757	33.6115		66.8215
61.6623	30.7255		61.8634
57.3549	37.2966		65.4231
51.7137	38.8953		70.0379
6.98643	-25.0393		93.3033
6.15582	-24.4362		94.2131
6.6696	-25.7269		93.1458
8.61602	-25.2126		92.5465
8.93314	-21.8766		96.0136
7.04327	-22.2358		96.5868
10.6652	-22.7275		94.0967
9.67778	-20.7873		96.8377
47.3883	13.9961		66.2704
47.1787	14.6804		66.4732
16.9176	-14.3122		94.8578
17.0284	-15.2495		94.785
17.5261	-14.3015		94.1416
15.3498	-13.418		96.258
84.6724	-36.1663		-30.5444
83.3118	-38.4805		-29.0315
83.5084	-34.5597		-32.0475
85.5869	-37.3054		-29.3781
74.4021	70.0455		11.8733
72.2436	73.8252		12.7637
74.7311	65.7526		16.8094
76.5329	69.8255		2.09665
26.7418	-60.4674		77.229
27.5025	-58.5347		76.4083
26.5302	-61.9512		76.9823
25.9356	-59.9219		78.4042
27.3435	-49.6381		76.2552
26.1865	-49.5115		77.6722
27.1186	-48.6996		75.9651
27.9365	-51.5342		75.859
-25.6733	-99.4837		78.9959
-25.9677	-98.044		80.9615
-28.2054	-98.8179		75.9934
-22.8302	-100.776		79.3609
-67.4992	-0.165892		47.0042
-68.4186	3.69763		43.2285
-67.9657	-3.54003		46.3303
-65.4022	0.805082		50.7481
-63.0174	2.61109		53.6282
-60.2947	1.18283		57.2454
-62.6273	6.88861		52.3175
-6.23221	43.2648		79.6416
-7.95276	41.4399		79.0328
-4.40198	39.2767		79.137
-3.92273	43.8542		79.9998
-9.01742	46.1718		79.6549
-5.86571	21.8762		76.0921
-5.35897	22.2833		76.5058
-5.99085	23.5087		75.3218
-6.50908	20.8739		75.905
-8.79453	22.5843		72.8639
-10.8094	21.2938		71.2439
-8.47306	20.93		73.7044
-7.30493	24.2261		73.9532
-9.37191	24.4281		72.2357
-40.7067	20.0299		65.6735
-37.6397	18.4941		67.7279
-42.3472	21.3859		64.3263
-12.607	15.2987		73.0469
-14.1836	14.5021		72.4771
-12.2917	14.3655		74.1614
-12.2496	16.3785		72.5859
-32.7245	-49.4788		80.4818
-32.5935	-49.3512		80.7482
-32.6218	-49.4175		80.809
-32.8279	-49.6028		80.0498
-31.3651	-48.3297		82.9432
-32.5888	-48.6144		81.815
-29.605	-48.2816		84.5988
-31.4065	-47.8414		83.4725
-35.4689	-46.5167		81.6123
-33.0869	-49.8344		79.1969
-32.9501	-50.1316		79.6011
-33.5621	-49.8744		77.7352
-32.5937	-49.0733		79.8007
-28.8233	-55.5759		86.7608
-29.3037	-56.1659		86.4183
-26.4696	-58.8418		89.9591
-28.6078	-54.7181		86.7155
-31.1121	-51.8927		83.3621
-24.754	-43.1353		90.9664
-24.0975	-41.7783		91.4335
-27.4477	-44.9113		88.5252
-25.1425	-43.9879		90.667
-21.4548	-41.8654		93.3134
-31.8532	-49.5795		81.6733
-30.2262	-49.9319		82.8631
-31.9901	-49.5568		81.5461
-31.9448	-49.6001		81.6609
-79.6021	-29.8946		-8.36271
-80.2168	-28.9019		-8.36051
-79.3662	-33.3964		-11.2035
-79.0447	-30.2129		-7.53643
-86.7397	-20.8999		-20.4326
-87.0758	-19.2168		-23.147
-87.3238	-22.199		-21.0199
-86.371	-21.913		-17.9543
-85.499	-19.3315		-19.3232
-83.1007	-26.6409		-10.4113
-83.9219	-27.8164		-11.9795
-82.6369	-26.8732		-9.77855
-82.6021	-24.0411		-9.76878
-81.4542	-14.779		-14.1577
-81.2935	-13.8301		-15.0427
-81.983	-16.2267		-14.4803
-81.7843	-15.157		-12.8164
-81.2999	-13.0158		-14.004
-85.1277	4.87033		-16.0538
-85.1593	5.46346		-15.17
-85.3192	5.64532		-16.6578
-84.7617	2.84568		-16.7083
-87.408	15.6306		-20.7353
-87.4107	16.2685		-19.787
-88.3882	16.6758		-23.8688
-87.1036	14.6695		-20.6498
-83.0807	-5.60023		-19.2521
-85.0847	-1.82585		-22.5968
-82.6724	-8.03006		-19.5227
-82.4918	-6.5759		-16.2186
-83.7937	-1.77783		-18.502
-87.1445	8.66945		-23.2612
-86.9008	7.14353		-22.9664
-86.0369	9.33185		-19.1226
-87.5287	10.2453		-24.1502
-88.7001	8.02146		-28.0831
-81.708	-25.1873		-31.6419
-82.8161	-23.688		-32.4691
-80.4916	-25.1558		-32.1171
-81.738	-27.3679		-29.9526
-90.5353	-4.9753		-33.9961
-90.7657	-3.90038		-35.0051
-89.9833	-8.07081		-33.4058
-90.4244	-4.73912		-33.4355
-90.8752	-2.35884		-36.7411
-90.8853	-0.184054		-35.8069
-90.8372	0.586279		-38.1431
-90.8279	-3.11833		-37.7466
-87.3578	-17.7011		-25.1651
-87.5785	-15.5864		-27.0747
-87.8633	-18.7366		-25.9195
-86.029	-15.8317		-23.7105
-88.2357	-4.43144		-29.8952
-87.4358	-6.3926		-28.6566
-88.1409	-3.08951		-29.692
-89.493	-4.70321		-31.7361
-86.8429	-9.42188		-27.5496
-87.5778	-11.1762		-28.5428
-85.6071	-10.4637		-25.1215
-80.3697	-21.8		-6.61775
-80.0241	-20.992		-6.02868
-80.9437	-21.3931		-7.50933
-80.759	-24.0288		-7.28518
-79.7979	-19.3839		-5.35701
-79.4346	-19.5244		-4.47813
-79.9691	-17.3604		-5.42839
-80.5805	-10.4543		-6.07286
-80.7981	-7.29895		-6.40866
-80.9308	-10.7945		-6.94951
-80.3686	-10.9992		-5.61577
-80.1214	-11.7772		-5.10746
-80.1096	-14.1501		-5.29506
-79.7749	-11.6315		-4.18533
-83.6499	-17.8277		-17.0224
-83.474	-16.3841		-18.3371
-83.5877	-18.7569		-15.1982
-82.5841	-5.97855		-14.7521
-81.8196	-9.78046		-14.2964
-82.9178	-4.78336		-13.5932
-83.3856	-2.16075		-15.2107
-81.5052	-11.5867		-13.7176
-81.7627	-11.4673		-12.8508
-89.9323	11.1887		-32.6463
-90.2238	9.94208		-34.3288
-89.8341	10.7896		-32.0545
-89.9857	11.9151		-32.9428
-90.4704	6.27699		-34.9482
-90.4251	5.26158		-33.4664
-90.1609	8.14		-33.1143
-90.4342	7.5432		-35.8479
-90.6294	4.57562		-35.7571
-86.9653	14.0256		-20.789
-86.4726	13.1713		-19.6173
-87.7162	14.0589		-23.4319
-88.6028	13.8405		-26.7294
-88.2998	12.7963		-25.9717
-89.0241	15.1078		-27.6732
-89.624	13.4211		-30.7883
-87.8784	11.5718		-25.0011
-89.1289	10.936		-29.1553
-86.7326	12.159		-21.1542
-35.3899	29.8629		70.6514
-32.7214	30.3922		71.2298
-37.7285	28.8926		69.6327
-32.0869	-97.7218		71.5493
-34.3262	-96.0424		71.1129
-31.2287	-98.8826		68.5932
-42.8072	24.8241		65.1924
-43.8291	23.4937		64.0216
-41.4997	26.3463		66.7005
-46.5484	27.8977		63.968
-45.0658	30.6161		65.9627
-48.7088	29.1993		62.6614
-47.0819	24.8632		62.5152
-44.7188	26.5371		64.8035
-74.5238	-42.3026		-3.43213
-73.9991	-44.5211		-3.68671
-74.8022	-40.6948		-2.12363
-75.2397	-40.9183		-7.9776
-15.8696	20.8519		67.8027
-16.2098	20.2075		67.7176
-16.0323	21.7457		67.8542
-14.2036	23.3022		68.9496
-15.4036	25.0082		69.2805
-13.7964	21.8331		68.9952
-4.67705	23.518		76.8708
-4.47243	25.6932		76.5069
-4.1455	23.582		77.4403
-25.8315	-49.6165		86.717
-22.7593	-49.541		89.3736
-26.1882	-48.9995		87.1332
-26.5657	-49.9885		85.4071
-69.1684	-65.3161		-6.63736
-69.7771	-62.7815		-7.48142
-68.8158	-68.2212		-8.19745
-68.4738	-64.9059		-1.32395
-78.3045	0.613383		-0.937731
-77.9322	-6.39977		2.02485
-77.2963	1.77098		3.43759
-78.4741	8.09318		-4.8143
-79.1367	-0.196822		-3.56225
-69.4811	-69.3298		-19.335
-69.2392	-71.2418		-14.5613
-69.7524	-64.9652		-20.1484
-69.0964	-71.7535		-20.7803
-69.8564	-105.738		-21.6388
-70.6927	-114.423		-22.4578
-70.4011	-107.847		-15.3737
-68.96	-96.6581		-22.2349
-67.8515	-102.821		-29.4937
-32.2376	-49.9525		81.7316
-30.6007	-50.8246		83.3133
-32.067	-49.8229		81.757
-32.3842	-50.0788		81.6987
-33.9679	-49.325		80.9203
-33.2382	-50.7983		81.5414
-28.2551	-54.3135		86.901
-25.9559	-57.201		90.1425
-28.2434	-53.4422		86.5188
-36.0778	-94.3839		70.8023
-35.9519	-92.7839		73.2391
-39.9115	-91.9847		65.4934
-51.2443	-61.5019		-63.3949
-50.5976	-64.6565		-62.9601
-53.8548	-59.989		-59.8283
-49.523	-58.1431		-67.6276
-47.5604	84.753		28.6589
-48.8776	80.9626		31.8931
-43.4553	87.7299		31.1803
-49.0572	86.4183		21.4481
-88.6556	-14.7423		-34.2822
-89.4887	-9.89305		-37.3854
-88.0237	-14.9226		-35.4921
-87.9046	-18.756		-31.5058
-89.1242	-13.8459		-33.3309
-82.4615	6.03767		-10.4533
-81.9815	1.8169		-9.10801
-81.2221	6.13554		-9.70227
-82.8892	10.2249		-12.2688
-83.4166	6.00296		-11.1344
-81.6365	-14.9433		-9.01624
-81.2587	-15.5872		-7.93348
-81.5132	-13.2969		-8.75372
-81.9744	-15.2347		-10.5593
-82.2234	-17.5149		-10.1656
-82.0063	-21.2377		-9.1212
-81.3113	-18.4699		-8.02327
-82.7733	-20.9592		-10.4987
-89.9592	-4.33521		-40.099
-90.4421	-4.24685		-39.2573
-90.0614	1.69496		-41.468
-89.1734	-4.45437		-40.8893
-88.1394	-4.45659		-41.5335
-87.8543	-9.82613		-39.3073
-88.0761	1.42406		-42.718
-87.0735	-4.33824		-41.8961
-79.7107	9.91751		-11.1372
-79.9142	8.35423		-9.88522
-79.4298	10.9162		-10.887
-79.7227	12.0323		-12.983
-85.1089	-13.541		-38.4327
-83.3705	-13.179		-39.1875
-84.4088	-17.3257		-36.3465
-86.2221	-14.0036		-37.7347
-85.4041	-9.3011		-40.4538
-88.1044	-19.8118		-26.6467
-88.3859	-16.8994		-29.2098
-88.0332	-20.8228		-27.7867
-87.9072	-21.6411		-24.4347
-86.222	-28.3237		-24.2403
-87.3998	-25.5012		-22.9896
-86.8877	-25.3186		-27.052
-84.962	-29.8606		-25.1809
-85.8228	-29.9711		-21.3544
-86.9214	-26.1486		-17.8002
-86.4914	-25.4457		-16.4949
-87.3002	-25.1201		-19.4401
-86.5427	-27.9076		-18.0179
-77.2126	-36.8934		-13.225
-77.2441	-35.7174		-9.06872
-78.1952	-36.0318		-14.9386
-76.7474	-37.8869		-13.645
-82.2152	-32.8037		-14.3521
-82.2824	-33.9603		-16.7741
-80.8373	-34.0525		-14.6599
-81.9687	-31.0155		-11.8594
-83.5664	-31.3938		-14.2064
-85.5127	12.5974		-13.6131
-85.8012	12.5646		-13.9741
-84.4568	9.10735		-12.6104
-85.4292	14.0651		-13.7845
-85.3273	14.9516		-14.0543
-84.9969	14.9114		-14.0543
-86.3052	18.1789		-16.1306
-90.6628	10.2003		-37.3068
-90.5375	11.8071		-35.8679
-90.8159	9.51135		-38.1439
-90.5452	9.20308		-36.985
-86.3372	13.55		-15.7716
-86.6682	15.0995		-16.8227
-86.0081	11.9585		-15.9516
-86.2406	13.3397		-15.2143
-85.9766	12.5066		-14.3542
-86.6352	16.6686		-15.9919
-85.4107	9.33539		-14.1339
-90.1687	-4.70062		-32.8541
-89.1995	-8.22815		-31.6342
-90.5702	-1.77938		-33.2948
-86.3035	12.6281		-19.2123
-86.0315	11.8788		-17.9991
-85.7585	10.2959		-17.4038
-85.6992	10.1646		-16.928
-83.0662	-3.88365		-12.4769
-83.8634	0.487122		-12.7555
-82.2954	-8.55089		-12.2963
-82.9348	-3.81663		-11.3849
-85.4092	6.04635		-16.9863
-85.5446	7.81239		-16.4761
-85.593	5.67602		-18.7355
-55.4002	-57.7388		-58.1162
-56.878	-57.6018		-55.4617
-55.1997	-53.3932		-60.9968
-28.7429	-18.4513		81.2718
-26.9109	-18.2147		81.9549
-28.9975	-16.6913		81.0213
-30.4611	-22.3654		81.3197
-23.8198	-16.5386		84.0128
-22.9195	-17.2962		85.1359
-23.823	-13.2294		84.318
-24.4502	-17.6316		83.4122
-46.231	46.053		65.4822
-46.4112	44.3032		65.9857
-40.6191	48.219		69.2163
-46.4569	47.4277		64.447
-51.7964	41.3489		60.6962
-10.0878	-22.7839		94.6449
-10.3589	-22.1419		95.2894
-10.8546	-23.178		93.5407
-8.92663	-23.2788		95.3347
-10.6559	-21.2911		96.3971
-11.7833	-20.6737		96.1818
-9.53973	-21.1553		98.0338
-42.8839	22.2774		64.0667
-42.494	22.9798		64.3568
-19.2624	-11.0243		94.3086
-18.016	-10.4591		95.7638
-19.6524	-10.8788		93.5558
-19.4647	-11.9672		94.2565
-57.1377	81.2098		8.89883
-58.8741	81.3777		-0.889498
-58.3857	77.0206		13.7606
-54.4226	84.567		9.88784
-34.1483	-55.9316		76.8739
-33.283	-55.5359		78.1279
-34.3296	-57.4066		76.3778
-34.5433	-53.8393		76.0515
-33.0313	-44.7549		75.7872
-33.8498	-46.5836		75.4218
-32.7787	-43.7267		75.3183
-31.8913	-44.9745		77.294
-13.3297	-20.0324		95.565
-13.9925	-18.803		96.4502
-14.6225	-20.6372		93.5047
5.72603	-22.6601		96.7966
4.46329	-22.3051		98.3524
5.44575	-23.4406		95.7678
5.16176	-24.0248		95.1775
3.79875	-24.3459		95.8027
-11.5387	-23.6933		92.5252
-12.8136	-23.5507		91.7814
-11.3326	-24.4506		92.335
80.667	-44.8686		-23.8302
78.9016	-45.2504		-23.6115
81.5146	-41.9514		-26.5579
81.7952	-45.298		-23.1728
79.265	-47.8008		-20.3449
69.8084	-54.4664		14.0251
68.4865	-55.7017		21.7802
68.2767	-58.8021		13.2022
71.1011	-52.9783		7.35773
71.2097	-49.7658		14.9441
50.5497	-120.636		1.66086
51.1817	-110.149		1.45417
47.789	-121.227		6.18373
50.3481	-131.327		1.16896
52.7611	-119.845		-2.99103
50.4478	-139.12		0.343805
50.5978	-145.315		-0.541315
52.394	-137.722		-4.48855
47.8353	-140.559		5.1429
45.6658	-103.265		11.4923
46.8982	-97.2739		12.1861
41.9995	-104.259		16.4382
44.8889	-111.143		11.0034
49.1476	-102.875		6.21774
55.617	-102.68		-7.54708
54.883	-109.635		-7.51101
56.6803	-101.928		-12.8688
56.3812	-97.324		-7.61717
54.0416	-102.711		-3.05453
60.3982	-71.8193		26.9909
62.2957	-68.4424		28.2566
58.2219	-73.0705		35.4019
58.3186	-75.0192		25.3115
61.8114	-70.9017		18.7836
78.6068	25.5398		24.3045
79.9174	33.0141		19.4589
74.505	29.6802		35.1577
77.6333	18.2481		27.5743
81.9218	22.8205		12.5117
85.0951	31.4468		-29.5943
84.3051	27.824		-39.1636
84.0671	38.2261		-35.1786
85.6015	33.8887		-18.9876
85.665	24.335		-24.3572
0.0292692	-115.335		54.2887
-2.6345	-115.195		55.4012
-0.569956	-122.241		51.6238
3.4283	-115.366		52.5068
0.998626	-111.185		56.6756
-0.674571	-132.995		47.0023
-0.654906	-143.864		42.6084
3.14568	-132.338		45.3962
-4.0839	-132.961		48.2093
-8.30366	-151.387		41.4804
-4.5139	-151.371		40.9746
-7.99694	-143.947		44.1844
-11.9285	-151.092		41.6508
-8.30103	-156.425		39.8103
65.8395	-62.0775		-28.5348
68.8657	-56.3174		-26.7023
64.7986	-67.8784		-22.961
62.7352	-67.8711		-30.3928
67.2629	-55.0392		-33.1469
68.6004	-50.008		-36.4685
64.4768	-55.535		-39.4496
69.9007	-45.6174		-39.1383
72.1097	-45.5961		-33.6136
54.084	-131.963		-21.3155
53.4536	-138.892		-23.1837
52.8741	-129.541		-28.3045
54.2741	-134.642		-14.6691
-7.30342	-133.024		48.8378
-6.34361	-122.253		53.5829
-10.3549	-132.783		49.08
66.9333	-56.5385		30.3032
68.3389	-51.4507		30.3344
65.1094	-56.6626		38.229
65.5351	-60.9209		29.7796
62.9849	-70.0384		10.9817
60.9739	-73.5314		9.86824
63.8156	-69.8111		3.15578
64.9253	-66.3872		11.7294
2.38273	-92.0758		92.1735
-1.73188	-92.2191		93.5177
2.12567	-95.9806		90.4723
7.41744	-91.64		90.0963
2.73003	-87.7823		92.9322
12.615	-90.4383		87.5789
12.3808	-94.3766		85.9976
17.8091	-88.6357		84.4369
12.9096	-85.9884		88.432
-4.27261	-83.8633		94.6089
-0.843671	-83.5579		94.0195
-3.68806	-79.5168		93.9937
-7.2202	-83.8072		94.7525
-4.64352	-88.1224		94.8299
1.96834	-99.1901		87.9094
2.28489	-101.596		84.4891
7.00167	-98.6895		86.058
-1.98933	-99.3201		89.1821
3.02246	-103.288		80.3116
-1.26241	-103.678		81.148
3.38985	-104.335		75.7215
17.5287	3.23692		79.5551
17.9292	-0.965519		82.2474
20.2369	0.991726		78.46
17.2184	7.09935		77.0293
14.8928	5.85866		80.7888
47.2724	-32.3407		74.8053
53.4441	-34.21		69.27
46.909	-27.0074		74.8961
41.0934	-29.5714		78.6197
47.5547	-37.0817		74.519
59.1392	-23.8488		63.1081
63.8355	-23.5653		56.5285
58.3578	-17.724		63.8934
53.1093	-22.6008		69.4811
59.1179	-29.7848		62.8756
71.5738	-3.4568		43.5424
73.5322	-4.58583		38.4304
72.0328	4.58192		42.4385
69.2506	-1.46587		47.9171
47.7874	-41.5193		73.6515
47.8245	-45.854		72.8218
53.2151	-43.4697		67.97
42.3752	-39.0177		77.9123
1.27124	7.22869		94.0691
2.09191	12.0036		89.8144
-0.530614	7.67251		94.0767
0.68053	2.98001		98.0638
3.3608	6.42489		93.5946
37.7398	69.8857		65.6197
32.554	71.2757		67.3571
35.9929	64.0261		69.9027
43.2718	67.8345		63.2583
39.5402	75.2135		61.1864
-4.69549	-105.923		71.6983
-4.90604	-106.93		66.4307
-1.19738	-105.814		71.2072
-4.63595	-104.974		76.9221
-7.94459	-105.83		71.8659
62.8316	-56.1961		45.7117
59.8549	-55.3902		53.1094
60.9623	-61.4025		45.9112
64.2399	-51.0117		45.7916
-5.1156	-99.4311		89.7903
-5.00535	-96.3965		92.3657
-7.67447	-99.3745		89.9672
-5.03352	-102.057		85.9158
-4.81756	-103.806		81.5978
-7.97644	-103.706		81.7432
33.8735	-87.5904		67.062
28.1457	-90.4081		72.3092
32.6593	-90.5933		64.5894
39.389	-84.3874		62.2109
34.5061	-83.9504		69.7772
38.1717	-92.0474		43.0359
35.0731	-95.9109		38.5865
42.9253	-88.9883		37.4972
40.9014	-88.8632		47.1461
32.6113	-95.3568		48.5078
-4.82516	-108.487		61.7695
-1.87998	-108.638		60.9665
-7.70095	-108.378		62.0346
-4.46589	-110.811		58.5588
5.56093	-2.73949		99.8869
5.56896	-5.78918		102.795
8.8814	-4.32657		97.5191
5.75402	0.939034		96.2264
2.68156	-1.60523		101.298
27.6087	-20.4941		82.3068
30.3072	-23.0746		81.6374
26.6085	-15.2467		82.1344
24.6779	-17.1606		83.6648
28.5669	-54.9441		81.0033
30.6823	-54.7884		80.5619
12.2429	-23.8354		92.2291
14.1261	-22.4447		92.6111
11.459	-24.8362		91.6939
14.5606	-24.2415		90.7176
11.5142	-28.18		90.2615
12.0075	-29.663		90.194
14.3307	-28.6067		88.727
11.4252	-27.2111		90.4193
8.94755	-27.4528		91.6572
-1.05998	-24.5554		98.453
-1.05009	-23.3627		100.23
-2.68604	-24.4454		98.6769
-0.98945	-25.752		97.0914
0.781657	-24.5202		97.7237
17.0996	-28.2196		87.3335
19.8241	-27.1055		85.9838
16.8011	-27.1318		87.659
17.4963	-29.6744		87.2618
5.61682	-14.6104		105.637
2.54679	-14.6067		107.773
5.2669	-16.5452		104.775
8.91033	-14.8121		102.556
5.78875	-12.8965		105.99
23.0582	-69.5199		84.2777
26.9373	-67.0328		81.971
22.7625	-66.4407		84.9965
18.6431	-71.6096		86.9604
23.2695	-73.1214		83.5682
28.7927	-48.5861		83.4508
27.512	-44.895		84.9126
26.2959	-47.6947		85.1302
31.139	-49.4594		82.1225
-0.645173	-29.9641		95.2906
-0.470616	-31.8151		95.3365
1.29254	-29.6815		94.9672
-0.807305	-28.2311		95.6165
-2.90448	-30.0062		95.3576
5.87257	5.03728		92.5999
8.82912	2.91862		91.0135
6.47552	9.19258		88.7706
20.3411	-16.9682		89.4309
19.2955	-14.8611		91.2616
19.5089	-15.9218		91.2882
20.506	-18.5818		88.6927
20.8965	-16.7483		88.2025
2.62389	-26.3144		95.1551
2.46574	-27.9233		94.7494
4.3288	-26.5076		94.2128
2.59608	-25.3731		95.7002
0.974067	-26.5935		95.8056
2.39128	-24.4878		96.7031
2.38151	-23.4059		98.2354
18.2761	-14.7533		93.0178
17.9565	-13.8239		93.1839
18.8959	-16.5056		92.2791
20.0137	-21.3424		87.8806
19.4012	-19.7164		89.9081
18.6715	-23.8727		87.7609
0.171035	-38.6903		97.4064
0.471129	-40.662		98.1347
3.10909	-38.2929		97.0148
0.0835676	-36.0999		96.4211
-2.9548	-38.9981		97.6184
23.6799	-32.1903		84.8722
21.1096	-31.9928		86.0345
24.9743	-36.4131		85.3929
25.9918	-32.6005		84.0644
22.7066	-28.3413		84.587
6.16156	-69.7934		93.7199
6.65082	-67.7702		94.6906
1.89225	-70.3174		94.4864
5.52839	-72.1341		92.995
10.6315	-69.3392		92.2379
24.0829	-50.1533		85.7904
24.5385	-50.8521		85.0987
26.9372	-51.4849		82.9239
23.8222	-48.4779		86.7276
17.6726	-13.1466		92.9573
17.932	-12.4423		91.648
15.5266	-11.7567		94.9834
14.81	-68.4848		90.3507
14.4563	-70.5532		89.8101
18.7066	-66.8713		88.1987
15.0221	-66.828		90.9837
-1.76142	-70.6715		94.6906
-5.25865	-70.7297		94.6695
-2.20933	-72.6812		93.9933
-1.52655	-68.8893		95.7399
64.596	24.9809		57.1492
63.4348	24.2314		58.7509
66.1357	18.8797		53.1676
65.6568	26.0881		55.2894
46.342	54.2472		67.936
40.3965	56.6793		71.3387
45.7455	49.1354		70.9971
52.489	50.8453		64.0251
47.6386	59.7019		64.1415
58.7601	46.4869		59.0899
57.9535	41.8539		62.4801
64.5571	41.2698		52.9338
60.2679	51.7046		54.6684
46.0665	41.3181		73.4226
45.8197	43.714		73.0552
40.3696	43.6893		77.2594
46.3838	38.9806		73.3743
67.2611	27.3058		52.1217
68.459	30.233		49.0493
62.8711	33.8007		59.1177
70.0435	20.5616		46.4119
27.672	33.7522		77.7378
27.844	31.8725		76.2799
31.6622	33.8616		77.3418
27.6433	35.8939		79.2971
24.1152	33.1816		77.5386
8.36779	18.9192		80.6534
10.8115	16.207		79.3073
8.62425	21.0195		79.5256
5.84343	21.1689		81.4595
7.93894	16.3827		82.4035
31.2024	-5.45712		76.2108
32.6134	-10.3026		77.8298
37.4876	-7.83899		75.0583
29.8009	-1.28259		74.8349
25.9534	-3.02477		77.2451
60.2004	3.23612		58.028
62.9753	1.26852		55.7076
61.5549	7.69377		56.4306
57.4851	5.42187		59.956
57.5191	-0.35692		61.2045
7.25941	13.1334		85.1794
9.82423	10.6372		83.9908
4.80544	15.0616		85.9472
46.6487	36.8605		73.2954
51.7028	34.8305		70.58
41.296	37.6894		76.0568
46.3665	34.7152		73.2217
56.4645	31.7689		67.2757
55.63	29.8829		67.7804
60.1326	27.7371		63.5827
57.5637	13.0127		60.326
57.9749	16.831		61.4188
54.9885	13.1944		62.1808
56.7723	9.84953		60.2979
59.6612	12.7877		58.6231
44.2626	18.2968		69.5999
45.7821	17.0797		68.3371
42.6541	19.4751		70.7398
40.981	20.5822		71.47
39.0256	21.4727		71.799
41.2411	21.5319		71.7681
38.9047	22.4943		72.1187
43.1458	20.379		71.002
36.346	22.1489		71.8928
33.5258	22.4073		71.7117
36.0733	23.102		72.1689
33.0511	23.3437		71.9317
30.8266	22.233		71.2009
28.3027	21.4587		70.5708
25.5753	20.516		69.8906
23.1206	19.5857		69.2912
24.4253	21.3711		70.0861
22.1133	20.2598		69.5466
27.1592	22.3334		70.7203
21.3702	18.5309		68.9213
23.2654	22.0844		70.3888
26.2053	23.3299		71.068
35.91	24.2042		72.5386
32.6358	24.4715		72.2901
48.8489	12.5738		65.559
49.3916	13.5384		65.4655
47.6127	11.8441		66.1367
36.0252	33.7622		76.4482
40.8338	33.2442		74.9493
36.1887	35.6037		77.3473
35.777	31.5945		75.3914
50.5624	23.638		69.2063
48.2199	21.7687		69.7302
52.6857	25.7716		68.7149
47.0584	25.2851		71.2634
38.2293	6.47825		70.571
43.4885	6.37454		68.9141
31.9773	7.50915		71.5047
38.7294	4.65108		70.7365
27.1228	8.99026		71.3917
23.4668	10.7236		70.975
27.1956	7.40983		71.8889
20.0442	14.1479		70.1336
19.6094	15.0776		69.8445
20.8495	13.2265		70.2949
37.5268	9.72248		70.3124
42.0086	9.95076		69.2054
32.0365	10.4885		70.9377
22.3909	13.8875		69.3895
24.1476	12.9557		69.8402
21.6156	14.4623		69.1114
21.0419	14.9356		68.9776
20.5247	15.5164		68.9264
17.5513	23.3309		72.4909
16.866	25.875		73.9077
18.1549	20.7786		70.9406
19.2245	25.1171		72.682
19.2447	16.4034		69.6886
29.3758	24.1742		71.726
18.7523	19.7912		70.2433
18.2306	18.3317		70.315
19.9089	21.4207		70.4351
37.4696	10.9625		70.2217
32.065	11.6861		70.7256
22.4525	14.6374		68.8211
21.7135	14.9491		68.6978
24.1432	14.0378		69.2849
21.1754	15.3806		68.5804
46.6994	15.8182		67.2336
6.47666	35.3777		79.931
3.58395	35.8626		79.8201
5.72805	32.9007		79.4409
9.00033	34.5784		79.7308
7.50946	38.2296		80.6581
21.0286	6.19204		74.2347
20.895	8.13224		73.1368
19.1486	7.83776		74.5611
21.6869	3.30013		75.7393
23.9917	4.26746		73.9379
17.2852	9.54587		75.2536
15.3047	11.4896		76.3189
17.9434	14.0728		71.9182
16.2909	15.0109		73.213
18.1723	15.5127		70.9653
13.442	23.4704		75.1065
14.6338	25.4835		74.8386
12.6928	24.7706		75.8636
21.7448	12.083		70.6251
21.2763	11.0609		71.3717
21.0013	9.73077		72.1616
23.3238	7.9275		72.2518
20.0979	-53.2639		84.919
20.0162	-53.1824		84.6741
23.4846	-53.0896		82.4606
16.4771	-53.2596		87.6126
25.4692	-53.2628		81.2827
25.1445	-53.1611		81.2522
0.499667	-44.1913		98.644
3.89835	-44.0549		98.0719
0.565589	-42.8223		98.6329
-3.31384	-44.3501		98.8753
0.325175	-45.7312		98.4745
6.64939	-47.62		96.5836
6.70244	-46.0012		97.0699
3.70877	-47.3169		97.4273
6.35594	-49.2145		95.9198
9.4909	-48.188		95.4463
12.5782	-48.5453		93.9376
12.6831	-47.0867		94.5126
12.5386	-50.1704		93.0167
16.0412	-49.2559		91.7696
6.64201	-44.3571		97.3706
9.52634	-45.0351		96.332
6.62517	-42.9487		97.4668
11.5662	-43.3236		95.5223
12.3744	-44.47		95.1943
11.1127	-42.198		95.5699
8.51904	-42.5066		96.7972
19.7442	-51.189		88.0565
19.5384	-49.7189		89.4028
5.72754	-50.738		95.0323
2.5864	-50.3708		96.0107
5.28178	-51.5188		94.2945
9.17595	-51.2015		93.6416
12.8847	-51.7761		91.5219
12.9189	-52.5901		90.5354
26.2726	-52.1069		82.7992
20.3674	-54.3584		85.394
20.3457	-54.2589		85.1351
16.6586	-54.9602		88.4486
20.3767	-54.6438		85.7542
20.8083	-56.1636		86.4427
20.6229	-55.627		86.3199
17.5954	-58.2627		89.9269
14.3026	-58.8638		92.8126
14.0962	-57.7731		92.4959
10.6366	-58.8368		95.3016
14.7336	-59.8831		92.7998
5.62689	-55.9954		96.3627
5.97882	-57.5834		97.0566
9.76621	-56.2788		94.5666
5.34302	-54.526		95.5543
1.92756	-56.1358		97.4016
-1.27951	-60.0358		99.1266
-1.29467	-61.467		99.3416
2.2919	-59.3611		98.6503
-1.305	-58.4018		98.6811
-4.50614	-60.2313		99.2347
25.6798	-54.8003		80.6127
25.5761	-54.1574		81.213
25.4488	-56.3156		80.0104
23.636	-54.7412		82.1132
-1.18516	-54.319		93.2293
-1.14586	-53.5918		94.3601
1.60803	-54.4322		92.83
-1.39367	-55.9859		91.9624
-3.76085	-54.201		93.3224
-1.31698	-62.7645		99.3398
-4.74223	-63.0431		99.3768
-1.37439	-63.8927		99.1415
2.62232	-61.8053		98.9743
-1.44144	-67.1896		97.0314
2.57006	-66.42		96.8551
-1.38876	-65.7826		98.1456
-4.94226	-67.4353		96.9213
6.33008	-41.9419		97.4475
5.59732	-40.5149		97.3359
3.77257	-41.5023		97.9898
-1.32446	-56.5606		97.9578
-4.17782	-56.5959		98.0786
-1.31029	-54.8191		97.0577
-1.27536	-53.9416		96.3922
1.65272	-53.7734		95.935
-1.1322	-53.5623		95.862
-3.80468	-53.9431		96.492
5.19641	-53.828		94.9865
9.09396	-54.2405		93.3641
5.12288	-53.5627		94.5465
-1.03822	-53.4254		95.2227
1.68552	-53.3755		94.8487
-3.74208	-53.3678		95.2407
13.0369	-54.661		91.0313
12.9276	-54.4138		90.6213
13.345	-55.3045		91.4745
15.1485	-62.9625		92.5314
15.2175	-64.0228		92.1298
15.0824	-62.0111		92.7297
11.5009	-63.1235		94.9724
7.08535	-63.1457		97.2743
7.13533	-64.2721		96.6974
6.99737	-62.2002		97.575
2.86044	-63.6744		98.4994
-1.38853	-64.7894		98.7835
-4.77073	-65.0856		98.7317
12.9017	-52.753		90.0378
9.0538	-52.1873		92.2236
12.7755	-52.6653		89.5472
28.6489	-53.7276		81.1029
27.5118	-53.9333		81.1719
25.5304	-53.8753		81.8365
23.6148	-54.1912		83.2675
5.09777	-54.6205		91.968
5.02198	-53.8098		93.0537
9.0023	-54.8634		90.57
5.14283	-56.1953		90.8439
5.03178	-53.5214		93.9467
8.89417	-53.9234		92.3351
6.99086	-65.8467		95.7874
11.5019	-65.707		93.7272
14.9088	-60.9716		92.8441
11.2334	-61.106		95.4025
15.1469	-65.3666		91.5895
18.4577	-63.9985		89.3443
12.4164	-52.2312		89.1502
9.00366	-51.615		90.7123
11.7731	-50.6112		88.2579
15.7084	-52.676		87.1873
5.38911	-51.1699		91.9586
2.41631	-50.789		92.4469
5.96039	-49.6299		90.2487
5.18272	-51.6468		92.9948
11.2336	-47.2862		86.934
8.58214	-46.7977		87.8436
11.1165	-43.2343		85.7373
13.984	-47.7637		85.7316
24.665	-59.8751		79.6919
23.1476	-64.1446		80.1874
22.6543	-59.9093		81.2806
-1.81934	-59.6089		90.7577
1.0261	-59.6101		90.4709
-1.87039	-63.921		90.2061
-4.21373	-59.5286		90.8172
5.98291	-46.3688		88.4788
3.24415	-45.9297		88.8983
5.79512	-42.2031		87.1209
4.68817	-59.6156		89.7339
4.30112	-64.087		89.0757
8.62395	-59.8006		88.5048
28.2795	-55.1162		75.3004
28.2668	-55.5103		75.0356
14.2397	16.719		74.8527
13.5165	15.4156		76.32
83.0788	-19.9263		-41.7233
81.9754	-24.1628		-40.7723
81.2991	-19.3863		-45.1083
84.1036	-15.4353		-41.9361
84.5242	-20.437		-39.9614
84.3448	0.748837		-5.43619
84.9775	3.32077		-9.76498
83.538	3.24871		-0.619734
85.2347	5.0918		-15.0598
85.4002	10.4676		-16.568
85.2469	0.0287142		-15.9483
85.7596	4.18929		-22.0821
74.9724	-42.7661		-31.4581
77.6012	-40.6552		-29.9319
73.5866	-46.6274		-28.7186
76.4953	-39.1539		-33.4352
77.8191	-35.768		-35.6432
75.0596	-37.6772		-38.3972
79.2987	-32.0706		-37.6208
80.1797	-34.6822		-33.8259
86.0112	-20.466		-39.0443
87.5855	-20.0897		-38.6774
85.0595	-24.4702		-37.9466
86.822	-15.5568		-39.47
86.2915	-38.1121		-28.2979
87.7688	-34.3559		-30.5181
86.9665	-38.5428		-27.0554
84.7388	-41.7872		-25.6503
91.6474	-28.8716		-28.7781
91.6829	-28.2641		-28.0419
78.7425	-49.2268		-17.3062
79.1936	-49.4599		-16.5904
78.2471	-49.7339		-15.3131
77.9664	-48.4026		-19.3993
80.3454	-41.4699		-5.49429
79.9626	-42.0533		-5.4299
79.4377	-43.0127		-5.59945
91.6581	-27.8624		-27.6572
91.0959	-28.3443		-26.7004
95.8253	-13.9138		-32.0842
95.96	-13.365		-33.6325
95.5813	-15.1127		-30.3714
96.9791	-3.64906		-30.1217
97.3682	-2.33512		-30.2924
97.6733	-0.204431		-29.3646
97.0788	-0.207574		-27.1422
97.8956	0.212468		-29.7826
97.5001	2.07276		-26.3782
85.5704	-19.0364		-6.58786
87.3366	-13.744		-7.30312
85.1209	-18.1677		-5.30046
84.2657	-22.9512		-5.91844
78.9635	-34.1592		0.625303
78.0078	-34.3626		3.28086
78.1088	-37.8705		0.249807
79.8591	-29.8789		1.01812
83.2221	-30.1253		-8.22846
83.3749	-32.1962		-8.65772
83.3866	-28.1889		-8.41881
85.1999	-0.466314		-15.9599
85.6758	0.545445		-19.4858
85.2331	-0.459476		-15.7399
94.0161	6.24303		-16.6029
95.1111	7.63346		-19.7829
93.2051	6.65536		-17.8118
92.3322	3.48719		-13.5411
94.7203	5.53428		-15.5661
94.6956	8.01578		-24.9005
93.9037	8.04386		-21.8849
95.0059	8.16392		-24.3906
95.0691	6.47146		-28.525
93.7988	6.96362		-26.2592
94.1962	-8.25248		-38.454
93.3632	-8.65403		-38.6263
95.0403	-2.16527		-35.9023
95.2802	-8.06994		-37.908
88.6901	-9.26593		-8.01661
88.866	-10.5849		-8.63251
96.9603	-8.89401		-35.3127
97.8565	-3.70121		-33.3214
96.3988	-11.6602		-35.3662
97.0033	-9.02014		-35.669
97.0479	3.25461		-22.4524
96.0603	3.04292		-18.4406
96.7148	1.87721		-23.1236
97.2297	4.26488		-21.8812
90.2234	-8.8044		-10.8083
89.5153	-10.4791		-10.1804
90.9886	-6.58434		-11.6004
96.5592	-7.99876		-32.6537
96.4789	-10.1586		-34.4058
94.1114	-4.41766		-21.2576
93.5067	-5.67052		-20.4252
95.3944	-5.27983		-25.3674
87.7287	-15.4373		-11.8375
87.9079	-15.2191		-12.5467
88.3881	-13.8176		-10.7879
92.5607	-15.8836		-25.6809
94.7978	-13.5719		-27.6668
92.3387	-15.378		-25.0851
92.3485	-16.9689		-25.79
80.7091	-25.9785		0.922762
81.8392	-21.5402		0.0286655
79.8583	-25.9727		3.4074
87.5105	-10.2929		-38.2626
86.3119	-10.8377		-39.3995
87.7884	-5.52649		-36.3758
88.7159	-7.83919		-37.4288
91.4865	-2.97279		-34.9535
91.5719	1.00279		-31.9249
94.2164	1.54356		-33.2323
91.2663	-7.21236		-37.6487
92.2341	-9.50938		-38.569
90.5957	-14.9251		-39.1035
89.743	-19.8218		-38.4885
82.0103	-34.167		-32.9711
80.747	-37.0458		-31.0417
83.1375	-31.1619		-34.7771
84.1217	-27.9768		-36.5001
82.4252	-28.1131		-37.544
90.53	-28.1681		-25.709
79.4804	-39.7307		-29.2314
78.0426	-43.0579		-26.7748
80.7466	-39.5316		-28.7712
77.8128	-46.5559		-22.0717
77.3551	-46.5431		-22.4263
76.8131	-49.5672		-17.4151
78.0522	-49.2461		-12.5861
77.525	-49.4406		-12.4153
76.9518	-49.5683		-12.1278
92.4937	-17.7564		-26.2274
94.5479	-16.7047		-28.4285
84.572	-17.4425		-4.23255
83.8746	-16.9024		-3.02869
81.1076	-30.6492		-2.41784
81.4146	-30.8849		-3.06189
83.6092	-35.6981		-8.27907
84.378	-37.8594		-9.73425
83.8919	-34.683		-9.12388
83.4019	-25.8542		-5.36243
83.8235	-26.1771		-7.50904
91.4207	3.03935		-28.8095
88.7559	-0.572173		-31.4929
90.521	3.96242		-25.5022
87.711	-2.14507		-33.2398
87.2513	-2.46947		-34.3415
87.2525	0.303535		-29.1054
83.4567	-26.3232		-10.3283
83.6984	-26.2583		-9.4464
95.9184	-6.4461		-27.6687
95.6066	-7.90685		-27.2604
88.3964	-14.6474		-13.9961
87.5566	-16.9437		-14.9761
89.498	-13.6809		-16.6727
92.3782	-14.51		-24.6227
94.4377	-11.168		-25.9403
91.8134	-14.3168		-23.2607
16.2998	87.6404		59.3086
15.3104	80.8776		65.0977
23.8181	86.1228		59.1778
17.4383	94.3549		51.9025
8.49406	88.5281		59.2708
14.0777	74.0799		69.8115
6.85778	74.5649		69.9519
12.8912	66.6583		73.962
21.1043	73.2397		69.3584
34.7004	58.0467		73.7867
34.4553	53.0897		76.7481
30.0232	58.8137		75.1174
-1.13862	-21.9594		102.537
-0.899335	-20.3934		104.648
-2.79273	-21.7134		103.018
1.00191	-22.1505		101.306
-0.122205	-10.816		109.115
2.72275	-11.1351		108.049
-0.0234652	-8.86882		108.44
-2.70207	-10.5279		109.383
-0.188386	-12.6102		109.268
-0.270345	-14.5126		108.913
-2.89222	-14.2808		109.252
-0.436223	-16.4663		108.046
-0.86638	-26.8935		96.2187
-2.7528	-26.9206		96.3084
-0.307485	-33.956		95.7575
2.12418	-33.6515		95.4707
-2.85597	-34.0353		95.8302
-0.605527	-18.4578		106.595
1.839	-18.6166		105.4
-2.90336	-18.2448		106.989
-0.0816851	-6.87714		107.31
2.66737	-7.33906		106.371
-0.0481958	-4.27411		105.218
-2.54401	-6.48693		107.457
11.0455	49.3265		80.7472
4.74185	50.4168		81.0587
10.3008	46.302		81.3065
16.9001	48.8875		80.3893
11.5007	53.2019		79.6681
3.92479	22.2533		81.7244
3.48815	19.5903		83.4977
4.25866	24.3959		80.6042
2.3112	22.6789		81.7197
4.55878	26.4025		79.8467
6.52186	25.2339		79.5982
4.85512	28.3592		79.4162
2.75825	26.7978		79.8572
-0.513478	-50.4669		92.5975
-3.46669	-50.3176		92.7197
-0.0555277	-48.7854		90.9765
-0.951104	-51.3724		94.2324
-1.06032	-51.549		95.1988
-3.62412	-51.5282		95.2679
1.68118	-51.5121		94.7227
-0.977395	-51.4036		95.5602
0.194476	-47.2097		98.0978
-0.0508852	-48.6564		97.5133
-3.53909	-47.1648		98.3165
-0.499642	-50.1951		96.6046
-3.66845	-50.1821		96.6864
0.645934	-41.8321		98.4694
-3.13937	-42.1383		98.7173
0.158481	-45.5171		89.1157
0.14054	-41.3961		87.56
-3.11464	-45.1702		89.1365
30.0314	84.4921		58.643
28.6874	78.5216		64.0004
35.7591	82.4524		57.7539
31.5375	90.5855		51.6206
23.7006	49.3114		80.0784
23.4534	46.517		80.7521
29.3615	49.4842		79.8926
22.7972	53.0273		78.8817
24.7024	43.4137		81.0805
26.2725	40.2256		80.9381
29.8167	43.6897		80.8028
27.8163	37.7637		80.2259
23.4746	37.5061		80.6258
31.7972	38.3923		79.9297
28.6482	25.257		72.1828
28.3135	26.9421		73.0698
25.2169	24.3934		71.5649
32.2598	25.6817		72.7475
30.0629	23.1334		71.3882
27.8357	29.0046		74.3004
31.7025	29.3907		74.5244
24.5409	28.407		73.99
55.4855	83.5424		36.7001
57.2945	87.9323		26.2965
49.9961	87.7479		38.8647
54.1832	78.6406		44.4009
41.0291	80.3205		56.1896
42.7146	85.5724		49.6438
46.6358	77.5708		53.8486
34.4752	49.2075		78.9414
34.9518	47.4534		79.4447
39.8214	48.333		76.5416
35.7894	39.0551		79.1214
35.921	40.8262		79.4911
35.361	44.3389		79.6818
35.4506	29.0714		74.3075
35.635	26.928		73.4647
39.7627	28.1388		73.6608
52.6595	74.1462		50.3997
58.7989	70.3399		45.77
51.0589	69.6357		55.4662
45.8307	45.9458		72.3193
51.757	42.8886		68.6145
42.2781	23.4318		72.2261
42.7362	24.964		72.4993
39.3616	24.6341		72.7783
44.6906	22.1246		71.2562
45.8337	32.4021		73.105
44.8012	29.7076		72.935
50.5037	30.6155		70.8922
43.5865	26.9662		72.7196
49.2649	64.8429		59.973
55.6501	61.1036		55.6057
64.5749	66.8861		39.4807
63.2513	62.0668		45.0275
69.6792	63.5957		31.8253
44.8489	19.0183		69.8134
