1861
-87.4796	-4.23959		-20.1932
-87.0171	-5.01159		-18.9354
-86.3623	-6.58357		-18.3102
-86.2671	-6.7378		-17.8186
-80.2272	-20.5775		-13.0039
-82.07	-16.3331		-13.367
-78.3161	-25.1166		-12.7461
-80.0955	-20.5682		-11.8516
-84.9923	-10.7979		-17.8478
-85.5488	-9.09175		-17.335
-85.1026	-11.0847		-19.6639
-41.401	-64.7387		-62.6823
-42.7527	-65.1471		-59.9583
-42.2913	-60.1952		-65.3322
-27.9745	-27.5366		84.4939
-25.9569	-26.7674		85.2794
-28.6633	-26.1052		84.1322
-29.0805	-31.5224		84.4779
-23.128	-24.5402		87.24
-21.9557	-24.7247		88.4338
-24.0013	-21.818		87.2556
-23.5008	-25.615		86.7217
-60.6557	30.8281		64.3185
-60.5344	28.7279		64.9543
-56.2825	34.5655		68.2608
-61.0585	32.6776		63.023
-64.1541	25.6071		59.4125
-9.00648	-24.8154		97.6849
-9.32938	-24.2015		98.2826
-9.58326	-25.5152		96.653
-7.92841	-24.8915		98.3336
-9.73748	-23.3702		99.3065
-10.8225	-23.0747		99.0964
-8.71227	-22.8113		100.972
-55.2513	8.8005		62.036
-55.0401	9.67471		62.446
-19.5771	-16.0084		97.3799
-18.4914	-14.8259		98.9977
-20.0317	-16.1802		96.5878
-19.5602	-16.9794		97.2625
-76.1745	68.654		8.88906
-77.6009	68.9809		-0.638584
-76.4838	63.9753		13.3993
-74.4166	72.5073		10.049
-23.6272	-66.1063		77.4605
-22.7568	-65.6177		79.0884
-23.8361	-67.1402		76.3611
-24.3685	-64.3094		76.8951
-24.9938	-54.9904		77.7186
-25.273	-57.0842		77.1523
-25.2959	-53.4542		77.019
-23.8099	-55.0938		79.3528
-12.288	-22.9433		98.5195
-13.0978	-21.8127		99.3656
-13.3123	-24.1945		96.5306
5.37365	-21.9959		100.153
4.25639	-21.6678		101.818
5.09874	-22.9285		98.9505
4.84825	-23.6133		98.2518
3.68917	-23.9743		98.844
-10.0455	-26.3805		95.6937
-11.1222	-26.727		94.9874
-9.73392	-27.1124		95.4441
82.6764	-26.7124		-21.9552
80.967	-27.5221		-21.7795
83.1663	-23.3808		-24.7007
83.8385	-26.9246		-21.2634
81.5734	-30.2605		-18.4231
71.0171	-41.5681		17.9581
69.5361	-43.2867		26.0011
70.3062	-46.4732		16.8526
72.4425	-39.435		10.825
71.6388	-36.4461		18.9943
68.1369	-108.987		-4.25673
66.0607	-99.1164		-3.58119
65.3332	-110.157		-0.173552
70.7423	-118.972		-5.43345
70.365	-107.623		-8.53426
72.8796	-126.212		-6.65365
74.6366	-131.874		-7.82442
74.6424	-124.314		-11.1618
70.5028	-128.206		-2.24217
58.2014	-94.0606		6.1309
57.8695	-88.565		7.52617
54.4479	-95.4557		10.3656
59.5022	-101.333		4.88396
61.8855	-92.9724		1.47293
69.1473	-90.6723		-11.2628
70.1476	-97.376		-11.9488
70.3848	-89.2814		-16.3842
68.5948	-85.4431		-10.7052
67.2938	-91.3561		-6.99394
64.6858	-63.3987		28.65
65.6906	-59.3929		30.7313
62.6764	-65.7176		36.3108
63.4278	-67.1931		25.93
66.1524	-61.5173		20.7953
66.0611	40.3856		26.1992
66.0612	48.5041		21.6324
61.1256	43.0127		36.6913
66.4854	32.6609		29.3799
70.201	39.1027		14.8039
73.1749	51.0888		-26.2616
73.4673	47.9322		-35.8993
71.051	57.9777		-31.611
72.8035	52.9544		-15.6887
74.9155	43.7817		-21.246
15.7238	-105.72		37.1796
13.1013	-106.112		37.5292
17.7061	-113.788		35.3982
19.042	-105.129		36.4826
15.1579	-102.111		39.7595
21.1143	-126.172		32.2997
24.2185	-138.267		29.0732
24.4092	-124.856		31.17
18.0479	-126.714		33.0922
19.1729	-147.854		28.1156
22.6255	-147.089		27.8366
17.6093	-139.72		30.0769
15.8319	-148.271		28.0862
20.3733	-153.206		26.9677
71.7111	-46.8311		-28.3036
73.3828	-40.5807		-25.8941
71.4282	-53.3798		-22.9254
69.9946	-53.0778		-30.7992
72.0369	-39.0688		-32.628
72.618	-33.4624		-35.7727
69.873	-39.5842		-39.3293
73.2216	-28.5574		-38.3069
75.0178	-28.5356		-32.4735
75.6903	-117.471		-27.273
76.8442	-123.937		-29.5641
74.2949	-114.861		-34.1118
76.1947	-120.45		-20.8605
15.2519	-127.403		33.4032
12.576	-114.914		36.3808
12.5936	-127.741		33.3727
67.8663	-44.7135		34.1763
68.6006	-38.6244		34.3089
66.0664	-45.2722		41.6535
67.2096	-50.2486		33.3861
67.5249	-59.5062		12.8547
66.3812	-63.4246		10.9052
68.778	-58.2219		4.60004
68.5999	-55.2865		14.3426
15.2454	-93.0638		85.1002
11.4048	-93.9978		86.0177
15.3744	-96.8482		82.3245
19.0513	-92.0595		83.6583
14.7233	-88.2852		87.4109
23.0552	-90.2278		81.8681
23.0528	-94.1392		79.3131
27.6085	-88.0713		78.9619
22.8952	-85.6918		83.8484
6.96829	-85.3584		90.3266
10.2385	-84.5776		89.9486
6.75686	-80.9868		91.3858
4.00232	-85.837		90.3532
7.38138	-89.9929		88.7865
15.5776	-99.0136		79.4486
15.941	-100.188		76.0155
19.2004	-98.0993		78.2574
12.0968	-99.601		80.3856
16.4568	-100.543		71.5624
12.8454	-101.267		72.0282
16.8995	-100.137		66.1523
12.5847	4.0198		82.4621
13.8107	0.0522623		85.3693
15.3527	2.16757		81.4106
11.4234	7.64929		79.7842
9.6515	6.3173		83.8854
50.558	-19.4962		75.113
56.6835	-19.3056		69.3211
49.6974	-14.5253		74.9118
43.3038	-19.3866		79.6049
50.8065	-24.2988		75.274
60.5017	-8.76792		63.0675
64.0803	-8.02764		57.1372
58.7575	-3.8111		63.8276
55.0645	-8.75565		69.2462
61.2259	-14.0958		63.0095
65.9131	10.2367		45.0848
68.0069	9.15847		40.3684
64.0597	17.6541		44.1023
63.3859	11.7443		49.0553
50.7794	-29.2182		75.0498
50.3886	-34.5542		74.7121
56.0052	-29.8217		69.4297
44.7347	-28.849		79.5162
-2.19321	5.34376		99.2141
-2.98499	10.3093		94.0487
-3.95085	5.42982		99.2158
-1.7742	1.21251		103.802
-0.263737	4.94395		98.7652
19.1185	76.8457		66.5577
13.7293	77.1632		68.3049
19.1497	70.9662		70.2378
24.9075	75.902		64.1383
19.3338	82.169		62.7088
10.0856	-100.962		60.1642
10.0313	-100.484		52.6288
13.1506	-100.418		59.9
9.83381	-101.512		66.871
7.14417	-101.328		60.0794
64.0203	-45.141		48.6277
61.5023	-44.557		55.4403
62.885	-52.3762		48.2744
64.9188	-38.4214		48.9388
8.82655	-100.094		80.8524
8.46236	-98.1145		83.6897
5.87278	-100.395		80.9613
9.29996	-101.396		76.8514
9.62773	-101.774		72.2016
6.55795	-102.13		72.1423
42.8848	-84.8169		60.9845
37.6114	-88.4169		65.4202
42.1589	-87.0135		58.1017
47.6073	-80.8262		57.5636
43.044	-81.8267		64.3813
47.7724	-85.5913		37.8349
45.4171	-88.3956		32.4279
51.4556	-82.8357		33.0923
49.7631	-83.2262		42.6111
43.2346	-88.5247		41.8851
9.84019	-100.587		45.1518
12.4708	-100.306		44.7301
7.4052	-100.856		45.0507
9.86407	-102.541		40.0681
3.26353	-2.54625		105.285
3.78549	-4.97332		107.846
6.26489	-3.5017		102.818
2.88973	0.419779		101.701
0.679075	-2.02489		106.691
25.6444	-17.0805		84.989
29.559	-18.5045		83.9977
23.7659	-12.3822		84.8101
21.9177	-14.6058		86.4191
29.5397	-54.3159		83.7383
31.4818	-53.7285		83.2278
10.828	-22.9677		95.2118
12.4408	-21.2256		95.7269
10.1821	-24.1461		94.5522
12.8269	-23.2046		93.5786
10.66	-27.6516		92.8978
11.3635	-29.0363		92.7798
13.3156	-27.6882		91.326
10.3748	-26.7078		93.1093
8.37188	-27.1663		94.2705
-0.571165	-24.5051		101.483
-0.549242	-23.2701		103.358
-2.06435	-24.6408		101.667
-0.417553	-25.7323		100.007
1.08866	-24.2603		100.781
15.967	-26.7593		89.9179
18.5381	-25.0017		88.6162
15.4267	-25.771		90.2999
16.6483	-28.1315		89.8146
4.93039	-13.1092		110.362
2.40568	-13.5816		112.203
4.88228	-15.1799		109.284
7.65882	-13.0639		107.389
4.87806	-11.3483		110.797
28.5126	-68.3093		83.9682
31.4311	-65.4829		82.2076
27.0725	-65.0277		85.6972
24.935	-70.6275		86.2856
29.9046	-72.0043		82.1332
29.5555	-47.1152		86.4994
28.6704	-42.6914		87.723
27.3884	-46.3631		88.0664
31.5553	-47.699		85.2866
0.380367	-30.2219		97.8953
0.67845	-32.2187		97.9032
2.02307	-29.792		97.5773
0.0103303	-28.3552		98.3155
-1.5676	-30.5124		97.9845
2.15047	4.18279		97.5953
5.02572	2.79179		95.7727
1.47428	8.45822		93.0098
17.556	-15.0061		92.5079
16.3778	-12.8686		94.7916
16.6675	-13.8916		94.6734
17.8585	-16.6484		91.6141
18.0591	-14.7634		91.1816
2.82858	-26.2152		97.9063
2.92608	-27.7678		97.3851
4.36518	-26.381		96.8756
2.70603	-25.1499		98.5811
1.39319	-26.5005		98.5862
2.48779	-24.1627		99.7369
2.45811	-22.9801		101.458
15.4396	-12.6071		96.8301
15.0857	-11.7223		97.1015
16.1653	-14.4286		95.8094
17.7509	-19.4559		90.6634
16.9351	-17.8568		92.9237
16.8076	-22.1327		90.4692
1.85041	-38.9101		99.7367
2.32568	-40.8318		100.401
4.1281	-38.1759		99.4342
1.35953	-36.4245		98.8645
-0.559994	-39.6162		99.8821
23.3748	-29.2575		87.4721
20.6559	-29.7415		88.6321
25.2332	-33.4437		87.9913
25.8788	-29.0028		86.6401
21.7576	-25.5979		87.2374
12.8618	-69.331		94.1243
12.5044	-67.3045		95.4163
9.2182	-70.5057		94.6481
13.1839	-72.0076		92.7133
16.6408	-68.1515		92.9342
25.2254	-49.3749		88.6041
25.5872	-50.2357		87.9803
27.5946	-51.0226		85.9476
25.1401	-47.2851		89.4842
14.8055	-11.1263		96.9258
15.0069	-10.5892		95.493
12.8104	-9.76395		99.4851
20.0784	-66.866		91.2573
20.5539	-69.208		89.9624
23.1677	-65.0934		89.257
19.6338	-65.117		92.3728
6.20861	-71.3227		94.7509
3.46024	-71.7474		94.7526
6.48903	-73.6144		93.5812
5.80742	-69.4506		96.0005
52.8179	34.1931		59.4047
51.909	32.7206		61.3979
55.8007	29.2011		54.7071
53.5225	35.9935		57.1901
30.5341	62.2625		68.6373
24.5858	63.7041		71.8738
30.7191	56.2449		72.2307
36.9325	59.8689		64.7173
30.9917	68.7216		64.4361
43.3652	56.4273		60.0376
43.0928	50.691		64.2135
49.6276	52.2344		53.997
43.9223	62.4208		55.5867
32.0105	47.2824		75.7299
31.5126	50.0573		74.9997
26.4789	48.756		79.132
32.6476	44.4931		75.9469
54.7366	38.0632		53.5527
55.3517	41.5032		50.1568
49.1094	42.9521		61.3985
58.6666	32.2572		47.7491
17.3079	36.9956		79.7519
17.5661	35.1361		78.4039
21.0435	37.8035		79.3947
16.9636	39.0428		81.1392
13.6784	35.6905		79.5886
0.670397	18.2296		83.7773
3.47892	16.0751		82.1976
0.580391	20.2315		82.4722
-1.80347	19.5874		84.7417
0.717159	15.7448		85.8099
27.4594	-1.43991		78.5776
30.0052	-5.34439		79.8099
34.9018	-1.529		76.9154
25.0341	1.9224		77.4914
21.3719	-0.625803		80.006
55.2998	12.7436		58.6329
57.9028	12.1708		56.3003
55.3239	16.8704		57.198
52.5228	13.7484		60.7373
53.6809	9.50426		61.8085
0.984168	12.4803		88.8856
3.85855	10.5466		87.5612
-1.58726	13.7381		89.7384
33.2972	42.007		76.0429
38.235	39.7273		73.8701
28.5074	42.7614		78.3011
33.5681	39.6225		75.9817
43.0667	37.409		71.0784
42.7024	35.2915		71.5886
47.6223	34.5941		67.1457
50.6151	20.9129		61.6028
49.7502	24.7193		63.2687
48.5063	20.6472		63.4036
50.8533	17.3959		61.2679
52.3913	21.2788		59.8347
36.9156	25.0726		71.7971
38.8328	23.7894		70.3145
34.9008	26.0167		73.0317
32.7495	26.8028		73.837
30.4678	27.3063		74.2391
32.7809	27.7439		74.2431
30.1646	28.2462		74.626
35.1615	26.9504		73.4064
27.6893	27.4939		74.2883
24.8498	27.1251		74.0565
27.2334	28.3575		74.6091
24.2091	27.9006		74.2955
22.0505	26.2844		73.4444
19.5065	24.9655		72.7151
16.8806	23.273		71.9061
14.4027	21.4249		71.2448
15.4948	23.8225		72.0963
13.2298	21.8742		71.5148
18.2021	25.5955		72.8503
12.8234	19.8341		70.8748
14.1771	24.2242		72.3989
17.0494	26.3377		73.1724
26.8609	29.3759		75.0202
23.6349	28.8871		74.6687
43.2966	19.1588		66.7039
43.6028	20.2519		66.6531
42.2331	18.1933		67.31
24.8174	38.292		78.6149
29.0535	38.2704		77.3685
24.6292	40.1437		79.4155
25.0283	36.1596		77.6518
40.46	29.7123		72.3032
39.3502	28.4116		72.519
41.4495	31.4432		72.125
36.9427	31.1934		74.2897
32.829	10.5817		73.1102
38.6468	11.7774		70.9137
26.0138	10.2315		74.2012
33.8105	9.29315		73.1873
20.4567	10.9745		73.9798
16.4288	12.237		73.3379
20.7824	9.57057		74.5357
12.4708	15.162		72.1212
11.8528	16.0025		71.7894
13.4327	14.3839		72.3535
31.2813	13.2654		72.9019
36.3741	14.5792		71.3195
25.4223	12.8969		73.5947
14.8207	15.2878		71.4191
16.7803	14.5455		72.0391
13.9174	15.7415		71.0788
13.2563	16.1194		70.9188
12.6301	16.6207		70.8487
8.04679	24.3002		74.7697
7.00651	26.8572		76.2531
9.16254	21.626		73.0581
9.42993	26.4388		74.8773
11.1992	17.2882		71.6405
20.2375	27.9048		73.9744
9.97228	20.6537		72.2743
9.81218	19.0887		72.2986
10.7328	22.5713		72.491
30.8944	14.4794		72.8054
25.1576	14.1117		73.3423
14.7212	16.0488		70.808
13.9115	16.2414		70.6471
16.5684	15.6612		71.3995
13.292	16.5908		70.5118
40.2345	22.3798		68.8475
-4.71279	34.0193		82.5309
-7.72457	33.708		82.4474
-4.63433	31.2854		82.2461
-2.14324	33.896		82.3132
-4.52049	37.0278		82.9977
14.8227	7.27184		77.0452
14.3966	9.17536		75.7862
12.9059	8.57907		77.2563
15.9484	4.6076		78.6944
17.8792	5.90897		76.8335
10.9359	9.97974		77.8709
8.73361	11.7121		78.9506
10.516	14.7122		74.0187
8.7944	15.4227		75.3963
10.3931	16.2148		72.9569
4.26911	23.896		77.5759
4.95861	26.0655		77.3101
3.31182	24.9763		78.4465
14.507	13.3669		72.8089
14.2554	12.2776		73.6533
14.2294	10.855		74.5983
16.6734	9.40637		74.8995
21.8293	-52.8566		87.495
21.75	-52.8165		87.2691
24.7411	-52.9698		85.2477
18.6388	-52.4752		89.785
26.4231	-53.0904		84.1205
26.1472	-53.0025		84.0861
3.0214	-44.2982		100.703
5.78259	-43.8436		100.256
2.78842	-42.9578		100.792
-0.0169868	-44.9186		100.837
3.18669	-45.8542		100.397
8.8819	-47.179		98.5256
8.64745	-45.4996		99.1669
6.24595	-47.1188		99.3259
8.83496	-48.8823		97.6983
11.5101	-47.5918		97.4314
14.3967	-47.9514		95.9763
14.2898	-46.5037		96.6401
14.5882	-49.5679		94.9646
17.8048	-48.496		93.9199
8.30679	-43.8123		99.5945
11.064	-44.4042		98.5427
8.01466	-42.4166		99.794
12.6325	-42.6468		97.9006
13.61	-43.8225		97.4989
12.01	-41.4172		98.0086
9.65711	-41.7866		99.1824
21.5008	-50.2805		90.5465
21.2109	-48.6195		91.8537
8.48513	-50.562		96.5964
5.78376	-50.4484		97.5083
8.19709	-51.4552		95.7087
11.652	-50.7201		95.3487
15.0272	-51.1495		93.492
15.1526	-51.9314		92.5155
27.011	-51.7919		85.7605
22.1443	-53.872		88.1058
22.0866	-53.808		87.8703
18.8689	-53.9756		90.7433
22.2164	-54.0891		88.437
22.872	-55.4178		89.0359
22.614	-54.9331		88.9379
20.0793	-56.7751		92.2574
17.0053	-57.5512		94.8556
16.6698	-56.6017		94.551
13.6624	-58.0247		96.8932
17.5575	-58.4714		94.8781
8.91951	-55.7501		97.4898
9.41622	-57.276		98.0895
12.5581	-55.5453		96.0919
8.5272	-54.3882		96.7957
5.83998	-56.2121		98.2794
4.01212	-60.2675		99.6761
4.25124	-61.6366		99.8369
6.53775	-59.441		99.3297
3.75768	-58.689		99.3093
1.70651	-60.7545		99.7303
26.83	-54.5126		83.3051
26.6159	-53.9336		83.9862
26.9352	-55.9119		82.5298
25.022	-54.5807		84.7933
3.40857	-54.7509		94.2687
3.24129	-53.9704		95.5053
5.64109	-54.5971		93.9874
3.62815	-56.5732		92.8481
1.43903	-54.9935		94.2978
4.51423	-62.9062		99.8022
2.03231	-63.4082		99.8178
4.78151	-63.9966		99.5829
7.20313	-61.9426		99.5454
5.43717	-67.6789		97.348
8.43276	-66.6281		97.3241
5.17434	-66.137		98.4907
2.79043	-68.2358		97.2661
7.54464	-41.4376		99.8182
6.60878	-40.0547		99.7479
5.20676	-41.2931		100.313
3.54014	-56.9272		98.7087
1.39845	-57.316		98.7796
3.2822	-55.2757		97.957
3.14287	-54.2856		97.2885
5.4156	-53.9179		97.006
3.19631	-53.898		96.8142
1.18835	-54.6692		97.3929
8.33025	-53.6903		96.2591
11.799	-53.6741		94.9199
8.25172	-53.4384		95.8565
3.26031	-53.7833		96.3332
5.37854	-53.5497		96.0585
1.22807	-54.1198		96.3133
15.4081	-53.8941		93.0582
15.2925	-53.681		92.6346
15.7312	-54.4331		93.4994
18.5725	-61.3497		94.5287
18.9283	-62.3264		94.0309
18.2675	-60.439		94.7893
15.363	-62.0819		96.5094
11.3981	-62.8296		98.1855
11.7634	-63.9669		97.5872
11.0588	-61.8659		98.513
7.78576	-63.9438		99.0277
4.95639	-65.0066		99.1783
2.32642	-65.5532		99.1514
15.1891	-52.1222		91.9757
11.6325	-51.7835		93.7946
15.0871	-52.0589		91.4516
29.3763	-53.1017		83.94
28.3516	-53.5167		84.0162
26.5445	-53.6767		84.6851
24.9938	-53.9694		86.0797
8.54601	-54.494		93.321
8.29004	-53.6781		94.4501
11.9135	-54.4234		92.1945
8.91388	-56.1322		92.0922
8.19962	-53.4028		95.32
11.6224	-53.4317		93.9666
12.1126	-65.4972		96.638
16.0567	-64.5702		95.1239
17.8954	-59.4657		94.9253
14.617	-60.1468		96.9971
19.2804	-63.6443		93.2871
22.0217	-62.1149		91.1811
14.7451	-51.6946		91.0509
11.5925	-51.304		92.3877
13.9981	-50.2268		90.2101
17.8453	-52.0173		89.3468
8.38595	-51.1756		93.4449
5.82129	-51.0999		93.8159
8.69895	-49.6535		91.888
8.21635	-51.6249		94.4028
13.0901	-46.9625		88.9959
10.6298	-46.6223		89.7892
12.5241	-42.8234		87.9596
15.6662	-47.3211		87.9422
27.0632	-59.1408		81.6258
26.9657	-62.9746		81.0905
25.1897	-59.2962		83.2391
4.0042	-60.2353		91.6224
6.22418	-59.9187		91.4372
4.86981	-64.6045		91.0161
2.17315	-60.5004		91.637
8.27746	-46.3892		90.3335
5.88633	-46.2415		90.6892
7.6315	-42.2905		89.273
9.18711	-59.5664		90.8991
9.96681	-64.0323		90.1108
12.5307	-59.3646		89.9376
30.0959	-53.4893		77.5214
30.4873	-53.3002		76.6832
6.53302	17.0148		77.1265
6.16608	15.5938		78.8088
81.5422	0.174028		-39.7204
81.2023	-4.37696		-38.8923
79.8481	0.611677		-43.2298
81.7127	4.90078		-39.7882
82.9734	-0.180281		-37.8895
77.5334	18.7155		-2.75468
77.7643	21.6947		-7.05287
76.1275	20.7337		1.99567
77.8464	23.8627		-12.3239
77.0326	29.3755		-13.774
78.829	18.8371		-13.2239
78.7975	23.517		-19.3201
77.1776	-25.2677		-30.0157
79.2832	-22.7096		-28.2631
76.3365	-29.6683		-27.3447
78.1399	-21.1532		-31.9058
78.9642	-17.2985		-34.054
76.7568	-19.5693		-37.0632
79.8588	-13.1178		-35.9474
80.9828	-15.8551		-32.0631
84.3845	0.0414181		-36.914
85.8514	0.759882		-36.4782
84.1363	-4.24333		-35.9173
84.2779	5.1489		-37.2102
87.3433	-18.2668		-26.2964
88.2561	-14.0082		-28.4521
88.0202	-18.6346		-25.01
86.3032	-22.5062		-23.6931
91.0407	-7.80205		-26.4257
90.9285	-7.24435		-25.6508
81.0877	-32.0731		-15.2538
81.5102	-32.2661		-14.4987
80.5418	-32.8523		-13.1694
80.321	-31.2356		-17.4828
80.6645	-24.7164		-2.5815
80.3665	-25.4003		-2.52657
80.0045	-26.4785		-2.73621
90.8099	-6.87777		-25.2462
90.2859	-7.55548		-24.2851
92.6045	8.31558		-29.3929
92.6995	8.98561		-30.9419
92.5205	6.9631		-27.6912
91.738	18.682		-27.1691
91.885	20.0903		-27.3038
91.7483	22.2186		-26.3152
91.0746	21.9457		-24.1019
91.9071	22.7131		-26.7225
91.0297	24.2561		-23.2756
82.3739	-0.787516		-3.71868
83.2236	4.96524		-4.45252
81.7473	-0.105371		-2.43433
81.7118	-5.06207		-3.02555
77.9666	-18.0417		3.78836
76.9668	-18.6414		6.55694
77.6337	-21.9702		3.41762
78.258	-13.5311		4.14484
81.9152	-12.3664		-5.39654
82.4257	-14.4029		-5.84593
81.7673	-10.3462		-5.59577
78.879	18.321		-13.1832
79.2793	19.6831		-16.7008
78.9072	18.3245		-12.975
86.4176	27.0458		-13.5764
87.3723	28.8747		-16.7185
85.5604	27.3469		-14.8091
85.1489	23.7096		-10.5866
87.2352	26.4254		-12.5196
87.078	29.4876		-21.8218
86.1587	29.143		-18.841
87.3307	29.6635		-21.3062
87.8883	28.2716		-25.4373
86.4308	28.3204		-23.2029
90.2155	14.1		-35.7683
89.4805	13.523		-35.9784
89.8006	20.1741		-33.0137
91.2212	14.4766		-35.1846
83.7842	9.79392		-5.16587
84.2061	8.56376		-5.77296
92.9289	13.7942		-32.5262
92.7537	19.037		-30.3727
92.8933	10.9191		-32.6603
93.0103	13.7032		-32.8919
90.2089	25.0798		-19.3312
89.1266	24.3946		-15.3485
90.1673	23.6809		-20.0383
90.1771	26.0923		-18.7402
85.2952	10.7891		-7.93507
84.8747	8.91538		-7.31858
85.674	13.2304		-8.7104
92.2449	14.4134		-29.8231
92.6468	12.355		-31.642
88.6883	16.6992		-18.3285
88.2911	15.2643		-17.5255
90.2853	16.3911		-22.4465
84.0351	3.64022		-9.03821
84.199	3.94406		-9.75758
84.3708	5.35594		-7.95485
89.4365	5.18426		-22.9997
91.3415	8.1256		-24.9124
89.0982	5.59952		-22.3932
89.4258	4.05769		-23.1342
78.5418	-9.38668		3.98525
78.9898	-4.59085		2.99337
77.678	-9.73968		6.53444
83.9181	10.484		-35.8347
82.9045	9.76574		-37.0259
83.1994	15.1877		-33.8146
84.5919	13.1425		-34.8927
86.353	18.4822		-32.193
85.5653	22.2573		-29.0535
88.1624	23.489		-30.2766
87.057	14.3872		-35.0134
88.5007	12.3917		-35.974
87.92	6.6598		-36.6873
87.9543	1.53608		-36.2177
82.6368	-14.9993		-31.1198
81.7964	-18.3145		-29.2254
83.3037	-11.5966		-32.8793
83.7855	-8.06256		-34.5488
82.2033	-8.50098		-35.6664
89.638	-7.57964		-23.2732
80.9212	-21.4298		-27.4496
79.9476	-25.2847		-25.0222
82.0984	-20.9745		-26.9414
80.024	-29.2		-20.232
79.5973	-29.2711		-20.5981
79.2646	-32.8223		-15.4682
80.0891	-32.5978		-10.2922
79.6016	-32.927		-10.161
79.0311	-33.2021		-9.86068
89.7342	3.32999		-23.5863
91.6973	4.98799		-25.7517
81.0653	0.430651		-1.36821
80.2609	0.743925		-0.167066
79.6934	-13.7932		0.609738
80.0574	-13.9184		-0.0485086
83.2038	-17.9197		-5.42424
84.3843	-19.8336		-6.94317
83.3647	-16.7522		-6.3187
81.3153	-8.22399		-2.44246
81.846	-8.29075		-4.64602
84.9003	24.0515		-25.8979
83.0203	20.0235		-28.7361
83.7042	24.5518		-22.5947
82.3351	18.3534		-30.56
82.0159	17.9966		-31.678
81.2432	20.4176		-26.3273
81.5951	-8.37818		-7.55688
81.798	-8.27033		-6.65557
91.1136	15.4972		-24.7782
91.0663	13.945		-24.3986
84.6304	4.72199		-11.2176
84.2355	2.2905		-12.2426
85.6507	6.10936		-13.8988
88.9617	6.44434		-21.9093
90.4653	10.3319		-23.1345
88.3102	6.42094		-20.5374
-7.39897	89.1265		61.0874
-6.82285	82.411		66.3817
0.695301	89.2985		61.1264
-7.64289	95.9857		54.2654
-15.6755	88.2566		60.7906
-6.21402	75.7208		70.7191
-14.2875	74.4507		70.6751
-4.81477	68.5667		74.5982
1.56633	76.5705		70.32
18.9474	64.1044		74.3548
19.8353	58.3968		77.5304
14.6965	64.1282		75.6506
-0.525534	-21.8079		105.856
-0.250492	-20.125		108.219
-1.99923	-21.8345		106.261
1.4059	-21.7334		104.635
-0.537838	-10.4654		113.563
2.00048	-10.1173		112.645
-0.77545	-8.57101		112.967
-2.98431	-10.7671		113.776
-0.272604	-12.2273		113.631
-0.0407047	-14.0775		113.181
-2.43431	-14.4137		113.442
0.122896	-15.9799		112.174
-0.224932	-26.9482		99.0175
-1.92148	-27.2364		99.1014
0.989031	-34.3612		98.2656
2.96797	-33.7378		98.0081
-1.07362	-34.8427		98.3398
0.0842744	-18.0271		110.497
2.27186	-17.8201		109.332
-2.06307	-18.2439		110.836
-1.06735	-6.68239		111.892
1.40816	-6.67511		111.157
-1.28972	-4.50943		110.085
-3.45274	-6.83382		111.997
-3.23206	49.5921		82.3575
-10.757	48.7987		82.7224
-3.37374	46.1383		83.1076
3.66707	50.7298		81.866
-3.49046	53.9019		81.0344
-3.61786	20.2206		85.1091
-3.70648	17.6625		87.034
-3.63779	22.3559		83.8735
-5.18184	20.3349		85.2152
-3.70726	24.3714		83.0314
-1.89259	23.7255		82.6127
-3.99791	26.4478		82.5244
-5.43089	24.4278		83.2165
3.39426	-51.1556		93.9049
1.03527	-51.4552		93.9831
3.57961	-49.5312		92.4673
3.09	-51.9865		95.3604
2.98468	-52.097		96.2453
0.990944	-52.4533		96.2929
5.20527	-51.8062		95.9332
3.00002	-51.8633		96.8042
3.35648	-47.3719		99.8744
3.38607	-48.92		99.1233
0.337956	-47.7969		100.013
3.18686	-50.5925		98.0308
0.781326	-51.0242		98.0332
2.64336	-41.9848		100.69
-0.271519	-42.7366		100.832
3.28682	-46.2633		90.8788
2.69648	-42.2667		89.7291
0.585224	-46.473		90.8964
7.41393	89.0578		60.6887
7.68525	83.1076		65.5039
13.666	88.2958		59.8302
7.45347	95.3255		54.2553
10.4622	52.4565		81.3742
10.8411	49.5134		82.1945
15.9225	53.7501		80.9666
9.15276	56.5917		79.8904
12.7078	46.5758		82.618
14.8291	43.3702		82.5987
17.5678	47.9016		82.2108
16.7147	40.9382		81.9844
12.3825	39.7872		82.4367
20.3913	42.2699		81.6694
19.2575	28.8202		74.4262
18.6584	30.3658		75.2948
15.8324	27.1259		73.6515
23.03	29.9177		75.1021
21.1218	27.0159		73.6337
17.8791	32.3783		76.5535
21.6648	33.3049		76.7538
14.5002	30.9681		76.1332
32.6625	93.6864		39.9258
33.5538	98.7071		30.1216
26.3828	96.6467		42.1527
32.5013	88.4444		47.0256
19.4062	87.3313		58.2781
19.7406	92.8105		52.3131
25.5367	85.8089		55.9115
20.3447	54.071		80.0551
21.2706	52.2437		80.6222
25.1993	53.9292		77.8904
23.5248	43.3338		80.9588
23.369	45.1041		81.1898
22.2721	48.951		81.0707
25.2782	33.6985		76.6715
25.9836	31.8205		75.9301
29.5438	33.3392		76.2144
32.126	83.6825		52.4605
38.7652	81.1456		47.8896
31.7258	78.9705		56.936
31.2254	52.6391		73.9549
37.1164	50.2651		70.5307
33.2906	29.6654		74.9066
33.261	30.9358		75.2474
30.1575	30.3128		75.4135
36.1114	28.712		73.9231
33.7052	37.2533		75.9154
33.5236	34.8342		75.7451
38.1278	35.1913		74.2318
33.3204	32.5464		75.522
31.2689	74.0423		60.8321
37.9308	71.3281		56.6114
44.9277	78.913		41.8182
44.6476	73.7201		46.8047
50.4103	76.7945		34.4179
37.3036	25.9062		72.1358
39.2772	24.452		70.5488
38.747	27.4481		72.3854
40.8597	25.8263		70.6785
37.8322	26.6519		72.3735
42.1917	33.4021		71.8999
45.9458	31.0223		68.7104
10.4482	33.6698		78.9269
7.90432	31.3286		78.1092
10.9322	31.71		77.3887
9.73994	35.1559		80.1559
8.49612	36.573		81.3655
5.7276	34.2023		80.6496
11.6236	28.7666		75.4196
12.3081	26.5459		73.9431
-3.23861	41.5751		83.409
-8.93685	41.8557		83.2217
69.8416	-58.6678		-3.42068
70.8019	-53.4298		-1.45828
70.6806	-58.7173		-10.1459
77.0451	32.1767		-34.2987
77.4912	28.228		-39.9633
75.5587	37.7303		-39.2446
76.7732	34.5316		-26.1333
78.5738	26.5508		-28.911
77.7698	0.687105		-49.3113
77.3205	-5.48856		-47.7053
75.9143	0.309006		-55.1111
78.1182	6.67676		-49.4062
78.0579	13.0026		-49.1161
76.2732	14.574		-55.7994
77.9491	18.6279		-47.3152
79.9535	11.1162		-42.6481
73.9675	-23.5949		-41.3491
71.4662	-27.3008		-45.4068
75.2393	-17.556		-43.8555
-4.19447	60.8524		78.233
-11.9413	58.9979		78.6971
3.03485	61.9064		77.7451
8.77132	63.0184		76.9318
8.64201	70.5573		73.1827
26.5581	-96.546		55.2045
25.36	-96.9197		47.9941
32.8604	-93.7626		50.5972
21.0102	-98.3933		57.8603
51.2428	-80.9719		46.7424
46.3225	-85.06		50.7958
55.184	-77.2281		42.3429
51.8342	-78.9088		50.5497
44.4491	68.1116		51.1689
50.3642	64.8286		44.6181
8.00201	77.1528		69.475
55.8599	74.6999		25.3598
60.4576	72.8944		15.7811
56.1468	68.2111		31.1129
7.3249	102.496		44.9639
13.9175	100.995		44.6665
7.22558	109.343		33.5234
0.148583	103.265		45.1049
55.8988	47.0133		45.7413
55.9643	54.3135		41.2432
42.1424	24.0107		68.9945
51.0364	31.3026		62.8848
52.9697	26.6696		59.6228
49.8394	29.7468		64.3678
48.6347	28.4502		65.4991
10.6354	-106.585		37.5626
8.39489	-106.888		37.3516
59.9221	-68.2393		43.8134
60.5453	-64.3408		46.4638
56.2936	-71.7066		49.8522
59.2582	-71.5181		40.2685
5.84958	-38.1919		99.2095
7.7476	-38.5028		98.8543
5.07107	-35.8333		98.444
24.5104	-44.7924		90.1129
23.2888	-40.8385		90.9257
21.3696	-42.857		92.5853
8.6517	-34.5921		96.7691
6.05352	-33.8618		97.4336
9.60875	-36.8732		97.4137
11.6916	-35.2586		95.6164
7.74647	-32.2899		96.1163
33.318	-47.8963		84.3259
33.2247	-51.6542		83.2491
35.6687	-48.3738		82.9426
32.8856	-43.5765		85.3568
58.3143	23.352		51.6976
56.4799	22.4216		54.7033
59.9466	17.4449		51.3003
59.9416	24.433		48.461
61.6797	25.3541		44.6874
64.095	25.4636		39.3696
46.7988	20.6106		64.7276
47.0657	18.2945		64.1926
54.6489	21.5753		57.2644
80.8365	18.5628		-33.7988
81.2739	14.7645		-36.9492
79.4124	20.4647		-38.0174
80.4666	21.1157		-29.8442
80.5231	-8.93418		-37.7236
78.699	-9.67274		-41.0333
73.6615	-44.9128		-12.27
74.9023	-40.4102		-9.84302
72.74	-47.2367		-5.8008
72.3818	-50.6779		-14.9262
74.4182	-41.257		-18.3976
81.5883	10.0173		-38.8918
75.9394	-19.6762		9.77977
75.424	-24.0942		9.36302
76.4057	-15.049		9.95303
74.7924	-20.7038		14.219
70.6272	7.68447		32.9355
69.3529	16.1772		31.4873
71.2833	-0.0680294		34.349
72.9614	6.57971		24.4734
50.5021	14.5302		62.0603
48.4804	15.4691		63.4002
48.8069	12.3476		64.2246
46.6363	16.4998		64.5627
45.2251	15.2232		65.8626
73.4428	-21.2745		20.5681
72.0834	-21.5771		27.4244
72.8505	-26.3967		20.125
74.1109	-15.7203		20.3717
21.9947	-7.86994		83.9953
26.042	-9.07267		82.6229
20.0635	-3.54006		82.6236
18.7006	-6.10024		85.5381
32.4041	-9.93423		80.9405
39.9161	-10.0207		78.6577
34.072	-14.5365		81.922
15.0143	-3.98669		87.9242
11.4319	-1.37696		90.6656
15.8348	-7.27197		89.9577
19.4629	-14.1188		88.946
17.8259	-11.8775		90.2729
14.5239	-14.8098		98.281
12.7708	-13.9554		100.748
14.4079	-16.8576		97.4373
15.5771	-15.7164		96.486
16.2616	-16.6648		94.7805
15.8372	-19.186		93.863
38.385	-28.7195		82.6067
32.866	-28.8544		84.6134
38.9803	-33.9285		82.5038
37.3058	-23.9778		82.6499
35.5111	-19.0994		82.4747
3.31099	-29.6681		97.1861
3.85441	-31.6448		97.3171
4.76444	-29.7851		96.6116
58.3239	-43.3202		62.2635
59.3859	-36.5859		62.6383
54.2348	-41.93		68.8331
57.1202	-50.4246		61.7452
27.0909	-38.1337		88.1789
24.5745	-37.584		89.4378
29.5108	-38.4455		87.1062
39.2827	-39.2575		82.0929
39.2223	-44.5411		81.5664
44.2616	-39.8354		78.8762
34.9683	-38.9557		84.4625
4.42952	-33.6078		97.7578
55.6634	-57.6824		61.1732
58.6077	-59.3925		54.7045
51.8247	-54.7389		67.9886
53.2885	-63.7908		61.9421
61.1245	-19.4194		63.2561
60.7763	-24.8649		63.2383
64.5519	-19.4847		56.5569
32.0729	-92.01		70.2489
32.5754	-89.2117		72.6447
27.0429	-94.6783		73.8965
42.6589	-78.0399		67.9118
46.6011	-73.8205		65.6103
41.1178	-73.8075		71.9185
37.9192	-81.8888		71.1913
56.2968	0.404463		64.4608
53.2884	4.34344		65.1198
50.5012	-0.569809		69.8609
42.7132	13.6186		68.0566
44.2059	11.9893		67.6947
50.688	7.02978		65.6263
45.5475	5.519		69.9433
48.0327	8.91041		66.5751
40.0301	16.5485		68.9485
7.96011	-94.7896		86.3843
4.92663	-95.0635		86.5098
47.645	-52.234		73.43
46.1088	-57.2331		73.4139
48.5622	-46.7702		73.9485
42.9944	-50.345		77.8599
39.2126	-69.6795		75.3043
41.8777	-65.8305		74.3398
36.3357	-65.8643		78.6313
35.4776	-73.1438		77.3418
43.0748	-1.11502		73.9517
45.7048	-5.1282		74.4668
40.4785	2.3115		73.6223
49.581	-40.5852		74.3239
48.0016	-9.55669		74.6183
14.0121	-83.7116		89.0337
13.6597	-79.331		90.2303
18.0656	-82.486		87.5961
22.3802	-80.9477		85.5276
26.7427	-78.7982		82.9898
21.8033	-76.4417		86.9891
38.53	4.63951		73.295
36.7512	6.43519		73.2324
30.6817	4.17856		75.4478
46.0016	10.4248		67.1368
41.7227	8.92001		70.4001
35.2259	7.97244		73.1389
27.7415	7.48475		74.7608
8.08577	0.86934		93.5004
8.83532	-2.39108		96.7497
7.40326	4.64167		89.6028
10.0204	-8.43064		103.245
9.79085	-7.11343		101.96
7.14474	-7.41869		106.695
10.3278	-9.44845		103.659
6.17478	13.7778		80.5409
6.31885	11.5219		82.77
18.0207	0.444407		80.8456
-3.47163	14.274		90.0886
-5.06625	14.4058		90.0592
60.6405	11.7483		53.2094
6.74699	8.389		85.875
61.3498	-59.4639		48.2111
64.3147	-57.188		40.3546
67.2198	-6.82249		49.9275
67.4208	-13.5919		49.5764
69.5266	-6.53213		42.5043
65.7976	-31.9043		49.0487
66.6156	-25.6437		49.036
63.4908	-31.0891		55.9464
67.6455	-32.527		41.9424
67.1804	-19.5873		49.2557
69.1641	-20.2565		41.8009
22.9024	-96.6505		76.7131
13.3831	-75.4427		91.3862
9.80976	-76.3395		92.0958
17.2593	-74.1149		90.186
21.2024	-72.6223		88.3869
20.4122	14.8813		72.4298
23.4432	4.46661		76.4246
22.2863	6.47921		75.6926
21.4653	8.04738		75.0503
6.65257	-77.0258		92.3809
3.75288	-77.3819		92.4337
-0.891799	28.1694		81.3006
0.719551	27.3476		80.4914
-0.600151	30.6566		81.3861
-2.51613	28.5244		81.8893
-0.647251	25.4128		81.4521
11.9908	17.4447		70.9502
11.6318	18.6261		71.0464
10.0504	17.5396		72.5474
2.1365	26.1368		79.4783
2.74912	28.7784		79.4986
-4.34645	28.8257		82.228
-6.37846	28.8079		82.3412
3.02179	-21.5352		103.397
3.69807	-19.8765		105.329
4.65307	-9.84381		110.83
4.49615	-8.3371		110.316
7.58147	-9.97467		107.773
15.1995	-24.1815		90.9673
14.7266	-22.8854		92.1408
12.6686	-25.7125		92.0423
4.06148	-6.82308		109.547
0.255489	22.2218		81.7109
0.166437	33.4522		81.8085
2.12633	32.6802		81.0256
11.8207	20.1179		71.2373
3.84041	31.5341		79.9417
5.12491	30.1266		78.6842
6.12521	28.6254		77.5316
18.1593	-30.3596		89.8647
15.2077	-30.8063		91.4577
19.743	-33.3362		90.3922
21.7476	-37.0836		90.7267
18.3273	-36.412		92.4986
25.4046	-52.5975		84.2487
25.0857	-51.4735		83.7176
23.5123	-52.638		85.6805
25.6805	-50.8186		87.4653
23.7126	-49.4162		89.8003
24.5267	-48.2477		82.694
21.3604	-48.0979		84.8934
23.7096	-44.1208		81.9435
12.4844	-30.9688		92.9801
9.63271	-30.7042		94.4512
13.586	-33.2374		93.5403
15.1157	-35.8844		94.0229
16.4463	-38.5982		94.5326
21.0771	-52.4907		87.3533
19.5573	-50.9851		87.3887
18.3988	-47.7263		86.5888
17.9146	-43.5142		85.507
6.97171	-30.1803		95.7277
6.39955	-28.279		95.5426
11.0257	-39.4923		97.782
14.5336	-40.3858		96.3221
15.6921	-9.33177		92.3415
12.5677	-7.14148		96.0925
-1.60807	-1.84261		107.339
-3.68361	-1.87854		107.39
9.29317	-4.98503		99.7473
4.44319	-17.4657		107.668
6.77674	-17.3991		105.079
9.48473	-17.5107		102.045
10.0973	-15.3378		103.165
12.1333	-18.0344		98.901
13.7536	-18.9555		96.5927
14.4056	-20.3648		94.7247
14.6282	-21.6505		93.269
10.3633	-10.4501		104.101
10.323	-11.7492		104.308
10.287	-13.4351		103.985
53.2079	-137.353		15.1577
48.7929	-139.113		17.8919
55.448	-143.365		14.3908
57.1902	-135.5		12.3051
50.2305	-129.078		16.3043
46.4903	-117.451		17.9811
50.4958	-115.915		14.8222
43.638	-107.137		19.7279
42.234	-118.908		21.0627
43.6378	-91.8105		27.4214
47.4293	-89.8967		23.3847
39.5909	-93.6619		31.0089
42.884	-95.5913		23.811
42.7328	-100.202		21.5446
38.4242	-101.337		25.2432
46.7019	-98.801		17.9694
44.4299	-61.826		73.4807
47.6955	-65.1696		68.8459
40.5858	-58.7797		77.4518
50.5317	-68.9712		63.2147
51.7852	-72.7968		58.4133
52.1954	-76.079		54.256
37.3262	-56.4905		80.1038
38.2228	-53.0433		80.3925
34.5849	-55.0393		81.8099
35.6712	-59.6118		80.3904
32.8259	-54.2619		82.6981
31.92	-56.1672		82.7746
50.9952	-87.8717		19.4113
52.3527	-84.1198		23.0615
50.5306	-91.9822		16.3385
54.5952	-85.7471		14.6796
54.4262	-80.6307		27.7327
57.0209	-78.5015		21.6834
56.5577	-77.2998		32.0964
58.1958	-74.3615		36.5458
60.3801	-72.2548		29.5907
54.3034	-114.213		11.5335
57.8695	-125.536		10.2532
58.0713	-112.834		8.00172
51.6641	-104.288		12.8078
60.8107	-133.738		9.2842
63.3364	-139.802		8.41251
64.2423	-132.006		5.9293
50.5785	-97.1622		14.3132
70.697	-21.1159		34.5809
70.0082	-26.9431		34.4612
71.3163	-14.6985		34.6615
62.129	-70.4599		22.8913
60.7262	-73.4526		19.2696
63.7033	-68.6396		15.8137
67.5837	25.0524		30.8317
71.3432	23.2174		20.3471
66.5	-55.0897		32.3114
68.1267	-53.0983		24.0726
69.2705	-32.8055		34.4846
70.7644	-32.5361		26.9774
71.4845	-7.2844		35.0528
73.213	-8.64643		27.2072
72.2066	-31.5255		19.7863
73.6571	-29.9631		13.1997
63.7904	-81.9996		-0.342234
64.1712	-86.7383		-1.81609
66.1846	-81.3339		-5.06216
63.6661	-77.8154		1.46111
61.0511	-82.8498		4.42608
64.8155	-92.0833		-2.72485
63.9214	-73.947		4.00432
61.7007	-75.1791		9.52321
66.0023	-72.9268		-1.66475
64.4314	-70.387		6.41803
74.9194	5.70903		16.09
74.5984	13.7982		13.2063
74.8957	-2.49585		18.7612
74.1564	22.2667		9.93005
73.6224	30.2298		7.08854
73.0941	38.3095		3.62529
75.0061	37.5204		-6.94244
72.5599	46.3081		-0.296618
69.5107	-51.0131		15.7149
70.7561	-49.3922		7.55025
74.605	-9.44932		20.1149
75.824	-10.1151		13.9671
61.8229	-111.359		4.04678
64.942	-122.294		3.00457
59.5027	-76.7829		15.6676
58.4472	-80.2582		12.2335
67.5201	-130.178		2.07556
69.831	-135.917		0.977507
71.9055	-106.543		-12.7349
74.0369	-115.726		-14.1656
68.214	-80.5806		-9.80328
69.6081	-78.6816		-14.8962
68.037	-76.0879		-8.67336
68.0909	-71.6383		-7.2098
75.7651	-122.584		-15.7119
77.2027	-127.948		-17.6964
71.7911	-48.6254		0.184933
74.8726	-28.3861		8.68413
76.0794	-26.3805		5.38904
74.4575	-32.294		7.31923
76.7591	-10.1602		9.87568
70.6364	-86.0994		-23.244
69.488	-81.9591		-30.2072
70.2221	-79.8964		-21.9735
70.2493	-74.0187		-20.8532
69.6231	-67.6121		-27.0448
71.3531	-57.0908		-16.9006
75.8186	-37.694		-8.54298
77.454	-34.7164		-15.2783
71.8703	-112.327		-41.8681
73.2432	-119.87		-43.28
68.8526	-109.993		-49.1042
70.5055	-104.251		-40.3271
75.3466	-35.9849		-23.3282
77.2625	-32.0299		-21.5605
78.7278	-30.1209		-20.8181
44.1968	-140.699		20.3937
41.3962	-132.327		21.8494
39.5847	-142.229		22.5879
46.458	-146.626		19.2964
33.4919	-102.431		29.1002
28.33	-103.48		32.4808
34.4534	-109.401		26.6571
33.898	-98.6606		31.3084
38.4694	-91.1466		46.3595
36.5838	-92.8027		40.5092
40.0195	-89.842		51.1887
34.8694	-95.5082		34.888
29.6029	-97.1139		38.5966
37.5484	-120.08		24.2023
32.893	-121.76		26.9993
33.9021	-62.7226		80.9321
31.9034	-59.9538		82.5165
41.1731	-88.6573		55.0223
30.6041	-58.2096		83.3331
28.6507	-60.3168		84.6568
29.5062	-56.8394		83.8916
28.5723	-55.6527		84.257
26.9541	-57.247		85.6372
31.3826	-76.3746		79.8826
32.3312	-80.8037		77.6265
32.8703	-85.3886		74.9806
22.2061	-54.5131		88.9101
19.3319	-55.0783		91.6409
21.9232	-53.8701		87.6713
24.8989	-53.7469		85.4889
22.0274	-54.0973		87.2213
18.6382	-53.856		89.9318
22.0759	-54.6055		86.8172
22.221	-56.1136		86.0879
18.7636	-54.5642		88.8649
22.3041	-59.4458		85.231
22.2059	-63.5178		84.7431
19.0278	-59.4249		87.1208
23.258	-104.419		35.0173
23.3813	-101.145		37.4571
24.8257	-111.799		32.4205
34.938	-143.842		24.5013
32.2515	-135.58		26.3563
30.3408	-145.204		26.0771
37.0578	-149.47		23.2084
28.3843	-123.329		29.4031
15.2516	-99.977		44.3217
18.8964	-99.5296		43.2538
16.0393	-99.356		51.7059
26.3079	-146.271		27.1572
28.2386	-151.685		25.8409
16.7766	-99.6332		59.5566
15.1397	-53.6607		92.1088
15.1423	-53.888		91.4471
15.1909	-54.4393		90.8019
15.6108	-55.9406		89.7251
15.8121	-59.3597		88.6629
16.1071	-63.681		87.9696
65.8705	56.3243		16.6564
69.4089	55.0086		5.96027
65.3721	63.9626		11.2759
61.4229	58.3821		26.9309
76.0364	36.3472		-16.8104
76.2977	-11.6483		-46.2413
74.057	-13.8187		-51.3121
63.2744	-89.1908		-51.9682
62.5164	-79.0638		-50.7798
66.1175	-91.9496		-46.2574
64.5696	-99.2914		-53.1874
60.3256	-87.2684		-57.1099
66.0147	-108.101		-54.5393
67.667	-116.45		-55.7284
63.0097	-106.79		-59.4422
67.3482	-76.5684		-37.6961
67.9418	-86.0562		-38.3562
64.8018	-72.3538		-44.2827
67.4887	-68.1085		-36.159
6.99816	115.439		19.9396
14.1816	113.46		20.1036
7.1452	119.87		4.87183
-0.416138	116.534		19.7906
13.0102	103.966		-80.0047
11.7788	112.807		-64.1995
20.2187	102.822		-77.7363
14.2456	92.9709		-93.0724
5.4984	104.464		-81.8122
15.7371	80.9924		-102.484
22.6595	80.1919		-100.129
17.438	67.7864		-109.529
8.78522	80.9033		-104.44
10.3079	118.783		-47.1787
17.6745	117.177		-45.1757
2.67654	119.676		-48.6324
8.96496	121.885		-29.3951
-7.51559	123.628		-13.313
-15.4922	123.069		-13.8513
-8.1692	121.393		3.83877
0.277	123.333		-12.6177
-6.51441	123.162		-31.3902
19.0005	54.7877		-114.303
25.4689	54.2294		-111.923
20.4734	41.3036		-117.438
12.4876	54.7445		-116.091
21.7589	27.2067		-119.102
28.0724	27.028		-116.587
22.946	13.3066		-119.132
15.4303	27.3636		-120.93
24.9397	-25.3652		-107.783
30.6605	-25.4134		-105.306
25.614	-37.0953		-100.272
19.4693	-25.9366		-109.227
24.5702	-12.7105		-113.775
11.5289	-0.275846		-120.776
5.17399	-0.984347		-121.413
10.2199	12.8619		-122.35
17.7441	0.0665574		-119.453
12.6062	-13.106		-117.061
28.3958	-83.9268		-82.4755
27.6174	-74.4197		-83.4512
33.5225	-84.0697		-80.8485
29.3145	-93.346		-82.103
23.4716	-84.0918		-83.5081
20.7236	-103.038		-83.2606
25.5637	-102.893		-82.7061
21.9931	-112.619		-83.0085
16.0783	-103.39		-83.5969
19.6703	-93.4183		-83.6203
26.5221	-46.2928		-94.0561
31.6792	-46.2383		-92.2123
26.8777	-54.5684		-89.4189
20.921	-46.518		-95.3569
27.0446	-64.0957		-85.767
32.5296	-64.5411		-83.7242
21.8742	-63.9253		-87.0375
16.7104	-64.2692		-87.754
15.9859	-54.991		-91.4572
17.6133	-74.7408		-85.3079
11.5621	-65.088		-88.0607
34.2188	103.527		18.2232
40.6763	98.6773		17.2996
35.231	107.167		4.7689
27.7356	107.474		19.2424
41.872	75.4994		-89.0738
47.442	73.0541		-84.5175
43.3445	63.5013		-95.729
35.9518	77.4308		-93.2242
40.4458	86.415		-80.0238
38.9973	95.9569		-68.1223
33.0908	98.8644		-71.6936
38.0426	103.104		-54.0685
44.8288	92.2335		-64.2125
37.4545	107.522		-39.3944
43.7589	102.562		-37.2922
31.1925	111.491		-41.3307
37.2887	109.215		-24.5945
36.2853	109.217		-9.75697
29.6175	113.557		-9.97228
42.7706	104.074		-9.51134
44.4581	51.3154		-100.522
45.4944	38.6633		-103.654
38.5986	52.4921		-104.773
49.8692	49.7593		-95.9066
46.1781	25.8187		-105.37
51.3798	25.0235		-100.729
46.7589	12.8135		-105.365
40.6612	26.2562		-109.5
46.8576	0.180788		-103.811
46.8278	-12.829		-100.169
41.8519	-0.113103		-107.739
51.4402	0.0050602		-99.3467
47.069	-25.4975		-94.1448
51.4223	-24.6926		-90.0446
47.2924	-36.5		-87.6075
42.0231	-25.507		-98.376
47.3692	-46.0533		-81.8168
47.3994	-55.5848		-76.8413
42.526	-46.4439		-85.8331
51.5694	-45.7487		-77.2621
48.3512	-84.0906		-71.9481
48.7609	-94.0616		-72.9078
43.6418	-84.2354		-75.6342
48.092	-74.4677		-71.8065
52.6223	-84.5449		-67.6689
40.0934	-102.669		-78.9753
41.3985	-111.425		-79.1284
35.1716	-102.569		-80.6817
39.236	-93.6332		-78.7694
45.0607	-102.976		-76.5988
47.6621	-65.1419		-73.4068
51.9023	-64.9848		-68.5808
43.0935	-65.0491		-77.45
59.9787	77.5623		-49.9352
60.0254	81.6428		-38.4708
64.4324	71.2708		-43.8241
60.4449	71.3107		-60.3506
55.2764	82.9998		-55.4481
59.9791	83.9941		-27.1164
64.4122	76.6282		-21.6829
55.0405	90.7978		-31.5294
59.7301	85.0342		-15.9192
58.3265	85.7403		-5.18799
61.8202	78.6549		-0.202543
53.913	92.2527		-7.73896
54.6174	48.0914		-91.0968
53.6686	59.3758		-86.2587
58.9515	45.9597		-85.9985
55.5004	36.1669		-94.2135
52.3318	70.3733		-79.7557
51.1344	79.9562		-71.1728
56.9733	67.0223		-74.5514
55.895	-0.145889		-94.0928
56.352	12.0301		-95.5331
60.1251	-0.460215		-88.2534
55.3502	-12.3796		-90.8753
56.0884	23.9698		-95.7199
60.3737	23.1234		-90.3474
55.2188	-23.7462		-85.6524
58.8979	-23.264		-80.2607
55.4302	-34.8942		-78.7144
55.1705	-44.6636		-72.7387
58.2728	-42.6689		-68.476
56.0789	-65.1411		-62.5994
59.6962	-67.2291		-55.7799
56.2642	-75.1984		-61.8019
73.5843	43.5692		-44.5243
73.8351	37.5189		-51.9682
71.309	48.7808		-50.408
46.5833	93.1712		16.9685
47.5136	96.7872		4.06699
71.5251	53.9945		-4.76123
70.1386	61.6464		-10.0328
69.5084	-0.0641365		-71.6785
66.7927	-0.500544		-77.0524
70.0342	9.56029		-73.2078
72.0188	-0.095295		-65.885
68.5524	-10.1514		-68.7563
69.8314	19.1927		-73.9736
67.059	20.6298		-79.6642
69.5771	28.3493		-72.5749
72.4529	17.4132		-67.6649
69.1718	37.6306		-69.287
66.1276	40.7466		-75.1925
68.839	46.1412		-63.8545
71.9001	34.0917		-63.1142
64.8839	-35.9611		-57.1474
62.7949	-38.4845		-60.87
66.0469	-28.0804		-61.1346
66.9699	-33.5101		-53.1763
63.9609	-43.9388		-53.3162
71.8636	-15.7578		-56.1519
70.4899	-23.3439		-52.7856
69.719	-17.6639		-60.4766
73.1504	-8.02797		-58.6007
62.5084	-69.5372		-49.8845
62.7998	-60.4193		-49.8375
77.0046	-30.3421		-0.17828
77.2732	-26.6456		1.83085
75.3475	-33.686		2.11588
77.0667	-24.8961		3.26964
79.3801	1.85508		1.11424
79.7669	7.33414		-1.1499
92.1897	14.4944		-34.3932
91.6076	20.3774		-32.0524
92.8157	14.1667		-33.6429
84.8298	-26.9717		-20.4148
83.5452	-30.0627		-16.9627
90.535	25.0701		-28.5896
89.5712	25.267		-29.1391
89.333	28.1492		-24.5219
91.4556	24.5047		-27.9712
83.7872	19.2098		-7.97156
82.4777	19.0422		-8.71375
88.2534	29.3769		-20.2974
89.2136	28.7738		-19.4876
89.2543	-9.36067		-30.8939
85.7145	-27.6925		-12.7673
84.8282	-27.713		-10.0823
84.1794	-30.0496		-13.2977
79.9995	10.0376		-2.94421
84.903	27.201		-15.9359
83.2087	23.8435		-13.2857
83.9855	26.1808		-17.542
81.1779	19.1582		-10.2219
80.3099	19.4885		-11.8683
88.949	25.0267		-29.3918
79.6398	19.137		-13.3413
80.7911	21.2986		-15.9879
82.2972	23.4251		-19.5507
80.4098	20.981		-20.6697
88.7567	-18.1194		-23.4824
88.3752	-19.8719		-15.7139
82.7104	-31.4936		-13.8166
83.8304	-26.9945		-7.81814
84.8337	-23.8818		-7.81587
85.7126	-21.3172		-8.71357
86.1662	-19.6391		-9.67581
93.012	13.8758		-33.2118
92.741	19.5961		-30.9432
87.7498	25.8821		-12.0303
87.9694	25.2568		-11.7111
88.8798	27.7123		-15.0871
87.9943	24.6336		-11.5516
89.1784	26.5482		-14.5526
87.9376	23.5118		-11.715
91.8705	23.9993		-27.5804
90.8181	26.85		-23.4991
92.0312	23.4974		-27.4233
89.8214	28.1298		-18.9579
90.0996	27.5533		-18.8061
90.1586	26.9525		-18.5263
91.0564	25.7982		-23.0998
92.0124	23.1061		-27.0994
92.8264	9.37827		-32.1048
87.8236	22.1455		-12.2524
85.8727	14.4388		-9.7475
90.1417	22.1415		-20.6496
92.3123	6.11806		-26.8993
92.1684	8.03127		-26.6217
91.8801	9.91166		-26.0642
91.4791	11.3944		-25.186
90.9409	12.5765		-23.9645
89.8166	13.3006		-21.4601
83.7035	-16.331		-7.56114
85.1433	-17.7883		-9.15936
84.4387	7.41824		-6.66908
81.889	-8.26834		-5.84031
86.2533	-18.8874		-10.1931
26.5798	30.4317		75.428
20.0248	99.1998		43.6407
20.6074	105.302		32.7558
-8.00241	103.439		44.8413
-8.25906	110.633		33.1241
-16.4722	102.806		44.3645
20.9737	110.894		19.7241
21.6078	115.012		5.32228
-8.38206	116.822		19.4733
-16.5486	116.288		18.924
7.759	122.186		-11.8271
15.2603	120.144		-11.039
22.4473	117.308		-10.525
23.5652	117.253		-26.7499
56.2497	61.3164		36.1782
64.0428	71.2725		5.42307
66.592	70.1679		-5.11819
48.5064	98.5947		-9.19698
49.4747	98.3787		-22.0169
-5.19938	119.837		-49.5803
-3.64511	113.592		-66.9772
-13.1187	119.247		-50.1282
24.4083	114.862		-43.0407
25.6002	109.422		-59.5864
67.6543	69.1222		-15.8379
68.116	67.5965		-26.7055
49.4159	97.1723		-34.8868
49.607	93.7767		-47.5554
68.037	64.813		-37.5153
68.1356	60.3426		-47.7537
68.3678	54.1717		-56.554
65.0494	58.8737		-62.8048
56.8133	-85.9091		-62.5049
57.5846	-95.9704		-63.8368
58.998	-105.279		-64.8026
60.4586	-113.823		-65.9181
54.3407	-103.993		-69.7256
-2.03713	104.489		-82.8435
-0.216923	92.9522		-96.1762
-9.5139	103.764		-83.5923
1.77216	80.4679		-105.703
3.77709	67.3422		-112.56
-5.413	79.7025		-106.357
5.61081	54.3333		-117.306
7.2281	41.1511		-120.434
-1.65263	53.6312		-117.929
8.7249	27.1826		-122.182
1.91664	26.3739		-122.832
23.8915	0.152228		-117.451
30.0188	-0.0263662		-114.776
13.5647	-26.4604		-110.316
14.6093	-38.5987		-102.011
7.86816	-27.277		-110.733
15.3589	-47.3139		-95.8994
9.80386	-48.2105		-96.1257
18.6503	-84.1908		-84.1651
13.824	-84.5615		-84.5385
29.3907	79.0169		-97.035
28.0125	90.7459		-87.6553
30.8655	66.3241		-103.878
26.7174	101.091		-75.1338
32.1023	53.5277		-108.675
33.3605	40.3427		-111.747
34.44	26.7994		-113.342
35.4757	13.0457		-113.247
36.1201	-0.0932598		-111.471
36.3967	-12.9505		-107.834
36.435	-25.4426		-102.18
36.5718	-36.8259		-95.496
37.1732	-46.3566		-89.4357
37.7405	-55.3614		-84.4558
37.91	-64.7807		-81.0087
38.2753	-74.6029		-79.0619
38.7517	-84.0731		-78.5455
49.8749	-103.29		-73.5065
51.3342	-112.032		-74.0361
50.0584	88.1208		-60.0534
61.14	63.5118		-68.709
62.0377	53.7516		-75.6606
62.6668	43.7415		-80.7817
63.3503	32.9392		-83.9352
63.8832	22.0755		-85.1597
64.1719	10.809		-84.4525
63.6442	-0.700876		-82.615
62.7965	-11.7764		-79.5517
61.93	-22.0145		-75.4174
64.7556	-21.0613		-70.1112
61.2884	-32.001		-69.8979
60.6329	-40.5864		-64.7599
63.4274	-52.19		-50.4056
65.0721	-50.4863		-46.8476
73.9584	31.0955		-57.4278
74.2756	23.6014		-60.5085
75.914	27.486		-51.1865
74.0143	0.0780563		-60.7212
74.4951	8.15201		-61.7028
67.2727	-19.4746		-65.3134
74.4472	16.18		-61.9682
69.0917	-30.8462		-49.326
67.9483	-38.2728		-46.037
24.0676	-98.5431		41.6349
65.4113	-66.8584		8.88244
57.9574	-84.0969		9.69753
14.0005	-45.0782		97.1308
17.4426	-45.8079		95.2247
20.8858	-47.2902		92.6006
9.81519	-58.5798		98.4779
10.264	-59.7118		98.6521
10.6675	-60.8297		98.6718
26.0862	-62.8224		86.8421
25.3303	-61.1095		87.6656
24.6288	-59.6342		88.3642
18.0724	-41.5103		94.3823
38.9458	-49.0444		80.8976
28.8045	-28.8341		85.7437
30.5512	-33.6964		86.0381
31.8848	-38.6009		85.9327
60.3619	-30.3498		62.7276
12.7915	24.9254		72.9486
77.6567	23.9234		-44.5579
79.5275	22.7795		-25.0598
80.2667	20.8589		-22.5869
73.8314	-36.9228		5.67788
20.4938	13.6143		72.9767
43.1769	46.9084		66.7424
6.25247	-26.7388		95.6197
40.8627	22.8823		68.9188
9.9357	-25.386		93.8852
80.1195	20.6383		-21.5085
69.0846	-95.3893		-39.3585
68.6124	-59.6632		-34.0835
67.4294	-53.0547		-39.4403
67.0745	-47.102		-43.26
21.3779	-22.061		86.9501
16.1083	-55.4605		94.1241
26.543	-53.6553		84.3479
8.13131	-51.6812		95.1594
-61.1726	-57.4714		12.8782
-62.8547	-52.8051		14.0909
-62.4245	-55.7181		5.40417
-59.4471	-61.8828		11.5445
-60.0289	-58.9195		21.3461
-39.2646	-122.567		-11.6445
-39.5655	-112.466		-11.0509
-41.3703	-121.713		-15.9588
-39.4537	-132.887		-12.6317
-36.6376	-123.088		-7.46735
-39.8272	-140.43		-13.6782
-37.4902	-141.837		-9.1061
-41.5475	-138.948		-18.2725
-40.1943	-146.296		-14.6986
-33.8517	-105.879		-1.25442
-37.3642	-105.575		-5.94421
-33.3762	-113.186		-2.44636
-30.2089	-106.42		3.02985
-34.9768	-100.523		0.150169
-43.9795	-104.796		-18.6182
-42.3686	-105.096		-14.4027
-44.8043	-99.5392		-17.9589
-45.0714	-103.659		-23.5765
-43.2653	-111.614		-19.3636
-51.9396	-76.4671		22.4474
-52.6245	-75.3207		14.8668
-49.2467	-80.2986		19.5029
-50.9133	-77.5274		29.4904
-54.1303	-72.6		24.8426
-76.5037	22.2906		20.1113
-79.207	20.2787		8.39133
-75.0227	14.6347		23.6574
-73.5026	25.8127		30.8207
-78.38	30.2645		15.1561
-81.867	31.9585		-33.4654
-82.1474	24.3634		-28.4396
-82.9016	33.6836		-22.8969
-81.0716	39.2409		-38.7521
-80.5358	28.9776		-43.0681
1.795	-107.465		34.9678
0.915237	-103.611		37.4194
-0.840179	-107.625		33.4436
3.31659	-115.68		33.7569
4.01949	-107.287		36.0533
4.35712	-128.349		30.7879
5.13323	-140.72		27.6121
7.21654	-128.118		32.1146
1.15694	-127.881		29.0537
12.5228	-148.704		27.6535
12.8868	-154.158		26.4767
11.6319	-140.488		29.6215
9.06799	-148.821		26.8925
-56.1172	-62.5543		-34.5097
-58.0519	-55.0672		-38.7852
-52.6043	-68.164		-36.9804
