1827
-14.7013	-113.399		-82.7352
-11.3802	-93.9708		-83.2515
17.0975	-61.4463		-87.3809
6.40617	-57.7164		-90.4309
-4.75459	-55.943		-90.9474
-8.21162	-75.5681		-84.9138
73.0635	84.538		5.95194
63.3071	96.8305		7.46064
69.7837	67.0667		-75.0129
65.7187	45.6891		-90.7517
55.45	52.3851		-99.1839
59.9593	75.6947		-82.8331
63.4698	92.8948		-55.4263
72.9512	81.8482		-49.9439
74.8956	86.4725		-22.2064
65.1342	99.2203		-23.8337
60.5014	22.2364		-99.02
50.1272	27.4537		-107.398
54.2406	-1.8968		-101
44.0959	1.4426		-109.29
46.9646	-25.8823		-96.3776
37.5483	-23.5103		-104.193
41.8846	-48.535		-83.9168
31.6858	-46.619		-92.1658
27.82	-65.1549		-81.3648
27.5393	-105.994		-69.7606
18.1946	-102.662		-76.6843
23.1705	-83.8064		-76.2916
32.8003	-86.4072		-68.0943
15.1099	-120.28		-77.5555
5.03249	-117.314		-80.8482
80.6337	68.3773		-42.9806
86.2083	53.0159		-32.7123
83.3382	44.9583		-54.3015
77.4354	56.9293		-65.9057
86.7246	55.7216		-10.6059
82.2769	71.7638		-18.8911
73.6271	38.2776		-81.172
68.721	16.8535		-89.4515
63.1134	-5.57844		-90.5176
55.6389	-27.9418		-85.9991
49.8644	-48.418		-75.2631
83.3645	19.9703		-58.5666
62.9359	-28.8189		-75.2252
69.7211	-8.79364		-79.9291
75.0528	-11.707		-68.5261
69.1221	-28.4068		-65.0771
74.7436	11.0707		-79.1642
79.2981	4.59679		-67.4449
79.4477	29.7052		-70.3823
56.3651	-46.6567		-66.9056
62.6893	-43.6536		-58.5583
56.7737	-58.1702		-51.6468
98.4864	-6.74871		-33.5788
96.8351	-5.77106		-34.8156
96.8665	2.46878		-27.006
98.5422	1.01609		-25.8519
91.9842	-0.519245		-13.6199
93.5351	-1.69202		-11.6529
89.8681	-0.770948		-16.6147
94.8785	-7.02588		-35.7574
95.4787	1.29531		-28.2912
95.9596	-18.4191		-35.7214
97.4996	1.06613		-16.7411
98.9539	-0.327543		-25.4002
20.9684	106.817		37.2544
23.4726	111.469		-64.5489
24.773	-124.326		-71.3151
20.4272	91.0657		-94.188
16.3186	65.7004		-110.934
12.0348	39.8064		-119.185
-1.78794	-39.5527		-101.387
-75.8258	-29.6178		19.7963
-77.6395	-27.0152		5.76098
-76.311	-39.9205		17.5238
-76.7302	-97.0442		-10.4898
-72.8836	-100.328		-1.31486
-80.3755	-133.277		-5.71186
-76.8864	-120.635		-3.11168
-80.4077	-116.26		-12.3998
-83.231	-128.66		-15.4874
-71.3233	-86.8454		0.104358
-66.8127	-105.039		8.68288
-65.9943	-91.4896		11.0631
-74.9632	-84.1901		-9.57651
-76.4708	-81.2675		-19.3385
-78.0697	-94.2004		-20.0555
-75.9048	-49.4961		14.9547
-74.375	-59.1743		11.7345
-72.1073	-62.5983		25.1015
-73.1359	-53.0722		29.7122
-64.3784	50.5621		8.26275
-66.0684	35.1036		15.5427
-56.7383	38.1137		39.6174
-56.3033	53.5232		30.3545
-68.6504	44.8723		-33.9277
-67.9749	48.9399		-14.0637
-63.4507	63.3142		-23.5033
-63.0884	57.3064		-44.3676
-26.1448	-116.59		48.46
-32.4845	-114.696		46.0065
-33.0418	-124.873		41.2142
-26.7047	-126.787		44.0669
-37.6961	-143.237		31.9157
-29.8328	-145.586		34.5033
-32.6103	-156.74		29.4208
-74.8537	-28.9428		-34.5057
-70.8533	-41.4927		-40.0049
-75.6935	-41.9077		-25.9581
-74.9515	-19.4034		-39.2338
-69.7973	-29.4716		-46.238
-83.286	-124.312		-26.4362
-79.7426	-120.01		-39.4401
-72.9864	-44.2713		32.6633
-72.2965	-31.916		34.3046
-76.7507	-47.0108		-0.382077
-18.9537	-86.0377		87.5676
-26.8135	-83.7632		84.1264
-28.782	-92.968		80.8658
-20.6316	-94.1271		84.695
-35.53	-79.8065		77.9869
-37.0451	-88.7295		75.1419
-17.1552	-76.3979		87.7922
-22.3806	-100.579		78.1419
-23.6265	-105.127		69.2567
-10.2299	2.03336		86.3856
-8.78769	9.57843		81.4277
-13.1799	7.02932		78.2021
-15.7791	-0.579545		81.3269
-55.3934	-23.5972		64.8499
-43.8017	-23.057		74.6047
-40.1376	-14.0207		75.0208
-51.9403	-14.6259		66.9546
-62.7387	-12.4888		52.4014
-47.9217	-4.47394		67.0016
-57.5239	20.6971		45.4352
-62.0453	20.8772		36.9378
-46.2836	-32.2905		73.2772
-57.507	-32.9593		62.4637
0.331156	6.91625		96.2156
-1.30845	-2.0966		102.652
-11.148	78.2055		67.9683
-21.7292	77.5565		62.5172
-21.8929	65.7489		70.9672
-12.0805	65.2384		76.6098
-24.8263	-109.897		58.0651
-66.6508	-32.8308		48.2593
-67.0852	-45.9361		46.5674
-47.2557	-81.2811		64.6827
-56.4321	-72.8057		55.3493
-57.172	-80.3054		49.1744
-53.3676	-94.7863		36.8141
-56.074	-86.6497		43.5492
-64.4139	-78.1575		33.0946
-61.1024	-88.0457		26.8684
-3.1861	-8.34873		107.304
-6.53733	-3.20198		98.2634
-8.42114	-8.78113		102.34
-18.1998	-9.08302		83.7337
-26.1026	-12.0325		79.769
-35.4841	-51.0973		77.2334
-14.3021	-21.2566		91.3013
-14.1865	-23.3445		89.8409
-11.8532	-28.2383		91.9319
-14.7943	-25.3693		88.6263
-16.1045	-27.4337		88.2227
-4.67494	-24.166		101.216
-5.11829	-25.6217		98.5361
-20.4057	-25.0974		84.7941
-4.72217	-15.5693		110.154
-9.58588	-13.9238		104.344
-9.50539	-17.2665		103.003
-4.9911	-18.9248		108.512
-39.7465	-64.6407		74.7161
-32.4827	-70.3228		80.1784
-29.0676	-62.9502		82.6877
-34.9346	-58.0522		78.0355
-34.42	-40.7971		81.1833
-29.4895	-40.1412		84.3769
-5.69148	-27.8747		96.89
-6.79189	-32.5149		96.0382
-4.87354	4.6651		92.5417
-15.852	-12.3354		89.5659
-16.3203	-15.1267		90.0029
-15.4987	-12.9612		91.4515
-8.22788	-27.8783		95.0011
-16.3881	-19.4264		88.7619
-8.04886	-38.3881		95.9964
-9.23683	-43.4336		96.3416
-30.5286	-32.1322		82.4919
-25.4039	-32.0737		85.0487
-20.5576	-61.8217		88.6532
-21.9928	-66.6877		86.6919
-14.9547	-68.948		88.6112
-13.2766	-64.3983		90.4997
-26.9831	-46.7477		85.4871
-31.9004	-47.9543		79.677
-12.88	-10.0278		94.5733
-26.8863	-58.8424		84.6852
-45.2677	43.0843		62.5182
-53.4266	33.9149		49.6258
-51.0232	31.3792		54.9697
-33.8211	63.9735		61.2694
-33.9092	52.8047		69.3032
-23.1153	53.5543		79.3928
-45.436	59.6628		48.4729
-45.554	48.5134		57.0607
-24.5858	48.1335		82.1174
-34.3286	47.416		72.9502
-13.6044	29.7466		81.4954
-11.456	30.9147		84.8211
-18.6391	33.9481		83.0426
-20.0692	32.5684		80.4643
-4.13187	11.8094		87.1931
1.15347	13.9292		91.9944
1.25731	17.9171		90.0662
-22.3813	-2.81681		78.2903
-18.3224	4.89033		76.4705
-31.1985	3.96062		72.9773
-35.8613	-4.05643		73.841
-46.8954	13.7571		59.6461
-48.7899	20.232		56.2944
-53.3974	19.7503		51.2215
-36.0466	39.0055		74.8733
-27.4913	37.2238		80.394
-26.4907	41.885		82.302
-43.9232	36.2087		67.1159
-48.2764	29.3744		58.9905
-28.0244	34.831		78.2267
-40.0805	30.7458		68.5603
-35.6191	33.2493		73.0241
-6.73146	22.3864		79.3813
-9.36508	26.4668		80.4333
-11.4609	25.0791		74.5731
-0.301212	31.1728		89.2773
0.970477	26.0591		89.0106
-16.7306	9.66101		74.7221
-5.04508	23.8777		83.3714
-16.4293	13.0409		73.3806
-21.8472	-49.8221		84.0837
-28.7617	-49.514		79.4095
-10.4496	-48.0742		95.3869
-10.0085	-45.6162		96.2523
-15.5647	-46.7795		93.5159
-15.6197	-48.7529		91.8183
-10.4578	-49.8693		93.8372
-21.3885	-46.9001		89.7314
-14.9733	-44.5681		94.5701
-21.05	-44.8803		90.8897
-15.3135	-50.0862		89.5082
-9.54204	-51.0803		91.818
-22.5726	-51.0609		85.7047
-22.2847	-50.8444		85.0679
-23.2359	-51.8863		86.3595
-17.866	-54.8024		91.0959
-16.8243	-53.2661		90.8604
-10.1086	-54.4829		93.2081
-9.61664	-52.6876		92.2782
-15.8487	-51.816		90.0868
-10.626	-56.5192		93.6523
-29.3506	-50.5041		79.2519
-9.41403	-52.4006		89.8612
-11.238	-58.6567		93.499
-11.8198	-60.8245		92.6374
-13.1677	-42.8255		95.3018
-9.53643	-52.1865		91.5738
-15.4469	-51.3619		89.3542
-19.6377	-58.5887		90.17
-18.8176	-56.6022		90.8934
-15.0864	-50.0867		87.9696
-15.2879	-51.6434		87.8567
-20.1871	-48.6429		83.9336
-14.8916	-48.6747		86.4114
-29.5941	-52.3685		78.2987
-9.8021	-54.2363		87.4525
-9.3215	-50.9691		89.9076
-9.99326	-49.0885		87.6749
-15.9043	-53.3416		85.8321
-29.7374	-42.2882		74.8096
-33.7207	-46.1483		71.6727
-18.5121	-42.3721		82.4941
-13.5489	-42.5435		84.675
-33.7097	-58.0018		73.8802
-29.6112	-59.1523		77.4891
-11.4231	-60.4289		85.3354
-7.12799	-61.1428		85.7389
-8.80045	-42.8965		85.7828
-17.0518	-59.7587		83.8055
-35.2678	-53.5023		71.3491
-79.4434	0.305279		-41.6159
-78.9677	9.22457		-42.4737
-75.4831	10.025		-47.4636
-75.9035	-0.0468441		-46.5691
-73.1404	17.4633		2.0689
-71.1648	32.7634		-7.03124
-72.5267	32.3502		-25.7773
-74.8076	24.7012		-21.6476
-79.1127	-14.2501		-35.0157
-78.6226	-21.5028		-30.8265
-79.5005	-7.30159		-38.7193
-75.445	-10.1451		-43.6166
-81.3105	11.5755		-41.1857
-82.6837	1.0543		-40.0908
-84.8859	-16.4473		-30.2702
-85.6192	-7.94448		-34.9416
-83.7224	-24.6169		-23.3102
-81.7896	-26.8014		-20.0568
-88.5842	2.25951		-31.5494
-88.1202	16.6738		-35.714
-77.7953	-7.7258		1.56003
-78.5488	-16.0221		0.409879
-81.2131	-4.54389		-9.65864
-82.31	-8.44541		-10.2056
-74.8647	24.0086		-20.2938
-85.2642	12.1336		-41.526
-81.2223	33.7484		-22.0626
-83.1152	32.9914		-19.9631
-80.1281	32.5721		-24.2802
-81.3791	16.9432		-11.1754
-87.7666	24.1754		-35.5307
-87.9028	11.7812		-30.4692
-87.1042	14.4626		-29.1139
-79.103	21.8655		-36.0374
-77.6199	18.9986		-39.1404
-82.0149	-13.0054		-33.5554
-78.016	11.1867		-6.26115
-76.9501	25.6893		-28.9748
-76.2985	24.5438		-31.4872
-84.2662	25.3673		-21.8279
-84.5378	5.69103		-24.4945
2.03771	91.95		58.5935
0.175838	77.5978		70.904
-1.69326	63.2051		79.7049
-13.3873	51.9498		84.2525
-4.73517	-22.3816		104.593
-4.19511	-12.2649		109.668
-3.26467	48.2843		87.2033
-3.74735	39.5285		88.7864
1.54816	21.7785		89.2176
-10.4381	90.9438		56.5334
-14.6603	44.1145		86.0429
-17.1451	36.8513		84.865
-21.7897	31.5885		76.6446
-15.3315	28.4855		76.2116
-21.7732	88.5842		51.8679
-21.6106	101.096		32.9225
-29.0392	33.4702		75.8079
-33.9517	74.8393		53.1134
-36.0829	35.6414		74.2085
-45.3184	71.6218		38.9665
-42.0707	32.9651		68.2748
-7.73289	27.9641		84.4815
-76.7153	-47.1491		-13.8115
-73.5054	27.9432		-37.7842
-68.8879	36.5319		-49.5045
-70.6838	11.273		-59.5674
-70.9547	-2.91688		-57.196
-74.4388	20.3057		-44.825
-69.6007	24.9358		-57.7456
-70.1503	-16.6105		-52.4822
-32.189	-107.501		55.0614
-43.3571	-101.635		47.0534
-66.0099	-69.8095		39.1014
-55.3331	67.917		19.9542
4.91178	107.771		36.8119
-8.97147	105.656		35.6407
-42.2579	26.9935		64.1737
-64.935	-61.0557		46.4202
-11.2796	-38.3936		95.2176
-23.4295	-38.8961		88.4926
-9.64621	-32.6175		94.8796
-14.184	-33.1634		92.3586
-17.032	-38.2009		92.4656
-39.1719	-41.2051		78.0134
-39.9201	-48.2073		76.1308
-78.4647	-31.375		-21.656
-77.1399	-18.069		7.99893
-76.2873	-8.96761		9.105
-68.5914	19.5211		19.4043
-71.2588	4.30605		22.5644
-43.9418	17.6284		61.4855
-73.5274	-8.35147		22.4862
-74.8997	-19.1119		21.4039
-12.0217	-5.45354		90.6563
-15.4007	-18.0028		91.7327
-13.5209	-17.0138		95.8077
-36.3604	-32.1521		79.5055
-58.1097	-44.143		60.8247
-47.646	-42.3491		71.7113
-56.7736	-55.0534		60.6833
-65.209	-22.2175		50.2649
-44.6338	-73.0728		69.7423
-52.0571	-64.7835		63.7093
-43.4996	4.94308		66.4529
-40.2821	10.1138		67.0407
-47.4419	-50.7626		70.8352
-44.7262	-57.9276		71.7184
-24.4439	-74.1519		85.131
-28.2444	8.67487		72.8368
-9.28726	-11.4822		103.948
-69.1312	-9.08519		37.3432
-71.0529	-20.4857		35.8603
-2.8098	25.3325		86.6819
-19.7425	-32.6114		88.5462
-26.2358	-48.3849		80.1514
-24.1688	-42.0744		79.0024
-56.3802	-134.937		20.6518
-64.3994	-129.979		13.6115
-68.5931	-142.719		10.6625
-60.2764	-147.104		17.0528
-59.6322	-97.9041		20.7831
-52.1927	-104.235		29.5549
-60.0023	-110.658		17.5648
-52.1418	-115.993		26.0446
-38.4005	-53.2631		75.9921
-67.1	-81.4535		15.3568
-69.6595	-72.0405		20.4742
-71.094	-125.248		5.97787
-75.3523	-138.086		3.14974
-72.5396	-67.6257		7.44733
-71.2718	-76.6871		2.98749
-74.2216	-74.0551		-7.68953
-74.9198	-88.1023		-34.0328
-78.9548	-22.6647		-2.00829
-73.432	-71.6143		-32.5585
-70.1985	-99.6745		-50.2101
-73.314	-116.176		-52.6508
-50.9022	-151.088		22.5029
-47.0511	-139.298		27.1325
-42.0443	-110.474		39.4184
-42.1914	-121.102		34.9494
-32.5126	-54.6114		79.2024
-22.1588	-51.184		83.9501
-22.6751	-52.6769		82.6705
-41.3729	-154.38		26.7634
-23.5846	-59.41		81.0675
-61.785	65.4861		-1.65949
-60.2226	-74.7916		-58.5873
-62.6397	-95.8831		-60.6301
-67.4991	-79.9362		-47.9982
-65.556	-113.313		-63.4725
-66.4148	-58.2121		-47.0661
7.87018	119.368		7.12468
-6.97601	116.789		6.98519
7.89947	112.739		-63.8488
5.9696	92.718		-93.1813
-8.59642	92.3415		-89.7874
-7.27772	111.363		-60.895
1.85574	67.5966		-109.889
-11.5198	67.6938		-106.562
-6.49162	119.531		-26.6492
8.74195	121.77		-28.218
-1.97413	41.4737		-118.159
-14.8992	41.5312		-114.78
-5.73533	13.511		-120.344
-18.5157	14.0255		-116.599
-21.397	-11.8875		-111.446
-9.34244	-12.4125		-115.302
-13.0815	-37.2398		-101.23
-24.1262	-35.8274		-98.8843
-18.4428	-74.1873		-84.5034
-21.4042	-93.2623		-82.9205
-31.7258	-92.7984		-81.2771
-29.4978	-73.8371		-82.2032
-24.5765	-111.954		-82.4869
-34.725	-110.867		-81.3066
-15.9	-54.0003		-90.7215
-27.3351	-54.0649		-87.958
-21.0657	111.08		5.99351
-34.2124	102.674		4.135
-34.6016	84.8645		-76.4916
-22.2631	89.7222		-83.9887
-25.2821	66.1837		-100.3
-37.4202	63.3024		-92.1847
-33.3969	99.9336		-51.5109
-20.6569	107.206		-56.666
-34.4948	105.017		-23.9175
-21.0513	113.831		-25.1971
-40.0559	39.4215		-100.408
-28.3041	40.8724		-108.475
-31.1999	14.3304		-110.329
-42.117	14.563		-102.334
-43.3805	-10.5201		-97.6238
-33.4719	-11.394		-105.178
-36.0091	-35.2234		-93.0812
-46.5367	-33.7164		-85.1033
-38.8972	-54.1275		-82.2205
-52.6381	-93.1317		-70.6846
-51.1667	-72.8668		-69.0918
-40.9057	-73.3973		-77.0635
-42.4426	-92.8597		-77.3935
-45.3483	-110.5		-78.247
-45.2309	89.7893		-44.8418
-45.4091	77.8641		-67.6619
-55.2223	68.5516		-56.2963
-55.7551	77.1987		-34.8184
-55.9891	79.9179		-12.7431
-46.3388	93.5802		-20.8663
-49.8653	37.0931		-91.1004
-47.6009	58.9626		-82.8715
-52.5632	-9.61171		-87.4898
-52.0148	14.0385		-92.116
-54.306	-31.0096		-76.6597
-63.4708	44.9677		-60.6375
-60.063	-8.03586		-76.9195
-66.056	-5.58654		-66.9439
-65.9471	12.2233		-70.4894
-59.6241	13.1995		-81.7275
-64.5289	29.0688		-69.4573
-57.7554	33.6528		-81.0153
-56.2265	52.8314		-72.2963
-64.8684	-38.0879		-53.2732
-65.3226	-22.2373		-60.3061
-60.1122	-27.2023		-68.4795
-87.2697	24.8383		-36.1609
-85.3597	25.2055		-37.348
-84.9088	32.2075		-28.3861
-82.8189	33.0149		-29.4916
-81.4143	28.0215		-13.9846
-79.5181	28.6103		-15.9152
-77.5448	27.6671		-18.8669
-83.9165	23.3686		-38.2407
-81.8755	31.4468		-30.7403
-88.756	12.9651		-38.2935
-84.1197	31.9322		-19.21
-85.7562	31.0803		-27.9466
-56.0362	-111.32		-72.2248
3.27929	-103.129		73.6932
0.120992	-104.009		73.813
5.90598	-103.237		70.7311
4.3086	-101.305		75.8469
65.3206	-18.1885		50.4214
63.3157	-16.9441		53.6887
65.3208	-21.6426		49.8711
67.2835	-14.4706		46.7142
61.5493	-15.0559		55.9347
62.2354	-11.0358		54.3819
58.7776	-15.9991		59.3628
18.8779	29.8636		90.6243
21.2042	28.1354		90.0362
22.6059	32.1573		90.1754
16.4759	31.7535		91.0037
16.6888	27.0133		89.7486
14.837	14.4598		83.1948
15.4446	13.5574		82.0863
15.6096	15.8029		82.4956
14.3036	14.8302		84.2304
18.7936	15.1669		77.1674
20.1824	14.0887		74.5527
19.7118	16.481		76.853
17.4057	16.3116		80.135
18.0562	13.8252		77.8211
47.894	7.27076		68.3638
44.6521	6.38591		70.7177
49.7729	8.1981		66.7233
20.1578	8.01263		75.6584
20.1427	9.13196		75.2958
19.5191	7.03056		76.8255
21.373	7.04171		75.0287
20.6212	-58.9991		77.5385
20.5275	-58.8675		77.7887
20.7176	-59.1253		77.1017
20.5267	-58.9256		77.844
19.6515	-57.6217		80.0973
19.8915	-58.2607		78.7457
20.6377	-58.2331		79.0046
19.7755	-57.1841		80.7627
17.9991	-56.9564		81.7769
23.4742	-59.5039		77.9653
23.9518	-57.2017		79.5442
20.9865	-59.3682		76.284
20.7143	-58.5438		76.9552
21.6087	-59.4818		74.9541
20.7247	-59.6354		76.5964
15.065	-61.2151		83.0303
15.2979	-62.0373		82.6836
18.3551	-60.5335		79.9524
15.0942	-60.5826		83.058
11.6845	-61.3661		86.1787
14.8325	-51.8914		89.4969
14.656	-50.4525		90.2441
12.0459	-49.6536		92.1085
14.9402	-52.7135		89.0266
17.0733	-53.7042		86.8209
19.7655	-58.8717		78.6312
19.8499	-58.9208		78.6144
19.8968	-58.8946		78.5124
18.1386	-58.6503		79.6987
76.2355	-48.3033		-5.89953
75.5919	-48.6077		-5.0656
75.3874	-51.7487		-8.91581
76.9294	-47.4287		-5.82289
85.7494	-40.7141		-17.5335
86.5832	-39.0039		-20.2051
84.842	-38.8885		-16.3678
85.0472	-41.7459		-15.0689
86.0529	-42.1417		-18.1846
79.7466	-45.7949		-7.64727
80.218	-43.1933		-6.97922
79.0533	-45.9563		-6.91973
80.276	-47.1984		-9.24583
81.63	-33.4974		-10.9719
81.7249	-32.4636		-11.8447
81.8444	-31.7254		-10.7621
81.7962	-34.0365		-9.63696
81.856	-35.1083		-11.3586
89.5955	-14.9408		-11.9536
88.83	-16.8163		-12.7114
89.9987	-14.2043		-12.5165
89.6979	-14.3971		-11.0384
94.6283	-4.79543		-16.0724
94.7117	-4.2039		-15.0815
94.0982	-5.66135		-16.0467
96.0675	-3.90733		-19.1351
84.5153	-31.8438		-17.9146
83.7482	-30.2159		-16.517
83.4698	-35.4765		-15.2762
86.3507	-35.3467		-20.6405
87.2155	-29.8442		-21.8092
91.7729	-13.9687		-18.3946
92.3214	-12.9078		-18.7489
90.4165	-14.1689		-14.5949
91.5628	-15.2695		-19.4461
93.7768	-25.2911		-30.3871
93.6908	-25.0562		-29.8096
92.4907	-28.2251		-29.9663
94.3093	-24.239		-31.3423
94.8775	-22.6593		-33.0051
95.3426	-20.5713		-31.9474
94.7098	-23.3448		-34.0632
95.6135	-19.6833		-34.2561
87.298	-37.4776		-22.1742
88.0867	-35.3436		-24.0014
87.5923	-38.6039		-22.9824
91.4203	-24.3476		-26.2697
90.1189	-26.1253		-25.1358
92.6932	-24.8587		-28.1115
91.622	-23.0116		-25.9984
78.6732	-40.5377		-3.69311
78.4366	-42.8093		-4.39392
79.3619	-40.2381		-4.57253
78.5311	-39.6493		-3.03828
78.62	-38.0016		-2.29099
79.2159	-36.0163		-2.27351
78.2006	-38.0808		-1.40401
81.2564	-29.2595		-2.64087
80.9135	-29.7567		-2.20414
81.5761	-29.6678		-3.53484
82.1372	-26.1641		-2.85095
80.4866	-30.4793		-1.72537
80.1309	-30.2663		-0.793481
80.0012	-32.8415		-2.00896
83.2614	-37.0343		-13.9935
82.9049	-38.0187		-12.1764
84.654	-25.0384		-11.1832
83.0628	-28.6318		-10.908
84.5255	-25.5395		-12.6792
86.2896	-21.4523		-11.4578
85.1583	-24.0013		-9.95852
96.8854	-9.30604		-28.1799
97.1293	-8.59474		-28.4366
96.6564	-9.69914		-27.6111
96.9848	-10.5274		-29.9302
96.3999	-14.1599		-30.7483
96.0243	-15.219		-29.3194
96.2042	-15.8333		-31.6489
96.7193	-12.8635		-31.5797
96.4197	-12.3376		-28.8143
93.8212	-6.24872		-16.2158
94.7576	-6.30771		-18.8399
93.0529	-6.99758		-15.0865
95.8086	-6.61675		-22.1324
95.2126	-7.58754		-21.427
96.989	-7.12241		-26.2009
96.589	-5.45295		-23.0131
46.0833	18.5566		74.5864
48.1746	17.1502		73.3471
43.3653	19.5837		75.2416
10.0376	-103.117		66.4135
8.81641	-104.68		63.1649
12.7987	-101.7		66.1988
51.3575	11.4144		67.9335
50.902	13.5522		69.8658
51.7393	9.65542		66.468
55.08	12.3381		67.2154
57.1235	13.1493		66.518
54.0278	15.0738		70.194
53.2585	12.1359		67.9789
55.2425	9.81896		65.0719
68.3548	-60.0603		-1.45291
69.5339	-58.5933		-6.0512
68.9678	-58.515		-0.0265155
67.3283	-62.1846		-1.84662
23.1026	12.8371		71.3997
23.3498	12.0743		71.2669
23.3361	13.7596		71.4984
22.7164	15.4388		72.5983
24.2194	16.9177		73.094
22.1829	14.1464		72.3666
13.7532	15.9876		85.401
13.0982	16.0824		86.3982
14.1717	17.7843		85.5151
14.0758	-56.3346		84.0823
14.7447	-56.9076		82.3605
14.5731	-56.1032		84.5534
11.0441	-55.1398		86.9132
57.6076	-81.9047		-6.55864
56.8052	-81.7617		-1.08103
56.6128	-84.5514		-8.44495
58.8593	-79.4817		-7.16577
80.9505	-17.7837		2.91098
79.0248	-24.706		5.63301
81.7719	-18.7311		0.261837
82.944	-10.3665		-0.687951
79.9005	-16.4957		7.31744
57.5796	-84.8865		-19.9605
56.6767	-87.0303		-21.6517
58.9512	-80.5981		-20.4032
56.6086	-87.0804		-15.2303
48.5642	-119.851		-25.5128
47.1478	-128.314		-27.0351
47.6625	-116.038		-33.2202
50.0961	-110.905		-25.3406
48.2991	-122.412		-19.4089
20.0246	-59.3224		78.6414
20.1396	-59.4913		78.5943
18.1969	-59.502		80.0242
20.3246	-59.7709		78.5452
14.8363	-60.0912		83.3238
15.0999	-59.693		83.0302
11.5453	-59.6256		86.4786
15.0046	-100.259		66.1009
19.4283	-99.3683		60.7468
15.3615	-98.0938		69.0319
43.1112	-69.2798		-64.8126
42.4479	-65.2242		-68.915
45.9065	-68.7241		-61.0122
41.6667	-72.2405		-64.6113
70.5996	69.0258		36.4644
72.8949	70.7555		29.4234
67.321	72.6502		39.153
70.6573	64.9013		39.3901
89.6918	-34.4373		-31.2501
91.7968	-29.7038		-34.1096
90.3078	-33.72		-30.2265
87.8917	-38.3594		-28.6649
89.0995	-34.3916		-32.4984
86.8295	-13.2851		-6.33744
85.3647	-17.3644		-5.17322
87.8105	-13.5528		-6.99671
88.2874	-9.21273		-7.96391
85.5836	-12.8846		-5.61596
81.5042	-33.9309		-5.78315
80.9471	-34.51		-4.71681
81.5866	-36.618		-7.04574
81.8486	-34.2645		-7.3566
81.7172	-32.2639		-5.45222
80.4764	-40.2947		-6.19524
80.3891	-37.3965		-4.92848
81.356	-40.1651		-7.55848
93.707	-24.2125		-36.5351
92.9627	-24.0888		-37.3574
95.311	-18.2448		-37.5814
94.1492	-24.292		-35.6694
91.9967	-23.7939		-38.0324
90.3333	-29.1219		-36.086
91.0102	-23.3854		-38.4213
93.395	-17.9388		-38.903
85.0431	-8.74601		-6.92897
85.6965	-6.61208		-8.69392
84.9617	-7.67501		-6.62015
84.7955	-10.3688		-5.74634
86.7353	-32.1368		-35.4766
85.1503	-31.3069		-36.2723
88.1192	-27.9258		-37.2839
87.684	-32.9091		-34.7634
85.0643	-35.8079		-33.5845
87.6157	-39.7025		-23.7763
88.6793	-36.7591		-26.2225
86.9029	-41.5807		-21.6264
87.3663	-40.6296		-24.9914
83.7123	-47.8181		-21.8142
82.8035	-49.4974		-18.9673
82.1801	-48.9871		-22.88
85.1792	-44.8487		-24.5067
85.4557	-45.3636		-20.3653
84.5916	-46.1193		-15.1275
83.8153	-47.7337		-15.473
85.2848	-45.1354		-16.7227
84.2568	-45.3517		-13.803
72.5846	-54.7298		-11.1899
71.9179	-55.5999		-11.6848
73.8053	-54.0156		-12.8777
72.7221	-53.7365		-6.86237
77.8925	-52.0223		-12.2487
78.1515	-52.8787		-14.6336
79.2964	-50.8552		-11.8241
77.6486	-50.1033		-9.20678
76.7172	-52.7057		-12.4875
91.5351	-7.5416		-9.14014
91.7901	-6.07057		-9.24498
89.6341	-10.7316		-8.32519
91.8425	-7.63618		-9.50209
91.9066	-5.15965		-9.47559
93.7782	-2.18505		-11.377
91.5539	-5.10984		-9.49101
94.3868	-24.1529		-34.9194
92.733	-28.5891		-32.4186
95.8711	-18.6882		-36.2843
97.666	-10.2473		-32.8943
97.293	-11.2108		-32.6277
97.7056	-10.9222		-33.7718
97.8336	-8.71012		-31.364
92.7285	-6.73355		-11.2262
92.5434	-6.93695		-10.6856
92.0529	-8.20037		-11.4908
93.488	-5.26428		-12.1926
92.0297	-7.72117		-9.8771
90.739	-10.6989		-9.8203
93.7638	-3.76234		-11.3079
93.4166	-24.9794		-29.225
94.511	-22.1967		-29.5123
91.5905	-28.2651		-28.1989
91.5329	-9.71341		-13.0286
92.2061	-8.21002		-13.5426
91.4111	-9.84357		-12.559
91.7092	-10.6755		-14.798
92.7327	-7.49977		-14.7118
93.1861	-7.99925		-16.672
88.7917	-29.0222		-24.1861
89.165	-30.9048		-25.2638
85.4262	-23.1993		-8.79821
87.1674	-19.061		-8.87005
85.247	-23.1377		-7.69956
83.6628	-27.6443		-8.83347
90.2	-13.8178		-12.8212
90.6952	-12.1352		-12.2213
47.9143	-67.0339		-59.0729
48.9179	-62.498		-61.6998
49.2919	-67.4732		-56.3255
23.6126	-27.6996		83.1536
24.9537	-32.2041		83.2056
24.1624	-26.1921		82.8511
21.6643	-26.7922		83.898
18.8621	-24.4127		85.7896
19.2351	-25.5032		85.3134
19.5142	-21.701		85.9193
17.7852	-24.741		86.966
57.1158	27.962		71.7443
56.5042	25.9462		72.7202
61.6812	23.2519		65.9106
58.0197	29.618		70.177
53.4096	30.1539		75.2119
6.84173	-27.709		95.128
6.26698	-27.0371		96.1248
6.52518	-28.3372		94.9505
7.98682	-27.9068		94.3136
8.63688	-25.1448		97.4687
7.23384	-25.2474		98.2001
9.69825	-25.9466		95.5436
9.27188	-24.3195		98.1638
50.4722	8.80461		66.4435
50.3645	9.61929		66.7489
15.4041	-18.252		96.0726
15.3387	-19.1693		95.8921
15.81	-18.2087		95.2442
14.5135	-17.5434		97.715
83.3621	-39.5904		-31.4485
81.8532	-41.9171		-30.0303
82.3002	-37.8067		-32.8872
84.2015	-40.8682		-30.3281
80.0024	64.656		16.6566
78.2392	68.4471		17.8498
79.7604	60.0912		21.1906
82.3412	64.9552		6.9495
20.8524	-64.7934		73.4409
21.8	-63.1255		72.9189
20.6788	-65.8727		73.0364
19.9569	-64.235		74.6656
22.6068	-54.4077		74.1904
21.3951	-54.3427		75.5436
22.6392	-53.2709		74.0796
22.9639	-56.3771		73.4721
-33.61	-98.8515		71.7137
-33.659	-97.1876		73.7382
-36.1742	-98.1717		68.5945
-31.0647	-100.457		72.0944
-61.5703	3.50008		48.042
-61.9751	7.63204		44.7924
-62.7844	0.368868		47.3601
-59.2783	3.8352		51.3025
-56.7973	5.00557		53.8205
-54.5268	3.25869		57.1711
-55.9612	9.10525		52.5174
-4.35501	33.6843		88.498
-6.40822	31.6138		87.4291
-2.88911	30.4942		88.3861
-1.49892	35.043		89.3168
-6.81924	35.9935		88.047
-4.1354	17.716		82.8232
-3.61735	17.8313		83.8464
-4.47332	19.2053		82.1104
-4.95795	17.2334		81.5993
-7.72531	20.5075		76.6191
-9.70627	20.4452		73.8137
-7.33492	18.9827		77.3076
-6.06028	20.5862		79.5715
-8.29792	21.9631		76.2745
-38.0177	22.7612		66.5928
-35.2394	20.6895		69.2129
-39.4522	24.2467		64.8876
-11.0405	14.231		75.045
-12.5989	13.5745		74.3836
-10.6265	12.9865		76.2674
-10.7567	15.3914		74.6557
-31.8314	-49.7172		77.4254
-31.696	-49.616		77.7034
-31.7196	-49.679		77.7567
-31.9563	-49.807		76.9707
-30.4236	-48.7111		80.0558
-31.6392	-48.9614		78.8481
-28.6321	-48.6674		81.7464
-30.4264	-48.2541		80.6711
-34.4124	-46.8497		79.0402
-32.3003	-49.9502		76.0941
-32.145	-50.2949		76.4721
-32.96	-49.8503		74.6317
-31.7315	-49.2569		76.8028
-27.5917	-53.5869		83.3424
-28.1959	-54.3083		82.9202
-24.9225	-54.9436		86.4404
-27.3626	-53.0148		83.3602
-30.2556	-51.857		80.1152
-23.8123	-45.2683		88.8031
-23.1881	-43.9376		89.4855
-26.4458	-46.2282		86.2826
-24.1607	-45.9976		88.3794
-20.6452	-44.0176		91.3298
-30.9628	-49.8767		78.622
-29.3342	-50.2127		79.8061
-31.0938	-49.8556		78.4946
-31.061	-49.8954		78.6025
-81.3401	-21.5608		-8.10762
-81.805	-20.4939		-8.05158
-81.5799	-25.1441		-11.2054
-80.8465	-21.9617		-7.2849
-87.1739	-11.3166		-19.9732
-87.3008	-9.46343		-22.6511
-87.9295	-12.5769		-20.6456
-86.9356	-12.4831		-17.5044
-85.7345	-9.88393		-18.7682
-84.3313	-17.8656		-10.0425
-85.3149	-18.9499		-11.7142
-83.9055	-18.1665		-9.4057
-83.4681	-15.2629		-9.25121
-81.0119	-5.77211		-13.2157
-80.7309	-4.78362		-14.0868
-81.7701	-7.23349		-13.6412
-81.3894	-6.22115		-11.8873
-80.6168	-4.03389		-12.9908
-82.1613	14.2738		-14.2524
-82.0953	14.823		-13.3306
-82.2774	15.0976		-14.825
-82.0571	12.2549		-15.0069
-83.3913	25.4644		-18.4784
-83.2935	26.0517		-17.4822
-84.3804	26.7673		-21.592
-83.1828	24.4732		-18.4423
-81.493	3.79125		-17.9702
-83.0949	7.911		-21.1926
-81.3982	1.32938		-18.3653
-80.974	2.64189		-14.9239
-81.7047	7.64437		-17.0304
-83.9675	18.6177		-21.3711
-83.8839	17.0538		-21.1471
-82.6453	18.97		-17.1465
-84.2064	20.2779		-22.1909
-85.7373	18.3656		-26.281
-82.6565	-15.633		-31.6092
-83.5883	-13.9563		-32.3656
-81.4304	-15.683		-32.0948
-82.9647	-17.9526		-30.0102
-89.1504	5.78206		-32.9382
-89.2723	6.94578		-33.9019
-88.9406	2.58096		-32.4988
-89.0046	5.97921		-32.3563
-89.2327	8.61447		-35.5701
-88.9928	10.75		-34.5126
-88.8924	11.6648		-36.8245
-89.2791	7.90365		-36.628
-87.4014	-7.80964		-24.6292
-87.3692	-5.55535		-26.4611
-88.039	-8.78756		-25.4539
-85.8296	-6.09542		-23.0532
-86.7162	5.9199		-28.7417
-86.1221	3.81899		-27.583
-86.4617	7.24981		-28.4662
-88.0406	5.84608		-30.6246
-85.8795	0.650672		-26.6172
-86.8414	-1.01389		-27.7201
-84.7389	-0.624536		-24.202
-80.9125	-13.2644		-5.90156
-80.4436	-12.4873		-5.25421
-81.4228	-12.7805		-6.79445
-81.6288	-15.4859		-6.70029
-79.9769	-10.8946		-4.4803
-79.6332	-11.0902		-3.58485
-79.8428	-8.83766		-4.45015
-79.4288	-1.83845		-4.77517
-79.1893	1.34472		-4.97174
-79.8464	-2.12342		-5.68861
-79.2892	-2.41295		-4.3329
-79.1506	-3.226		-3.84843
-79.499	-5.60105		-4.15469
-78.7694	-3.13518		-2.89595
-83.6818	-8.6217		-16.347
-83.3144	-7.10571		-17.616
-83.7212	-9.63466		-14.521
-80.9611	3.16468		-13.4187
-80.6997	-0.732498		-13.1358
-81.1115	4.31017		-12.1979
-81.2727	7.06992		-13.7088
-80.6242	-2.61244		-12.6375
-80.8552	-2.53294		-11.7558
-86.7503	21.9168		-30.7158
-87.2117	20.7894		-32.4792
-86.6802	21.4724		-30.1413
-86.7351	22.668		-30.9762
-87.8612	17.1628		-33.3032
-87.898	16.0463		-31.8681
-87.3147	18.8991		-31.3552
-87.7057	18.4892		-34.1374
-88.2174	15.5135		-34.2096
-83.1156	23.8286		-18.6069
-82.6686	22.873		-17.4526
-83.9579	24.0741		-21.2692
-84.9765	24.1194		-24.6064
-84.7569	23.0106		-23.8853
-85.3013	25.4718		-25.5072
-86.1628	24.0205		-28.7235
-84.4368	21.6895		-22.9757
-85.8822	21.3915		-27.2068
-83.0948	21.9694		-19.0564
-32.3555	32.313		73.2495
-29.4372	32.4052		74.036
-34.8778	31.7637		71.9311
-39.9215	-97.0047		64.0016
-41.9218	-95.0061		63.4157
-39.4312	-98.8066		60.9966
-39.7921	27.7642		66.2666
-40.698	26.3258		64.7344
-38.6157	29.4623		68.2884
-42.687	29.8779		65.7793
-41.0341	31.8088		68.5991
-44.2303	30.7324		64.7197
-43.3947	27.3492		63.4809
-41.3825	29.0501		66.3028
-78.1069	-35.1687		-3.83557
-77.8768	-37.5896		-4.23557
-78.1906	-33.4455		-2.40206
-78.5352	-33.5219		-8.37868
-14.1082	20.5975		69.9221
-14.4407	19.9149		69.8242
-14.151	21.5276		70.0845
-12.5221	22.803		71.478
-13.3457	24.4459		72.0408
-12.286	21.4554		71.2871
-2.88547	18.5994		85.0225
-2.81018	20.453		85.1183
-2.34929	18.4962		86.0061
-24.709	-49.513		84.0576
-21.5681	-49.421		86.7016
-25.031	-49.1533		84.4656
-25.4865	-49.8068		82.5173
-75.4159	-60.6963		-8.64684
-75.7243	-57.789		-9.31069
-75.2832	-63.7614		-10.4241
-74.8839	-60.7836		-3.2771
-75.3543	8.8144		0.966441
-75.9953	1.72797		3.70615
-74.0402	9.66732		5.47041
-74.6179	16.4039		-2.67678
-76.3821	8.19525		-1.74776
-75.6525	-63.7977		-21.7498
-75.7432	-66.3131		-17.0456
-75.4637	-59.0797		-22.2759
-75.4419	-66.2426		-23.3783
-78.7502	-100.58		-26.7898
-80.1328	-108.926		-28.3003
-79.5714	-103.292		-20.6431
-77.2274	-91.5895		-26.6819
-76.348	-97.0282		-34.5013
-31.3763	-50.2255		78.63
-29.7379	-50.9781		80.1718
-31.1995	-50.1027		78.6702
-31.5285	-50.3445		78.5851
-33.0351	-49.5787		77.878
-32.4223	-50.9838		78.3635
-26.9678	-52.6809		83.6122
-24.1577	-53.4069		86.6945
-27.0236	-52.24		83.3005
-43.4485	-93.1109		62.981
-42.983	-91.2191		65.6374
-47.2633	-90.7594		57.5719
-55.2844	-53.1958		-66.0623
-54.9172	-56.5038		-65.8183
-57.8696	-51.7777		-62.3345
-53.1529	-49.5087		-70.1408
-37.7932	87.3806		34.395
-39.2459	83.5251		37.2852
-33.6696	89.7387		37.1795
-39.195	89.7096		27.3672
-88.3754	-4.25295		-33.7478
-88.6799	0.907966		-36.6334
-87.7702	-4.42206		-34.9771
-88.0841	-8.54339		-31.1437
-88.739	-3.35298		-32.7369
-79.1263	14.9343		-8.50267
-79.1611	10.6324		-7.31646
-77.8383	14.9012		-7.74118
-79.0827	19.2287		-10.1561
-80.1225	15.0052		-9.19385
-81.1824	-6.16939		-8.00536
-80.8873	-6.88067		-6.92914
-80.8208	-4.53		-7.65635
-81.579	-6.39164		-9.60146
-82.1492	-8.6824		-9.30969
-82.4639	-12.4849		-8.4386
-81.3615	-9.77732		-7.16809
-83.1921	-12.0983		-9.83332
-88.5652	6.72662		-39.0793
-89.0293	6.80601		-38.2273
-88.0407	12.8987		-40.1378
-87.8024	6.58831		-39.8803
-86.7784	6.53854		-40.5266
-87.0585	0.95176		-38.5628
-86.1035	12.541		-41.4055
-85.7051	6.59393		-40.8865
-75.9041	18.6101		-9.03454
-76.2453	17.0053		-7.84246
-75.4728	19.5852		-8.70789
-75.7595	20.8256		-10.8206
-84.7123	-3.09947		-37.8732
-82.9189	-2.84652		-38.6241
-84.4349	-7.12153		-35.9601
-85.8834	-3.5112		-37.1893
-84.5427	1.33944		-39.6954
-88.4156	-9.83592		-26.2605
-88.3474	-6.72644		-28.7099
-88.4645	-10.8201		-27.4775
-88.4449	-11.8236		-24.1088
-87.576	-18.8358		-24.2742
-88.4176	-15.8836		-22.8505
-87.8594	-15.5583		-26.9718
-86.4989	-20.4904		-25.3043
-87.4035	-20.6943		-21.4248
-88.0475	-16.7915		-17.5862
-87.5287	-16.153		-16.2033
-88.287	-15.6454		-19.2057
-87.898	-18.6242		-17.9026
-79.8698	-28.9285		-13.4844
-79.8224	-27.8257		-9.17297
-80.7141	-27.8663		-15.1795
-79.5316	-29.9932		-13.9728
-84.2814	-24.1884		-14.4412
-84.4625	-25.3003		-16.9836
-83.0816	-25.581		-14.8089
-83.8201	-22.4388		-11.7696
-85.4228	-22.6319		-14.2066
-81.5519	21.8749		-11.4281
-81.8673	21.8879		-11.8051
-80.8552	18.2509		-10.5686
-81.2937	23.3376		-11.5331
-81.0917	24.2283		-11.7628
-80.7433	24.1582		-11.7687
-81.8144	27.6403		-13.7169
-87.6862	21.2681		-35.4661
-87.3662	22.7807		-33.9302
-87.9286	20.6399		-36.3497
-87.6649	20.2362		-35.1935
-82.361	23.0253		-13.5596
-82.5607	24.6565		-14.5467
-82.2124	21.4225		-13.8141
-82.267	22.7741		-13.0136
-82.0652	21.8702		-12.1904
-82.3362	26.1596		-13.6599
-81.8555	18.6462		-12.112
-88.7352	5.9641		-31.7619
-88.1525	2.26029		-30.7054
-88.8178	8.95763		-32.0641
-82.5439	22.2957		-17.0687
-82.3128	21.4581		-15.8824
-82.1966	19.8236		-15.3547
-82.1361	19.6624		-14.8791
-81.1189	5.16068		-11.0312
-81.3488	9.61854		-11.1119
-80.9784	0.402299		-11.0644
-80.9568	5.16883		-9.9142
-82.3298	15.527		-15.1343
-82.2411	17.2755		-14.5351
-82.6098	15.259		-16.9275
-59.2662	-49.5104		-60.4518
-60.8039	-49.492		-57.7415
-58.5928	-44.8214		-63.1004
-24.8394	-19.5419		81.3904
-22.5771	-19.3441		82.2665
-24.9055	-18.0302		81.094
-27.635	-23.0299		81.2241
-19.174	-18.0981		84.385
-18.2364	-18.6514		85.6163
-19.0882	-15.4472		84.4735
-19.8403	-18.9263		83.8494
-39.7413	44.0452		69.8038
-40.1327	42.1189		70.4541
-34.9364	45.1112		73.8295
-39.7054	45.9446		68.4267
-45.1518	41.2834		64.1014
-8.13759	-23.8124		96.2985
-8.24355	-23.3035		96.8226
-8.83826	-24.144		95.1223
-7.21489	-24.1996		97.1745
-8.34271	-22.6495		97.7834
-9.16346	-22.1314		97.3404
-7.32745	-22.6331		99.546
-39.8924	25.1048		64.617
-39.504	25.8808		65.0112
-14.3603	-13.0436		94.8279
-13.3787	-12.6254		96.6048
-14.7062	-12.9201		93.9439
-14.5631	-13.9604		94.6476
-47.4852	86.1977		14.5367
-49.3381	87.2186		4.84198
-48.8518	81.8206		19.0513
-44.6353	89.2116		15.7628
-34.3321	-55.1957		73.1109
-33.2026	-54.9357		74.5211
-34.858	-56.3396		72.3624
-34.6014	-53.256		72.4783
-32.1998	-44.6769		73.378
-33.2363	-46.4082		72.725
-31.9815	-43.5555		72.9837
-30.962	-45.0772		74.9213
-10.3163	-21.609		96.4817
-10.663	-20.5988		97.2105
-11.4403	-22.0535		94.3525
6.15882	-25.4435		98.5418
5.1275	-25.0293		100.064
5.86196	-26.0111		97.6747
5.56274	-26.458		97.1855
4.37697	-26.4734		97.926
-9.51105	-24.624		93.9738
-10.511	-24.5137		93.0293
-9.46469	-25.2836		93.7904
78.8222	-48.4787		-25.0744
77.0176	-48.7593		-24.8614
79.8404	-45.4411		-27.6969
79.9258	-49.0241		-24.4344
77.2519	-51.5308		-21.6747
67.3963	-58.4589		13.3714
65.8768	-59.5051		21.1461
65.6989	-63.0261		12.1744
68.7878	-57.0426		6.57335
68.9583	-53.6739		14.619
43.6686	-125.857		-5.51581
45.2974	-115.609		-4.93137
40.8999	-126.654		-1.11938
42.4014	-136.226		-6.72945
45.9042	-124.807		-10.0285
41.72	-143.753		-8.04618
41.2406	-149.72		-9.30935
43.7936	-142.137		-12.7365
38.9596	-145.347		-3.39084
40.5928	-109.519		5.40444
42.304	-103.717		6.585
36.9448	-110.691		10.1302
39.087	-117.108		4.32478
43.9989	-108.805		0.31253
50.2113	-107.554		-13.1655
48.8956	-114.447		-13.6941
51.2546	-106.358		-18.3667
51.3951	-102.198		-12.7806
48.7155	-107.951		-8.75054
56.4265	-78.4049		24.0658
58.3694	-74.7223		25.7718
53.6318	-80.2092		31.7026
54.3909	-81.779		21.904
58.4066	-76.6872		16.3511
79.0567	20.2314		25.9105
81.3202	27.687		21.4957
75.0974	23.971		36.6699
77.2488	13.0053		28.9059
82.6726	17.8576		14.2079
88.2765	28.2134		-26.9976
87.4863	25.1893		-36.726
87.9887	35.3503		-32.1409
88.6394	30.0395		-16.3298
88.1042	20.8122		-22.1952
-11.9817	-122.904		45.7508
-15.2042	-122.734		46.6038
-11.6759	-128.469		43.0978
-7.82035	-122.801		44.3396
-11.1134	-118.647		48.2109
-11.4412	-137.856		38.3744
-11.7324	-147.728		33.6251
-7.2766	-137.407		36.8503
-15.0999	-137.662		39.5345
-20.0385	-154.161		32.1584
-16.12	-154.407		31.6494
-19.4079	-147.346		35.1814
-23.7612	-153.614		32.3479
-20.2906	-158.825		30.2156
63.031	-64.9236		-30.9495
66.3984	-59.3002		-28.687
61.6366	-71.173		-25.6897
59.5493	-70.5599		-33.2537
64.8871	-57.5163		-35.1715
66.5488	-52.261		-38.2337
62.081	-57.4468		-41.6164
68.1282	-47.7129		-40.6803
70.3067	-48.1576		-35.0623
45.9465	-135.241		-29.0356
44.654	-141.851		-31.3992
44.9044	-132.197		-35.8295
45.9291	-138.425		-22.614
-18.503	-137.515		40.1334
-18.0701	-128.224		44.7905
-21.6945	-137.076		40.3609
63.6191	-61.1749		29.2132
65.3179	-55.6841		29.699
61.1543	-62.0256		36.7259
61.9758	-66.1383		28.176
59.8377	-75.2157		8.66318
57.6528	-78.9437		7.07225
60.7044	-74.5696		0.763414
61.973	-71.2536		9.88385
-3.04343	-91.1088		86.3739
-6.95482	-90.6828		87.5078
-3.59071	-95.2325		84.597
1.45959	-91.6075		84.4591
-2.42313	-86.9976		87.2035
6.32704	-91.305		82.0297
5.8267	-95.3703		80.3435
11.4972	-90.2947		78.8885
6.93113	-86.7947		82.9761
-8.75316	-82.3516		88.8289
-5.51673	-82.4409		88.3842
-7.79767	-77.8694		88.59
-11.8245	-82.1509		88.8941
-9.63454	-86.5978		88.7271
-4.14895	-99.0552		81.8216
-4.3691	-102.135		78.2914
0.459282	-99.2689		80.1593
-8.10062	-98.5991		82.9588
-4.17453	-104.508		74.1655
-8.51642	-104.541		74.8001
-4.44965	-106.505		69.3432
18.3731	-1.10043		82.4361
18.2132	-5.1056		84.6122
20.421	-3.26556		80.8329
18.5344	2.77132		80.1841
16.4351	1.41242		84.4073
45.1493	-34.9823		73.9015
50.7278	-36.7794		68.6033
45.1918	-29.6758		74.0021
39.3687	-32.7935		77.8304
44.8257	-40.0159		73.6238
56.2582	-27.412		63.0153
60.711	-27.8998		56.6759
55.7226	-21.6841		63.581
50.8308	-25.6197		69.0188
56.2037	-33.0012		62.6584
68.8324	-8.893		44.0115
71.0307	-9.90116		39.1507
69.7066	-0.935238		43.2924
66.5383	-7.06596		48.0547
44.457	-44.97		72.6981
43.8217	-50.0931		71.6641
49.4468	-47.1728		67.1171
39.3421	-42.8107		77.0297
4.87521	1.55623		100.413
5.49905	6.88052		96.8611
3.22523	2.15705		100.498
4.29337	-2.70242		103.507
6.69219	0.717075		99.7515
43.3645	61.7627		71.2411
38.33	63.2582		73.3749
41.1741	55.6109		75.4203
48.7296	59.6375		68.3642
45.5865	67.4521		67.0448
-13.8478	-108.879		64.8461
-14.9246	-111.435		58.9019
-10.0192	-109.012		64.3955
-12.824	-106.559		70.406
-17.3871	-108.554		64.948
58.3997	-62.157		43.8325
55.2461	-61.5358		50.8312
56.1733	-67.9801		43.3318
60.1501	-56.4384		44.522
-11.669	-98.3763		83.3711
-11.0569	-94.7052		86.1196
-14.9283	-98.2552		83.2356
-12.0383	-101.825		79.3486
-12.263	-104.404		75.0322
-15.7659	-104.127		74.9661
27.6755	-92.3274		60.6517
21.9196	-93.7119		66.1634
26.4457	-95.2526		58.0466
33.5702	-90.2108		55.6509
28.4215	-88.8373		63.5682
33.1109	-98.7412		36.5243
30.2828	-102.366		32.2119
38.1066	-96.2977		31.2878
35.5353	-95.6421		40.6052
27.1144	-101.272		41.8864
-16.4424	-114.382		53.2875
-13.2548	-114.798		52.6844
-19.4408	-114		53.3842
-17.6609	-118.08		49.337
8.207	-7.8759		103.672
8.13854	-10.7844		105.746
10.7105	-9.2286		100.957
8.43928	-4.54985		101.196
5.86165	-6.82306		105.305
24.2486	-23.4016		82.8497
27.9235	-26.5699		81.7677
23.4285	-18.2862		82.8228
21.2456	-19.8405		84.3998
22.6467	-60.3578		77.8602
24.7214	-60.3782		77.6311
10.6516	-26.847		93.745
12.1185	-25.7655		93.831
9.97796	-27.6785		93.3125
12.2705	-27.1004		92.1385
9.82544	-30.8367		91.7743
10.1711	-32.4332		91.5411
12.0368	-31.1749		89.9978
9.76395	-29.8165		92.0235
8.02754	-30.15		93.264
-0.0639589	-26.0465		100.804
0.135863	-25.2492		102.408
-1.66378	-25.8353		100.943
-0.176688	-26.9219		99.5479
1.66446	-26.1824		100.019
14.5176	-30.6863		88.2962
17.0165	-29.4899		86.7199
14.2207	-29.5506		88.7036
14.9279	-32.3483		88.1345
7.03837	-18.8459		107.623
4.39155	-18.873		109.707
6.46829	-20.6115		106.514
9.65948	-19.0472		104.429
7.45193	-17.2867		108.1
16.9912	-72.2039		79.5078
20.859	-70.7755		77.465
16.441	-68.9337		80.5039
12.6596	-73.1851		82.0164
17.331	-75.9838		78.5158
24.1817	-54.3111		81.7517
23.8648	-50.3741		83.9689
21.9383	-53.2402		83.6007
26.2089	-55.273		80.3557
-0.423471	-31.1626		97.1792
-0.462856	-33.62		96.7294
1.41619	-31.301		96.837
-0.376939	-29.1584		97.8693
-2.5229	-30.8693		97.2116
8.74965	-0.485495		98.331
11.0805	-2.16215		95.9513
9.28451	4.11504		95.1487
17.4612	-20.1137		89.9843
16.8572	-18.434		92.0791
16.8967	-19.425		91.9561
17.4608	-21.5962		89.1787
17.9422	-19.7307		88.7775
3.07598	-28.0609		97.3365
2.7569	-29.5116		96.8064
4.55123	-28.6599		96.1637
3.18591	-27.1215		97.9492
1.52192	-27.9264		98.1302
3.12955	-26.3713		98.921
3.24805	-25.5582		100.283
16.2245	-18.5432		93.9889
16.1146	-17.6767		94.2726
16.404	-20.1404		92.9795
17.0003	-24.0985		88.4769
16.4699	-22.9085		90.4539
15.8655	-26.3703		88.6107
-1.03241	-43.433		96.5837
-1.09515	-45.6881		96.7512
1.67151	-43.0203		96.3894
-0.671256	-40.0255		96.4156
-3.74843	-43.6703		96.6196
21.2637	-35.9393		85.264
18.6929	-35.5519		86.5611
22.5273	-40.8358		85.5068
23.5876	-36.5088		84.3282
19.9664	-31.2554		85.1317
0.693906	-68.5612		88.8205
1.04472	-66.5128		89.6731
-2.79775	-68.3842		89.4589
0.236389	-71.2188		88.0232
4.60841	-68.521		87.6253
19.3266	-55.3435		83.4461
19.5781	-56.0615		82.5233
21.6121	-57.0165		80.2209
19.4188	-53.7623		84.9101
16.0079	-17.0362		94.1754
16.2391	-16.2677		92.9276
14.8064	-15.9087		96.5962
8.61826	-68.1006		85.8802
8.42323	-70.591		85.1174
12.2823	-67.4971		83.7671
8.65227	-66.1107		86.6719
-5.73858	-68.0931		89.7121
-8.40006	-67.6033		89.8259
-6.14013	-70.461		88.9891
-5.51122	-66.0753		90.6402
64.7369	17.9932		59.5081
63.4827	17.0376		61.482
65.9154	12.4612		54.3884
65.8746	19.3223		57.3029
50.5265	45.5521		72.2888
44.7468	47.8684		76.4864
49.4499	40.1392		75.5781
56.3114	42.4734		67.4561
52.5188	51.2052		68.3199
61.7709	38.8693		61.6151
59.9529	34.1747		65.7516
66.6769	34.7253		54.6698
63.8818	44.2841		57.2927
48.9307	31.9368		78.7862
49.0107	34.5395		78.105
43.3709	33.5611		83.3611
48.9373	29.4285		78.9719
67.5977	20.8319		53.6899
69.1329	23.9279		50.3602
63.5419	26.6364		62.0738
69.5768	14.3831		47.5385
29.3952	24.4042		84.7777
30.3108	23.4791		82.7383
33.551	24.6152		83.8126
28.9855	25.9607		86.9979
26.3122	23.9984		84.9406
11.2337	13.1954		89.0796
13.5341	11.0331		86.0055
11.6271	14.8761		88.3381
8.54273	14.9038		91.2219
10.659	11.0302		90.3892
30.7863	-9.7304		77.0999
31.7329	-14.3221		78.1224
37.1045	-12.2519		75.3652
29.6455	-5.70754		76.3525
25.2894	-7.21749		78.7416
58.7043	-3.62503		57.4328
60.9027	-5.11554		55.2485
60.4272	0.491708		56.1181
56.6724	-1.64511		59.3697
55.9216	-6.46998		60.6055
9.98093	8.07262		92.3757
12.302	5.85811		89.9387
7.78508	9.87333		93.8285
48.9408	27.2751		78.9131
52.4299	26.1244		76.4792
44.0252	27.8317		81.9247
48.4918	25.4132		78.7762
55.7621	24.1214		73.4325
54.8211	22.2744		73.928
59.6818	20.2103		68.3492
57.9772	6.09538		60.5209
58.7317	10.1585		62.7225
56.2548	6.72452		62.2247
56.7473	2.61827		59.9468
59.6135	5.78671		58.8731
48.7127	14.522		70.8941
49.7247	12.7827		69.3452
47.3204	16.0272		72.2877
45.6247	17.3692		73.3532
43.5543	18.3543		73.9273
45.8099	17.9371		73.9053
43.3416	18.9433		74.481
47.7042	16.5944		72.7884
40.8372	19.1215		74.1975
37.9187	19.3656		74.1988
40.5366	19.6716		74.7432
37.4014	19.8465		74.6757
34.8391	19.0048		73.8846
31.9237	18.2056		73.3545
28.8508	17.1921		72.7589
26.2051	16.0718		72.1931
27.7633	17.7777		73.2139
25.2756	16.6332		72.6334
30.8365	18.7148		73.7879
24.3047	14.949		71.7625
26.6906	18.1559		73.7508
29.9532	19.2634		74.4854
40.3176	20.3003		75.5464
36.9252	20.4243		75.4445
51.5486	7.06631		65.4719
52.1292	7.99941		65.4395
50.3641	6.46653		66.1556
38.4639	24.6704		82.2662
43.6513	24.4854		80.3122
38.4134	25.9235		83.553
38.6411	23.6093		80.7576
52.1105	17.7483		73.2119
51.3292	16.6344		72.591
53.0295	19.1374		73.751
49.8754	19.5882		75.2977
40.2808	1.767		72.2887
45.3414	1.24423		69.7799
33.9238	3.1267		73.8786
40.4464	-0.0981772		72.1975
28.701	4.73627		73.9961
25.2097	6.67694		73.6185
28.4229	3.08904		74.4228
22.3579	10.3662		72.8061
22.0575	11.3668		72.5431
23.0189	9.34885		72.9595
40.0894	5.28178		72.4119
44.7016	4.86596		70.4976
34.4825	6.26659		73.524
24.7858	10.0318		71.9891
26.344	8.98534		72.4874
24.0375	10.6378		71.7281
23.4932	11.1477		71.6217
23.031	11.7878		71.5989
21.0218	18.1248		77.3395
20.321	19.6485		80.3249
21.5277	16.6241		74.5303
22.7413	19.5083		77.8966
21.9184	12.7765		72.4473
33.3891	20.0376		75.0357
21.9777	15.9644		73.4687
21.2733	14.6892		73.3781
23.1973	17.3032		73.9211
40.2842	6.77076		72.4239
34.6821	7.60135		73.3869
24.9231	10.8216		71.4254
24.1887	11.1482		71.3245
26.5734	10.1407		71.9197
23.6801	11.6156		71.2339
50.2026	11.0536		67.8389
9.98398	27.3728		90.3847
6.65619	28.0426		90.37
9.00317	25.3489		90.0915
12.7431	26.164		89.8702
11.0664	29.8892		90.8284
21.7348	1.84583		77.0221
21.9383	3.8863		75.9807
20.2929	3.54693		77.5144
21.9489	-1.11213		78.325
24.2705	-0.215151		76.493
18.8809	5.31828		78.4162
17.3621	7.23016		80.0211
20.2608	10.3279		74.8043
18.8987	11.2083		76.4566
20.7569	11.8606		73.8121
16.6771	17.5685		82.1484
18.0845	19.1916		82.0127
16.0854	18.5288		83.6714
23.6807	8.13154		73.2919
22.979	7.04663		74.0996
22.3882	5.61668		74.9436
24.3114	3.67596		74.9623
14.873	-57.036		81.6934
14.8074	-56.9432		81.4619
18.1873	-57.908		79.2321
11.2936	-55.7767		84.4938
19.9291	-58.4053		78.131
19.6501	-58.242		78.1075
-1.42049	-49.1484		96.421
1.60089	-49.0193		96.0817
-1.24188	-47.9387		96.7126
-4.73962	-49.1218		96.4831
-1.70133	-50.1578		95.9656
3.71572	-51.2966		94.1162
3.95754	-50.3483		94.8752
1.08269	-51.1068		94.8378
3.18435	-52.1123		93.1733
6.12821	-51.6128		93.1237
8.69941	-52.2429		91.6933
9.05621	-51.2294		92.5345
8.36934	-53.2376		90.5207
11.6074	-53.6259		89.3623
4.12531	-49.219		95.4772
6.6761	-49.4041		94.5894
4.27733	-47.9985		95.8877
8.79492	-47.8289		94.2287
9.31786	-48.9237		93.7235
8.59409	-46.7233		94.4595
6.14603	-47.4327		95.4504
14.9414	-55.4778		85.5586
14.9562	-54.4926		87.1556
2.35943	-52.7617		92.0079
-0.213579	-52.3833		92.9399
1.74374	-53.0321		91.0205
5.28063	-53.254		90.7806
8.31339	-54.155		88.9085
8.08726	-54.5763		87.7377
20.8535	-57.4828		79.9052
14.8936	-57.9545		82.2356
14.8795	-57.8976		82.0008
11.1762	-56.8427		85.3736
14.8647	-58.1148		82.5248
15.0689	-59.2568		82.978
14.9522	-58.8357		82.9509
11.4848	-58.4411		86.358
8.20813	-58.0171		88.9328
8.14843	-57.3002		88.7447
4.87803	-57.9015		90.8927
8.47243	-58.7807		88.8792
1.17435	-55.609		91.8965
1.11925	-56.6591		92.255
4.62219	-56.1341		90.5
1.25156	-54.7785		91.4706
-1.72817	-54.9332		92.6978
-4.2549	-56.5517		93.7902
-4.36784	-57.6116		93.9151
-2.04988	-57.0855		93.3624
-4.10097	-55.4986		93.5147
-6.20324	-56.0593		93.922
19.9213	-59.8193		77.3277
19.8841	-59.2464		77.9708
19.5912	-61.1119		76.612
17.9793	-59.4594		78.7417
-3.74519	-54.0076		88.9498
-3.64686	-53.4042		90.2421
-1.64699	-54.4686		88.62
-4.01779	-55.184		87.6895
-5.60859	-53.6357		89.0394
-4.4531	-58.7793		93.89
-6.52905	-58.257		94.0575
-4.47161	-59.8904		93.7043
-2.19745	-59.4021		93.4234
-5.207	-64.1042		91.7387
-2.44021	-64.45		91.4022
-4.84543	-62.3319		92.7356
-7.61143	-63.6956		91.8653
4.143	-47.0725		96.0706
3.64615	-45.6394		96.23
1.79658	-46.6956		96.5494
-3.90764	-54.4965		93.0987
-5.84535	-54.1573		93.231
-3.76798	-53.7517		92.655
-3.72197	-53.4827		92.3752
-1.45911	-53.8463		91.9426
-3.60036	-53.3287		91.9865
-5.63681	-53.1113		92.3761
1.30764	-54.4069		91.1266
4.51175	-55.0121		89.7962
1.33714	-54.2426		90.7961
-3.53764	-53.2623		91.2736
-1.42348	-53.6398		90.9391
-5.52537	-52.8756		91.2765
7.82308	-55.7959		87.924
7.81186	-55.6915		87.573
7.92188	-56.0451		88.176
8.68198	-61.6118		88.4533
8.74022	-62.7722		88.0198
8.62852	-60.6017		88.7104
5.3161	-61.9154		90.3309
1.28108	-61.9083		91.9056
1.29499	-63.106		91.37
1.26797	-60.8779		92.2284
-2.29495	-61.623		92.8717
-4.65704	-61.0314		93.343
-6.99115	-60.5609		93.5154
7.93468	-54.6559		86.9266
4.67843	-53.6719		88.8339
7.8719	-54.5342		86.3338
22.8416	-59.2348		78.1058
21.738	-59.2873		78.0762
19.8986	-59.0078		78.6377
18.1038	-58.919		79.9682
1.06936	-55.0593		87.9544
1.15636	-54.3909		89.1558
4.22891	-55.711		86.8596
0.940809	-56.2495		86.8071
1.25499	-54.1832		90.1587
4.3994	-54.8295		88.8539
1.20328	-64.661		90.5937
5.23683	-64.5857		89.1876
8.52637	-59.6511		88.8699
5.1898	-59.885		90.8117
8.71179	-64.3533		87.3963
11.9345	-63.8987		85.2218
7.72057	-54.2044		86.0397
4.8083	-53.1506		87.4228
7.5231	-53.0969		85.5533
10.7127	-55.2263		84.1287
1.84184	-52.4541		88.4651
-0.526751	-51.8955		88.8792
2.62455	-51.4474		87.342
1.54369	-52.8631		89.3137
7.58964	-50.3729		84.8144
5.32244	-49.5731		85.6845
8.15826	-46.609		84.3051
10.0109	-51.242		83.6314
18.6162	-64.0078		75.9362
17.0199	-67.1482		75.8994
16.5948	-63.5543		77.5079
-4.62785	-57.6662		86.4147
-2.54621	-58.0965		86.1855
-5.11079	-61.5156		85.6011
-6.34571	-57.3534		86.4804
3.13357	-48.9475		86.2891
0.853069	-48.3953		86.7071
3.5528	-45.1943		85.7254
0.253793	-58.6803		85.6056
-0.293599	-62.5181		84.5651
3.46663	-59.3766		84.6182
23.0029	-59.9038		72.3483
23.0544	-59.9331		72.1074
17.0715	12.3563		79.2559
16.1446	10.8745		81.062
82.9361	-22.4655		-41.885
81.5486	-26.714		-41.1507
81.2418	-21.6015		-45.2699
84.2535	-18.001		-41.8584
84.314	-23.1831		-40.1434
84.3648	-3.45286		-4.44112
85.3305	-0.761056		-8.66551
83.5125	-1.10237		0.447952
85.9122	1.2124		-13.8779
86.5059	6.63126		-15.1508
85.6296	-3.8044		-14.9662
86.6342	0.592802		-20.9183
