1811
77.3536	83.9876		-27.7518
76.9559	84.9934		-12.7217
72.0851	91.1815		-13.2251
81.4218	78.1437		-12.1451
61.3471	24.5722		-100.886
57.8532	12.3834		-103.393
56.0718	27.4384		-105.105
66.1218	21.531		-96.2845
54.033	0.203096		-104.475
58.9044	-2.06648		-99.899
50.1672	-12.0042		-103.835
48.8047	2.279		-108.528
46.0984	-23.6249		-101.679
41.9471	-35.4419		-97.4507
41.0617	-22.3791		-105.473
50.6521	-25.125		-97.3252
38.385	-46.9315		-90.9344
43.119	-47.4737		-87.0148
35.4307	-56.8741		-83.9993
33.2888	-45.4092		-95.0058
32.7785	-65.5057		-77.8586
30.0041	-74.1642		-72.478
27.6297	-64.376		-81.6813
37.3585	-66.4506		-73.4947
21.3827	-100.864		-65.8847
18.119	-110.318		-66.1591
16.372	-99.4939		-69.4106
24.5505	-91.8023		-66.4094
25.8309	-102.618		-61.7318
6.01213	-115.508		-71.4235
4.11223	-124.097		-71.0371
1.11421	-113.755		-73.0149
8.43257	-106.805		-71.7808
10.9407	-117.444		-69.1612
27.262	-83.019		-68.5654
31.9451	-84.1346		-63.9474
22.4525	-81.5121		-72.4366
87.3093	46.1028		-51.7387
89.2588	50.4382		-40.3735
89.8216	39.1612		-45.3335
85.1647	39.6472		-61.9159
84.3701	52.3958		-57.5012
90.5482	53.1956		-28.9828
92.7226	45.2865		-23.1096
87.8282	60.8416		-33.7871
91.1919	54.8122		-17.6176
90.5727	56.4879		-6.62999
91.9782	49.171		-1.08862
88.2879	63.7456		-9.62199
70.2741	18.6235		-91.479
73.4381	29.6047		-87.1819
73.9282	15.4487		-86.3649
66.9163	7.15777		-94.0253
76.2036	40.5281		-81.1996
78.7046	50.1957		-73.0715
79.7206	36.1326		-75.8949
55.1886	-26.5042		-92.2163
59.5553	-15.4876		-94.2051
59.5212	-27.9143		-86.5325
50.8676	-37.4562		-88.4769
63.2851	-4.38345		-94.9511
67.3849	-6.33793		-89.6538
47.4283	-47.6704		-82.8314
51.568	-48.1871		-77.662
44.5664	-57.7367		-75.5244
41.6483	-66.4588		-69.2139
45.7418	-65.4419		-65.2425
36.5898	-85.4574		-58.2143
40.1702	-88.3786		-51.5527
33.3392	-94.9266		-56.7386
89.7052	10.6112		-45.0717
87.5116	4.50956		-52.3366
88.7811	15.8206		-51.1317
82.3449	68.1515		15.8113
84.0557	70.5585		2.22998
93.7481	23.358		-4.76689
94.3094	30.4176		-10.5095
69.9251	-29.8599		-70.4345
66.7421	-29.6282		-75.6392
73.3668	-21.2351		-72.3089
72.8113	-30.4204		-64.8017
66.0739	-38.6983		-67.1799
76.2179	-12.3106		-73.4436
73.6288	-10.351		-79.0775
79.0423	-3.68611		-72.4243
78.6203	-14.4886		-67.1916
81.8983	5.19693		-69.5261
79.6429	8.77744		-75.4823
84.7059	13.4562		-64.4493
83.7765	1.35889		-63.2967
55.54	-60.8357		-54.8387
52.2891	-62.6813		-58.2455
58.7472	-54.0815		-59.0359
58.797	-59.0429		-51.174
52.4981	-67.8043		-50.7633
68.7137	-44.3288		-54.7672
65.4161	-50.731		-51.2287
65.6283	-45.6027		-58.869
72.0893	-37.7394		-57.4282
42.7977	-91.2721		-45.7809
46.2613	-82.7584		-46.3921
76.0597	-55.8625		-0.593249
77.5291	-52.2373		1.39715
73.8936	-58.2643		1.58653
77.9499	-50.3514		2.82808
86.7562	-26.2966		1.21617
88.4065	-21.6114		-0.997646
98.7592	-21.9626		-34.6192
100.177	-16.1622		-32.406
99.3079	-22.4271		-33.8637
81.4571	-57.0471		-20.1612
79.854	-59.2531		-16.8115
100.887	-11.2123		-29.0031
99.9949	-10.7315		-29.5503
101.037	-7.66139		-24.9146
101.62	-12.0149		-28.3823
94.8275	-12.6752		-7.90738
93.5109	-12.437		-8.59218
100.733	-5.84337		-20.59
101.504	-6.68976		-19.8015
89.4084	-42.8365		-30.6789
83.0229	-57.4577		-12.7814
82.6094	-56.9417		-10.1801
80.9174	-59.206		-13.295
89.1932	-19.3713		-2.76673
97.4682	-6.35746		-16.0659
95.1856	-8.63803		-13.2948
96.192	-7.06632		-17.6839
92.2257	-11.978		-10.0962
91.3944	-11.4756		-11.759
99.3003	-10.7579		-29.7936
90.5504	-11.7277		-13.244
91.9985	-10.3435		-15.974
93.6897	-9.17926		-19.645
91.1886	-10.8475		-20.7332
87.2506	-50.3448		-23.288
87.2977	-51.2569		-15.6632
79.1448	-60.055		-13.821
82.1852	-55.6906		-8.00769
83.9349	-53.1012		-7.99958
85.2867	-51.0588		-8.88628
86.0316	-49.7273		-9.78947
99.4516	-22.711		-33.4234
101.09	-17.1901		-31.2792
99.8779	-8.29777		-12.168
99.9421	-8.92413		-11.8687
101.206	-7.24475		-15.3028
99.8219	-9.49379		-11.732
101.216	-8.38082		-14.8377
99.455	-10.5041		-11.8929
101.882	-12.5988		-27.9801
102.094	-9.32402		-23.9022
101.891	-13.0876		-27.8245
101.916	-7.4757		-19.2929
102.012	-8.0992		-19.1674
101.916	-8.63247		-18.8987
102.03	-10.3221		-23.5172
101.786	-13.4085		-27.5055
98.0724	-26.6908		-32.2803
98.9288	-11.7509		-12.4245
95.1822	-17.9485		-9.7891
100.327	-13.1965		-20.9601
97.0842	-29.2011		-27.0104
97.5338	-27.3539		-26.7656
97.8753	-25.4704		-26.2394
98.0277	-23.8933		-25.3833
97.9951	-22.5247		-24.1717
97.4096	-21.2848		-21.6532
84.9615	-45.5926		-7.69769
85.6857	-47.5938		-9.28948
92.2009	-23.6958		-6.64783
85.691	-37.333		-5.91579
86.2693	-49.0972		-10.2993
41.7342	21.0248		75.6894
58.9858	83.0905		42.5893
61.787	88.2051		30.902
34.8138	96.0164		43.1042
36.845	102.567		30.6782
26.9235	98.1787		42.6625
63.8887	92.7812		17.141
65.5085	95.8111		2.17732
38.4648	107.974		16.3668
30.6826	110.199		15.8831
54.3608	106.36		-15.6688
60.7365	101.991		-14.7464
66.5604	96.9955		-14.0367
67.0285	95.8737		-30.3838
82.7504	37.1003		38.218
92.1872	42.055		5.1667
93.7546	39.614		-5.76745
85.1084	71.2498		-11.4873
85.4327	70.1071		-24.5378
40.2459	106.987		-53.1817
39.0173	99.9466		-70.1464
32.6618	109.117		-53.6232
66.436	92.6689		-46.5725
65.1244	86.5136		-62.7999
93.8374	37.6896		-16.7885
93.1492	35.5262		-27.8518
84.4296	68.3981		-37.4966
82.9347	64.6018		-50.0726
91.5574	32.382		-38.7116
89.6133	27.6671		-48.869
87.3126	21.419		-57.462
85.3159	26.5207		-63.8764
29.9561	-105.167		-56.6628
26.8966	-114.87		-57.2843
24.6997	-124.055		-57.6399
22.7437	-132.539		-58.2372
20.2214	-121.387		-62.484
36.8925	90.2963		-85.4499
34.1878	78.4158		-98.1391
29.6812	92.1463		-86.0792
31.4289	65.763		-107.004
28.5447	52.6245		-113.185
24.4995	67.4829		-107.534
25.6772	39.7895		-117.234
22.5938	26.9426		-119.665
18.7139	41.5964		-117.733
19.1681	13.4685		-120.689
12.5871	15.0203		-121.213
24.0969	-16.4433		-114.83
29.7713	-18.5887		-112.264
5.70676	-37.1055		-106.321
2.77975	-48.2158		-97.5505
0.128983	-35.9262		-106.625
0.65064	-56.2175		-91.0972
-4.98897	-55.1221		-91.2045
-8.80345	-91.0033		-77.321
-13.7185	-89.6603		-77.5909
56.8853	55.4292		-98.6115
59.9802	67.1704		-89.8401
53.6361	42.8806		-104.812
62.7728	77.7417		-77.8712
50.1975	30.4111		-108.962
46.6907	17.6534		-111.392
43.0268	4.71168		-112.285
39.2997	-8.33492		-111.505
35.4779	-20.6053		-109.104
31.6235	-32.3608		-104.847
27.7924	-43.618		-98.6672
24.4992	-53.8554		-91.539
22.2369	-62.6109		-85.1271
20.0399	-70.9375		-79.7686
17.1835	-79.6054		-75.8387
14.2336	-88.7906		-73.3147
11.3853	-97.7425		-72.1841
15.7863	-119.306		-66.1774
13.912	-127.957		-66.1728
80.9276	58.6326		-62.3307
82.8013	31.7939		-69.9394
80.0338	22.131		-76.4589
77.006	12.4137		-81.1231
73.8736	2.04605		-83.7859
70.7073	-8.22985		-84.5284
67.3302	-18.6885		-83.3425
63.2297	-29.0386		-81.044
59.0887	-38.8246		-77.5577
55.3241	-47.8063		-73.0602
58.8383	-47.5951		-67.9923
51.9999	-56.5832		-67.223
49.0979	-64.1123		-61.8222
49.5929	-75.2385		-47.4856
52.2141	-74.0172		-44.2094
85.1899	-1.77225		-57.5664
82.8827	-8.97289		-60.3758
86.3965	-5.39261		-51.2736
75.2289	-30.6514		-59.7834
78.123	-23.4066		-61.0227
62.2282	-46.7184		-63.4491
80.5818	-15.9781		-61.5615
62.1297	-57.0634		-47.611
59.0826	-63.4567		-44.1376
-2.54608	-109.051		57.1047
54.9513	-86.847		9.00472
42.0074	-102.3		13.4517
7.38	-47.3889		91.4482
9.72105	-49.1189		89.7733
12.2784	-51.5165		87.2988
-1.10432	-54.3358		93.7612
-1.04593	-55.3945		94.0559
-1.0409	-56.5323		94.2646
12.9629	-65.5949		85.4123
12.4885	-63.6855		85.3773
12.0315	-61.9954		85.4301
12.2402	-45.4002		88.8692
30.5302	-59.6621		78.2908
27.1064	-36.7781		80.1249
26.6683	-41.933		80.9835
26.3688	-46.9862		81.2363
59.4174	-51.4499		59.9574
26.5002	19.8832		73.0865
87.4801	-8.86299		-44.6028
90.5538	-9.19903		-25.149
90.9074	-11.0349		-22.7306
71.987	-60.4883		4.97151
31.1849	7.33786		72.4999
66.6853	31.691		67.6506
7.76413	-26.7258		88.7354
53.3507	10.5861		69.2136
11.7839	-26.6113		87.1153
90.8117	-11.1113		-21.6531
40.9911	-117.536		-33.6385
54.2487	-83.2421		-31.4958
54.6151	-76.8655		-37.005
55.721	-71.3139		-41.0059
24.0078	-26.4665		79.8396
4.98335	-54.4655		89.7756
15.1546	-58.2618		80.6521
-0.437085	-49.6999		90.0713
-82.0027	-29.3175		10.8126
-81.6799	-24.0959		11.8109
-82.2847	-27.9542		4.10899
-82.1408	-34.2785		9.84385
-81.4712	-30.4334		18.5869
-84.5073	-101.498		-0.280295
-82.4478	-91.5508		-0.661685
-85.8421	-100.036		-5.04307
-86.8055	-111.439		-0.735795
-82.5775	-102.904		4.42315
-88.6275	-118.619		-1.59571
-86.9297	-120.737		3.3287
-89.6695	-116.718		-6.50567
-90.1032	-124.309		-2.54564
-76.7374	-86.941		9.57604
-79.2142	-85.4309		4.0379
-77.9999	-94.4661		9.36686
-74.1535	-88.9205		14.9364
-76.262	-80.983		9.93514
-83.2891	-82.9255		-9.9319
-82.4603	-83.5426		-5.45881
-82.3913	-77.5531		-10.1441
-83.3365	-81.7818		-15.1819
-84.5863	-89.7555		-9.73176
-80.5841	-50.8797		22.1184
-81.0948	-49.3503		14.6084
-79.8738	-55.1343		20.3346
-79.5114	-53.0748		30.0093
-81.0075	-46.6913		23.6767
-62.0313	47.6425		20.742
-65.4536	46.0706		8.95966
-63.8067	40.8676		23.9265
-57.2912	49.936		31.6834
-60.4345	54.7709		15.9667
-62.9122	54.2581		-32.6377
-66.1635	47.8975		-27.5493
-63.221	56.8483		-22.1886
-59.3361	60.1884		-38.048
-62.77	50.4914		-42.067
-36.0014	-109.541		54.6001
-35.7881	-105.103		56.7536
-39.3823	-108.174		53.1377
-36.8404	-116.452		52.6252
-33.214	-110.469		55.566
-39.4085	-127.235		48.4174
-42.0635	-137.904		43.9291
-35.8391	-128.333		49.7642
-43.2081	-125.353		46.6617
-36.1416	-147.548		43.0114
-37.4099	-152.327		41.1592
-34.5646	-140.34		45.8825
-39.978	-146.323		42.3054
-76.9977	-40.3147		-31.1241
-75.503	-33.1155		-35.7129
-75.7898	-46.9617		-32.848
-78.5719	-46.1533		-25.6204
-78.106	-33.6764		-29.4321
-74.7138	-27.9035		-39.0365
-76.7837	-22.4832		-36.3767
-74.1761	-23.3404		-41.7182
-72.4028	-34.5852		-41.7893
-88.1007	-110.762		-23.3169
-89.6617	-113.224		-16.721
-85.5683	-108.842		-30.2012
-89.0483	-117.425		-25.221
-32.4633	-129.478		50.5191
-30.5995	-118.611		54.6051
-80.5673	-32.8356		26.8336
-80.9436	-38.3782		26.2385
-79.2312	-34.3116		34.2528
-80.0045	-26.6531		26.9265
-81.33	-47.9644		7.20596
-81.8006	-43.4347		8.05627
-81.3296	-47.6069		-0.3095
-80.7073	-52.3791		6.11056
-31.3395	-84.1573		97.2637
-29.8931	-79.9604		97.9388
-35.8346	-83.2971		94.526
-32.4323	-88.2702		95.463
-26.9878	-85.1629		99.0452
-40.4516	-81.353		90.9438
-39.2499	-76.4953		91.514
-45.2883	-78.6274		86.2469
-41.3468	-85.6499		89.3383
-20.2237	-77.4155		100.008
-21.6032	-82.2552		100.541
-18.2741	-72.1992		98.5009
-24.0147	-76.2433		99.1038
-33.0408	-91.7112		92.7383
-28.759	-92.6549		94.4879
-37.4797	-90.5818		90.2049
-33.6265	-94.2547		89.005
-34.4949	-95.8932		84.2019
-35.0438	-97.0068		78.5148
-29.6181	-97.5197		85.4844
-10.4278	5.88014		77.3185
-7.28351	7.49736		78.6934
-8.92137	9.66629		75.3292
-13.545	4.91549		75.8776
-11.9801	1.9913		79.3477
-52.6666	-14.7016		69.2371
-55.1394	-19.2287		68.7194
-45.7777	-14.6212		73.0529
-50.2548	-9.86683		69.4207
-59.3563	-14.0847		63.9152
-60.9711	-2.34839		58.1128
-63.4185	-7.87128		57.5891
-54.597	-3.74436		64.4382
-58.1683	3.06717		58.6957
-66.4065	-0.454105		50.4817
-66.2416	19.8904		38.8698
-63.2523	20.8987		43.2659
-63.7275	26.9181		38.2852
-68.414	19.4313		34.1711
-57.2381	-23.9389		67.9725
-50.2815	-23.9723		72.7024
-63.6425	-23.7791		62.0761
-58.9483	-29.1794		67.5745
3.93004	5.68425		89.6066
1.9527	5.44082		89.1812
3.14202	2.01168		93.1273
4.60612	9.90135		85.8869
-9.56325	74.6702		65.0924
-9.55971	80.3685		60.2913
-15.2837	74.3357		62.5579
-9.77731	68.3101		70.4129
-4.45325	74.473		66.9867
-26.9197	-100.923		74.2638
-25.8591	-100.054		80.5065
-30.8661	-99.7154		73.488
-27.6314	-102.043		68.1895
-77.3183	-35.1469		41.3356
-76.6997	-28.7645		41.1831
-77.5842	-41.9739		41.7133
-74.6078	-35.7173		48.3737
-24.2645	-93.8979		95.3671
-24.6879	-96.8542		91.1762
-23.438	-90.5105		98.2267
-25.176	-98.8135		86.1869
-61.6915	-75.5988		64.0588
-61.1852	-72.1624		66.8016
-66.0662	-71.4499		58.7515
-61.3814	-78.5348		61.8057
-56.8545	-79.1691		70.1582
-67.5537	-79.2284		40.9972
-63.3414	-82.8902		46.966
-69.0632	-75.5587		44.1619
-70.9898	-75.4753		34.923
-66.0785	-83.0975		37.6701
-28.5335	-103.961		62.343
-30.1208	-106.814		58.341
-31.7322	-103.104		61.5515
-2.46472	-1.94566		94.3904
0.138887	-1.51573		95.7133
-1.55381	1.15489		91.5475
-5.46048	-2.79803		92.3619
-3.18388	-4.28593		96.3387
-26.4338	-13.0241		78.0234
-22.0393	-11.0086		79.3998
-23.4724	-8.59786		77.8784
-31.1521	-14.1183		77.0651
-41.0848	-46.5471		78.2423
-38.8247	-47.1483		78.4892
-39.242	-46.0813		78.3178
-12.5203	-19.9437		88.5092
-14.7136	-20.0731		87.2873
-11.9905	-20.9279		88.1412
-13.9382	-18.5394		88.6663
-13.068	-24.1539		86.9902
-10.7957	-23.7365		87.8767
-12.5325	-23.1986		87.1696
-15.8166	-24.0178		85.6882
-14.1811	-25.4997		86.8838
-1.07752	-21.8752		93.5504
-2.86905	-21.2989		92.8167
-1.45295	-22.8125		92.4911
-0.856856	-20.8906		94.8776
-18.7101	-22.957		84.0714
-19.7714	-24.2566		83.9403
-17.926	-22.0772		84.4481
-21.1565	-20.9706		82.3213
-5.13602	-12.112		98.1237
-4.8931	-10.3997		98.4067
-7.88874	-11.8096		95.8658
-5.30021	-14.0425		97.4101
-2.53077	-12.7316		99.8674
-41.3074	-59.5552		83.7263
-43.9986	-62.9559		83.5326
-37.4654	-61.632		87.1559
-38.5048	-56.723		83.8583
-44.1362	-56.9681		80.9256
-37.1655	-40.4325		80.2447
-39.8143	-40.8743		79.1891
-34.5082	-39.9285		81.4924
-35.1864	-36.3693		81.14
-3.02978	-26.954		90.8925
-2.25239	-25.0897		91.2101
-4.97711	-26.3339		90.4488
-3.99632	-29.3049		90.9572
-0.577867	4.65217		88.3676
0.101961	8.41496		84.9657
-3.6178	3.31804		87.0035
-18.0388	-12.685		85.1054
-18.4235	-12.2083		83.9571
-18.6484	-14.1187		84.4434
-17.0075	-11.8782		86.8302
-16.53	-10.9236		86.825
-5.16795	-22.6709		90.4905
-3.61486	-23.0773		91.1936
-4.85823	-21.7391		90.9525
-6.85321	-22.8307		89.5951
-5.60829	-24.2526		90.1028
-4.45995	-20.952		91.8089
-4.13052	-20.1015		92.9766
-15.5537	-10.8414		88.4954
-16.6146	-12.5135		87.7989
-15.0066	-9.98223		88.6597
-19.0343	-16.473		83.9542
-18.7295	-18.7615		84.0834
-17.9662	-15.4082		85.7756
-8.37887	-38.0038		93.0097
-6.84993	-35.1074		92.161
-11.0953	-36.6753		92.4805
-9.23486	-39.8607		93.5663
-27.4007	-24.9124		81.1161
-24.7544	-21.3507		80.7109
-30.0695	-24.4673		80.1278
-30.3355	-28.5227		81.4319
-24.699	-25.5816		82.397
-21.7795	-60.044		93.8644
-26.0291	-58.8086		92.0488
-22.7241	-62.1422		94.1943
-17.8694	-60.9543		94.9128
-21.1322	-58.3717		93.7287
-32.7822	-42.9933		82.0701
-32.1613	-41.2056		82.7155
-35.9923	-44.1627		79.9185
-33.3765	-43.6738		81.5657
-14.6066	-9.419		88.4547
-12.3886	-8.31054		90.245
-14.7339	-8.82585		87.247
-30.1812	-57.8135		89.6035
-29.157	-56.1358		89.5183
-33.5229	-56.415		86.8698
-31.342	-60.0395		89.9263
-14.4406	-61.7144		95.3729
-13.9054	-59.9987		95.2701
-15.1377	-63.9933		95.7848
-50.0561	43.054		53.5223
-50.7583	44.1664		51.5994
-53.3631	37.7081		49.2393
-49.1057	42.0739		55.2958
-22.9317	63.2361		67.3141
-22.1352	68.17		63.4016
-30.0842	62.1343		62.5751
-23.9725	59.1814		70.2748
-16.8239	64.021		71.1588
-37.7398	60.2523		56.7922
-37.1732	65.2283		52.3242
-44.8714	57.2364		49.9012
-38.1855	56.4623		60.4325
-26.8547	53.0392		72.5385
-25.6555	55.1668		72.17
-28.1584	50.5855		72.539
-21.3619	54.3081		76.8108
-51.9676	45.3745		48.4565
-56.5139	40.2893		42.5907
-45.4416	50.5859		56.4077
-52.1459	48.1191		45.5096
-11.3384	42.2612		76.9607
-8.0533	40.1193		76.9341
-10.4956	44.1094		77.8035
-15.1308	43.3862		76.511
-12.4292	39.8162		75.7031
2.29492	17.9893		78.2481
1.742	15.5747		79.6184
4.77665	19.388		78.9554
2.76541	19.9478		77.3102
-0.291868	16.1978		77.2403
-26.6937	2.85417		72.5502
-20.2436	3.04714		74.0567
-23.9656	6.40379		71.7828
-34.3393	3.55054		70.697
-29.8609	-1.03464		73.3932
-53.1007	22.2627		53.1197
-51.4878	18.3678		56.3162
-49.8183	23.3321		55.072
-52.8894	26.7001		51.6469
-56.1727	21.3516		51.0236
0.925688	12.2819		81.8985
3.36235	13.4089		82.4759
-1.69208	10.6563		81.141
-29.3023	48.5448		72.3623
-29.7229	46.5836		72.2575
-23.5963	49.5562		75.9534
-34.6793	48.5434		69.282
-39.6956	47.6806		65.7553
-44.3624	44.6766		61.6041
-39.4951	45.6426		66.3472
-47.4589	30.4836		55.7647
-49.4194	30.8976		54.08
-47.6916	27.2012		55.5252
-45.4709	30.124		57.3328
-46.7359	34.2935		57.2701
-34.6391	32.298		66.9654
-32.6112	32.8582		68.5885
-36.5339	31.4932		64.9628
-30.4272	33.1668		69.8813
-28.0926	33.0519		70.8429
-30.4589	34.1137		70.2287
-32.848	33.8148		68.8923
-27.8327	33.9097		71.2061
-25.4067	32.6338		71.3742
-22.6789	31.9138		71.5282
-24.9242	33.4328		71.6693
-21.9761	32.6504		71.7522
-20.2982	30.9429		71.377
-18.1334	29.4492		70.9981
-15.779	27.3984		70.2009
-13.6781	25.3687		69.117
-14.1604	27.7888		70.1698
-16.7686	29.8532		71.0516
-12.0318	25.5945		69.1758
-12.3737	23.6729		68.306
-12.5019	28.01		70.2449
-15.3563	30.441		71.2439
-24.4253	34.3853		72.0468
-21.2078	33.5771		72.0931
-41.0046	27.9941		60.3281
-40.1667	26.8839		61.0385
-19.5648	43.7261		75.7469
-20.3145	41.4888		74.806
-19.029	45.9922		76.5383
-24.8687	43.8518		74.3791
-37.762	38.7398		67.2196
-36.7758	36.5702		67.4039
-34.4678	39.4227		69.5138
-38.6112	41.21		66.9997
-31.8763	17.4342		68.3042
-25.2292	16.0123		70.1844
-37.1574	19.5863		65.3639
-32.6769	15.7979		68.1023
-19.7206	16.0292		70.3471
-19.7623	14.3547		70.4587
-15.5665	16.2297		69.9287
-10.6788	18.4154		69.3091
-11.8954	17.5427		69.5195
-9.90668	19.1696		69.1431
-30.5099	20.3355		68.6923
-25.0074	19.0169		70.2357
-35.1993	22.5275		66.0082
-14.4774	19.3252		68.6366
-13.4234	19.6172		68.313
-16.4632	18.9903		69.2345
-12.5359	19.8669		68.1842
-11.6598	20.3		68.1687
-3.87198	25.9999		71.6891
-2.4586	27.8981		72.8944
-5.45753	28.5106		71.8861
-5.63906	24.1039		70.3499
-9.07207	20.414		69.055
-18.2371	32.3155		71.8407
-6.94398	23.4753		69.6472
-8.12708	25.5255		69.7498
-6.78816	21.9059		69.7143
-30.0723	21.5077		68.8452
-24.7679	20.173		70.2733
-14.5442	20.1943		68.1284
-16.3721	20.1215		68.8017
-13.5641	20.2093		67.907
-12.9357	20.4159		67.7379
-37.8856	30.5833		63.0882
8.07612	33.9789		79.3172
8.1285	37.4023		80.3529
5.65071	34.36		78.8607
8.0334	30.8402		78.4229
-13.0981	10.3145		72.4717
-16.6644	9.77135		71.7907
-14.4594	7.79028		73.4837
-10.6183	11.1153		73.1243
-12.432	12.1216		71.7612
-7.99162	12.1111		74.043
-5.248	13.3882		75.1794
-7.31575	17.1206		71.2564
-7.17613	18.7604		70.4965
-4.91157	17.3463		72.5614
0.200889	23.8652		73.8384
1.01898	24.7816		74.4132
-0.45809	26.3816		73.5721
-13.2126	16.7529		69.7398
-12.5486	15.3818		70.3555
-12.2198	13.7933		71.0466
-15.2036	13.1274		70.7781
-29.563	-46.3824		81.3325
-25.8933	-46.1199		83.6277
-33.0625	-46.3535		79.3984
-29.4348	-46.3408		81.1348
-35.0552	-46.3369		78.4685
-34.6906	-46.2949		78.4515
-10.286	-43.172		93.9259
-10.4342	-44.4523		93.7503
-9.94482	-41.9362		93.9488
-13.5263	-41.8397		93.1829
-16.4941	-43.6569		91.7686
-18.9654	-43.2453		90.7133
-16.2838	-44.6377		91.3554
-13.8007	-44.2008		92.6715
-16.4012	-42.5		92.1276
-21.6175	-43.1559		89.147
-24.8745	-43.6015		86.8228
-21.7492	-44.2636		88.4463
-21.5078	-42.0681		89.5876
-16.1493	-41.1763		92.3707
-15.7892	-39.9031		92.4773
-18.5963	-40.9164		91.3491
-19.8951	-38.9405		90.5063
-20.808	-39.8464		90.1749
-17.3167	-38.894		91.7613
-19.2161	-37.9306		90.6068
-28.7362	-44.5069		83.7558
-28.3304	-43.3441		84.6601
-15.7635	-45.5363		90.8433
-18.8249	-45.1555		89.4674
-15.4191	-46.0376		90.2879
-13.0169	-46.0833		91.7278
-22.2298	-45.2296		87.3244
-22.3035	-45.7847		86.5185
-35.4884	-44.967		79.8053
-37.3362	-46.136		78.5205
-29.9762	-47.1795		82.0181
-30.0875	-47.2989		82.3611
-26.2739	-47.1239		84.7108
-29.8858	-47.1665		81.7603
-30.9731	-48.2266		83.1793
-27.8221	-48.61		86.4375
-30.624	-47.8794		83.0066
-24.7048	-49.1979		89.1677
-25.3853	-49.8176		89.2705
-21.2519	-49.8172		91.448
-24.2297	-48.613		88.8297
-16.3184	-48.7027		92.1817
-13.2946	-49.1727		93.1721
-15.8886	-47.8606		91.3449
-19.9844	-48.3062		90.5608
-16.8761	-49.5836		92.8319
-11.6039	-51.3401		94.7881
-11.2142	-50.4179		94.2597
-14.1498	-50.8758		94.2957
-11.9642	-52.26		95.1374
-35.8356	-47.7208		78.0963
-35.3931	-47.1524		78.5249
-33.5731	-47.8361		79.3898
-36.3868	-49.0652		77.8253
-10.37	-49.3386		89.2886
-10.162	-48.6406		90.1727
-10.7032	-50.4037		88.6452
-12.7366	-48.956		88.8767
-12.2602	-53.2988		95.3752
-14.9792	-52.8418		94.8831
-12.5883	-54.3788		95.4814
-13.4844	-58.3316		95.3062
-13.1809	-56.8037		95.4117
-16.4746	-57.5524		94.8689
-15.272	-39.103		92.4947
-12.7593	-39.5341		93.167
-14.1834	-38.0064		92.4813
-10.8524	-49.5036		93.535
-10.459	-48.7361		92.718
-10.2563	-48.3929		92.1505
-10.2391	-48.2567		91.6779
-12.6757	-47.9356		91.7361
-15.6556	-47.5079		90.819
-15.5434	-47.3964		90.4076
-19.1187	-47.2633		89.3415
-10.2265	-48.299		91.0151
-12.5217	-47.8787		90.6177
-22.7079	-47.126		87.1397
-23.0777	-47.3916		87.6368
-22.5654	-47.0534		86.6806
-27.0112	-52.3378		89.5506
-27.6341	-53.333		89.4868
-23.6373	-53.3479		91.8788
-26.4756	-51.4566		89.5274
-19.4607	-54.1556		93.8282
-20.011	-55.3105		93.7458
-15.6632	-54.8682		95.0207
-18.952	-53.1955		93.8462
-12.8746	-55.526		95.4853
-22.2526	-46.0002		85.9091
-22.1196	-45.995		85.363
-18.6509	-45.9578		88.0646
-35.24	-46.8696		79.0242
-33.4196	-47.2641		80.2833
-15.7418	-48.5755		88.0703
-15.4541	-47.8586		88.9161
-16.2506	-49.5786		87.4652
-19.1733	-48.2253		86.7529
-15.4216	-47.4836		89.774
-18.8094	-47.2417		88.2802
-20.4899	-56.76		93.7183
-24.7333	-55.6851		91.8287
-25.8966	-50.6077		89.4608
-22.5684	-51.5373		91.8085
-28.3391	-54.6611		89.4973
-31.1636	-53.3099		86.9164
-21.7507	-45.7485		84.9829
-24.9873	-45.8084		83.1657
-20.9553	-44.7367		84.1949
-18.5029	-45.6414		86.4628
-15.2833	-45.8886		87.6671
-15.1953	-46.2423		88.6869
-15.5279	-44.8011		86.1405
-12.6545	-46.1786		88.1798
-19.7894	-42.3491		82.9008
-22.4761	-42.3451		81.7701
-18.6297	-38.9515		81.6028
-17.2655	-42.372		83.8013
-37.401	-52.0307		77.9805
-35.0374	-52.0552		79.4338
-38.1012	-55.2852		78.796
-11.2963	-52.8768		88.2584
-12.5406	-56.5634		88.7765
-13.6515	-52.4592		87.9368
-14.8517	-42.5189		84.4782
-13.4881	-39.1932		83.0649
-12.3119	-42.7761		85.0083
-16.7862	-52.0677		87.1872
-18.025	-55.8638		87.5137
-20.3719	-51.7962		85.9798
-40.2655	-46.9282		73.2986
-40.5621	-46.815		72.9193
-2.22849	18.0825		74.0097
-2.29196	16.5127		75.1175
-77.4741	5.20848		-44.8231
-79.151	5.23105		-43.1597
-76.8883	9.76473		-45.064
-75.3518	5.07114		-48.0638
-77.9653	0.877897		-43.848
-74.31	26.107		-8.95452
-73.025	28.324		-4.14078
-73.6916	28.5358		-13.2486
-72.9485	30.0984		-18.4806
-73.2466	29.229		-25.4484
-74.6507	25.3792		-19.3951
-71.1479	35.0872		-19.9348
-78.6869	-18.7879		-34.3865
-78.6697	-14.9088		-36.3966
-78.9997	-22.8512		-31.628
-80.554	-15.8725		-33.0097
-78.5279	-11.3174		-38.6252
-80.5237	-9.47222		-36.9513
-78.4532	-7.38458		-40.6366
-76.3545	-14.1006		-41.2057
-80.6392	5.6866		-42.3324
-79.6973	10.5597		-42.7678
-81.201	1.62466		-41.2179
-81.988	6.52078		-42.062
-85.4708	-9.42263		-33.9332
-86.7965	-10.2039		-32.8305
-83.7259	-8.28554		-35.3529
-87.8128	-10.7393		-31.7974
-87.6916	-6.76605		-34.0539
-87.8867	-14.6546		-29.1152
-88.7004	-10.9049		-30.597
-89.536	-0.271477		-32.5048
-89.4254	4.09091		-35.8128
-89.4208	0.344906		-31.7821
-85.8119	-23.2845		-20.6668
-85.4845	-21.8797		-23.6601
-84.5883	-22.8321		-22.6627
-85.719	-23.8408		-18.6859
-86.3664	-23.3583		-19.9819
-86.4863	-14.5533		-9.19349
-86.3565	-15.1595		-9.14187
-86.0551	-16.5085		-9.33252
-89.2936	0.731692		-31.4008
-89.0229	0.132268		-30.4269
-88.0126	15.0684		-35.9408
-87.8312	15.5981		-37.4838
-88.3242	13.8945		-34.2298
-85.7433	25.1314		-34.0163
-85.6461	26.4813		-34.1999
-85.2728	28.6005		-33.2924
-84.5491	30.7522		-30.3239
-85.3077	29.0511		-33.7138
-84.8806	28.4582		-31.061
-82.383	8.00982		-10.1896
-82.0727	13.4638		-10.9796
-82.6341	3.97957		-9.46996
-81.7737	8.75933		-8.89117
-82.3269	-7.8019		-2.7666
-81.6685	-3.45949		-2.4033
-82.8512	-11.6269		-3.1007
-81.7656	-8.11362		-0.0655372
-84.0159	-3.21961		-11.7388
-83.4714	-1.3621		-11.9268
-84.8415	-5.13888		-12.1747
-74.7814	24.8857		-19.4145
-74.8233	24.9092		-19.1905
-74.6274	25.8499		-22.9146
-80.5563	33.818		-20.4742
-80.8632	35.3625		-23.6471
-81.5156	33.397		-19.4856
-80.1645	30.8433		-17.3865
-79.5898	33.9313		-21.628
-80.009	35.4766		-28.6742
-79.4812	35.34		-25.6688
-79.4633	34.2063		-29.9852
-80.6219	34.0637		-32.2794
-80.2734	35.7235		-28.1829
-84.0756	19.7347		-42.1272
-85.0707	20.2519		-41.6426
-82.9883	25.7852		-39.6144
-83.4302	19.1043		-42.2522
-81.6748	18.0225		-11.7487
-82.2579	16.8182		-12.3737
-87.1158	20.0691		-39.1683
-86.34	25.2743		-37.2213
-87.1727	19.9479		-39.5166
-87.5275	17.2947		-39.2074
-84.0002	31.8193		-26.4222
-83.4346	31.4249		-22.4125
-83.8638	32.8341		-25.8623
-84.1148	30.4021		-27.0673
-82.7113	18.8141		-14.5994
-82.5762	21.0928		-15.4207
-82.6984	17.0581		-13.9439
-86.6412	20.8584		-36.5211
-87.1658	18.7633		-38.2642
-82.6712	11.8273		-15.5117
-82.7916	13.5731		-14.4976
-82.7023	12.0597		-16.2236
-86.1812	12.3928		-29.4546
-87.2799	15.1909		-31.5258
-86.3512	11.3002		-29.5542
-85.8508	12.8216		-28.8548
-81.0503	0.463438		-2.5348
-80.4923	0.372335		-0.0259373
-80.4228	4.91986		-3.47984
-78.6446	15.7649		-41.5862
-78.9948	18.4606		-40.8268
-77.4382	20.3741		-39.7116
-77.5998	14.8542		-42.6486
-80.0709	23.9554		-38.4951
-81.0966	19.8362		-41.1743
-81.1886	29.0869		-36.9126
-79.0249	27.7889		-35.4895
-82.6972	17.96		-42.1451
-82.9614	12.3205		-42.6224
-83.8844	7.44036		-41.9894
-82.1286	-8.38828		-36.1915
-81.9781	-5.23477		-38.0185
-82.1285	-11.4653		-34.241
-81.6486	-1.95334		-39.7552
-80.0208	-2.62909		-40.7025
-88.5302	0.160445		-29.4258
-82.0505	-14.3639		-32.4072
-82.1091	-17.9161		-29.9336
-85.6283	-23.3005		-15.9545
-85.2106	-23.654		-15.7375
-84.7745	-23.9351		-15.4412
-84.1244	-24.2392		-20.6542
-86.7189	10.5865		-29.9953
-88.0624	12.1361		-32.2743
-81.0981	9.32985		-7.81276
-80.3701	9.69314		-6.59062
-82.7714	-4.02094		-5.87945
-83.0758	-4.18677		-6.53701
-86.3483	-8.36424		-11.8124
-86.1509	-7.35757		-12.6537
-87.7449	-10.2426		-13.261
-82.9136	1.02364		-8.88941
-83.2362	0.721424		-11.0299
-78.4184	29.7276		-32.3933
-77.5019	30.3921		-29.0744
-76.9896	25.4443		-34.9202
-76.4563	23.5987		-36.5967
-75.4908	25.8666		-32.49
-76.0308	23.1214		-37.6684
-85.8926	22.2346		-31.5473
-86.131	20.7745		-31.1314
-82.8371	12.6836		-17.6797
-83.299	13.8214		-20.3791
-85.6241	13.6668		-28.3969
-85.1431	13.7188		-27.022
-86.2643	17.3951		-29.7902
15.4859	85.5287		59.6893
16.9549	92.3586		52.3434
8.1634	86.2485		59.0543
13.9079	78.662		65.4152
12.5347	71.6916		70.1855
6.15234	72.9626		69.3465
11.0027	64.1561		74.7595
-11.1732	63.1649		74.3762
-5.18526	62.9213		75.6281
-12.4597	59.8812		76.8823
-0.518385	-19.8078		96.5053
-2.56688	-19.4358		95.3626
-0.568131	-18.6091		97.7839
0.888649	-9.78357		101.291
0.495438	-11.5623		101.34
1.16502	-7.9275		100.821
-1.78194	-9.2516		100.219
0.0731344	-13.4347		100.978
-0.293992	-15.244		100.24
-1.8282	-23.7889		91.7636
-5.44928	-32.3819		91.482
-7.91256	-31.5694		91.1456
-0.524483	-16.9445		99.1642
-2.82919	-16.4986		97.9893
1.52445	-6.14587		100.036
1.85078	-4.06831		98.6612
-0.953898	-5.93316		99.1196
8.09907	48.9618		81.4459
8.75852	52.7537		80.5017
2.86786	51.6745		80.6027
7.61797	45.7607		81.5992
6.76325	19.9966		79.3574
7.15985	22.1573		78.5287
6.14107	17.3445		80.6726
7.45939	24.2052		78.0133
7.73593	26.0747		77.8342
5.44974	23.5185		77.5534
-10.0488	-46.568		88.4234
-9.91227	-47.2173		89.8836
-10.0722	-45.4325		87.0526
-9.99515	-47.3255		90.9154
-10.1116	-47.1487		91.6687
-12.2952	-46.8007		90.494
-10.5492	-45.3431		93.4489
-10.544	-46.0569		93.0205
-10.3235	-46.643		92.4968
-9.7213	-40.9595		93.8233
-9.42764	-43.1953		85.3756
-8.11281	-39.8793		83.7536
2.0104	86.5114		58.1544
2.74326	92.8881		51.1478
-3.82857	86.2667		56.9638
1.26447	80.2919		63.5646
-2.27618	54.6171		79.9347
-1.73327	56.4879		79.4383
-7.67204	56.7591		78.8954
-3.54769	51.7205		80.1713
-5.59903	49.843		79.8243
-8.1973	47.6174		79.0992
-10.8032	51.7126		78.9812
-9.63487	45.8768		78.4786
-13.609	47.2319		77.9285
-5.51298	43.3844		78.7665
-16.9515	33.0943		72.1977
-20.3395	34.5894		72.4966
-13.6685	31.067		71.5691
-15.7595	34.6276		72.9082
-19.3023	31.5583		71.5642
-14.1364	36.6764		74.0077
-10.7651	34.6417		73.6614
-17.7558	38.112		74.0318
-21.3175	93.6451		34.9161
-21.8964	88.4785		42.6343
-14.9069	95.9167		37.4026
-21.2138	98.4604		24.5061
-9.31182	85.8318		55.1205
-15.3442	84.9401		52.4879
-9.12013	91.4808		48.5137
-13.249	58.2168		77.6125
-19.1827	57.7317		76.6054
-14.3451	55.2898		78.2231
-18.4383	48.3292		77.2431
-17.2046	50.5716		77.818
-15.5233	53.06		78.2151
-21.4803	38.8372		73.7665
-26.2523	38.9271		72.8419
-22.9578	36.9159		72.9574
-22.0296	83.6078		48.7029
-22.0471	78.692		53.9276
-28.997	82.0508		43.6954
-24.8672	56.8678		71.5274
-31.2801	55.8951		67.4354
-30.776	36.188		70.7743
-33.7452	35.9159		69.1957
-27.4973	35.9055		71.8971
-30.6748	37.5871		71.1291
-30.3169	44.3564		71.9998
-35.0843	44.5967		69.557
-30.4227	41.8304		71.755
-30.58	39.3963		71.4364
-21.9307	73.4879		58.7752
-29.3535	72.1821		53.8005
-35.4481	80.7327		37.0423
-41.0562	79.4664		29.055
-36.0244	75.7623		42.5917
-34.9936	33.147		67.2013
-36.9111	32.1936		65.1226
-36.3143	35.162		67.2408
-38.1689	33.8971		65.1809
-35.4517	34.0285		67.3451
-39.1423	43.6262		66.7579
-42.7347	40.9771		63.3616
-5.32761	36.8047		76.1332
-4.07475	38.4977		77.3773
-6.4303	34.5622		74.6671
-3.31189	33.3124		75.0619
-2.36646	39.7925		78.3979
-0.82654	36.2436		77.4884
-7.78349	31.5986		72.7188
-9.42949	29.7957		71.4555
7.57941	42.0728		81.2588
-81.2077	-49.0007		-7.463
-80.8569	-49.8691		-13.535
-81.5778	-43.4102		-6.27772
-68.753	35.9221		-40.2051
-71.6317	31.1965		-34.8887
-68.9158	38.8703		-32.2401
-65.9891	40.6573		-45.1356
-69.2174	31.6786		-45.6526
-72.5957	4.31462		-53.7308
-72.0255	10.1286		-54.0907
-70.1355	3.1942		-59.1416
-73.2931	-1.54398		-51.9047
-71.0564	16.2533		-54.051
-73.9113	15.255		-47.8871
-70.3177	21.8299		-52.5075
-68.3281	16.9656		-60.4432
-73.6779	-18.7669		-44.8615
-73.6299	-13.0425		-47.5869
-71.2151	-23.0708		-48.3235
9.43543	58.2893		78.0489
4.48227	59.8825		77.4499
-0.410189	61.4965		76.6263
-0.112692	67.4287		72.8123
-46.4237	-93.119		65.4972
-40.3298	-95.977		69.742
-52.8258	-89.5747		59.2597
-45.3085	-95.556		60.3566
-70.1603	-72.2444		47.1527
-70.4205	-69.5098		50.2449
-73.567	-67.9499		40.9286
-65.5827	-77.0605		53.3591
-36.7057	70.4457		47.4533
-43.2525	68.3676		40.1437
0.679108	73.9656		68.251
-46.354	77.9488		19.4597
-47.9931	72.0855		25.6372
-50.6147	76.4315		9.49057
4.0251	99.9097		41.1922
10.9773	100.037		41.8628
5.5495	106.316		29.1282
-2.45663	99.0304		40.5011
-51.7754	52.9943		41.2485
-50.5341	59.5406		36.5122
-39.6535	32.4788		63.025
-48.1728	40.8976		56.8052
-46.8697	39.4588		58.3726
-50.1842	36.1806		53.7188
-45.4722	37.9989		59.7391
-30.3121	-111.456		56.2575
-77.3554	-56.516		38.9974
-77.0639	-60.2595		36.0978
-73.9726	-61.2571		47.0527
-77.4335	-52.7292		41.0396
-12.9859	-36.2823		92.0844
-11.3761	-33.956		91.5262
-14.9909	-36.2207		91.6123
-31.2304	-38.9856		83.2043
-28.0658	-37.9526		85.1529
-29.4469	-35.2806		83.8201
-14.4199	-31.8793		89.8819
-12.3983	-29.3689		89.3849
-17.4448	-31.934		88.7773
-16.2726	-34.0961		90.2786
-11.4658	-31.4955		90.5863
-42.0031	-41.0096		78.4659
-40.3505	-37.1679		79.0626
-44.9337	-41.692		77.38
-42.7639	-44.5107		77.9972
-56.6122	32.1398		46.2686
-58.5159	33.0976		43.1691
-58.7392	26.4281		45.9591
-54.2423	31.5844		49.2026
-60.4126	34.1979		39.2894
-62.7969	34.6033		33.7811
-43.4961	29.8349		58.8037
-43.9148	27.8092		58.2146
-52.0668	31.0894		51.619
-74.5725	23.3498		-39.6283
-74.2205	26.1274		-35.8317
-72.4723	24.608		-43.6536
-75.2481	19.4605		-42.6098
-78.1848	-3.46453		-42.5218
-76.118	-4.74559		-45.4951
-81.2041	-36.1534		-16.7789
-80.3744	-33.2844		-22.6059
-80.4364	-42.3198		-18.6766
-81.7343	-37.6811		-10.7358
-82.0644	-31.2968		-14.9181
-76.0703	14.7538		-44.362
-81.3119	-8.76443		3.0589
-80.813	-9.21823		7.35295
-80.7079	-4.31815		3.26805
-81.7872	-13.0748		2.63813
-71.0291	18.7798		26.8187
-73.5149	17.1776		18.231
-72.9907	11.3698		27.8868
-68.7919	26.2717		25.6382
-47.6348	24.1517		56.2481
-46.4314	21.4423		58.2026
-45.6105	25.0952		57.3466
-44.0541	25.9594		58.2749
-42.9873	24.3334		59.5399
-80.0481	-8.88231		13.4949
-79.3007	-3.66279		13.4157
-80.7048	-13.9105		12.9847
-79.0219	-8.31461		20.0817
-20.9223	-4.58891		77.5283
-17.1476	-3.36304		79.2507
-18.621	-0.487053		76.5514
-25.6439	-5.15056		75.9269
-32.8656	-5.44629		74.2681
-35.4529	-9.98143		75.0833
-40.6695	-5.22219		72.1201
-13.5463	-2.03393		81.3132
-14.7757	-5.1962		82.9306
-10.0552	-0.126453		83.3376
-19.4627	-10.965		81.8468
-17.5011	-9.26119		83.0701
-14.9663	-13.0202		89.8489
-16.2211	-13.798		88.4704
-15.1676	-14.9129		89.3763
-13.1082	-12.3117		91.5309
-17.1108	-14.5677		87.1825
-17.1206	-16.6506		86.7797
-43.1662	-24.1718		75.9803
-40.8565	-19.4737		75.9716
-45.4905	-28.9302		75.9004
-37.3918	-24.1709		78.0473
-37.8995	-14.5801		75.6278
-6.56312	-26.2793		90.0643
-8.34929	-26.5329		89.5341
-7.90505	-28.6903		90.3109
-70.8896	-35.5082		55.1926
-71.1821	-41.9333		55.6558
-66.0044	-35.1545		61.7423
-70.1451	-29.3619		55.0631
-32.9588	-32.2195		81.4277
-35.5438	-32.4915		80.4816
-30.3015	-31.9638		82.5461
-47.4016	-33.741		75.6282
-42.1239	-33.2332		77.9636
-53.4632	-34.243		72.3748
-48.619	-38.4818		75.6087
-9.61857	-31.3084		90.881
-71.062	-48.6317		56.1881
-69.5065	-54.4296		58.4127
-66.4119	-46.4378		62.8167
-74.5232	-49.4962		49.4048
-65.7459	-13.0848		56.5066
-70.5514	-12.2036		48.8145
-67.6659	-18.187		55.6547
-51.5574	-82.8388		76.962
-46.273	-85.9677		82.8441
-51.1352	-79.6993		79.017
-60.0315	-68.2089		69.4645
-55.3135	-72.0795		74.8177
-57.4004	-64.1189		72.815
-63.6763	-64.0102		65.5021
-54.8488	8.27008		59.0706
-48.7387	6.19792		64.2029
-50.9505	12.7022		59.7377
-40.8672	22.1653		61.9871
-42.2123	20.4848		61.6348
-48.1494	15.3001		60.2551
-45.5447	17.2001		60.9396
-43.0973	12.8521		64.3256
-38.4088	24.9731		63.0135
-22.5097	-86.5019		99.9913
-61.0783	-44.7297		68.2379
-54.9652	-43.5615		72.7755
-60.8361	-39.8208		67.7492
-60.427	-49.2524		69.3534
-54.3248	-60.4433		75.3707
-50.7976	-63.8017		78.7591
-50.2753	-57.1858		77.6802
-56.9124	-56.8509		72.9723
-42.2777	4.82452		67.7285
-39.3151	8.45163		67.526
-45.26	0.373329		68.324
-60.2241	-34.5185		67.3869
-47.7612	-4.75634		68.9586
-28.0815	-75.0348		97.5135
-32.5837	-73.5393		94.9837
-26.0002	-69.8131		96.2452
-37.4399	-71.5763		91.4526
-35.2346	-67.0642		91.0212
-42.0088	-69.3971		87.4462
-37.0352	10.7391		67.5205
-29.416	9.23334		69.9651
-35.183	12.5463		67.6941
-43.7254	18.8656		61.3094
-39.6326	16.3515		64.7972
-33.8465	14.2517		67.8499
-26.527	12.706		69.9901
-6.67884	1.68698		85.3437
-5.54756	5.29968		82.7062
-7.75822	-1.53485		87.8489
-9.54376	-7.25532		92.7481
-9.96412	-8.18557		93.1265
-6.66512	-6.41247		95.1347
-9.19742	-6.04748		91.7356
-2.64538	14.7179		76.2947
-3.32664	12.3193		77.8842
-16.5988	3.79815		74.9582
5.39027	13.8708		82.8686
-59.6353	20.7818		47.9321
-4.32447	8.94987		80.2039
-77.3634	-48.5962		42.3478
-79.7997	-45.1047		33.299
-70.1456	1.9206		42.7929
-72.6342	3.5929		35.5025
-72.0898	-4.95773		42.1531
-75.8529	-22.5909		41.1731
-77.8461	-21.746		34.182
-73.0781	-23.1862		48.1222
-74.8343	-16.7971		41.3314
-73.6326	-10.9658		41.5807
-75.906	-9.80528		34.3665
-41.8592	-88.6503		87.1839
-24.0943	-65.5385		95.035
-28.4289	-64.323		93.1257
-20.1455	-66.5842		96.2091
-33.0718	-63.221		90.4592
-20.0689	20.0175		69.9785
-22.3525	8.99253		71.1236
-21.1066	11.1011		70.8032
-20.326	12.7229		70.5624
-16.482	-67.5649		96.837
4.35787	27.9259		76.8104
4.29667	25.1007		76.6936
5.96996	28.2442		77.4502
4.01587	30.9385		77.3172
3.03429	27.1016		76.0335
-10.7434	20.986		68.2839
-10.4214	22.1296		68.3128
-6.97491	20.2453		70.0043
1.89417	25.9165		75.2024
1.27144	28.9952		75.4219
7.88533	28.3191		77.9349
-4.30364	-19.0403		94.1569
-4.65906	-17.795		95.2443
-4.52166	-8.87241		98.414
-7.4066	-8.78159		95.9474
-4.20847	-7.39853		98.036
-17.3948	-20.7025		84.9812
-14.8079	-22.2102		86.2875
-16.6923	-19.7048		85.914
-3.64849	-5.99988		97.5319
3.24646	21.9072		76.7505
3.54101	34.4185		78.2755
1.76263	33.8406		77.456
-10.6768	23.5994		68.5129
0.248197	32.7858		76.3659
-0.835137	31.1955		75.1294
-1.68578	29.6879		74.0433
-22.0737	-26.3911		83.8441
-24.6285	-29.132		84.0527
-18.9098	-27.0403		85.5552
-27.4589	-32.0846		83.8794
-24.1207	-32.0361		85.6262
-33.708	-45.9824		78.5756
-31.4703	-46.113		79.7605
-33.2554	-44.9839		77.998
-33.6646	-44.1915		81.178
-31.0541	-43.3731		83.0123
-32.1632	-42.1735		76.851
-30.6366	-38.8324		75.9333
-28.5449	-42.3075		78.8038
-16.0907	-27.3753		86.937
-18.3417	-29.6123		87.1732
-13.3092	-27.2998		88.0534
-20.8867	-32.0644		87.1959
-22.8984	-34.3549		87.255
-28.6062	-46.0767		81.2209
-26.8367	-44.9086		81.2449
-25.3493	-42.3371		80.3892
-24.2768	-38.8494		79.1689
-10.696	-26.9024		88.9205
-9.4256	-24.8012		88.6368
-18.0638	-36.274		90.4255
-21.3715	-36.3918		88.8945
-15.1014	-7.37679		84.7187
-11.8789	-5.73444		87.4266
2.36428	-1.45963		96.4533
-8.52519	-4.06582		90.0531
-5.02133	-15.942		96.55
-7.50807	-15.7017		94.5812
-10.2375	-15.5642		92.7061
-13	-15.9619		90.6202
-10.6283	-13.6998		93.2509
-14.8727	-16.7445		88.9833
-15.8676	-17.7333		87.7267
-16.3436	-18.7344		86.7369
-10.161	-9.1273		93.5301
-10.3425	-10.3691		93.7612
-10.5782	-11.9578		93.6626
-71.72	-132.021		24.3966
-69.3824	-124.37		25.8896
-75.5147	-129.573		20.7211
-73.4894	-137.618		23.3303
-67.4057	-134.458		28.021
-66.6536	-113.507		27.7693
-62.4549	-115.893		32.1057
-64.858	-103.758		29.382
-70.45	-111.106		23.4397
-65.1992	-86.9936		34.4245
-64.8872	-91.3087		31.6793
-61.1816	-90.1154		39.7605
-68.6755	-83.7137		28.8501
-64.5491	-96.7131		30.3156
-68.1763	-94.0705		25.2195
-60.2352	-99.2467		35.7879
-59.3468	-53.2703		70.6382
-54.0505	-50.9024		74.3725
-63.6002	-56.0355		66.4121
-67.3273	-59.3775		61.156
-69.303	-63.028		56.92
-70.3053	-66.3013		53.2981
-49.2768	-49.2003		76.5553
-47.9325	-51.9173		77.6114
-45.0704	-47.7404		77.6637
-49.6111	-46.1716		75.98
-42.8697	-46.9569		78.0248
-41.9722	-48.7452		78.4597
-71.5654	-80.4237		23.2895
-74.0223	-77.8834		17.093
-71.2657	-85.4301		21.1584
-72.4184	-76.2262		25.5264
-73.6242	-72.1097		28.4373
-75.0223	-67.9964		31.0958
-75.6314	-69.1927		21.2253
-76.2653	-63.9527		33.6952
-77.9754	-61.1052		25.9274
-73.8316	-108.636		18.9889
-76.5082	-119.53		17.9528
-72.0109	-98.8557		19.6579
-77.0079	-106.577		14.4173
-78.8348	-127.302		16.9208
-81.8523	-125.136		12.8322
-80.8607	-133.072		15.9109
-71.2503	-91.4174		20.1563
-77.6533	-8.73744		27.1501
-76.4924	-2.59919		27.4
-78.5606	-14.6302		26.9838
-78.9654	-59.154		18.6835
-79.5828	-57.6895		11.6905
-77.975	-63.0644		16.5078
-66.0037	34.1171		25.2281
-69.3573	31.9645		14.5357
-81.1071	-42.6652		25.0551
-81.8018	-40.3464		16.8553
-79.3076	-20.5975		27.1326
-80.4305	-19.2631		19.5692
-74.7808	4.51662		27.986
-76.8227	3.54754		20.2045
-81.228	-19.0658		12.6121
-81.7534	-18.3546		6.30333
-79.5215	-73.6261		-0.187906
-77.978	-74.5489		5.05074
-79.2058	-69.0418		0.713534
-80.8019	-73.0306		-5.16316
-80.1608	-78.717		-0.748684
-81.0393	-84.3323		-0.779431
-79.2205	-64.6046		2.22855
-79.5195	-60.4934		3.61813
-80.1382	-63.8766		-3.47124
-78.202	-65.6611		7.94057
-75.2786	15.6525		9.7852
-76.9377	8.35546		12.1928
-73.4885	22.8349		7.08315
-71.5041	30.3552		3.90618
-69.5363	37.4787		1.06591
-67.4743	44.6757		-2.48559
-65.3575	51.7954		-6.58277
-68.5252	43.1915		-13.1764
-82.0698	-38.958		8.98279
-82.099	-38.2195		1.48191
-78.231	2.11668		13.3156
-79.2853	0.790638		7.27143
-79.9593	-104.532		9.4577
-82.4894	-115.296		9.00284
-77.0684	-67.1778		14.4421
-76.3965	-71.4339		12.4215
-84.5979	-122.951		8.27836
-86.4809	-128.564		7.2341
-86.5252	-98.9828		-9.53675
-88.5433	-108.196		-10.2224
-81.666	-72.4693		-10.026
-81.1665	-67.7319		-9.66255
-81.7435	-70.8843		-15.1835
-80.8866	-62.9472		-9.01662
-90.0626	-115.087		-11.3397
-91.2212	-120.62		-13.0686
-81.967	-38.3306		-5.2209
-82.1359	-17.3381		1.99396
-82.4222	-21.3157		0.726328
-82.5229	-15.7332		-1.16524
-79.937	0.307977		3.25344
-81.935	-79.1859		-22.224
-81.1102	-72.8293		-21.7787
-79.0937	-75.8518		-29.3088
-80.6184	-66.759		-21.4722
-78.0165	-61.0828		-27.9822
-80.0654	-49.0754		-19.8377
-82.6932	-28.4104		-13.9057
-82.746	-26.1776		-20.342
-81.812	-107.21		-37.8864
-80.2563	-99.1329		-36.9409
-77.5317	-105.793		-44.9835
-83.2895	-114.753		-38.8484
-79.6647	-28.6369		-27.5075
-81.1448	-24.356		-26.24
-82.3627	-22.2504		-25.7511
-83.1034	-21.326		-25.6241
-62.7951	-136.749		31.4012
-64.6644	-142.115		29.7878
-58.0704	-138.987		34.444
-60.5399	-129.172		33.4659
-55.0043	-101.701		41.4608
-55.5302	-97.0585		43.0916
-55.4376	-108.392		39.4779
-49.2554	-104.207		46.6991
-58.4988	-86.1572		53.2163
-59.7611	-83.4181		56.6191
-57.1268	-89.4064		49.3363
-56.1345	-93.0932		45.7325
-50.631	-95.8091		51.2125
-57.6297	-118.077		36.5342
-52.6393	-120.7		40.5625
-46.5071	-54.5999		78.9269
-43.0581	-52.2257		79.3722
-60.6593	-81.0755		59.5449
-40.9013	-50.6724		79.3651
-39.3163	-49.4657		79.25
-39.0952	-52.5372		80.9951
-37.9629	-48.4746		79.1462
-36.3134	-49.9646		80.6687
-46.6586	-66.9919		82.929
-48.7982	-71.3516		82.0128
-50.4057	-75.6818		80.5593
-30.1073	-47.5599		82.8796
-26.8643	-47.6887		85.7282
-29.6937	-47.2707		81.5784
-25.9969	-47.2152		83.8499
-29.8759	-47.4574		81.2786
-33.2592	-47.0872		79.7379
-30.0532	-47.8163		81.1074
-30.607	-49.0561		80.9335
-26.295	-47.8196		83.1047
-31.5088	-51.9648		81.2125
-27.6167	-51.7102		82.947
-32.2599	-55.6037		82.0832
-43.8238	-106.402		50.6614
-44.8576	-113.057		48.0395
-44.2256	-102.033		52.7133
-53.2136	-141.294		37.1482
-55.1031	-146.281		35.193
-48.338	-143.328		39.4555
-50.8792	-133.958		39.8441
-47.6816	-123.126		44.0407
-34.9301	-102.129		60.6215
-34.8098	-99.7795		66.1817
-39.0133	-100.863		58.8507
-43.9981	-144.98		41.1265
-45.8728	-149.723		39.0741
-35.3085	-98.0454		72.4091
-22.3889	-47.178		86.1537
-22.4011	-47.4957		85.5579
-22.5418	-47.9849		85.1458
-23.2357	-49.0083		84.5809
-23.9868	-51.6833		84.5432
-24.9694	-55.5794		85.1342
-58.6183	61.6328		10.6863
-54.6019	63.5466		21.3694
-56.5205	68.3619		4.97602
-61.4556	60.0879		-0.337281
-68.8125	41.3249		-23.0221
-73.4241	-7.45771		-50.1752
-70.8973	-10.3094		-54.7377
-69.8343	-85.8983		-49.0839
-65.8394	-84.7472		-54.0172
-71.825	-95.9299		-49.5233
-73.917	-87.84		-43.516
-68.2501	-75.7659		-48.7827
-73.7038	-104.653		-50.2636
-69.8363	-104.065		-54.9645
-75.6907	-112.898		-50.9637
-75.008	-71.4732		-36.8624
-74.3785	-62.8117		-36.3021
-70.8682	-68.1884		-43.3536
-76.5556	-80.9692		-36.5479
7.39913	111.679		15.0064
14.807	112.02		15.3705
8.86472	115.227		-0.448256
0.114828	110.467		14.769
7.35271	94.9507		-84.1477
14.9046	94.5213		-85.4302
5.8021	83.4717		-96.5103
-0.0144024	94.7563		-82.3477
8.4449	104.504		-68.9537
3.58469	71.3621		-105.181
10.4269	70.321		-106.658
0.877448	58.062		-111.546
-3.35636	71.4059		-103.36
9.37233	111.29		-52.381
9.78867	115.311		-34.8635
17.0791	111.266		-53.3238
1.79937	110.635		-50.8248
25.0584	116.323		-17.7619
25.3046	114.826		-35.7861
17.3058	116.87		-17.6459
24.1893	115.127		-0.398278
-1.69006	45.0726		-115.663
4.73055	44.338		-116.925
-4.28206	31.91		-118.064
-8.08412	45.4293		-113.762
-6.93605	18.1844		-118.973
-0.621965	17.5456		-120.335
-9.61663	4.72843		-118.281
-13.2837	18.8431		-116.94
-16.6525	-32.0296		-105.051
-14.4012	-20.1731		-111.637
-11.2177	-33.2759		-106.04
-19.3052	-42.8265		-97.0577
-22.5249	-31.2717		-103.031
0.145401	-9.86046		-118.316
-2.54545	-22.0337		-114
-5.9691	-8.77909		-117.468
2.96468	2.73273		-120.53
-28.9602	-87.2136		-76.6902
-23.763	-88.0154		-77.3194
-30.9039	-96.377		-75.7009
-34.4731	-86.645		-75.4747
-27.069	-77.998		-78.2922
-32.8929	-105.411		-74.9091
-27.9368	-106.274		-75.337
-35.0985	-114.272		-74.209
-38.0281	-104.708		-74.0919
-21.8338	-51.2611		-90.4967
-16.0927	-52.1901		-91.3454
-23.5675	-58.9909		-85.4672
-27.2192	-50.4976		-89.0773
-25.1401	-68.0672		-81.2599
-19.673	-68.5756		-82.1251
-31.0593	-67.7286		-79.6471
-14.3424	-69.5457		-82.4209
-16.5706	-79.5909		-79.335
-12.3286	-60.7652		-86.6348
-20.6277	102.796		12.1061
-13.8383	105.979		13.3364
-20.3167	105.793		-1.70514
-27.5402	98.7745		11.0263
-23.5442	69.6564		-93.5304
-21.5904	80.7849		-85.0978
-17.1892	70.6026		-97.3224
-25.8275	57.6329		-99.539
-29.6642	68.2082		-89.294
-19.9636	90.7485		-73.7686
-26.4344	88.0291		-70.1096
-19.2406	98.5507		-60.2127
-13.5552	92.6978		-77.0447
-19.2345	103.745		-45.9013
-19.9674	106.312		-31.3108
-12.4505	106.801		-47.6173
-26.1994	99.75		-43.9753
-20.0663	107.104		-16.4645
-27.1142	102.847		-16.364
-12.9488	110.582		-16.4766
-27.9052	45.5091		-103.665
-33.794	44.928		-99.4198
-21.6721	45.7047		-107.511
-30.0805	33.035		-106.116
-32.0406	20.4339		-107.136
-26.2009	19.9379		-110.834
-34.079	7.79379		-106.44
-37.684	20.5903		-102.903
-35.7736	-4.40688		-104.211
-40.7948	-3.70776		-100.16
-30.4709	-5.55784		-107.68
-37.6304	-16.8136		-99.905
-40.0495	-28.6548		-93.3335
-34.5292	-29.5698		-97.0835
-42.3779	-38.8312		-86.3434
-44.7939	-27.0284		-89.7031
-44.3529	-47.6951		-80.1412
-49.1889	-46.5079		-76.0479
-38.9659	-48.969		-83.658
-46.1902	-56.6305		-74.6859
-50.9807	-84.2303		-67.8733
-56.0599	-83.8205		-63.9618
-49.7304	-74.7478		-68.4695
-45.6183	-85.2265		-71.122
-52.2307	-94.1133		-68.0852
-43.3048	-104.114		-72.78
-48.7417	-103.661		-70.7979
-41.5764	-95.2675		-73.16
-45.4512	-112.63		-72.3949
-48.0357	-65.7241		-70.6971
-42.7698	-66.5082		-74.2939
-53.0655	-64.6447		-66.3379
-44.2201	76.4664		-56.3402
-38.5024	80.8144		-61.6988
-44.6483	69.6947		-66.3079
-49.912	71.3377		-50.2874
-44.6573	81.2569		-45.1792
-45.2519	84.2957		-33.9869
-45.788	85.9972		-22.8929
-39.1891	89.9886		-38.3923
-51.0237	78.0958		-28.5618
-45.152	87.1974		-12.1177
-39.7389	92.7937		-14.7045
-49.9598	81.1401		-7.00661
-39.081	44.1868		-94.9401
-41.0639	32.4228		-97.4199
-44.0626	42.9783		-90.1304
-37.244	55.4393		-90.7176
-35.1771	66.4761		-84.801
-40.582	64.1076		-79.8256
-33.5566	76.2868		-76.7609
-45.7957	-2.91556		-95.3584
-47.1041	-14.6307		-91.5082
-50.6641	-2.24717		-89.9788
-44.6265	8.88112		-97.4593
-42.9338	20.4769		-98.277
-47.7931	20.5587		-93.2859
-49.0199	-25.2868		-85.7837
-51.5284	-35.5442		-78.4169
-53.3038	-23.9093		-80.8799
-53.3305	-44.6157		-72.0138
-56.8071	-41.8969		-68.2783
-58.2387	-63.7635		-60.8631
-59.7133	-73.6352		-59.2776
-63.2377	-64.7764		-54.4038
-62.7017	45.6053		-50.3956
-59.1836	49.89		-56.2282
-63.0803	39.1828		-57.4708
-34.0675	94.1229		10.6185
-33.6769	97.106		-2.66979
-62.7829	58.5558		-11.2228
-59.8109	65.2428		-16.6913
-61.8571	0.624912		-74.623
-62.6408	-9.00015		-71.2373
-65.0384	1.39345		-69.2166
-60.9061	9.87706		-76.605
-58.5814	-0.575339		-79.5976
-59.3499	19.1374		-77.8093
-62.8547	18.2436		-71.7868
-58.0413	28.1159		-76.876
-55.814	19.7462		-83.2137
-56.7646	37.342		-74.0776
-60.5325	34.7266		-68.0822
-55.8494	45.9867		-69.1323
-52.7927	39.5506		-79.785
-64.1703	-33.4526		-58.4716
-64.9269	-41.0075		-54.2555
-66.5025	-30.4175		-55.0179
-63.6585	-26.0076		-62.8069
-61.8804	-36.535		-61.6766
-68.3656	-12.8932		-59.1139
-68.1923	-5.4963		-61.9172
-65.9304	-15.3884		-63.0073
-68.5891	-20.0797		-55.4367
-67.2992	-66.184		-48.7775
-66.4845	-57.0761		-49.5539
-83.6536	-20.17		-6.38957
-82.9743	-23.2455		-4.14472
-83.3683	-16.333		-4.55437
-82.9253	-14.4966		-3.20788
-79.3924	10.8168		-5.30083
-78.5891	15.7611		-7.53211
-86.1007	20.4414		-40.9388
-86.8427	20.2608		-40.2348
-84.8508	26.2555		-38.8117
-87.7105	-18.71		-25.7896
-87.5312	-21.3969		-22.3985
-86.6501	-18.817		-26.5493
-83.4271	30.975		-35.4886
-84.4787	30.5778		-34.931
-82.1766	34.181		-31.486
-82.3854	31.0146		-35.9631
-79.8235	26.7113		-14.6258
-78.5201	26.3448		-15.2187
-81.3196	35.6288		-27.2595
-82.4328	35.2133		-26.5326
-87.5566	-2.44366		-36.5971
-89.805	-18.4547		-18.6283
-88.7046	-20.9091		-18.9962
-89.5363	-18.1474		-15.988
-78.1749	18.1323		-9.301
-78.8904	33.6559		-22.6874
-78.0418	30.546		-19.8693
-78.0087	32.4572		-24.1741
-77.1065	26.1796		-16.5997
-76.0666	26.2606		-18.1532
