1852
90.3694	-21.789		-19.2413
90.7039	-20.0015		-21.6195
89.6417	-20.3299		-18.5505
90.4046	-23.0431		-17.2113
90.746	-23.0864		-19.4036
87.0603	-27.4898		-10.0622
87.2326	-24.8089		-9.35802
86.4855	-27.7663		-9.33871
87.9216	-28.9703		-11.8013
86.8615	-15.0999		-13.2203
86.7474	-14.1744		-14.0793
86.8207	-13.368		-12.8633
87.1325	-15.6715		-11.7157
87.2198	-16.7751		-13.5204
91.3084	4.25057		-13.77
90.8537	2.29407		-14.5956
91.5106	4.98985		-14.3989
91.3814	4.80414		-12.8743
93.9872	14.7545		-17.9189
94.0288	15.3465		-16.9646
93.6543	13.8249		-17.8988
94.9455	15.7242		-21.0641
88.7462	-13.3173		-20.274
88.0349	-11.837		-18.6219
88.4002	-17.2035		-17.6201
90.2059	-16.6648		-22.6592
90.0112	-11.1638		-23.6566
92.7365	5.29997		-20.3906
93.0339	6.46141		-20.6633
91.7453	5.04995		-16.4757
92.671	3.95314		-21.401
94.7234	-5.77624		-31.6557
94.6408	-5.5514		-31.1038
94.2491	-8.8032		-31.2344
94.989	-4.69288		-32.4041
95.0228	-3.09923		-33.6992
95.0896	-0.979133		-32.4446
94.9812	-3.87732		-34.8795
95.2905	-0.152703		-34.8199
91.1233	-18.5704		-23.7825
91.3329	-16.4193		-25.5074
91.543	-19.5841		-24.5917
92.5893	-5.15837		-27.6018
91.7976	-7.13117		-26.708
93.6302	-5.39725		-29.1869
92.6925	-3.83192		-27.558
85.6385	-22.3553		-5.99965
85.7136	-24.6712		-6.76997
86.1731	-21.9906		-6.89933
85.4272	-21.4451		-5.34164
85.3372	-19.7469		-4.57833
85.5887	-17.7839		-4.48133
85.0033	-19.8485		-3.65077
86.4885	-10.926		-4.54847
86.2944	-11.4398		-4.12652
86.7637	-11.2236		-5.45889
86.844	-7.59255		-4.73632
86.0261	-11.9767		-3.80429
85.7459	-11.797		-2.89944
85.8831	-14.512		-4.12636
88.6123	-18.6354		-16.4432
88.6605	-19.4028		-14.5659
88.3275	-6.45342		-12.9851
87.4594	-10.1535		-12.843
88.279	-6.93689		-14.5906
89.2862	-2.63508		-13.2787
88.8023	-5.23673		-11.7242
95.2536	10.3144		-29.3898
95.3395	11.0079		-29.6418
95.2298	9.96078		-28.7678
95.1967	9.09373		-30.975
95.1158	5.48368		-31.5732
94.9846	4.38187		-30.2633
95.1933	3.7891		-32.3625
95.251	6.75024		-32.3083
95.1437	7.24789		-30.147
93.4986	13.2334		-18.0728
94.1625	13.1922		-20.6552
92.9653	12.3725		-16.8522
94.9874	12.9987		-24.0375
94.6554	11.9657		-23.4082
95.501	12.504		-27.7971
95.3448	14.173		-25.0209
39.4149	28.368		73.1649
41.8713	27.5787		72.1638
36.5276	28.8829		73.7642
28.6133	-98.8116		66.4945
27.2646	-99.652		63.6871
31.0867	-97.6116		65.7737
47.3576	23.5252		67.1319
46.2847	25.0919		68.7988
48.2732	22.1042		65.7115
52.5812	26.0682		65.2688
55.6443	28.0215		63.877
51.7252	28.9657		67.4052
49.8932	25.088		66.6066
52.8572	23.72		63.7199
78.4841	-43.5074		-4.40236
78.8395	-41.9931		-8.70157
79.0816	-41.7042		-2.89055
77.6415	-45.9243		-4.7891
14.9644	19.5743		72.243
15.6173	18.9493		71.9638
14.9323	20.4598		72.3556
13.835	21.9608		73.462
15.5036	24.0179		73.7297
13.2196	20.5445		73.1798
7.08828	23.1836		79.288
6.92767	22.9021		79.6017
7.24322	25.1713		79.301
21.0174	-50.9568		80.0031
21.6487	-51.5319		78.6927
21.5689	-50.6176		80.1871
19.8459	-48.6441		86.4177
70.2456	-66.1487		-5.56398
69.4398	-66.5089		-0.850019
69.8442	-69.0385		-7.26838
70.9041	-63.6842		-6.37765
84.7177	0.65056		1.29642
84.2869	-6.36886		3.7576
85.4685	-0.262313		-1.53462
84.9754	8.08638		-2.21249
83.9443	1.84372		5.61555
67.2102	-71.6001		-18.2807
66.4213	-74.7258		-19.3836
67.6162	-66.3242		-19.3922
66.617	-71.7043		-15.2056
66.053	-104.995		-22.7917
67.8208	-113.376		-24.3876
68.9278	-100.475		-29.0978
64.1448	-97.9443		-23.4785
64.2842	-108.869		-17.1462
26.4591	-53.4977		75.7705
26.6297	-53.8392		75.7407
25.007	-53.9804		77.0957
26.8639	-54.0691		75.7469
22.6057	-54.8694		80.3536
22.6802	-54.4322		79.9888
19.9126	-55.0619		83.441
33.2318	-96.2688		65.1405
37.5389	-94.3806		59.3312
33.3857	-94.9927		67.8582
51.7162	-58.561		-63.859
50.5902	-54.9353		-67.6143
54.4014	-57.3631		-60.4051
50.777	-61.4768		-63.7858
53.1723	82.0095		38.7241
55.0598	82.8329		32.7631
48.9987	84.9779		41.2221
54.0575	77.7091		42.2897
92.5616	-15.4457		-32.6872
93.6052	-10.5321		-35.552
93.0656	-14.6281		-31.5901
91.6417	-19.5916		-30.1981
92.0035	-15.6455		-34.181
88.9494	5.58088		-8.16479
88.3292	1.44546		-7.06025
89.8285	5.47881		-8.80987
89.4724	9.64734		-9.69127
87.7423	5.68171		-7.40866
87.1594	-15.4462		-7.93224
86.8052	-16.0501		-6.8133
87.4522	-18.1454		-9.222
87.3932	-15.8243		-9.49608
87.1689	-13.6563		-7.50544
87.0908	-21.8326		-8.46509
86.6879	-18.9827		-7.19121
87.7563	-21.6247		-9.80354
94.0588	-4.90337		-37.3305
93.5142	-4.92572		-37.6898
94.7391	1.12793		-37.9059
94.5364	-4.92432		-36.4065
92.4893	-4.83359		-38.4482
91.7575	-10.2948		-37.1
91.4259	-4.60236		-38.8835
92.9937	1.07432		-38.9694
86.4128	9.62271		-8.75128
86.3893	11.645		-10.4116
85.924	10.7242		-8.41623
86.5598	8.0947		-7.57569
88.9649	-13.9019		-36.6122
87.3156	-13.3708		-36.9794
89.5949	-9.51282		-37.774
90.0078	-14.4789		-35.9025
88.0812	-17.7185		-34.6309
91.6969	-20.6911		-24.8762
92.0496	-17.8143		-27.6756
91.339	-22.5575		-23.3579
91.3521	-21.6754		-26.2505
89.3282	-28.9649		-22.2586
88.9001	-30.699		-19.4536
88.0995	-30.3976		-23.2362
90.2912	-26.1127		-25.4928
90.38	-26.1473		-20.507
90.0934	-26.9239		-15.8482
89.6828	-28.7001		-16.1074
90.3795	-25.9124		-17.4613
90.1701	-26.5987		-15.4894
80.6852	-37.7802		-13.1719
80.0443	-38.6936		-13.3771
81.6087	-36.7696		-14.3153
81.6544	-36.6471		-9.47663
85.3918	-34.0427		-13.6219
85.3116	-34.7264		-15.5591
86.4443	-32.7113		-13.531
85.5552	-32.3047		-11.6412
84.3729	-34.9419		-13.861
92.0432	11.8068		-10.9429
92.0172	13.2081		-11.0292
90.8836	8.44039		-10.0693
92.3083	11.7476		-11.2951
91.9364	14.0736		-11.2514
93.032	17.1513		-13.1803
91.6494	14.0745		-11.2602
94.7806	-4.71971		-35.6906
94.3663	-9.25645		-33.6225
95.2563	0.758393		-36.7644
95.7447	9.36634		-33.2112
95.4951	8.43237		-33.0849
95.8433	8.72328		-34.0591
95.6372	11.0262		-31.9557
92.9088	12.737		-13.0887
92.7413	12.457		-12.4623
92.4623	11.1911		-13.2595
93.2771	14.2131		-14.0327
92.4688	11.679		-11.6721
91.8248	8.65174		-11.6302
93.2982	15.6933		-13.1432
94.4133	-5.50033		-30.542
94.7416	-2.6492		-30.3692
93.3425	-8.91163		-29.4845
92.1874	9.62017		-14.899
92.516	11.1647		-15.364
92.0922	9.43882		-14.3266
92.3729	8.65496		-16.6574
92.7888	11.8679		-16.4963
93.1911	11.4463		-18.572
91.0828	-10.1268		-25.8814
91.6166	-11.7987		-26.6774
88.9286	-4.42474		-10.6906
89.9786	-0.0973428		-10.7586
88.8828	-4.33194		-9.59463
87.9282	-9.0736		-10.8029
91.6226	5.42869		-14.673
91.85	7.16799		-14.0443
56.155	-55.4414		-58.5006
56.4789	-50.9818		-60.8624
57.6938	-55.5486		-55.8157
31.1331	-19.7142		75.0395
31.9436	-24.3021		75.5566
31.8529	-17.9904		74.7011
29.3981	-19.2546		75.5458
26.1998	-17.5258		77.1925
26.8508	-18.4814		76.7615
27.6063	-12.8548		74.9956
24.9185	-18.3915		78.4422
51.4484	43.8927		70.3767
52.0436	42.0602		70.8326
57.1042	39.9037		65.4068
51.3421	45.3169		69.8316
45.3179	45.8448		74.4319
9.28233	-24.593		89.9444
8.50845	-24.4802		91.3285
9.04399	-25.3134		89.7576
10.7475	-24.7669		89.027
10.5069	-22.6271		93.8043
8.9911	-22.9315		94.4109
12.1018	-22.81		91.2598
11.2154	-21.6534		94.5578
46.8961	20.8799		65.8311
46.5814	21.5127		66.1539
20.3222	-12.5342		88.2882
20.5512	-13.488		88.0967
20.9147	-12.3767		87.4554
18.9448	-11.8724		89.7797
87.2694	-21.6983		-32.8726
86.2972	-24.1711		-31.4368
85.8449	-20.1043		-33.8989
88.2365	-22.863		-31.6861
63.118	77.6317		20.4705
60.4054	80.9736		21.8757
64.1436	73.7324		24.9808
65.5237	77.8834		10.8949
30.0761	-59.1028		72.0554
30.5618	-57.0968		71.2735
30.6133	-60.0144		71.7468
28.7828	-58.7056		73.1235
29.41	-48.0983		70.7433
27.8277	-48.2707		72.0357
29.7987	-46.834		70.1658
30.0815	-50.0295		70.5218
-19.4824	-98.7401		80.1227
-19.9211	-97.4201		82.5131
-22.4255	-98.2512		76.2456
-16.381	-99.7968		80.5078
-71.0111	-3.52617		47.6134
-71.8204	0.0772219		43.4448
-71.6913	-6.57179		47.2025
-68.865	-2.34455		51.5751
-66.4413	-0.694318		54.2501
-63.6187	-2.22485		57.3808
-65.5537	3.05458		52.4332
-11.1889	41.4506		80.7203
-13.0208	39.4403		79.8195
-8.79546	37.1382		79.6117
-8.3355	42.1071		81.2276
-14.5301	44.5249		80.9252
-7.90792	20.5256		77.8401
-7.42542	20.9512		78.2185
-8.21722	22.1263		77.3535
-8.37472	19.5636		77.68
-11.044	21.3797		75.3565
-13.3848	20.0624		73.8733
-10.4862	19.6894		75.9368
-9.33571	22.7592		76.5344
-11.6665	23.0564		75.1439
-45.4136	17.2885		66.1547
-42.1085	15.8175		69.6338
-47.2696	18.4482		63.7074
-15.5064	13.9204		74.2042
-17.3789	13.0336		73.5488
-14.8564	12.9295		75.0436
-15.3049	15.0402		73.8967
-29.3212	-54.8547		77.5327
-29.1328	-54.674		77.7833
-29.1394	-54.7691		77.8382
-29.5287	-55.0023		77.1419
-27.6556	-53.6362		79.9774
-28.9466	-54.3198		79.0123
-25.835	-52.9051		81.1701
-27.7435	-53.3124		80.1772
-32.1699	-53.0661		78.9295
-30.0543	-55.2759		76.4461
-29.7684	-55.5944		76.8133
-31.0334	-55.4297		75.3319
-29.3788	-54.4058		77.0062
-24.7042	-56.8581		82.8675
-25.2742	-57.6899		82.7015
-21.8239	-57.5856		86.0095
-24.5173	-56.2902		82.7488
-27.4695	-55.9745		79.8404
-21.5309	-47.8441		85.7246
-21.1898	-46.769		86.79
-24.0778	-49.5055		83.6972
-21.7571	-48.5953		85.4142
-18.3427	-46.3483		88.4013
-28.2779	-54.7097		78.5218
-26.4881	-54.5543		79.5497
-28.406	-54.7302		78.4265
-28.379	-54.7495		78.5146
-82.9986	-33.0798		-7.06579
-83.6379	-32.0535		-7.03126
-82.1579	-36.5669		-11.2674
-82.2527	-33.4089		-6.72697
-89.2078	-24.829		-21.7782
-89.6587	-23.2671		-22.8121
-89.6703	-26.2745		-21.3863
-88.8143	-25.872		-19.2588
-88.1368	-23.1677		-20.6082
-85.9071	-30.4668		-10.3218
-86.5127	-31.647		-11.8286
-85.7367	-30.3721		-9.10087
-85.5636	-27.7334		-9.59761
-84.3203	-17.9698		-15.7488
-83.9981	-16.7007		-17.0103
-84.6981	-19.4212		-16.4367
-84.7914	-18.731		-13.7834
-84.1121	-16.098		-15.7098
-89.056	1.18233		-16.0728
-89.1342	1.71562		-15.2134
-89.2923	2.024		-16.6619
-88.6014	-0.766038		-16.7946
-91.8224	11.7236		-20.0572
-91.8856	12.3345		-19.2884
-92.8222	12.7595		-23.1576
-91.4769	10.796		-20.2062
-86.568	-8.92812		-19.7231
-88.6249	-5.28178		-23.0051
-86.0768	-11.301		-20.2129
-85.7546	-9.58006		-17.1748
-87.4311	-5.2		-18.7078
-91.0399	4.71164		-22.5713
-90.732	3.29992		-22.4493
-90.1719	5.61239		-18.891
-91.5344	6.23303		-23.0891
-92.4211	3.65465		-26.2367
-83.3659	-28.1249		-31.7893
-84.6341	-26.7509		-32.3993
-82.0929	-28.0491		-32.2502
-83.2118	-30.5073		-30.1838
-93.55	-8.8347		-32.5299
-93.4366	-8.18647		-33.4373
-92.8389	-11.9113		-32.1313
-93.4103	-8.66151		-31.9181
-93.5815	-6.65446		-35.1083
-93.8008	-4.55186		-34.2565
-93.7606	-3.66302		-36.555
-93.4638	-7.35373		-36.0395
-89.9584	-21.6859		-24.6373
-90.1909	-19.452		-26.2769
-90.2801	-22.6439		-25.4204
-88.6866	-19.5225		-24.7305
-91.1377	-8.68192		-28.4385
-90.5458	-10.1797		-27.2756
-91.1305	-7.39906		-28.1815
-92.5931	-8.51017		-30.2373
-89.8678	-13.2136		-26.5
-90.4551	-14.9539		-27.5683
-88.5451	-14.0466		-25.8742
-83.5805	-25.2915		-6.29232
-83.2821	-24.4965		-5.64722
-84.0949	-24.9146		-7.14865
-84.3834	-27.2194		-5.59058
-83.1529	-22.8135		-4.87454
-82.8314	-22.9472		-4.06541
-83.4342	-20.8675		-5.34753
-84.0473	-14.2107		-7.00969
-84.3991	-10.9702		-7.16716
-84.3218	-14.5654		-7.92941
-83.8267	-14.7065		-6.64528
-83.5867	-15.4398		-6.19432
-83.4867	-17.8193		-6.12514
-83.321	-15.2727		-5.33445
-86.322	-21.3115		-18.5988
-86.4007	-20.021		-19.4553
-86.0962	-22.0999		-17.0908
-85.8122	-8.96017		-15.9445
-84.9009	-12.7199		-15.673
-86.1924	-7.93602		-14.7519
-86.845	-5.39051		-15.953
-84.4367	-14.6273		-15.358
-84.6712	-14.5664		-14.3997
-93.7566	6.91436		-30.6398
-93.8879	5.66736		-32.3502
-93.6336	6.47311		-30.0532
-93.8456	7.61662		-30.8858
-93.8625	2.00042		-33.1438
-93.7677	0.901274		-31.6885
-93.7062	3.79312		-31.2236
-93.8956	3.3006		-33.9695
-93.8679	0.212597		-33.9899
-91.2949	10.1967		-20.3817
-90.8249	9.30991		-19.2584
-91.93	10.0206		-22.2887
-92.8011	9.73058		-25.241
-92.4657	8.75992		-24.5964
-93.3269	11.1215		-26.3132
-93.7702	9.31914		-28.6398
-91.9774	7.53362		-23.7113
-93.1001	6.74625		-27.2024
-90.9472	8.3736		-20.8006
-40.627	26.9043		71.5685
-37.7344	27.2161		72.5041
-42.7866	25.8774		70.2648
-26.909	-97.4661		70.6759
-29.2638	-96.2184		70.2965
-25.2407	-98.2386		66.5555
-47.9077	21.5637		64.3814
-48.8079	20.3046		62.7734
-46.6455	23.1716		66.2501
-51.6409	23.9838		62.8593
-50.1765	26.4209		65.3467
-53.6045	24.9774		61.5427
-51.8808	21.3078		61.1543
-49.8468	22.9393		63.8735
-77.0593	-46.2549		-4.32509
-75.865	-48.5558		-4.74491
-78.0202	-44.4612		-2.78555
-77.202	-44.2595		-8.98587
-20.0898	19.3456		70.8768
-20.4882	18.7139		70.7232
-20.3375	20.204		70.9973
-17.6106	21.6399		72.1567
-19.1298	23.2997		73.0546
-17.4087	20.3964		71.9558
-6.88526	22.168		78.6274
-6.52123	24.1314		78.7973
-6.35979	22.3029		79.0863
-22.1237	-52.2937		82.5878
-18.9327	-51.3425		84.8924
-22.4743	-51.9338		82.8415
-23.0351	-52.5768		81.0602
-67.233	-68.2576		-7.89421
-68.1095	-65.8243		-8.9181
-66.5658	-70.9733		-8.94532
-66.7679	-68.3832		-2.60439
-82.2261	-3.02989		-1.86943
-81.6846	-9.85708		0.890469
-81.4519	-1.46517		2.88217
-83.0556	4.42962		-4.58219
-82.9909	-3.89955		-4.27677
-66.3864	-71.0763		-19.8681
-66.1911	-73.3479		-15.1217
-71.922	-69.2112		-19.9844
-70.4204	-75.8908		-21.5687
-64.2789	-108.536		-26.8624
-64.0804	-116.849		-28.2284
-64.7214	-111.032		-20.8082
-67.3962	-100.379		-24.2694
-62.5345	-104.758		-34.6552
-28.6361	-55.118		78.6016
-26.8241	-55.3699		80.0159
-28.4794	-54.9663		78.6076
-28.7727	-55.2567		78.595
-30.3711	-55.2998		78.3612
-29.6715	-56.1028		78.6359
-24.1704	-55.8141		82.8928
-21.0867	-56.3301		86.2211
-24.2592	-55.3963		82.5265
-31.0958	-95.0663		69.9547
-31.0278	-93.6096		72.8065
-35.5775	-93.4122		63.8009
-51.5718	-60.6268		-63.482
-50.8175	-63.6859		-63.3001
-54.5031	-59.5413		-59.5838
-50.0644	-56.8699		-67.0753
-56.3767	80.2179		33.9128
-57.2939	76.1675		36.963
-52.4313	83.3603		36.5526
-58.2265	82.1802		26.8233
-91.2465	-18.3699		-33.3838
-92.2632	-13.4753		-36.1573
-90.4646	-18.4517		-34.6974
-90.2713	-22.2872		-31.0786
-91.6949	-17.5903		-32.2511
-86.4548	2.82811		-11.1952
-85.6817	-1.2649		-10.1766
-85.2869	3.00233		-10.2092
-87.2115	6.89198		-12.5491
-87.5253	2.62503		-11.6294
-84.7114	-18.732		-10.0921
-84.3922	-19.2942		-8.74651
-84.6866	-16.9845		-9.80752
-84.9264	-19.0087		-11.6062
-85.073	-21.4595		-11.3674
-85.063	-25.0693		-9.61821
-84.2867	-22.2852		-9.02849
-85.4896	-24.9366		-11.5699
-92.5481	-8.42028		-38.4325
-93.0383	-8.41708		-37.5815
-93.004	-2.36491		-39.5978
-91.8003	-8.30196		-39.1546
-90.9033	-8.048		-39.7303
-90.6875	-13.1866		-38.1844
-91.0522	-2.33932		-40.7558
-89.8547	-7.80171		-40.1075
-83.9729	6.7605		-11.1938
-84.2732	5.1135		-10.0404
-84.0638	7.79987		-10.82
-84.3416	8.77792		-12.7577
-87.9315	-16.5698		-37.5435
-86.1636	-16.0998		-38.2967
-86.8177	-20.4086		-35.694
-88.9944	-17.1093		-36.8718
-88.2889	-12.4652		-39.3045
-90.4265	-23.7218		-26.1861
-90.942	-20.6344		-28.6473
-90.2877	-24.6513		-27.4343
-90.2157	-25.7376		-24.0845
-87.8791	-32.1982		-24.589
-89.5468	-29.6603		-22.8556
-88.5873	-29.0267		-27.1781
-86.3019	-33.5027		-25.7767
-87.261	-33.9596		-22.28
-89.0835	-30.2805		-19.2488
-88.762	-29.4475		-17.9334
-89.4354	-29.1758		-20.8083
-88.6061	-32.0381		-19.5732
-79.432	-39.8508		-13.9852
-80.4224	-38.4894		-9.33577
-80.1107	-38.9248		-15.4346
-78.5181	-40.9326		-14.6611
-84.6432	-36.3261		-13.9055
-84.3315	-37.397		-16.7195
-83.0858	-37.4343		-14.6204
-84.8394	-34.402		-10.9935
-86.0498	-34.7542		-13.0245
-89.9189	8.73104		-13.3789
-90.1716	8.67875		-13.721
-88.7039	5.50116		-12.7109
-89.9107	10.1826		-13.4495
-89.8464	11.0709		-13.6442
-89.5708	11.0865		-13.6635
-90.9214	14.2822		-15.5353
-94.2662	5.97575		-35.2503
-94.3081	7.58464		-33.7966
-94.3527	5.28385		-36.1114
-94.0999	4.98692		-35.0178
-90.7153	9.73356		-15.4815
-91.1037	11.2024		-16.3504
-90.2742	8.12301		-15.7211
-90.5814	9.4369		-14.8215
-90.3384	8.62298		-14.0834
-91.1228	12.768		-15.437
-89.6176	5.51004		-14.0688
-93.1918	-8.6199		-31.3706
-92.077	-12.1031		-30.3248
-93.4564	-6.2919		-31.8069
-90.6448	8.80233		-18.8956
-90.3461	8.09915		-17.7067
-89.9408	6.54672		-17.2241
-89.886	6.48352		-16.7262
-86.4184	-7.05644		-13.5234
-87.5522	-2.95402		-13.4607
-85.2638	-11.6426		-13.8086
-86.3217	-7.01213		-12.4525
-89.3889	2.40475		-16.9553
-89.6262	4.1446		-16.4269
-89.5835	1.96123		-18.7914
-56.524	-57.8558		-57.3712
-58.0574	-57.9818		-54.56
-56.5378	-52.8074		-60.0738
-28.7193	-25.4619		80.9976
-26.366	-24.8898		81.6974
-29.0603	-23.5024		80.3476
-30.6035	-29.1883		81.3564
-22.9765	-23.208		83.4733
-21.684	-23.6935		84.7129
-23.0422	-19.6359		82.7835
-23.5543	-24.0543		83.0123
-52.0101	40.4817		65.9715
-52.1796	38.6593		66.4588
-46.3371	42.8186		70.1311
-52.1569	41.9527		65.1774
-57.1237	35.7814		60.8764
-7.55708	-24.8928		92.8944
-7.76578	-24.4292		93.3483
-8.50187	-25.8672		92.6045
-6.45121	-24.9293		93.3503
-8.1409	-23.4541		93.855
-9.22052	-23.2614		93.7403
-6.94231	-23.0281		95.0039
-47.9673	19.3633		63.4705
-47.5705	20.0097		63.5025
-17.126	-13.2987		90.4943
-15.7643	-12.3047		91.6781
-17.6974	-13.3101		89.7858
-17.2496	-14.2141		90.4199
-66.2332	77.0743		14.0946
-68.0707	77.6714		4.41243
-67.087	72.5693		18.7063
-63.6936	80.5836		15.26
-32.3176	-60.261		74.6364
-30.9852	-59.7509		75.6601
-32.2128	-60.9037		74.6779
-32.8941	-58.9074		74.0232
-30.9861	-50.4197		73.9887
-31.91	-52.3623		73.7296
-30.9954	-49.2378		73.5589
-29.4075	-50.3846		75.2347
-10.6948	-22.7886		93.0361
-11.1804	-21.8644		93.61
-12.3415	-24.0336		91.7438
7.78166	-23.5059		94.5921
6.71443	-23.3932		95.6842
7.54927	-24.0188		93.7257
7.59559	-24.4368		92.9356
6.37165	-24.763		93.7076
-9.00325	-26.4713		91.8769
-10.2441	-26.8137		91.4151
-8.82621	-27.0765		91.6738
84.8864	-30.8357		-26.2036
83.1033	-31.4529		-26.3012
85.1985	-27.9269		-29.3495
86.0193	-31.1214		-25.5321
83.8511	-33.8848		-22.4724
78.1315	-41.5179		10.6127
77.1227	-42.7143		18.5079
77.0077	-46.5093		9.19879
78.9663	-40.1893		3.82633
79.1585	-36.3382		12.0754
61.9806	-116.002		-1.56632
62.1584	-105.794		-1.51974
57.4406	-116.444		2.47983
61.5136	-124.296		-5.2263
63.2073	-114.719		-5.7059
61.426	-130.602		-6.23737
61.4384	-136.364		-7.72183
62.909	-128.655		-11.3353
59.2683	-132.823		-2.0467
55.3348	-95.4131		5.50327
56.9887	-89.4767		6.79944
51.9755	-96.9673		10.5985
54.8376	-103.031		5.27254
58.4668	-94.3071		0.236981
63.4168	-96.2488		-10.3703
63.5472	-103.06		-10.5855
64.4416	-94.9628		-15.2223
64.0104	-89.9493		-10.8617
62.4	-95.7929		-6.93165
70.4164	-64.5188		19.7643
71.8434	-60.4422		21.8715
68.4287	-67.2045		27.389
68.6442	-68.209		17.4526
71.7701	-61.9632		12.3138
73.1896	37.4695		28.7639
73.5701	44.4775		24.5702
68.861	40.6434		39.7948
76.9905	30.4712		28.5971
80.2208	35.6572		13.4949
77.9989	44.2915		-25.1457
78.2434	42.902		-35.8297
77.1466	52.9419		-31.3881
78.3859	45.0035		-12.236
79.5654	36.2115		-18.6482
8.62406	-112.55		45.6934
5.09005	-112.808		46.4689
9.81616	-119.493		42.0946
13.1305	-111.915		44.35
8.39244	-108.929		48.4522
11.5873	-130.233		37.3994
13.0694	-140.95		32.4825
15.7666	-129.195		35.8148
7.8345	-130.528		38.5919
5.81766	-148.928		30.9807
9.82539	-148.586		30.4325
5.2003	-141.682		34.1372
1.94775	-148.936		31.1986
6.38565	-153.92		29.0622
71.1813	-50.2504		-31.2183
74.2753	-43.4614		-29.0143
69.7763	-56.9879		-24.4257
67.4439	-57.3766		-32.2647
71.9736	-42.5041		-36.463
72.6787	-37.1438		-39.0647
68.9598	-42.9515		-42.3533
73.5599	-32.5025		-40.8839
75.8374	-32.2661		-36.2745
70.4491	-119.926		-25.3737
70.2117	-126.744		-27.9437
67.0257	-117.911		-32.1098
67.8323	-123.813		-20.2266
4.34192	-130.863		39.2075
3.15826	-120.103		43.7576
0.980953	-130.855		39.4481
75.6233	-44.9584		26.249
76.7136	-38.7099		26.9201
73.7958	-46.7642		33.4275
74.3807	-50.9611		25.0885
72.1602	-60.0199		5.52491
70.0362	-63.9069		5.03531
72.2082	-58.9861		-0.818384
74.3074	-55.6721		6.31826
15.9125	-89.415		94.4452
11.6921	-89.2651		96.4689
16.0999	-93.2885		92.437
19.3621	-90.3965		87.7996
15.58	-84.6644		95.6185
24.1806	-89.1333		84.4228
24.2015	-93.2444		82.5823
29.051	-87.7659		80.4847
23.96	-84.1803		85.3862
6.47785	-79.8064		97.9656
10.6776	-79.6284		97.1081
5.3044	-74.2378		96.6492
2.05101	-79.8585		98.4102
7.08762	-85.0793		98.3468
16.2541	-96.5771		89.4519
17.4839	-98.5952		84.8987
19.4943	-97.4735		83.1819
11.7643	-96.5984		91.4002
14.4464	-102.016		76.8089
10.2701	-102.572		77.8024
13.9238	-102.904		72.7476
14.511	5.38767		78.5969
19.554	0.599999		77.1977
20.9777	2.82039		74.2346
13.0827	9.33125		77.3207
11.7642	7.67637		79.9495
54.977	-23.6839		67.1501
61.9391	-24.4408		61.6526
54.053	-18.2816		67.4391
47.4248	-22.2661		71.2092
55.3051	-28.7769		66.9771
66.5275	-13.3684		56.6079
70.7638	-12.4491		51.0043
64.7891	-7.57316		57.9767
60.3079	-12.5943		62.5239
67.304	-19.1532		55.934
74.2818	8.64143		42.2606
76.4667	7.95188		37.6129
73.3628	16.3823		42.1267
71.5885	9.90101		46.2613
55.4085	-33.8651		66.5501
55.1632	-39.0539		66.1709
61.7239	-34.7571		60.9627
48.6603	-32.4291		70.8173
1.70696	7.31917		90.3651
2.12102	11.4172		87.4476
0.177472	7.45983		90.668
2.13986	3.3108		93.7454
3.90482	6.71659		89.858
24.7838	72.3088		72.0627
19.9157	72.8538		73.3815
23.6268	66.2764		76.1951
30.4796	71.2111		70.0005
26.4421	77.9629		67.7179
3.75153	-104.433		67.2596
2.95604	-105.142		60.3166
8.19594	-104.167		66.5317
4.59068	-103.999		73.0598
-0.213404	-104.491		67.2289
71.482	-47.4889		40.3292
68.7069	-47.5213		47.1549
69.9325	-54.4004		39.7275
72.7605	-40.9466		40.7978
7.20013	-96.7688		92.5116
7.37884	-93.4388		95.582
2.95981	-96.8306		92.986
7.04268	-99.6024		88.0364
5.94298	-102.909		78.5208
1.12054	-103.076		79.2053
45.228	-86.9566		58.5996
39.494	-90.1049		64.2157
44.3775	-89.5126		56.099
50.8163	-83.0003		53.6001
45.4346	-83.6882		61.5242
50.2292	-88.9102		36.0746
47.4277	-91.9849		33.7632
54.6511	-85.4239		30.1085
53.2071	-86.1253		38.8484
44.6332	-92.515		42.1673
1.85927	-106.326		53.4848
5.4319	-106.417		52.8739
-1.28181	-106.082		53.2018
1.01427	-108.886		49.1893
7.05283	-1.15277		95.2025
7.19901	-3.78575		96.8924
9.46102	-2.77242		93.0905
6.50108	2.24459		92.3163
4.64122	-0.636611		96.4138
31.8252	-14.9054		74.4905
34.8312	-17.9015		74.1935
30.1623	-10.0894		74.2522
28.3491	-11.8135		75.5144
29.5558	-54.4517		75.1457
31.8297	-54.1975		74.8186
13.983	-23.2227		88.4385
15.7639	-21.7876		88.6948
13.5209	-23.8574		87.8362
18.8302	-21.8383		83.1381
13.374	-27.0486		86.7505
14.2713	-27.6372		86.4111
18.839	-26.2058		81.4013
13.2331	-26.0525		86.8967
11.1968	-26.5595		87.9815
2.0061	-25.4108		96.313
1.87314	-24.2633		97.3821
0.186332	-25.5283		96.5258
2.16711	-26.2602		95.2789
3.83214	-25.0936		95.6094
21.4854	-25.42		79.8957
24.1755	-23.6388		78.4161
21.1239	-24.2278		80.183
21.8704	-26.8349		79.8164
7.87461	-14.0828		99.5263
5.43116	-14.0385		100.94
7.60386	-16.1669		98.99
10.5092	-14.0959		97.3602
7.79633	-11.9753		99.7767
29.9075	-67.3057		79.4595
33.0678	-65.0262		76.6356
27.2323	-63.5484		79.5572
25.1602	-68.4188		82.3619
31.7593	-71.3147		78.7084
31.0701	-47.4003		76.5308
32.1981	-41.7126		75.5346
29.903	-45.1944		75.6935
32.469	-48.3383		76.2173
3.10832	-29.3847		92.1294
3.2316	-31.5139		91.6815
4.83204	-29.0041		91.4656
2.75437	-27.935		93.2981
0.745482	-29.8436		92.7585
6.0798	5.87804		89.099
8.60519	4.49534		87.8047
5.46725	9.72742		86.0391
23.7641	-13.5637		81.1467
22.6826	-12.1188		83.035
22.9826	-13.076		82.9297
24.0717	-14.9931		80.4278
24.3908	-12.8728		79.8338
5.81361	-26.0102		92.2137
5.99752	-26.9916		91.14
7.24723	-25.8338		90.7084
5.54721	-25.5244		93.491
4.3949	-26.3007		93.3275
5.2059	-25.0119		94.6138
5.03488	-24.2569		95.8489
21.5634	-12.7055		86.3321
21.1628	-11.8464		86.648
22.2806	-14.4338		85.479
23.9613	-17.8788		79.8781
23.2231	-16.7913		81.7188
22.8683	-20.7744		80.0301
2.73974	-40.5877		92.9525
2.98372	-42.4258		93.1912
5.59126	-39.5381		92.3289
2.8183	-37.4632		92.2124
-0.639601	-41.3774		92.759
29.184	-27.6722		75.0506
25.26	-29.0783		78.7779
29.9766	-32.5924		75.8899
29.9649	-29.0077		76.9529
28.3585	-23.1702		74.5204
13.2795	-63.1977		93.153
13.1421	-61.3771		93.1225
8.20303	-63.4211		93.5589
13.3601	-65.4791		93.4945
17.2949	-62.6722		91.6076
25.6601	-49.2349		79.0452
25.8112	-49.9715		78.5138
27.8933	-50.9305		76.7172
25.9838	-47.42		79.6645
20.8464	-11.2339		86.5993
20.9312	-10.4855		85.5581
18.825	-10.1182		88.8673
19.9514	-63.9699		85.1385
20.5591	-66.2067		85.1232
22.7677	-62.5382		82.6855
19.4311	-61.9951		85.2651
5.16837	-63.2573		93.9494
1.15078	-63.5456		94.12
5.25931	-65.5248		94.2347
4.37874	-61.7613		94.1032
63.9083	34.6379		57.3531
62.9625	33.8958		58.6179
65.9847	28.7942		52.9422
64.6449	35.7225		55.9124
35.5564	58.7452		74.3763
29.0545	60.2004		77.7584
36.5201	54.2345		76.6877
42.7168	56.5258		70.4037
35.6573	63.9842		71.082
50.5101	53.2447		65.1591
50.8458	49.2707		67.7575
57.6568	49.0958		58.584
50.9973	58.4058		61.0641
39.1477	47.701		78.0774
37.8792	49.6149		77.9564
35.5873	48.9683		81.0824
40.4119	45.3361		77.616
62.9777	36.936		55.8805
63.3271	39.4465		53.649
57.6403	42.6408		63.338
69.2129	30.9619		47.4221
24.628	37.9585		79.0126
24.3224	35.8783		77.9311
26.3186	37.1008		81.8427
23.7427	39.8237		81.3732
20.6201	36.8538		79.2324
5.76864	19.4737		81.0382
7.66087	17.3024		79.9966
5.89701	21.6408		80.4451
3.86893	21.1042		82.0602
5.69532	16.8535		82.0336
32.9633	-1.7176		71.2185
35.3592	-6.01077		71.8511
39.6093	-2.65937		70.1003
30.7507	1.98003		70.8117
27.4977	-0.231611		72.2161
61.5155	12.8237		55.8077
64.7534	11.2302		53.449
62.2677	17.5807		54.8539
58.2608	14.4097		57.9377
59.3388	8.54462		58.4098
6.00246	13.4322		83.9225
7.45679	11.825		82.5476
3.66935	14.8255		84.4751
41.646	43.4245		77.532
47.1088	42.092		74.3875
37.4516	43.5713		79.5311
42.3351	41.459		77.5373
51.9978	40.2344		71.1584
51.9131	38.4159		71.6839
56.4584	37.0533		66.9546
57.4998	21.8012		59.3137
57.9348	25.5102		60.6078
54.8009	21.3997		61.1739
56.8955	18.5578		58.9178
59.7503	22.0541		57.6052
42.7935	24.748		70.3156
44.6219	23.8093		68.8085
40.717	25.6695		71.6758
38.5426	26.3452		72.5912
36.4802	26.856		73.0464
38.7929	27.2897		72.9075
36.4184	27.784		73.3812
41.2279	26.5545		71.9338
33.622	27.0145		73.2613
30.7702	26.8862		73.1775
33.3258	27.9334		73.6002
30.3999	27.7702		73.4157
28.3718	26.3857		72.752
25.8869	25.2823		72.1282
22.8336	23.6405		71.2027
19.8649	21.9329		70.298
21.5206	24.2919		71.3823
18.6688	22.3785		70.5214
24.6988	25.918		72.2133
15.7667	21.8108		72.5515
20.0713	24.6661		71.5147
23.4418	26.6584		72.4667
33.1463	28.9621		73.9548
29.864	28.8106		73.7914
48.4975	19.6565		64.771
48.9949	20.7886		64.7565
47.2719	18.6898		65.4222
31.7908	38.0112		80.1635
37.493	38.7847		78.4115
32.0714	40.0913		80.7227
31.0984	35.5396		79.3564
49.3751	31.2679		69.9293
46.9299	28.9216		70.4147
51.5299	33.6367		69.3874
45.4694	32.0914		72.2112
37.3008	10.8532		69.9345
42.8533	11.9048		68.1644
30.9696	10.8536		70.7376
38.0322	9.23347		69.5328
25.727	11.8168		70.4957
21.437	12.8627		70.3076
26.0206	10.1908		70.4934
14.6841	17.1869		73.1251
14.1772	17.9762		73.1778
15.5597	16.0302		73.1219
36.1748	13.7602		70.6396
41.1083	15.0389		69.3286
30.6377	13.7403		71.1224
19.9124	15.9472		69.5352
21.9787	15.2781		69.8031
18.8369	16.3446		69.4033
16.0754	18.1373		72.1795
15.2366	18.6344		72.3252
12.3421	25.9885		76.6327
12.4268	28.1872		77.9322
11.9346	23.5147		74.7555
14.6874	27.9986		77.2146
13.4093	19.2266		73.2459
26.869	28.1385		73.296
12.6473	22.494		74.1236
12.2119	20.9159		74.2341
13.9691	24.4857		74.3007
35.8865	14.9931		70.922
30.4841	14.9268		71.2489
19.8376	16.6807		69.1587
18.8701	16.8436		69.0899
21.8836	16.3758		69.5667
16.1635	18.6196		71.8681
45.8771	22.6299		67.2439
2.2113	34.7198		82.1885
-0.471832	34.5071		81.9226
2.05423	32.2567		81.8037
4.81927	34.5299		82.4914
2.62866	38.0274		83.1671
20.054	8.08772		71.9547
19.485	9.89624		71.5256
14.4319	10.4187		75.4319
21.3915	5.39989		72.555
23.3124	6.65735		71.271
12.508	11.9216		76.622
10.7769	13.815		77.6311
12.6019	16.6773		74.9644
10.7639	17.4458		76.2533
12.3591	18.2122		74.4141
9.03137	25.3271		78.1802
10.4924	27.3991		78.4105
9.01206	26.1479		78.8846
19.3566	13.8789		70.3863
19.0232	12.7737		70.83
19.0532	11.4498		71.1643
21.7957	10.0841		70.6878
21.7604	-51.6677		78.2308
21.6665	-51.6068		78.029
24.6177	-52.3462		76.1362
20.0077	-49.4008		84.5915
26.2052	-52.6681		75.2264
25.9377	-52.5472		75.1929
3.13007	-45.4484		93.079
7.13925	-44.1709		92.6955
3.22362	-44.5632		93.4276
-0.655896	-46.5955		93.7061
2.99257	-46.3214		92.724
10.0343	-46.1654		91.5837
10.3311	-45.1126		91.988
7.08374	-46.2308		92.251
9.76165	-47.0582		91.077
12.9588	-46.2325		91.0038
15.6303	-46.3846		89.952
15.9219	-45.3604		90.4295
16.0302	-47.1839		88.991
19.9181	-47.0645		87.8247
10.0315	-43.9774		92.247
12.4826	-44.0699		91.5255
9.98309	-42.525		92.3763
14.1489	-42.2612		90.8667
15.4096	-43.1162		90.9134
13.8866	-41.1068		90.9989
11.613	-41.8651		91.8348
21.8703	-49.8561		80.8517
21.9805	-48.7522		81.8228
9.35606	-47.8279		90.8202
5.91313	-47.858		91.3634
8.75005	-48.227		90.179
12.7477	-47.8007		89.7169
16.7586	-48.1043		88.0727
16.6174	-48.6047		87.2264
26.9113	-51.5622		76.6472
21.9224	-52.7162		78.8665
21.8588	-52.6688		78.6379
20.1604	-50.6417		85.5665
21.9848	-52.8746		79.1839
22.4981	-53.9574		79.8613
22.2845	-53.563		79.7393
19.4977	-53.7797		83.0592
18.0163	-52.4898		89.9175
17.7594	-51.7748		89.5838
13.6472	-52.7371		91.362
18.4345	-53.2188		90.0085
8.58615	-51.0761		91.896
8.75296	-52.1178		92.488
13.169	-50.7998		90.3842
8.50767	-50.0518		91.107
4.6231	-50.9965		92.4559
1.75145	-53.032		93.8228
2.22404	-53.8587		94.1677
4.83314	-53.0647		93.4398
1.7216	-52.0751		93.3661
-1.68166	-53.4642		93.483
26.6297	-54.2486		74.7254
26.3357	-53.4827		75.1922
26.8802	-55.5064		74.3708
24.8023	-53.9794		75.9892
3.04093	-50.1372		88.9847
2.2103	-49.6322		89.5748
6.01585	-50.0486		88.7636
3.52066	-50.9973		88.4117
-0.0335229	-50.2804		88.7802
2.32961	-55.0328		94.2831
-1.30663	-55.3168		94.0055
2.54421	-56.0981		94.3235
5.53959	-55.2709		93.8212
3.03944	-60.2573		93.8664
7.91582	-59.7479		93.6937
3.01114	-58.7029		94.0624
0.168235	-60.2847		94.0323
9.32981	-41.7928		92.2474
7.95918	-41.2304		92.1581
6.27576	-42.4168		92.6667
1.73035	-50.8692		92.6694
-1.55857	-51.4154		92.3539
1.75543	-49.9507		91.8685
1.78796	-49.5903		91.3914
4.66881	-49.5558		91.131
2.25524	-49.3597		91.0517
-0.406205	-49.6374		91.4609
9.16265	-49.4616		90.6919
12.8673	-49.6445		89.3232
9.14568	-49.3072		90.3016
2.32483	-49.3643		90.4166
5.04734	-49.4207		90.0678
-0.328404	-49.4829		90.3705
17.0067	-49.9877		87.9747
16.9524	-49.8713		87.5265
16.7969	-50.4511		88.2382
19.3423	-56.0299		90.0637
19.7418	-57.1896		89.9206
19.0353	-55.0559		90.1254
15.811	-56.7817		91.8158
11.2342	-56.9067		93.0776
11.4644	-58.2445		92.8746
11.051	-55.9019		93.1292
6.43745	-57.3721		94.106
2.9575	-57.2309		94.2554
-0.238182	-57.2714		94.4159
16.9112	-48.6303		86.7957
12.7779	-48.1385		88.1541
16.8244	-48.5539		86.2509
29.4746	-53.191		75.1963
28.5958	-53.5313		75.1739
26.2698	-53.226		75.7326
24.7324	-53.2756		76.9589
9.50296	-50.0286		87.9275
8.88146	-49.6063		88.9212
13.3718	-50.3551		87.0473
10.327	-51.0517		87.4943
9.01193	-49.3179		89.7097
12.6557	-49.506		88.3225
11.5932	-59.7318		92.7235
16.7947	-59.2962		91.7064
18.7039	-54.158		90.1232
14.3118	-54.6883		91.6599
20.0742	-58.7423		89.6041
21.3514	-59.2391		83.1162
16.6169	-48.2301		85.8923
13.5061	-47.668		86.8827
16.3051	-47.1448		85.1232
19.3725	-48.9404		84.114
9.28292	-47.5716		87.7872
6.83981	-47.2803		88.1794
10.3799	-46.2695		86.3061
9.14482	-47.9312		88.6831
16.1742	-44.349		83.87
13.6825	-44.0259		84.3789
16.0948	-40.8535		82.5743
18.4251	-44.9274		82.6944
27.2995	-58.5704		74.3253
27.4524	-61.7644		74.802
25.1884	-58.2865		75.6918
3.82686	-53.492		87.8012
6.18117	-53.6044		87.5489
5.01169	-57.3491		88.2232
1.26609	-53.7607		88.0151
11.1599	-43.7134		84.8078
7.69766	-43.6625		85.3467
10.0445	-40.4159		83.7987
10.4731	-53.6979		87.2717
10.5902	-57.6777		87.36
13.7052	-54.0451		86.3007
31.0807	-53.7016		70.2076
31.6698	-53.5746		69.6344
9.2718	18.7934		77.6307
9.24719	17.2731		78.4456
84.1173	-5.43692		-41.4023
83.3301	-9.69599		-40.9006
82.2073	-5.17158		-44.5153
84.578	-1.01401		-41.2625
85.5742	-5.71634		-39.8707
84.7386	14.9244		-5.94674
84.8142	17.4083		-10.0181
83.8444	17.1972		-0.569909
84.6125	19.1861		-15.5393
84.0379	24.5596		-16.8247
85.4429	14.1996		-16.7049
84.8775	18.4607		-22.7976
78.3654	-29.1482		-33.6798
80.8882	-26.884		-32.3882
77.6005	-33.2879		-31.5597
79.4502	-25.3173		-35.6412
80.2749	-21.7129		-37.0947
77.828	-23.8161		-39.6615
81.3488	-17.8201		-38.6296
82.4455	-20.4531		-35.6656
86.8219	-5.42965		-39.1152
88.452	-4.98808		-38.7299
86.3826	-9.64045		-38.3715
87.0887	-0.637413		-39.1408
89.1981	-23.6201		-30.785
90.0814	-19.5609		-32.6995
89.9457	-23.9592		-29.5573
88.2442	-27.3348		-27.831
93.3934	-13.6946		-30.8582
93.2779	-13.1032		-30.109
83.6762	-35.3816		-19.3727
84.0963	-35.5452		-18.6241
83.3269	-36.0013		-17.4455
82.6825	-34.6149		-21.4701
86.1047	-27.5252		-8.5546
85.8173	-28.1311		-8.52971
85.4187	-29.1261		-8.76876
93.2406	-12.6303		-29.6775
92.779	-13.2609		-28.7288
95.047	1.75472		-32.5208
95.192	2.3756		-33.9121
95.1476	0.405716		-30.9404
95.6106	11.8754		-30.6012
95.9472	13.2224		-30.4037
96.0369	15.3651		-29.4209
95.8529	15.1935		-27.8185
96.1546	15.785		-29.586
96.1723	17.4334		-27.1717
88.4657	-4.60182		-8.26017
89.5268	0.824202		-8.74682
88.0248	-3.7934		-6.87621
87.7693	-8.542		-7.74347
84.3735	-20.1556		-1.74856
83.6555	-20.3927		1.00364
83.9348	-24.02		-2.40854
84.796	-15.7988		-1.10933
87.3139	-15.8672		-10.5502
87.7598	-17.7658		-11.0281
87.2919	-13.8697		-10.6806
85.4527	13.7535		-16.7899
85.639	14.8578		-20.3463
85.4897	13.7589		-16.5613
93.0506	20.9062		-17.1959
93.6995	22.3933		-20.24
92.1704	21.2902		-18.3812
91.9332	18.085		-14.2208
93.815	20.2854		-16.2437
93.0396	22.8676		-25.4068
92.483	22.7524		-22.4152
93.3365	23.0293		-24.8967
93.319	21.4411		-29.1878
92.2751	21.844		-26.8006
93.2735	7.23157		-37.8986
92.6387	6.74889		-37.9662
93.4806	13.2407		-35.1249
94.3998	7.55953		-37.3414
90.2424	5.36572		-9.23634
90.5424	4.13473		-9.92413
95.8681	6.90942		-35.2747
96.0833	12.0452		-33.1528
95.6153	4.07688		-35.5331
95.9666	6.79937		-35.4637
96.0111	18.4899		-23.2666
95.263	18.1182		-19.203
95.8248	17.1784		-23.9756
96.0632	19.4718		-22.686
91.4933	5.97302		-12.0428
91.063	4.29517		-11.4723
91.9228	8.26152		-12.7547
95.3468	7.67576		-32.9066
95.4524	5.54179		-34.4693
94.2131	10.8128		-22.5272
93.7859	9.49224		-21.6402
95.0999	10.0726		-26.5723
89.7759	-0.804124		-13.3336
89.9535	-0.566339		-14.1591
90.3549	0.900329		-12.2859
93.0153	-0.784862		-27.245
94.3935	1.85585		-28.6677
92.7909	-0.329654		-26.6228
92.9376	-1.85994		-27.4264
85.1765	-11.7495		-1.04579
85.6094	-7.40096		-1.62724
84.4669	-12.0143		1.66762
87.3047	4.46363		-37.8488
86.3962	3.62682		-38.4772
87.2115	9.1534		-36.3139
88.2756	7.02305		-36.7763
90.4656	12.064		-34.7625
90.1835	15.9454		-32.3419
92.65	16.562		-32.859
90.579	7.84818		-37.0848
91.7014	5.85613		-37.9602
90.5414	0.404546		-39.029
90.3871	-4.54783		-38.6948
84.2943	-19.8218		-34.7441
83.5643	-22.8796		-33.2757
85.0749	-16.6821		-36.254
85.7056	-13.2812		-37.3901
84.1868	-13.5683		-38.2584
92.1508	-13.0547		-27.5687
82.7551	-25.7735		-31.7102
81.8171	-29.3639		-29.4692
83.9119	-25.4862		-31.2026
82.2019	-32.9824		-24.6113
81.7238	-32.9776		-24.9821
81.8175	-36.0825		-19.7794
83.283	-35.6026		-14.8012
82.8078	-35.8665		-14.6072
82.4507	-36.1115		-14.7247
92.9125	-2.53272		-27.6609
94.4692	-1.27136		-29.3812
87.427	-3.10446		-5.70019
86.7939	-2.71234		-4.35762
85.8357	-16.4395		-4.6573
86.1224	-16.6596		-5.38774
88.5193	-21.3147		-10.829
89.2575	-23.6926		-12.8371
88.4828	-20.2374		-11.6767
87.2476	-11.6396		-7.30011
87.5111	-11.8473		-9.57155
90.4149	17.9579		-29.6116
87.9383	14.0413		-32.2626
89.5969	18.7398		-26.1833
86.8217	12.3403		-33.6804
86.362	12.0163		-34.7692
86.7121	14.8523		-30.0261
87.0879	-11.9899		-12.4325
87.2897	-11.9848		-11.4021
95.0781	8.93218		-28.4622
94.8265	7.48041		-28.171
90.2727	0.0973988		-15.5925
89.6366	-2.30009		-16.6672
91.0746	1.12343		-18.3705
92.8428	0.648828		-26.0963
94.1417	4.14634		-27.065
92.8344	0.801992		-24.9341
7.38478	87.5445		62.7073
7.03832	80.2319		68.1328
14.695	86.9609		62.6882
7.23793	94.624		57.3196
-0.153825	87.5315		62.5967
5.71446	73.0089		72.7064
-0.944121	72.5639		72.6753
4.7266	64.9677		76.7757
12.2761	73.1714		72.4155
26.0088	60.7602		79.601
26.5952	57.0055		81.9165
21.7861	60.8114		79.8321
1.66159	-22.7664		98.5568
2.02823	-21.6662		99.6229
-0.0851423	-22.9368		98.9605
3.64678	-23.1912		97.9285
3.21245	-8.91393		101.211
5.34678	-9.07723		100.561
3.45957	-6.78451		101.08
0.672327	-8.92764		101.575
3.19601	-10.9551		101.389
2.96993	-13.0092		101.135
0.567092	-13.1385		101.493
2.99957	-17.0201		101.376
2.28388	-27.2936		94.4697
0.383049	-27.4924		94.7023
3.19679	-34.1517		91.574
5.37347	-33.8983		91.4281
0.462704	-34.5758		91.676
2.84559	-19.1556		100.459
4.93314	-19.055		99.5744
0.528065	-19.0137		100.54
3.07035	-5.00408		100.435
5.40728	-5.1501		99.6474
2.70046	-2.87204		99.1406
0.807289	-4.94364		100.603
6.02151	49.3133		82.1443
0.620442	49.6077		82.8526
5.6009	45.9511		82.3304
11.145	49.9402		81.7917
5.01664	52.7949		81.7201
1.9222	22.0143		82.3028
1.85746	19.2973		83.2922
2.21871	24.0895		81.7354
0.200599	22.2637		82.3473
2.36965	26.4154		81.7572
4.44855	25.1626		81.1625
2.14803	28.2741		81.7093
0.442782	26.5059		81.8318
3.55655	-47.2771		88.2543
0.0782045	-47.4588		88.0726
3.93009	-46.1705		87.0357
2.3415	-48.2329		89.3807
2.28805	-48.3978		90.3651
-0.346543	-48.5622		90.3326
4.68726	-48.3605		90.0176
2.08972	-48.3735		91.0416
3.39517	-46.8982		92.7212
3.42418	-47.4733		92.4084
-0.93975	-47.9137		92.8579
2.7535	-47.9566		91.9035
-1.14088	-48.5971		91.5014
3.20532	-43.604		93.3517
-0.536109	-44.7234		93.915
4.27366	-43.6754		85.4867
3.8524	-40.2285		84.1425
0.302418	-43.7543		85.2418
16.8898	85.8452		65.3361
15.6643	79.6057		70.1058
22.6254	84.6185		64.597
18.4956	91.6621		58.952
17.2805	51.8545		83.032
17.3721	48.9496		84.0014
22.9089	52.9722		84.0058
15.4104	54.4534		81.0387
19.0511	46.3333		84.1639
21.3725	43.5045		83.8462
23.9407	47.4618		84.5687
23.0313	40.9861		83.2329
19.7503	40.7364		81.6626
26.788	42.4431		83.5294
25.8537	29.0511		73.7036
25.4349	30.8064		74.5918
22.2066	27.5799		72.9256
29.5814	30.075		74.2661
27.6069	27.2417		72.977
24.6932	32.9276		75.8704
28.674	33.7699		76.2251
21.0425	31.5571		75.2701
42.9737	88.5745		44.3268
43.9978	92.5205		35.611
37.0573	91.8009		46.6494
42.0218	83.1172		51.9469
27.9944	83.2688		63.1592
29.8805	88.2102		57.1111
33.9965	81.2217		61.136
27.5864	53.5083		83.7547
28.5286	52.0077		84.0814
34.1438	52.8038		81.2713
30.6656	44.3953		83.263
30.4287	46.0587		83.6798
29.2617	49.2042		84.1056
32.258	34.0829		75.9548
32.7026	31.7893		75.0042
37.1145	33.6172		75.0938
40.4439	78.8157		57.7515
47.325	75.8977		53.1766
38.6666	74.3537		62.2941
37.4322	51.6395		77.4395
44.1826	49.5445		73.6571
40.1262	29.3348		73.3413
40.6822	30.9552		73.6482
36.845	29.9915		74.0942
42.8355	28.5423		72.2146
42.8331	39.5027		77.5599
42.6849	35.8577		74.1685
48.181	38.5699		75.068
41.5572	33.072		73.9001
37.0483	69.2926		66.8438
44.377	66.6834		62.398
53.8895	73.2208		46.8808
52.5564	68.8211		51.9174
59.6664	70.9083		39.0305
43.371	25.5502		70.5243
45.2868	24.5113		68.9117
45.6388	27.4376		70.4456
47.7354	26.0812		68.5911
44.0897	26.2817		70.6248
51.5916	36.753		72.1624
56.2689	33.3258		65.814
16.1074	34.8868		80.9675
13.9137	32.4942		79.8034
16.8583	33.0889		79.7238
15.1274	36.7971		82.6239
13.7544	37.8918		83.0394
11.7592	35.5568		82.3467
17.3951	30.3885		78.2025
17.7532	28.0677		76.7865
5.24027	42.3005		82.5442
1.36113	42.8976		81.8807
72.1407	-59.8746		-6.72864
73.7358	-54.5342		-6.31597
72.3621	-59.7852		-11.9169
82.5134	26.2103		-37.4284
81.5649	21.8646		-42.22
80.8455	31.47		-41.8685
83.1015	28.7714		-29.1155
84.079	20.8309		-32.2253
79.5826	-4.97306		-50.615
78.9034	-10.9006		-48.9199
76.727	-5.86783		-56.2053
79.9166	0.62129		-50.537
79.8274	6.68857		-50.1708
76.7141	7.59773		-56.5197
79.7364	11.9637		-48.1849
82.8668	5.01204		-43.84
74.5513	-27.8545		-43.4785
71.2189	-31.3938		-47.2277
76.0538	-22.2619		-45.5545
5.04973	58.6987		79.6234
-0.634834	57.5735		80.0726
10.6044	58.9588		79.2878
15.7553	59.6061		78.8544
16.7008	65.9785		75.7288
24.7874	-101.055		59.6575
22.5795	-102.984		55.9509
32.3677	-98.4025		53.5493
17.712	-103.043		64.4969
54.9355	-83.6737		41.7934
49.174	-87.9527		47.8016
59.5397	-79.642		35.7285
55.8459	-81.2332		45.2062
51.766	63.5887		56.4456
58.2743	60.4617		49.2945
14.7986	73.2144		74.054
64.8947	68.761		29.5569
69.1069	65.9816		20.237
64.9994	62.5999		35.5496
19.0959	98.4738		50.3473
25.4106	96.8572		49.3029
19.4867	104.981		39.3168
15.3108	101.469		47.6718
63.8868	44.2282		49.8721
63.9511	50.7082		45.4193
48.4051	24.3229		67.0668
61.8518	32.8314		59.8364
62.5206	27.4399		56.9673
60.1514	31.4353		61.2609
58.2359	29.9345		62.5302
1.64785	-112.997		46.8173
-1.51353	-112.925		46.857
65.4494	-70.2433		35.3134
66.5106	-66.3463		37.8016
61.2771	-73.7628		42.7633
64.3675	-73.5777		32.1166
7.46786	-39.6021		92.0854
9.81662	-39.0806		91.4375
7.17738	-36.9973		91.9245
25.8326	-45.1032		80.278
25.3387	-41.3596		81.0038
23.2072	-43.512		82.4516
10.6791	-34.9826		90.2705
8.41293	-34.242		91.1194
11.8304	-36.6871		90.6207
14.1197	-34.5257		89.2701
10.0977	-32.3092		89.9069
34.7271	-48.5735		75.729
34.0144	-52.2913		75.1145
37.5518	-49.4862		74.5449
34.995	-44.3754		76.3079
67.5426	22.6297		50.0256
65.0163	22.2375		52.797
68.2542	16.501		49.2504
69.649	23.3608		47.1451
71.7282	24.1037		43.7209
74.2209	24.2264		38.4347
52.6794	21.1696		62.5651
52.5309	19.1899		62.0152
62.5594	21.8421		55.1346
84.225	12.6073		-36.3888
84.7259	8.68356		-38.4694
82.6407	14.1418		-39.9259
85.299	15.5842		-33.4024
82.4583	-14.0027		-39.9334
80.3531	-14.6934		-42.8648
75.5981	-46.9736		-15.658
77.6976	-42.5143		-14.1976
75.533	-48.739		-10.3954
73.8338	-52.2389		-16.7337
76.1261	-43.6436		-21.3401
84.8616	3.98569		-40.2552
82.9599	-20.9969		4.15986
82.3849	-25.3399		3.52335
83.4537	-16.4809		4.74498
82.2411	-21.4493		8.52927
79.12	6.9874		30.1966
78.5706	15.0153		29.5269
79.2162	-0.516998		30.8833
81.3962	5.30256		21.3631
56.0231	15.4338		59.3391
53.778	16.6298		60.8719
53.8367	12.6629		61.195
51.77	17.4061		62.2415
50.0506	15.8667		63.4944
81.4035	-21.1022		15.13
80.4239	-20.487		21.9871
80.8897	-26.3099		14.1967
81.9995	-15.7636		15.3263
28.4019	-6.36659		74.02
32.031	-8.1319		73.1891
26.3625	-2.7451		73.6222
24.7675	-4.7773		75.6523
37.6271	-10.4713		72.3717
44.5771	-12.1772		70.9128
39.0503	-15.326		72.9868
21.0456	-3.03688		78.3055
13.8143	-1.00188		84.5018
21.7679	-6.02726		79.6512
25.6436	-11.6195		77.8798
23.9816	-10.0111		79.1997
20.6736	-15.1737		87.5753
18.9926	-14.4193		89.5971
20.4654	-17.0674		87.0246
21.726	-15.7902		86.0479
22.5881	-15.8253		83.1311
21.996	-18.2206		82.7576
42.0033	-31.3615		73.5888
36.6931	-30.2655		75.2148
42.2569	-36.4312		73.5867
41.3017	-26.3593		73.6222
40.0937	-20.5709		73.3719
6.19753	-29.0781		90.8738
6.62856	-31.1926		90.5277
7.61626	-29.2754		89.8615
65.0728	-46.8525		53.8823
66.1861	-40.6529		54.2254
60.3434	-45.5206		60.33
63.5124	-53.4008		53.6971
31.0199	-37.3689		76.2112
28.7573	-36.6525		77.3066
33.45	-37.9896		75.1426
42.5219	-41.4067		73.1989
42.2099	-46.4322		72.9558
48.2298	-42.8814		70.2767
37.9426	-40.4297		75.2729
6.79126	-33.8495		91.4544
61.5758	-60.2172		53.4806
64.8007	-61.7129		46.634
57.2828	-57.2762		60.4351
58.387	-65.8882		55.2367
67.2698	-24.7099		55.6646
67.2477	-29.6651		55.1593
71.458	-24.237		49.2128
33.7865	-92.7691		70.5836
34.3822	-89.6645		72.722
28.8641	-94.6521		75.9017
45.2026	-79.3613		64.7027
49.9937	-75.3323		61.1413
43.5195	-74.5936		68.4523
39.8045	-82.8346		69.3417
62.0624	-2.16686		59.1906
58.6871	2.61029		60.571
55.4413	-2.94435		64.1796
47.2508	13.8735		65.5173
48.6992	11.9714		64.7284
55.8302	5.71014		61.581
49.8322	4.13383		65.4129
52.8166	8.12858		62.858
44.9093	17.0316		67.0742
7.42002	-89.2842		97.4881
3.30453	-89.0128		98.0891
52.3346	-54.7311		65.8612
50.442	-59.2464		66.452
53.5466	-49.6036		65.8317
46.576	-52.5534		70.196
41.3227	-70.3146		71.2926
44.6268	-66.8521		69.3935
38.0533	-65.9955		73.8274
37.1455	-73.2854		74.2428
47.5535	-3.30226		67.8054
50.3008	-7.81581		67.8484
44.631	0.688827		68.0771
54.6458	-44.3685		65.7892
52.3656	-12.6212		67.5758
14.8759	-79.3566		95.6887
14.2146	-73.5502		94.9708
19.5095	-78.6574		93.1544
23.2816	-79.0567		85.7148
27.9069	-77.4569		82.0531
22.468	-74.0719		85.6504
42.4638	3.57855		68.2109
40.5711	5.61258		68.6967
35.1203	3.44883		69.9576
50.6936	10.0267		63.7492
45.7588	8.39602		66.7054
39.2456	7.48282		69.0533
32.4949	7.5153		70.2206
10.8222	2.18447		86.2667
11.7445	-1.66672		88.4595
10.0471	5.69642		83.7228
12.9122	-9.21138		93.8931
12.621	-7.4497		92.7518
10.1983	-7.40666		96.1245
13.2682	-10.2065		94.0683
9.31292	15.3843		78.9643
9.13131	13.0775		79.7716
23.9063	1.05847		73.2183
1.86585	15.606		85.0447
0.101889	15.8595		84.9762
68.1602	10.2354		50.3908
9.85587	10.0188		81.44
67.8183	-61.3595		39.5909
70.9452	-58.6723		31.4949
74.4751	-10.1573		44.2868
74.7746	-17.2612		43.1418
77.027	-8.43423		37.9709
73.6987	-34.8166		41.1762
74.3478	-29.1954		41.6535
70.7319	-35.1587		48.06
75.9386	-34.0158		34.4331
74.7533	-23.2352		42.2165
77.1865	-22.0286		35.456
24.0349	-96.2825		80.205
13.5764	-69.0711		94.1199
9.87638	-69.2866		94.9922
17.8131	-68.7282		92.1503
21.5303	-69.8191		85.4254
26.0173	15.8355		70.407
29.0335	4.78374		70.5185
27.7927	6.86262		70.4799
26.8425	8.55319		70.398
5.25674	-69.428		95.338
2.05229	-69.347		95.523
6.05399	29.1472		80.981
7.36043	28.4822		80.2989
6.40985	31.3214		81.3232
4.23461	29.7334		81.5333
5.80716	26.8602		80.723
14.4644	19.4138		72.5565
14.1102	20.5185		72.7104
12.0222	19.4633		74.2056
8.30159	27.2358		79.5747
9.32636	29.6477		79.9827
2.12479	30.3734		81.8038
-0.211718	30.3552		81.6092
5.45665	-22.9351		96.9254
6.0883	-21.8128		97.8361
7.76374	-9.7187		99.344
7.72547	-7.47505		98.5298
10.5801	-10.5637		97.1431
21.0624	-22.7444		80.7355
20.7394	-21.6109		81.7007
16.1374	-24.5829		85.8789
7.42463	-5.75262		97.8727
5.9091	23.4891		80.2245
6.80648	34.3981		82.3626
8.82998	33.2227		81.1992
14.9137	21.9595		73.1017
10.394	32.2811		80.4796
11.5029	31.2561		79.995
12.1393	29.9067		78.9837
22.902	-29.3537		79.9837
20.093	-29.6403		81.5724
23.7084	-33.0721		80.761
24.7747	-37.1475		81.2155
21.8498	-36.3582		82.8475
25.2547	-52.074		75.3332
25.1625	-51.0107		74.8667
23.4182	-51.847		76.5783
25.8003	-50.5813		78.105
24.2047	-49.2695		80.0888
25.2241	-47.8372		73.8709
22.2166	-47.4367		75.7571
25.3617	-44.1604		72.9767
15.0371	-29.9685		86.7368
11.936	-30.5078		88.4159
16.0954	-32.0804		87.3028
19.114	-36.2231		85.572
19.7909	-39.1497		85.8595
21.0794	-51.2152		78.0982
19.9497	-49.8115		78.1275
19.5783	-46.8382		77.2545
19.9062	-43.0705		76.2341
9.65021	-29.7815		89.3787
9.31061	-27.6611		89.0588
13.0958	-39.19		91.0383
16.1105	-39.901		89.896
21.7104	-8.26215		81.4923
18.3027	-7.09957		86.5923
2.34876	-0.23239		97.0649
0.216134	-0.18977		97.0831
12.1602	-4.9194		90.9342
6.8867	-19.0753		98.521
9.30545	-19.5658		96.9353
12.0192	-20.2441		95.395
12.9834	-17.9358		95.5872
14.9173	-20.3706		92.6686
19.7118	-18.8306		86.6159
20.2889	-19.8933		85.3117
20.7104	-20.3975		82.5915
13.2516	-11.4528		94.6713
13.5389	-13.0511		94.9646
13.3786	-15.4765		95.3435
39.8473	-144.917		22.4746
34.6032	-146.468		25.3116
42.3474	-147.606		17.8934
44.6081	-142.772		19.479
38.2122	-135.893		23.4472
38.4725	-120.674		22.4674
42.8646	-118.536		18.3864
39.7384	-110.541		24.3906
33.182	-122.806		26.5596
45.5002	-95.0931		31.2944
50.0706	-92.0052		26.0259
40.2898	-98.1558		36.3796
44.5481	-98.386		29.1314
43.4854	-103.437		27.6276
37.652	-105.713		33.547
46.6093	-101.017		22.0059
48.1669	-63.313		67.3476
51.7518	-66.8243		63.1035
43.3851	-60.1126		71.1013
54.858	-70.8913		57.4064
56.1268	-74.8173		52.5832
56.3603	-78.3022		48.5225
39.2696	-57.6801		73.2522
40.4204	-54.5458		73.0228
35.6206	-55.6085		74.4
37.2118	-60.1368		74.0388
33.528	-54.8489		74.5991
32.5669	-56.3733		74.8158
53.8291	-89.1802		20.7493
