1824
29.7305	-65.4424		80.63
23.43	-70.6389		86.0169
23.208	-77.6252		83.8417
31.9232	-46.5037		84.4146
27.9806	-44.7109		87.8084
1.42696	-32.9528		101.158
5.43589	-32.4878		100.625
4.46334	-27.2043		101.2
1.12585	-28.1284		102.38
8.68197	6.34635		92.4281
19.6488	-15.2541		92.7225
19.1915	-15.2809		94.8416
19.5461	-18.1334		93.2255
7.38708	-27.6942		99.4995
18.5056	-22.1937		92.5756
1.13798	-44.2376		101.831
7.93861	-42.7692		101.117
6.8247	-37.8974		100.677
1.41912	-39.0296		101.195
24.5526	-36.5306		89.1615
29.1576	-37.5577		86.3585
16.2064	-69.6822		92.8006
8.85128	-71.1592		95.5601
8.92017	-75.1227		93.2358
15.3143	-74.3075		91.0768
25.4342	-51.6378		88.3084
29.4312	-54.1086		82.0436
16.355	-11.1017		97.8986
22.868	-67.2198		88.0864
1.57693	-71.6122		96.0275
1.89271	-74.9386		94.0108
57.0077	20.3284		51.9211
59.5126	21.304		46.1374
54.326	33.8149		59.8312
34.4215	52.4116		75.6866
44.7133	47.1988		67.2426
46.1203	58.0873		60.2885
54.5472	38.6984		55.4092
56.335	50.3239		47.7475
44.4746	42.0136		69.8686
34.6361	47.1433		78.7896
22.0631	31.7692		78.3618
29.4745	32.8123		77.383
29.4756	37.2073		80.5701
21.5777	35.6371		81.687
8.70945	13.8159		85.4736
3.06196	23.2855		85.7595
3.11016	18.5536		88.6535
26.0652	-8.25611		79.6797
36.938	-12.2693		74.2055
34.6621	-3.65394		72.3645
24.2607	0.619367		76.1775
57.7639	8.37503		48.664
54.0242	9.84579		53.5803
52.417	3.5988		56.8708
44.9013	33.4733		70.9591
36.0422	41.6133		78.1295
37.1514	36.2131		76.1116
51.7836	27.7662		63.3865
54.3557	19.1396		56.1418
46.2588	15.3062		62.6224
36.9411	31.3862		74.5164
46.5922	20.4695		65.8953
42.6281	23.9485		70.2023
15.5383	28.226		77.6171
12.2646	23.4609		77.0412
16.6192	22.1367		73.3878
-0.551672	37.6088		85.415
-0.70668	32.9016		84.8465
4.0436	32.1447		84.2734
6.70566	37.4895		85.1782
22.9923	5.8402		73.9495
10.6312	27.4047		79.8525
22.7758	8.7922		72.4019
20.2225	-55.5409		87.4896
26.3814	-55.3905		81.6081
8.56981	-48.417		100.716
8.51299	-45.1647		101.238
1.12498	-46.4698		101.99
1.07507	-49.0528		101.488
13.9188	-48.8886		98.2772
8.16539	-51.497		99.3158
13.7714	-52.1211		96.4677
20.2484	-50.5131		93.5075
13.4641	-45.828		99.2011
19.8079	-47.9415		94.5612
7.44149	-54.3147		97.2534
13.4451	-54.4618		94.2745
30.1285	-55.539		80.1073
20.5628	-57.1206		88.4512
20.8073	-57.712		89.1877
21.3336	-59.4043		89.93
14.6129	-60.0871		96.067
15.3928	-62.4237		96.1753
6.75252	-60.4939		99.3524
13.7407	-57.3726		95.2084
7.15008	-57.4506		98.2192
0.768389	-64.098		100.157
7.1483	-63.2047		99.6597
0.717409	-60.9495		99.9817
26.7788	-56.4818		81.4467
1.64669	-56.4363		96.2305
7.83659	-56.7812		95.842
0.833911	-66.5211		99.6639
7.64988	-65.4405		99.2747
7.93705	-67.6449		98.1489
0.881976	-68.5512		98.5016
11.9267	-43.352		99.8352
1.17971	-57.4881		98.9487
7.25233	-56.4463		97.3978
1.34172	-56.361		97.9927
13.4082	-56.4169		94.3557
16.2166	-66.6952		94.7134
15.9163	-64.5594		95.7648
13.4139	-54.5888		92.8811
13.301	-56.6198		92.775
13.1531	-52.5989		90.9
18.8248	-53.5988		87.4312
26.6722	-58.572		80.3618
7.77882	-59.5994		92.5705
1.9031	-59.1509		93.361
8.0946	-54.736		95.6317
7.59377	-51.7983		92.8477
13.4544	-58.9445		90.2032
27.1102	-48.0055		77.8019
29.6494	-52.633		74.4577
12.0042	-44.8423		89.1086
17.1241	-45.8399		86.4458
27.9746	-64.7734		76.4635
24.5925	-66.0822		80.2654
6.76154	-44.1259		90.5806
12.7176	-66.4		88.1199
7.841	-67.2505		89.9515
29.7595	-60.2688		73.968
79.6502	-14.4146		-41.8289
76.4504	-13.5668		-46.1457
78.3186	-3.47397		-47.1797
81.8536	-5.23959		-42.8082
81.5563	-0.038401		-4.46838
83.6895	7.07926		-12.3261
79.3879	18.5014		-6.67747
75.0571	1.99071		0.919193
82.3963	18.6469		-25.0217
83.3269	10.1429		-20.8171
78.3532	-28.3333		-34.0488
74.9537	-34.9225		-29.7916
73.3273	-24.5483		-44.1044
77.4732	-22.6631		-39.1818
85.7252	-2.93054		-40.6791
83.531	-14.062		-40.3045
82.795	-31.3595		-29.0334
83.0891	-24.3577		-35.2275
78.7488	-38.9083		-22.7333
73.9665	-39.7988		-19.6087
80.0513	-36.022		-9.60413
89.4144	-14.2904		-31.3431
92.6378	1.01982		-34.5119
84.692	-23.2505		-20.0577
78.246	-24.0848		2.96628
76.8858	-32.4063		2.18945
82.6789	-20.4101		-8.37699
82.1858	-23.8401		-8.82166
83.1848	9.43215		-19.4865
88.9802	-2.74754		-40.375
91.4572	18.1875		-19.3041
89.8592	19.2527		-21.3676
88.4383	18.2619		-23.6137
93.5947	8.73615		-34.609
90.0393	7.10416		-14.273
87.7515	1.06871		-10.3442
91.1131	-3.75136		-29.2202
90.7945	-0.95477		-28.3074
83.6339	4.89119		-38.6481
84.612	7.79431		-35.6068
81.5517	-27.8418		-32.4234
86.6965	-9.26507		-23.6939
83.626	12.1227		-28.388
82.8104	11.0102		-30.9216
90.5017	10.401		-21.2532
-0.0293578	78.7965		70.7949
14.8316	78.6032		69.449
15.4583	92.548		57.6884
-0.307364	93.6051		58.2027
0.437241	63.8866		78.7292
14.6657	65.0514		76.9584
24.9904	53.6475		80.204
4.60669	-21.2591		108.409
2.65766	-20.9123		111.686
6.62575	-10.5714		112.703
1.72502	-9.27832		115.475
1.5983	-13.0845		115.886
5.17786	-18.2698		116.155
1.95614	-5.84511		110.85
-0.00184796	50.2987		85.3108
0.0318794	45.4653		86.3827
13.4964	45.1055		84.8055
13.5178	52.0139		82.7183
-0.573684	19.6986		89.1782
-0.6243	24.5883		86.3296
3.17904	27.6432		84.5042
-0.624548	28.5537		85.1402
1.76866	-54.3599		96.2483
2.62963	-52.0155		93.419
1.37394	-54.3231		97.9881
1.31364	-51.6612		100.245
1.72206	-45.1077		90.1562
27.8635	89.3558		55.8795
26.2553	48.58		82.6735
28.7324	41.9911		82.9259
29.7381	27.5476		74.2246
22.2999	26.1719		74.3472
41.435	96.5028		32.3704
38.6517	84.875		51.3522
36.9069	26.5761		72.9843
49.099	68.6599		52.2185
43.7959	28.6448		70.7269
59.7599	62.4567		38.234
49.5185	24.2977		64.7773
14.5807	32.1444		80.7359
66.0746	-58.8474		-13.4665
79.9816	15.0444		-38.3088
77.1385	24.027		-49.1529
70.9356	-14.8759		-56.2256
73.6025	-0.90003		-58.6397
75.4246	12.6007		-57.004
79.9721	6.57076		-44.984
67.4364	-29.6743		-53.0892
15.7687	-104.816		51.7277
27.3193	-101.665		44.0804
53.691	-79.3632		42.1627
68.9517	56.5204		19.241
29.1111	103.361		35.1537
15.6851	107.804		36.133
51.0591	-70.219		50.5485
10.354	-38.537		99.6816
22.705	-42.4187		91.8979
8.53514	-33.106		99.4788
16.1343	-40.2869		96.6539
13.4482	-34.8042		96.8123
35.9643	-55.7722		78.3777
36.2059	-48.3704		80.8941
70.7197	-43.5419		-21.5618
74.5506	-34.6116		9.86176
75.5095	-25.2718		10.5399
70.8266	4.46312		17.3816
70.526	-10.9219		20.5683
49.8599	7.15738		59.0164
68.8984	-24.1212		21.7018
70.9337	-35.6381		23.0933
16.1029	-6.79411		92.7979
15.9934	-17.6908		99.4795
17.9266	-20.2831		95.1023
33.7569	-39.3207		83.1643
48.938	-55.0413		64.0262
41.5961	-51.6171		74.6733
45.8519	-64.3144		64.2044
59.1344	-36.0004		51.9094
39.7773	-73.223		67.5863
32.3527	-80.1534		73.198
47.1431	-4.98809		64.5223
45.6214	0.338415		64.4884
39.8391	-59.5343		73.8746
36.5192	-65.858		74.6436
14.7103	-80.7367		89.2522
33.6576	1.58404		71.2898
11.7888	-11.0346		107.235
64.8831	-23.2205		36.5107
64.6691	-35.0175		37.4775
7.85497	30.2657		82.5204
19.3126	-35.8825		92.8466
24.3686	-53.8783		82.5364
22.516	-46.6117		82.306
32.715	-135.988		16.1576
35.2431	-149.879		13.3524
43.8867	-147.295		7.4107
41.19	-132.888		9.47263
41.2418	-100.553		16.8577
32.7794	-104.448		26.669
29.9946	-115.451		20.6657
38.8053	-112.254		12.5421
33.8998	-60.621		78.1438
51.226	-86.6064		14.4093
56.8874	-80.3183		21.5996
48.4597	-129.862		2.32574
51.1538	-144.342		0.530267
58.4671	-76.7595		8.72449
58.2541	-82.1617		-8.9704
54.9827	-84.0798		1.55075
58.4132	-96.4735		-35.0769
75.6968	-38.5099		-0.103016
59.5569	-80.2677		-33.4321
55.8982	-125.216		-53.4986
54.7853	-108.096		-50.9069
23.1079	-138.356		22.1607
25.6924	-152.052		18.5018
24.1267	-107.963		35.8857
20.6299	-117.881		30.393
28.8581	-61.4539		81.5551
20.3389	-57.2595		87.237
20.3546	-59.1225		85.7325
16.0866	-153.632		22.5697
19.13	-66.4384		84.5358
75.0105	53.3324		-2.32602
49.9027	-82.8127		-59.0121
55.1188	-88.5003		-48.4624
49.356	-103.844		-61.3212
49.6061	-121.149		-64.6594
56.6298	-67.2586		-47.0678
29.7599	114.269		6.65621
15.0539	119.62		6.7709
15.4681	112.229		-64.6789
29.8429	108.504		-61.6797
28.6505	89.7162		-90.1955
14.1758	92.5848		-94.0318
27.2992	64.9065		-106.794
14.096	67.1376		-110.441
29.8626	117.233		-26.6178
14.7644	122.119		-27.9972
-1.92562	123.651		-28.0393
-0.630229	121.306		7.01664
26.3332	37.7769		-116.084
13.8574	40.4779		-119.252
26.0305	10.712		-116.87
12.8111	12.444		-120.587
24.0251	-15.2284		-111.741
22.247	-39.2433		-99.1374
11.2892	-38.8106		-101.631
11.587	-14.2936		-116.261
-1.27256	-14.2185		-118.017
-0.161802	12.9046		-122.122
10.5614	-74.8583		-85.7172
21.1334	-76.2415		-83.2958
20.1943	-95.1605		-82.5181
10.271	-93.9897		-84.2627
10.2757	-112.867		-83.9026
0.555223	-112.723		-84.2403
0.558058	-93.0739		-84.6975
22.452	-56.7057		-88.9461
11.511	-54.8091		-91.848
0.423736	-54.8204		-92.2686
0.543726	-74.5566		-86.2577
54.7927	95.2684		3.70679
43.0272	106.034		5.62227
52.6705	77.937		-76.2741
52.5689	55.659		-92.6935
40.8092	60.8858		-100.716
41.6642	84.8122		-84.1442
42.1304	102.215		-57.3798
53.397	92.803		-52.0532
55.6251	97.5008		-24.244
43.4717	108.81		-25.396
51.0444	31.7716		-100.879
40.1213	35.1032		-109.241
48.5718	7.11779		-102.571
38.0043	8.72981		-110.651
45.4486	-18.099		-98.3328
35.773	-16.7857		-105.324
43.8305	-40.8208		-85.0845
33.7073	-40.5856		-93.1886
33.3223	-58.5066		-83.1253
39.9714	-98.9391		-72.0912
30.3173	-96.8741		-78.5523
31.9214	-77.5538		-78.0533
41.6667	-78.8701		-70.2943
30.3779	-114.693		-79.4933
20.1834	-113.404		-82.6298
63.2778	80.7275		-45.1591
72.457	66.8777		-34.9276
69.6666	58.1627		-55.9952
61.65	69.2344		-67.1654
72.3357	68.5743		-13.2418
65.3796	83.9694		-21.2739
61.2383	49.9028		-83.1993
59.8494	27.9581		-91.2053
57.8588	4.9396		-92.1649
54.0406	-18.3441		-87.4312
50.9137	-40.7142		-77.9633
73.2587	33.5342		-59.9707
60.8226	-17.953		-76.6272
64.447	3.02581		-81.4308
69.5505	0.978435		-69.6962
66.1923	-16.5509		-66.2993
67.4366	23.2325		-80.9682
71.2208	17.7946		-68.62
67.7261	42.6559		-71.7749
56.9734	-38.0123		-69.5215
62.1575	-34.2059		-61.0388
60.3418	-48.0535		-53.3569
93.2523	9.41795		-35.1151
91.5129	10.081		-36.295
90.1825	18.1954		-29.6207
92.2304	17.0032		-27.9426
88.5941	13.1706		-15.1248
90.2953	12.2527		-13.1871
86.5546	12.6092		-18.074
89.8665	8.5155		-37.1645
89.1234	16.8049		-30.6391
92.4382	-2.60892		-37.3065
92.1191	16.991		-18.524
92.6437	15.7285		-27.6693
-0.202404	109.757		36.7735
0.663037	113.499		-65.3336
40.4412	-117.332		-73.6494
-0.379125	93.3054		-95.3406
-0.209074	67.7104		-111.734
-0.18241	41.4385		-119.722
-1.17401	-40.4398		-102.999
-67.3167	-48.2791		18.7928
-70.0581	-44.6387		4.58858
-65.2843	-57.7784		17.0643
-57.0216	-105.334		-11.1704
-52.8581	-106.677		-2.66144
-57.1339	-141.991		-6.24956
-54.8056	-128.097		-3.96061
-59.2575	-125.096		-12.9145
-60.6746	-138.788		-15.3772
-52.6644	-93.6798		-1.12178
-45.674	-109.129		6.48351
-46.0182	-96.5135		8.62798
-57.4005	-92.6539		-10.5096
-59.8358	-90.8789		-19.9113
-59.7208	-103.59		-20.4816
-62.8161	-65.0946		14.3385
-59.3414	-72.0286		10.8633
-57.1944	-74.4496		25.3198
-59.9914	-68.0157		29.9667
-73.5556	36.2812		7.17282
-72.0652	20.3538		13.9758
-60.7197	24.311		39.5843
-67.3058	41.354		29.7441
-78.0102	31.12		-34.1647
-77.7418	34.7091		-14.8956
-75.8275	49.921		-24.0762
-74.7381	44.4989		-44.5885
-7.5739	-109.792		41.7792
-13.3119	-109.038		40.2569
-11.9324	-119.904		35.1947
-6.35755	-120.863		37.7277
-13.612	-141.018		27.0764
-5.70558	-142.309		29.4628
-6.74608	-155.285		26.0067
-68.1627	-42.158		-34.5844
-62.9022	-53.0849		-40.4719
-66.3555	-54.8973		-26.4444
-71.572	-34.0688		-40.7521
-62.9801	-41.8792		-46.9264
-61.7038	-135.395		-26.1921
-59.0707	-130.539		-39.5281
-61.5089	-61.3092		33.2097
-63.4559	-50.7328		34.7543
-64.0363	-62.0717		-1.43753
-7.3595	-89.6977		89.0646
-16.2763	-87.9411		85.9351
-16.01	-97.1068		80.8324
-8.02507	-98.1262		84.0619
-25.4637	-84.3671		80.0051
-24.6896	-92.5647		76.0046
-5.94866	-81.348		91.5108
-7.32177	-102.334		76.9075
-8.15379	-105.145		65.2696
-15.4904	2.29849		87.4634
-15.1879	9.02998		80.3706
-20.4424	5.53177		77.8304
-22.2126	-3.02827		82.5538
-49.4186	-36.2132		66.0276
-40.012	-32.815		76.7847
-38.219	-22.6387		77.0285
-47.8628	-25.7742		68.2324
-58.2164	-25.7402		52.9783
-46.4787	-14.7978		67.9068
-60.3815	9.05171		45.138
-63.6011	7.58772		36.1567
-41.7542	-42.2951		74.9185
-50.5568	-46.0864		63.367
-3.26262	10.8763		95.0464
-3.12733	1.18963		103.433
-25.3208	75.4179		68.9331
-36.2714	71.7102		64.0643
-30.8247	59.3859		73.3126
-24.1849	62.4848		77.8116
-7.48093	-105.789		52.8772
-58.3861	-50.5233		49.2132
-56.5729	-62.0671		47.3812
-34.8784	-88.5315		65.2545
-43.486	-81.8782		56.6081
-42.1792	-87.2612		49.5775
-35.1747	-96.5058		34.2872
-39.6183	-91.2311		43.0333
-48.1252	-84.8463		32.7366
-42.7947	-91.9876		24.9508
-3.21302	-5.21761		111.245
-8.55354	-0.00479274		100.281
-9.35493	-6.83794		106.102
-23.2684	-12.0403		86.272
-29.2088	-16.6869		82.0305
-33.9505	-58.0062		78.9139
-15.7527	-22.3317		96.0214
-15.0322	-24.7678		94.5565
-11.1277	-28.7575		96.2127
-15.2357	-27.1176		93.3258
-16.2261	-29.4635		92.7291
-3.25169	-22.9348		105.902
-2.40677	-25.3308		103.292
-21.4921	-28.3364		88.9768
-3.68107	-12.9737		114.406
-9.65272	-12.4934		108.778
-9.29986	-15.8152		107.567
-3.53827	-16.4825		112.916
-32.9011	-71.6015		77.2268
-25.2601	-76.3505		82.9977
-24.4615	-70.4192		85.8448
-31.1893	-65.5151		80.3445
-32.7846	-46.3018		83.5651
-28.6516	-44.2075		87.2241
-2.61859	-27.6693		101.615
-3.32806	-32.6495		100.591
-9.26138	6.30415		92.2084
-19.5373	-14.0466		93.6283
-19.5708	-16.7438		94.369
-18.7139	-14.1522		95.9082
-5.87061	-28.188		99.7601
-18.7122	-21.4235		93.2697
-4.6013	-38.4311		100.651
-5.71465	-43.0063		101.16
-29.7387	-36.9853		85.5766
-25.1448	-35.7544		88.4407
-16.4148	-69.3015		92.8432
-14.5238	-73.8404		91.0293
-5.6764	-74.7459		93.4898
-5.79139	-70.8467		95.7155
-25.9675	-51.3416		88.3227
-29.8534	-54.5453		81.4165
-15.5177	-9.97839		98.7975
-23.5744	-66.9503		87.903
-52.2583	31.8977		62.2048
-56.6054	20.7559		49.5335
-53.9667	18.9348		54.752
-44.4455	54.4504		63.4283
-43.2182	45.1636		70.1906
-30.5378	49.8031		80.8051
-57.0989	48.2623		49.1436
-54.4137	36.9276		57.6068
-31.4466	46.15		82.5257
-41.6735	40.8295		73.3138
-22.5882	31.6326		78.0683
-21.5117	35.7567		80.9802
-24.5023	37.1478		82.1489
-24.8275	32.8854		79.4083
-9.87448	13.6796		85.1297
-3.92934	18.5055		88.5174
-4.50604	23.4508		85.7403
-27.6123	-6.73595		79.61
-25.7476	2.26176		76.1138
-34.7876	-2.76314		72.8729
-36.7211	-11.5862		75.0839
-50.414	3.97147		58.9922
-52.8848	10.524		55.9058
-56.8004	9.09581		50.9169
-41.1544	31.5846		73.4101
-32.3483	35.4248		79.3994
-31.9567	41.1722		81.7177
-48.6806	25.5235		65.7606
-51.1609	17.6992		58.5302
-32.662	30.8065		77.0612
-43.5673	20.0005		67.7555
-39.5973	23.808		72.135
-14.111	23.9626		76.7824
-17.0922	28.1419		77.3996
-18.8707	22.8718		72.8005
-8.13499	37.1836		84.3611
-5.8444	32.2874		84.1328
-24.1171	6.97907		73.9496
-12.3265	27.6624		79.9451
-23.1496	10.001		72.7945
-19.5113	-55.9669		87.5078
-26.6598	-55.8109		81.1537
-6.21492	-48.4988		100.55
-6.27468	-45.3123		101.283
-13.4501	-48.6108		98.299
-12.2391	-52.5987		96.4518
-5.81494	-51.4413		99.2217
-20.1916	-50.2687		93.354
-12.6248	-45.5146		99.2582
-20.1127	-47.6577		94.4058
-11.997	-54.6812		94.3813
-4.34142	-53.939		97.4231
-20.0403	-58.2809		89.3944
-19.7819	-57.6722		88.5762
-21.7826	-59.4557		90.2023
-15.779	-61.791		95.9851
-14.6627	-59.6021		96.0134
-5.10955	-60.3613		99.3788
-4.58087	-57.1059		98.3317
-12.5023	-57.5734		95.3953
-5.83025	-63.0857		99.8809
-27.0602	-56.8176		80.8979
-4.06521	-56.2855		95.7623
-6.09802	-65.3666		99.5422
-5.87989	-67.4974		98.3839
-11.1499	-43.0682		100.114
-4.42051	-56.1104		97.5368
-11.9648	-56.6558		94.5222
-16.7538	-65.9677		94.4754
-16.3264	-63.8867		95.3808
-11.9521	-54.785		92.8989
-11.7908	-56.8628		92.7455
-17.6705	-54.0001		87.5187
-11.7061	-52.8586		91.0042
-26.9051	-58.9999		79.9902
-4.1905	-58.9579		92.9401
-4.27804	-54.08		95.8039
-4.96636	-52.0988		92.8841
-11.9599	-59.2691		90.4325
-26.6314	-48.6586		77.5308
-29.3019	-53.6394		74.1535
-15.9634	-46.242		86.3919
-9.83474	-45.4074		89.083
-28.0332	-65.3745		76.3315
-24.3446	-66.5522		80.2777
-3.82972	-66.7565		90.3834
1.91018	-66.8043		90.9728
-3.50624	-44.8973		90.4754
-11.3141	-66.6089		88.1561
-29.5451	-61.0815		73.7481
-80.262	-14.811		-42.0802
-82.2568	-5.66528		-42.3424
-79.3801	-3.99785		-47.0804
-76.9346	-14.673		-47.2211
-76.9298	1.79802		0.721225
-78.194	17.6565		-8.34711
-79.5772	18.0823		-25.8472
-80.4633	10.1137		-21.1114
-76.0989	-29.8399		-36.2682
-73.1416	-36.1515		-30.498
-78.3793	-22.7375		-39.6792
-74.2588	-24.8051		-44.971
-84.9669	-3.76261		-40.9075
-83.5265	-14.6969		-40.5987
-80.824	-32.6191		-30.7669
-84.1991	-24.4644		-35.9468
-77.7824	-40.3154		-23.0488
-74.6564	-42.1224		-20.0341
-89.4504	-15.0804		-32.7641
-92.4818	-0.0384572		-35.6266
-75.3604	-25.4185		0.0190181
-73.705	-33.4209		-0.752461
-78.6938	-20.9329		-9.91352
-78.9296	-24.9645		-10.243
-80.4613	9.4149		-19.7346
-88.7217	-3.79623		-41.3465
-88.8814	18.1789		-21.3944
-90.5155	17.0792		-19.2918
-87.4641	17.2024		-23.6136
-84.3527	0.801434		-11.7784
-93.8933	7.55026		-35.1373
-90.9014	-5.44153		-30.8577
-90.039	-3.29307		-30.3596
-84.64	6.54375		-35.7969
-82.5231	3.8968		-39.1742
-79.1015	-29.2336		-35.0606
-79.2591	-5.39861		-7.68041
-83.1217	10.9601		-28.2758
-82.3251	10.0245		-30.6469
-90.2224	8.80793		-21.6571
-85.1925	-11.4537		-25.9058
-16.0791	91.3205		57.9283
-14.8503	77.0679		69.9619
-13.6666	62.5188		78.3893
-23.9037	52.7418		83.4397
-0.908953	-21.2186		109.813
-3.54798	-9.65899		114.106
-12.5165	51.7241		84.9312
-12.7682	44.0892		84.4454
-4.62612	27.8089		84.5422
-27.9503	87.9995		56.2082
-24.993	46.9193		82.8909
-23.6196	41.2551		83.6572
-26.2098	27.9467		75.8562
-23.4806	25.7901		73.7271
-38.4683	83.1115		52.7481
-40.9467	95.6467		33.4088
-33.4756	26.4496		74.9081
-48.5098	65.7968		54.0784
-40.8327	27.6125		72.8278
-59.6505	60.6671		39.1189
-46.3163	22.3589		66.9096
-15.493	31.9835		80.5947
-65.3191	-60.437		-14.2337
-80.08	14.0296		-37.1793
-77.4169	23.5691		-49.3056
-75.2652	-1.59691		-59.0891
-71.7531	-15.7885		-57.1874
-80.1884	6.50828		-43.9523
-76.6633	12.286		-56.8593
-67.9551	-29.6517		-53.9852
-14.3397	-104.649		49.9909
-25.5623	-101.129		43.0818
-51.1005	-79.6402		39.3581
-68.7853	55.7005		19.6681
-16.8442	107.337		36.2267
-30.0012	102.378		35.106
-46.0318	16.153		63.2658
-52.1175	-73.2647		47.4438
-8.41134	-39.0581		99.9081
-23.1686	-42.0735		91.8525
-6.76341	-33.3241		99.4807
-12.2994	-35.0982		97.0026
-16.1036	-40.1613		96.837
-36.5232	-48.5417		79.8431
-37.1429	-55.8042		77.4218
-70.7291	-45.9063		-22.0531
-71.73	-35.9992		6.49821
-73.2756	-26.7814		7.40887
-72.4716	4.30642		17.8059
-71.5029	-12.0614		20.746
-48.4216	7.72765		60.5153
-70.6098	-25.8371		21.0118
-69.0918	-37.6998		19.6225
-15.9645	-5.43692		93.4483
-17.7198	-19.0429		96.3405
-14.9465	-16.8359		100.7
-34.54	-39.2029		82.1129
-49.7516	-56.5308		62.0316
-42.511	-52.2655		73.0942
-47.0708	-65.2745		63.1986
-58.605	-37.3516		51.03
-34.7117	-79.0332		72.2697
-41.8401	-72.3332		66.4502
-45.1739	-4.69383		66.2691
-43.7659	0.811741		66.082
-40.806	-59.9603		72.698
-38.0466	-66.078		74.0075
-14.6683	-80.1258		88.7263
-33.2469	2.37933		71.9505
-9.69659	-10.0911		108.268
-66.0238	-26.061		36.7968
-65.1348	-38.6187		35.9424
-9.60779	30.5408		82.5069
-18.8518	-35.8738		93.0226
-24.3696	-54.3157		82.315
-21.7278	-46.9581		82.1795
-32.7567	-136.779		17.8867
-41.1634	-133.426		11.4567
-44.0986	-148.565		9.39505
-34.8212	-150.825		15.482
-38.9149	-100.357		17.8425
-31.7043	-104.004		25.9634
-37.9441	-112.454		14.5585
-29.6051	-115.534		22.0403
-35.4422	-60.7614		77.6886
-48.6987	-87.9255		13.6762
-53.045	-80.7411		19.9564
-48.3065	-130.961		4.62023
-50.8237	-145.268		2.83151
-55.95	-78.2667		6.12828
-53.5954	-85.4065		1.28836
-57.8381	-83.5071		-8.49293
-58.4591	-97.8113		-34.3475
-72.1179	-39.8677		-3.04574
-59.3897	-81.6681		-33.0369
-53.4341	-109.17		-50.3339
-53.9743	-126.059		-52.6868
-25.3889	-153.191		20.4511
-22.1772	-138.466		23.5442
-22.7605	-107.143		34.789
-20.1909	-118.313		29.2307
-29.5734	-61.7096		81.1508
-19.6441	-57.7025		87.1861
-19.8598	-59.6165		85.7623
-15.2465	-154.372		24.1729
-18.5449	-66.7741		84.6219
-73.9105	51.8686		-2.45545
-47.5483	-83.437		-58.6826
-46.5143	-104.542		-60.8205
-53.2136	-89.1089		-48.2136
-46.3439	-122.175		-63.8076
-55.8675	-68.0105		-47.5181
-16.5275	119.265		6.8232
-30.8038	113.813		6.7659
-14.1307	111.906		-64.1627
-14.7222	92.5121		-94.0906
-28.7229	89.4745		-90.4088
-28.3076	107.747		-60.7446
-14.8479	67.1362		-110.628
-27.5173	64.8803		-107.046
-30.5973	116.035		-27.7661
-16.2083	121.508		-28.6025
-14.2635	40.6914		-118.762
-26.5735	38.4949		-115.215
-13.6584	12.0186		-121.185
-25.1122	10.7036		-116.729
-23.5529	-15.3742		-111.67
-13.5046	-14.8368		-116.645
-12.284	-39.9439		-102.556
-21.4413	-39.1917		-99.3562
-9.78335	-74.7228		-85.9017
-9.1591	-94.0156		-84.2327
-19.5551	-95.2326		-82.9541
-20.7406	-76.2892		-83.3255
-9.16226	-112.892		-83.854
-19.2185	-113.651		-82.8441
-10.3369	-54.9873		-91.8837
-20.6608	-57.4885		-88.5331
-42.65	105.621		6.18478
-54.3259	94.763		4.41428
-50.5116	76.8844		-76.1218
-40.8818	84.1729		-84.1375
-40.031	60.7283		-100.476
-51.9957	55.7098		-92.4129
-53.5396	93.1408		-52.1523
-39.155	101.247		-56.1559
-55.5236	97.1835		-23.7127
-43.5411	108.446		-25.0379
-49.5554	31.9626		-100.227
-38.3275	35.4237		-108.307
-38.0078	8.95834		-110.386
-48.6393	7.30045		-102.265
-45.5593	-17.377		-97.9965
-35.0597	-16.8478		-105.151
-34.09	-39.9994		-93.7862
-44.6035	-39.8099		-85.8727
-30.8226	-59.6328		-82.2313
-39.042	-98.7448		-71.8312
-38.5513	-79.6198		-69.2443
-29.9202	-78.3773		-77.7158
-30.5629	-96.7103		-78.4652
-29.3824	-114.965		-79.6516
-63.8066	81.3252		-45.2233
-61.7709	69.4556		-67.8763
-70.211	58.6741		-56.5525
-72.0228	67.1319		-35.1089
-71.0353	67.5386		-13.2646
-65.345	84.9779		-21.1275
-59.752	28.3116		-91.4162
-61.2507	50.5352		-83.2794
-54.6476	-17.3266		-87.966
-58.3496	5.78108		-92.5546
-52.0311	-38.4837		-77.5669
-74.038	33.0006		-60.4886
-61.9362	-17.1323		-77.5378
-66.6325	-17.4935		-67.5059
-70.9186	0.443999		-69.9407
-65.3998	3.7909		-82.0454
-72.6453	18.4167		-69.7576
-67.0539	24.0195		-81.3762
-68.7419	43.1452		-72.6082
-56.6317	-48.5543		-53.5575
-62.5947	-34.1008		-62.1182
-56.9873	-37.2563		-68.5757
-93.5318	8.39803		-35.6476
-91.7532	9.07524		-36.8383
-92.4903	16.0145		-27.7173
-90.5619	17.2794		-28.7015
-87.4953	12.1734		-13.8997
-85.8892	13.1408		-15.434
-83.8144	12.5277		-18.3305
-90.02	7.50402		-37.7425
-89.3639	15.8996		-29.9342
-92.2606	-3.71435		-38.2509
-91.2536	15.8469		-18.4987
-92.8962	14.3384		-27.759
-36.1054	-118.585		-72.4096
15.1752	-101.265		71.3417
12.1437	-102.089		71.3688
17.0372	-100.463		68.0847
16.0668	-100.276		74.3588
62.38	-8.60215		45.7883
60.7681	-7.80781		48.7172
62.3192	-11.7956		45.6025
64.247	-4.95974		41.6214
59.2457	-6.26715		50.8358
59.8641	-2.50041		49.0828
57.0839	-7.74606		54.1996
12.8011	39.7738		85.071
15.7107	38.7409		84.3906
18.3332	43.162		84.8388
9.71757	40.7166		85.4201
9.59946	36.7556		84.5921
9.52551	19.9324		80.0373
10.4082	18.5608		79.2801
9.8302	21.3571		79.2528
8.79455	20.5619		80.8776
13.3125	18.9839		75.2499
15.0152	16.885		73.2287
13.751	20.7169		74.9009
11.4675	21.4261		77.3455
12.9502	17.3265		75.9694
43.7726	12.0737		64.5288
40.7162	10.4575		67.1319
45.3431	13.5451		62.7879
17.544	11.017		74.3384
16.4408	11.8765		74.2075
17.4969	10.2712		75.2023
18.9165	10.2138		73.585
28.9541	-55.8728		79.5649
28.8785	-55.7697		79.7926
29.0047	-55.9893		79.1377
28.8963	-55.8177		79.8561
27.9917	-54.7631		82.3631
28.2615	-55.3254		80.7688
28.99	-55.1296		81.0947
28.1325	-54.3388		83.0643
26.3097	-54.4386		84.142
31.8041	-55.8714		79.9043
31.7813	-53.4022		81.4201
29.1342	-56.207		78.2837
28.8436	-55.4666		78.8941
29.3581	-56.2107		76.9025
29.0318	-56.4769		78.5902
24.9404	-60.8961		86.1829
25.2823	-61.7239		85.8195
27.5788	-58.2071		82.4209
24.8548	-60.1385		86.1539
22.3293	-63.6341		90.0854
22.6457	-48.9547		92.2344
22.1013	-47.3474		92.8582
19.455	-46.9672		95.0749
22.9859	-49.8877		91.7547
25.1848	-50.8311		89.3259
28.2777	-55.9269		80.6687
28.3555	-55.9586		80.6562
28.3984	-55.9114		80.544
26.7773	-56.2193		81.98
77.5478	-36.2985		-6.44333
77.3034	-36.9327		-5.57674
76.6674	-39.5519		-9.65928
78.1398	-35.3242		-6.40196
85.0683	-26.5616		-18.9852
85.5304	-24.7032		-21.9345
84.0355	-24.824		-17.6783
84.5434	-27.7019		-16.4423
85.4351	-27.9339		-19.8643
80.4749	-33.1551		-8.48001
80.7352	-30.4587		-7.68177
79.3638	-33.1418		-7.6041
81.0773	-34.1237		-9.91648
81.0702	-20.5246		-11.8637
81.0439	-19.4984		-12.7314
81.8975	-19.3414		-11.6942
81.8644	-21.4509		-10.5405
81.4984	-22.0823		-12.2561
88.0431	-1.51431		-13.2781
87.4693	-3.41696		-13.9904
88.2181	-0.552521		-13.8646
87.8539	-0.883344		-12.4045
90.417	10.4821		-17.5805
90.8185	10.8694		-16.5383
90.0181	9.53463		-17.5752
90.8944	11.7548		-21.023
83.3852	-17.928		-18.9656
82.9186	-16.7037		-17.5126
82.9557	-21.8656		-16.2297
85.0979	-21.1581		-22.1876
85.3179	-15.5437		-23.4082
88.6031	1.01451		-19.8284
88.8237	2.20826		-20.2332
88.1567	-0.0474875		-15.9447
88.061	-0.290136		-21.0525
91.1913	-9.85686		-31.613
91.0581	-9.65963		-31.0399
89.8727	-13.7433		-31.9932
91.61	-8.7445		-32.5963
92.0438	-7.0864		-34.3132
92.2026	-4.95711		-33.2755
92.0127	-7.78146		-35.361
92.4379	-4.02076		-35.5933
86.1325	-23.0212		-23.8718
87.3181	-21.1563		-25.4566
86.9507	-24.3956		-24.4315
88.4007	-9.23213		-28.65
87.5864	-11.3502		-27.0489
89.3703	-9.99981		-29.6424
88.4022	-7.95348		-28.3678
80.0615	-29.2161		-4.3702
80.0747	-31.3319		-5.05174
80.7535	-28.7731		-5.28348
79.8402	-28.5926		-3.69035
79.7159	-27.0659		-2.9596
80.0864	-25.0464		-2.95682
79.2828	-27.3013		-2.01572
81.4919	-18.1057		-3.52542
81.2184	-18.7667		-3.03515
81.8094	-18.3527		-4.40463
82.1187	-14.9987		-3.79894
80.8384	-19.5507		-2.4977
80.609	-19.5246		-1.60322
80.5665	-21.8471		-2.78032
82.819	-23.3464		-14.8315
83.0199	-24.6464		-13.0096
84.1021	-12.3581		-12.2837
82.9958	-16.2469		-11.9561
83.2851	-12.3261		-13.8005
85.3071	-8.4876		-12.6404
84.7403	-11.4575		-11.0907
92.1471	6.40491		-29.5996
92.3383	7.11435		-29.8607
91.9498	5.94254		-29.0144
92.4625	5.20756		-31.3408
92.4161	1.5277		-32.1231
92.0877	0.429314		-30.6887
92.4678	-0.148365		-33.0224
92.5466	2.87578		-32.9715
92.0795	3.32331		-30.2051
89.814	8.89766		-17.7239
90.048	9.11966		-20.6092
89.6894	7.66804		-16.5378
90.7953	9.01259		-24.0931
90.5504	7.90452		-23.2816
91.8762	8.59542		-28.1478
91.2629	10.2817		-25.1471
39.5298	22.9279		71.2191
41.7392	21.7256		69.8391
36.9514	23.979		72.1601
25.8594	-100.193		63.9239
24.7473	-100.864		60.2293
28.0876	-98.8862		63.8988
46.0299	17.0525		64.0149
45.0659	18.8767		66.1018
46.8343	15.5425		62.4073
49.3254	19.3862		62.55
51.1514	20.9739		61.43
48.053	22.1299		65.3275
47.6313	18.5138		63.7072
49.8461	16.8743		60.5594
71.7738	-49.4468		-1.63785
71.7741	-47.0936		-6.47223
72.3176	-48.1198		-0.225771
71.2451	-51.7358		-2.09187
18.1927	15.6303		70.3884
18.6025	14.9373		70.2411
18.1638	16.5877		70.5135
17.2032	18.3772		71.4051
18.4074	20.2084		71.6766
16.9679	16.8735		71.2782
7.79576	21.9688		81.6611
7.0546	22.2688		82.5135
7.81853	24.2173		81.4617
22.9901	-55.2545		86.7598
23.8711	-55.7426		84.9836
23.5517	-54.8222		87.236
19.9536	-54.8427		90.1313
62.1863	-71.1315		-8.54562
62.403	-72.1355		-2.56273
61.4496	-73.5528		-10.3274
62.2494	-68.241		-9.51406
78.6981	-6.8243		1.95392
77.7812	-14.2006		4.86455
80.138	-7.45368		-0.640176
79.8169	1.16954		-1.90718
75.2969	-5.96603		3.59208
62.3328	-73.2089		-22.5529
61.9142	-75.4014		-24.3404
62.944	-68.8307		-22.8777
61.3581	-75.3802		-17.566
60.0794	-108.958		-28.2016
60.5099	-117.687		-29.4933
58.5424	-105.537		-35.4743
59.6624	-99.9665		-28.1967
60.3031	-111.437		-22.4572
28.5944	-56.3178		80.6922
28.7247	-56.4532		80.6433
27.0651	-57.123		82.3733
28.9272	-56.7412		80.6061
24.5901	-59.7873		86.4028
24.7052	-59.0975		85.9992
21.9969	-62.0781		90.4276
29.8054	-97.6181		63.9447
33.4754	-95.7131		58.3606
26.2182	-95.9319		67.6008
48.4286	-60.3604		-66.7958
47.3302	-56.2707		-70.7813
51.2133	-59.5347		-63.1404
47.6612	-63.5535		-66.6839
55.5372	79.7004		33.7851
56.9867	81.701		26.8334
51.6106	83.0545		36.5867
56.14	75.587		36.6139
86.4992	-21.2538		-34.0918
90.4928	-14.9419		-36.0302
87.1817	-20.4411		-33.209
86.8326	-25.1121		-30.9546
86.0133	-21.2833		-35.3433
85.1819	-1.09258		-7.58822
84.2668	-5.53131		-6.40476
86.0849	-1.07492		-8.32141
86.1582	3.26197		-9.33644
84.0421	-1.04409		-6.86082
82.1925	-22.1165		-6.66623
81.6663	-22.9082		-5.55172
82.4602	-24.4372		-7.88869
82.5528	-22.1678		-8.27217
82.1879	-20.519		-6.35231
81.7571	-28.3035		-6.93056
81.4585	-25.7785		-5.71106
81.5575	-27.2787		-8.33906
91.1754	-8.73864		-37.8959
90.7394	-8.78334		-38.7568
91.824	-2.44178		-39.0082
91.6303	-8.76418		-37.0249
90.2074	-8.73856		-39.5343
88.8358	-14.3899		-37.9638
89.2146	-8.51792		-40.0326
89.9208	-2.44449		-40.2647
82.8799	3.11531		-8.12204
83.3955	5.28481		-10.1008
82.6011	4.13219		-7.78965
82.8245	1.40714		-6.95025
83.3903	-19.1834		-38.3554
81.7129	-18.7062		-39.105
85.6383	-13.8078		-39.485
84.4745	-19.752		-37.6469
82.1746	-23.3111		-36.2779
87.3902	-25.5939		-25.0796
88.8007	-23.0802		-27.6944
86.3887	-27.4947		-23.0818
87.7935	-26.7891		-26.0711
83.7527	-34.0007		-23.5447
83.1117	-35.6512		-20.6596
82.3612	-35.3372		-24.5453
85.5252	-31.1875		-25.4109
85.2495	-31.2176		-22.2704
84.649	-32.2083		-16.5209
84.055	-33.9132		-16.8663
85.1621	-31.0514		-18.2343
84.2278	-31.5139		-15.1803
74.3061	-42.7288		-11.8786
74.0983	-43.7035		-12.2599
75.4675	-41.7381		-13.5532
74.2022	-41.8148		-7.30919
78.4728	-38.9226		-13.4199
77.335	-39.0373		-16.8405
79.1857	-37.4471		-13.3349
78.9063	-37.519		-9.85172
77.5893	-39.774		-13.683
89.027	5.99851		-10.5984
89.1477	7.30456		-10.6992
87.5694	2.25052		-9.70135
89.3404	5.97598		-10.9459
89.1466	8.22673		-10.9382
90.6074	11.8137		-12.9231
88.7794	8.20107		-10.945
91.8493	-8.61294		-36.2318
90.7902	-13.6498		-34.0823
92.3615	-2.83897		-37.9325
92.7921	5.82482		-34.719
92.6643	4.82008		-34.342
93.0391	5.18077		-35.4023
92.8328	7.35202		-33.0964
90.1086	7.15011		-12.6919
89.977	6.83443		-12.1508
89.6273	5.57441		-12.9315
90.6489	8.86669		-13.6622
89.5463	5.93696		-11.3164
88.6472	2.73472		-11.2213
90.7447	10.3682		-12.8119
90.7196	-9.64963		-30.428
91.4889	-6.64349		-30.7714
88.6499	-14.3449		-30.6746
89.2904	4.05995		-14.4386
89.4186	5.96288		-14.9614
89.2103	3.87748		-13.9634
88.8291	3.76892		-16.1933
89.6059	7.00144		-16.1727
89.4124	7.06083		-18.1466
86.6242	-14.4183		-25.9933
87.729	-16.6563		-27.0763
84.8824	-10.6549		-9.9545
86.0872	-6.22549		-10.1705
84.6488	-10.7363		-8.87577
83.6623	-15.3581		-9.89616
88.3132	-0.0994121		-14.1538
88.7883	1.46637		-13.5907
53.1603	-57.9045		-61.022
52.8834	-52.6962		-63.8722
54.9123	-58.4515		-58.0016
26.4566	-24.6194		84.9204
27.3851	-28.8912		85.1762
26.6734	-23.22		84.0935
24.5437	-24.0729		85.5858
21.6985	-22.1047		87.5652
22.2494	-23.1197		87.1353
22.1228	-19.7323		87.1549
20.6587	-22.2978		88.9601
49.1002	37.014		66.91
49.1462	35.1846		67.8702
54.1008	32.5031		61.1636
49.0562	39.0192		65.4532
44.4088	40.0905		70.6823
9.45421	-24.7637		98.0338
8.61241	-24.0604		99.0559
9.1883	-25.4902		97.7756
10.7335	-24.9998		97.0345
10.9038	-21.9876		100.165
9.22545	-22.3707		101.033
12.3487	-22.6994		98.0342
11.6972	-20.8165		100.947
45.8193	14.3538		62.4721
45.5514	15.031		62.8344
17.5896	-14.3764		98.4642
17.71	-15.1821		98.2757
18.0795	-14.4098		97.5879
16.3017	-13.323		100.352
83.8062	-26.8194		-32.9361
82.9617	-29.024		-31.1215
80.2614	-25.7181		-35.5024
84.874	-27.7982		-31.7894
64.8356	76.4665		13.9776
62.539	80.0426		15.2495
65.313	71.8169		18.468
66.9022	77.1024		4.30564
29.1653	-61.7811		75.4397
29.6295	-59.9214		74.8253
29.0354	-63.1575		74.9745
28.5641	-61.4621		76.7553
28.9707	-50.9637		76.0271
28.1672	-51.0779		77.399
28.7141	-49.813		75.8536
29.5584	-52.8829		75.2723
-18.1114	-102.988		68.1091
-17.9359	-100.011		71.583
-20.3063	-101.773		64.9564
-15.51	-103.868		68.1397
-61.2803	-8.96211		47.2389
-62.661	-4.9656		42.6931
-61.6764	-12.1269		46.7695
-59.2388	-7.85528		50.6068
-57.454	-6.27825		52.9522
-54.8066	-7.64252		56.7036
-57.6841	-2.10539		51.4974
-13.1865	39.4877		83.8662
-15.2071	37.5608		83.1164
-10.606	36.4065		83.7752
-9.98329	40.3685		84.378
-16.8354	41.5169		83.5611
-10.784	20.1972		79.962
-10.0254	20.8413		80.7874
-11.2397	21.8351		79.2219
-11.7085	18.7816		79.2083
-15.0241	19.445		74.8446
-16.9228	17.3859		72.5458
-14.5764	17.7825		75.5952
-13.1917	21.9019		77.0568
-15.6316	21.2708		74.408
-42.8587	13.0971		65.6352
-39.6598	11.5266		68.4705
-44.813	14.6989		64.171
-18.0281	11.7614		73.7745
-19.4119	11.5669		74.05
-17.6647	10.9184		74.94
-17.8342	12.8837		73.5475
-29.4265	-56.2847		78.9444
-29.3611	-56.1742		79.1654
-29.381	-56.2244		79.227
-29.3838	-56.4186		78.5471
-28.371	-55.0989		81.6739
-29.4555	-55.5027		80.2564
-26.7067	-54.8599		83.6069
-28.48	-54.6394		82.3728
-33.5081	-53.2262		80.7731
-29.4862	-56.6673		77.7852
-29.4014	-56.9201		78.0807
-29.6318	-56.7304		76.4629
-29.2081	-55.9084		78.3704
-25.9498	-61.147		86.1777
-26.3558	-61.7532		85.693
-22.7901	-63.5211		90.0259
-25.7389	-60.4101		86.227
-27.8745	-58.6489		81.878
-22.863	-48.6545		92.0137
-22.4266	-47.1043		92.7564
-25.3121	-50.4417		89.1506
-23.1266	-49.558		91.5934
-19.7237	-46.6233		94.9332
-28.7379	-56.3274		80.0596
-27.1686	-56.5665		81.4221
-28.8592	-56.3135		79.9329
-28.8227	-56.359		80.0419
-74.7849	-37.8937		-8.65346
-75.4948	-36.8198		-8.46294
-74.389	-41.0161		-11.7152
-73.9558	-38.477		-8.02695
-83.5066	-27.866		-20.3125
-83.7821	-25.8603		-22.0184
-83.6306	-29.1693		-20.384
-83.8384	-29.0522		-18.1081
-82.9844	-26.2172		-19.9356
-78.5938	-34.5446		-10.0521
-79.7596	-35.8495		-11.4801
-78.0244	-34.8262		-9.425
-78.3366	-31.8527		-9.25561
-78.677	-22.0066		-13.1955
-78.7354	-20.7572		-13.9965
-79.3066	-23.3532		-13.5603
-78.5779	-22.5401		-11.8786
-78.7526	-20.0394		-13.0244
-84.5475	-2.03959		-15.514
-84.5545	-1.56477		-14.6013
-84.8783	-1.26738		-16.2096
-83.9934	-4.06959		-16.2133
-89.1938	8.93681		-18.5457
-89.1655	9.48096		-17.6143
-90.633	10.1718		-21.4498
-88.797	8.00931		-18.5459
-81.7496	-12.2899		-19.2126
-83.9235	-8.16415		-21.6625
-80.9845	-14.5118		-19.2482
-80.1729	-13.1729		-14.9091
-82.8231	-8.58		-18.4647
-88.0331	1.7923		-22.0678
-87.3261	0.36585		-21.7719
-86.3911	2.76275		-17.9716
-88.7144	3.41863		-22.8644
-89.627	1.02299		-27.1903
-78.9231	-31.5408		-32.3166
-80.3848	-30.1285		-33.3499
-77.4897	-31.2857		-32.6509
-77.8644	-33.1822		-29.3802
-90.8066	-11.3362		-33.4618
-91.3654	-9.97797		-34.3745
-89.7869	-14.5336		-33.2805
-90.8825	-11.4463		-33.2294
-91.7196	-8.38427		-35.9646
-92.258	-6.28325		-34.8959
-92.1474	-5.19796		-36.8962
-91.4813	-8.90843		-36.7467
-84.7873	-24.7418		-24.9628
-85.7708	-23.017		-27.7599
-85.3339	-25.9272		-26.0518
-83.0353	-22.2942		-22.3965
-87.9302	-11.8124		-30.3808
-86.8654	-13.7651		-29.2958
-87.9997	-10.3994		-30.1683
-89.9257	-11.3032		-31.389
-85.7589	-16.7888		-28.0855
-86.4374	-18.5141		-29.1665
-83.6795	-17.1855		-24.7666
-75.9727	-30.307		-6.86385
-75.935	-29.7713		-6.52822
-77.0055	-29.2181		-7.24151
-76.5269	-31.9177		-7.11233
-75.9678	-28.1963		-5.69863
-75.8297	-28.3702		-4.7588
-76.627	-26.1123		-5.61683
-77.9497	-19.0637		-6.10605
-78.5978	-15.8044		-6.31446
-77.8744	-19.2793		-7.13603
-77.7419	-19.6614		-5.58902
-77.6886	-20.4828		-5.05232
-77.1734	-22.8813		-5.38244
-77.2946	-20.3996		-4.14137
-80.482	-24.8547		-15.982
-80.4437	-23.0431		-17.4339
-80.7692	-26.0217		-14.3755
-80.2783	-12.7091		-13.424
-79.036	-16.5272		-13.079
-80.5965	-11.5563		-12.1935
-81.6416	-8.85948		-14.1746
-78.8665	-18.558		-12.6486
-79.2845	-18.5791		-11.8138
-91.5707	4.55572		-31.4786
-92.547	4.11174		-32.2319
-91.4119	4.10036		-30.9063
-92.0042	5.55859		-31.3597
-92.3765	0.304193		-33.2903
-92.142	-0.791244		-31.9449
-92.1557	2.1055		-31.2729
-92.5753	1.67339		-34.0193
-92.2755	-1.26544		-34.1393
-88.5813	7.33131		-18.7007
-87.502	6.74677		-17.3962
-89.4909	7.41016		-21.4868
-90.4548	7.28052		-24.9542
-89.8575	6.02673		-24.5174
-90.8972	8.59731		-25.8013
-91.5533	6.83619		-29.2582
-89.2295	4.73538		-23.6404
-90.4865	4.11898		-28.0953
-87.9943	5.23301		-19.5591
-36.2801	23.1001		72.8877
-33.6133	23.9863		73.7643
-38.4899	21.7898		71.5385
-23.9807	-100.541		61.8603
-26.19	-99.2784		61.7704
-22.8548	-101.099		58.3694
-43.4694	16.9421		65.5487
-45.6202	16.3066		63.9386
-42.2444	18.8204		67.7918
-46.2435	18.9469		64.7403
-44.8689	21.2821		67.5294
-47.912	19.7408		63.6634
-46.7413	16.2141		62.5778
-45.0841	18.2205		65.3427
-68.1396	-51.2319		-5.10997
-67.3603	-53.5494		-5.31945
-68.5744	-49.9496		-3.36965
-68.8601	-49.4241		-9.27183
-20.9105	15.751		68.9332
-21.0335	15.7059		68.9335
-21.0578	16.6361		69.0794
-19.739	18.6715		70.347
-20.6123	20.203		70.6646
-19.3671	17.1891		70.2192
-9.26345	22.4399		81.6541
-9.40668	24.6157		81.6221
-8.67653	22.5983		82.5566
-22.4115	-55.6764		86.7346
-19.0139	-55.3294		90.185
-22.7935	-55.1775		87.1492
-23.2106	-56.1135		84.7937
-61.0886	-72.3724		-9.29624
-61.9978	-69.7902		-9.82759
-60.6221	-75.0249		-11.1188
-59.7328	-72.9725		-4.32206
-77.1464	-8.06		-0.628277
-75.9628	-15.4342		2.05485
-75.9931	-6.70643		4.14958
-78.371	-0.669006		-5.10456
-78.047	-9.0675		-3.83915
-62.0345	-74.9544		-22.4891
-61.3555	-77.1729		-17.7237
-62.743	-70.559		-22.8784
-61.6447	-76.995		-24.0642
-60.2612	-110.206		-27.1563
-60.5064	-119.171		-28.1609
-60.4025	-112.666		-21.0764
-59.7462	-101.273		-27.0497
-58.812	-106.673		-34.7841
-29.0593	-56.9101		80.1152
-27.4319	-57.4493		81.7855
-28.9098	-56.7663		80.1546
-29.1848	-57.0493		80.0691
-30.539	-56.3179		79.363
-29.8117	-57.8342		79.8905
-25.4557	-60.0111		86.466
-22.4173	-61.9362		90.3862
-24.9739	-59.4886		85.8999
-28.2634	-97.8947		61.9838
-28.4581	-96.8672		64.6411
-31.6566	-95.664		56.6518
-45.4534	-61.7967		-66.0131
-44.8885	-64.5773		-65.899
-47.9655	-60.4455		-62.5833
-44.7159	-57.6449		-70.1322
-54.5889	78.5132		34.8004
-55.5244	74.2237		37.5986
-50.9154	81.7034		37.8933
-56.3284	80.7384		27.7527
-87.6019	-21.219		-34.6084
-89.3405	-15.8728		-37.1186
-87.0951	-21.1281		-35.5852
-86.228	-25.5133		-32.0925
-88.104	-20.4287		-33.4559
-81.2035	-0.700168		-8.44133
-79.8775	-5.0167		-7.3066
-80.1879	-0.672445		-7.81113
-82.4587	3.6028		-10.0245
-82.0605	-0.85721		-9.09771
-78.5244	-22.4243		-8.58316
-78.2487	-23.2161		-7.76455
-78.7964	-20.7973		-8.52211
-78.6065	-22.6656		-9.88121
-78.6515	-25.0549		-9.54526
-78.2913	-28.9051		-8.76935
-78.0074	-26.1571		-7.86954
-78.8835	-28.6863		-9.77326
-90.6052	-9.84197		-39.1845
-91.0457	-9.97004		-38.5537
-91.481	-3.51327		-39.9546
-89.8899	-9.86194		-39.9872
-88.8986	-9.71577		-40.6282
-87.8312	-15.4206		-38.8381
-89.5649	-3.52493		-41.1975
-87.8317	-9.49422		-40.9889
-79.6256	2.56308		-9.96147
-79.4245	0.719651		-9.42202
-79.3842	3.33199		-10.2616
-80.1338	5.69665		-10.5206
-84.506	-19.2009		-38.3545
-82.8025	-18.6722		-39.1292
-83.2107	-23.247		-36.6377
-85.5118	-19.9033		-37.7951
-85.4249	-14.6511		-39.9947
-85.5846	-27.0501		-27.0405
-86.725	-24.0818		-29.8542
-85.6356	-28.2122		-28.7034
-84.4973	-28.2854		-23.4725
-81.8665	-35.0185		-23.7575
-83.3125	-32.4417		-22.3059
-83.6627	-32.2397		-27.2254
-80.9722	-36.4404		-24.8441
-81.747	-37.0682		-21.0704
-83.7962	-33.7321		-17.9861
-82.9584	-33.1661		-16.2063
-84.0271	-32.4395		-19.3879
-83.0723	-35.4631		-18.1196
-71.9678	-44.3028		-13.8529
-71.6805	-43.6828		-9.93551
-73.2187	-43.1603		-15.7448
-71.4052	-45.2839		-14.3656
-76.8773	-40.5769		-14.3087
-77.4362	-41.5843		-16.6764
-75.8267	-41.4467		-14.751
-77.0114	-38.8016		-11.7863
-79.2234	-39.2584		-14.2232
-85.8776	5.67746		-11.952
-86.2948	5.63223		-12.5287
-83.9051	2.30462		-10.9116
-86.154	7.35056		-11.8315
-86.1483	8.2427		-12.0534
-85.7835	8.21777		-12.0673
-87.7666	11.7065		-13.819
-93.2643	4.55869		-35.1795
-93.1546	6.0854		-33.6286
-93.3071	3.8598		-36.1328
-92.926	3.45948		-34.9974
-87.1446	6.77428		-14.0742
-87.8248	8.42849		-14.7124
-86.4856	5.102		-14.7279
-87.0188	6.52739		-13.4575
-86.4914	5.62586		-12.9048
-87.9226	9.99867		-13.8434
-85.441	2.37777		-12.9541
-90.6641	-11.3202		-32.5325
-88.9494	-15.1577		-31.9295
-91.5096	-8.31472		-32.7365
-87.2657	6.11033		-17.4658
-86.5853	5.22619		-16.8065
-86.1113	3.57507		-16.2506
-86.0854	3.39245		-15.8026
-80.7245	-10.7233		-11.0301
-82.1067	-6.33633		-11.3159
-79.479	-15.37		-11.128
-80.5704	-10.7051		-10.0106
-85.0191	-0.869599		-16.4931
-85.6192	0.947194		-15.4664
-85.1924	-1.11101		-18.2117
-49.5493	-58.5058		-60.986
-51.3926	-58.6248		-58.2085
-49.08	-54.2948		-63.4234
-26.8834	-23.8002		84.6627
-25.2214	-22.9873		85.6657
-27.2597	-22.3486		84.173
-28.2368	-27.9935		84.5738
-22.374	-21.0742		88.0581
-21.1977	-21.34		89.5409
-22.9237	-18.365		87.8287
-22.8308	-22.1052		87.5178
-47.5845	35.6265		68.8503
-46.2854	33.3002		69.5407
-41.5073	38.634		73.6481
-48.5552	37.5742		67.7371
-51.1995	30.2229		63.3514
-7.3858	-22.9245		100.772
-7.59803	-22.3882		101.302
-8.24106	-23.4708		99.5734
-6.03777	-23.1863		101.539
-7.81341	-21.6202		102.281
-8.92671	-21.2048		101.979
-6.37306	-21.3913		103.973
-45.4273	15.5077		63.8296
-45.1335	16.3202		64.2049
-16.7526	-13.3617		99.4959
-15.3527	-12.3394		101.325
-17.3148	-13.4064		98.6103
-16.8315	-14.2712		99.4245
-64.0371	75.7221		14.9188
-66.1391	76.5138		5.2055
-64.6202	70.981		19.2888
-61.6947	79.2621		16.1738
-29.2753	-62.5735		75.3226
-28.7202	-62.1659		76.5491
-28.9056	-63.8751		74.7793
-29.5466	-60.625		74.5549
-28.7061	-51.6815		75.6064
-29.3343	-53.7773		74.8685
-28.304	-50.5685		75.5459
-28.1092	-51.6091		76.8819
-10.5678	-20.9007		101.18
-10.9525	-19.7623		102.004
-11.9611	-21.887		99.1111
8.10746	-22.8429		101.35
7.10465	-22.5178		103.163
8.02939	-23.0012		100.821
7.83411	-23.503		100.329
6.63232	-23.8269		101.091
-8.99597	-24.1751		98.532
-10.3039	-24.4198		97.5973
-8.71815	-24.9102		98.2716
79.02	-35.3658		-26.4812
77.3579	-35.8275		-26.1117
79.7647	-32.423		-29.0846
80.0857	-35.757		-25.8318
77.9058	-38.6586		-23.3388
70.7821	-49.9838		13.6921
69.6451	-51.5417		21.656
69.6165	-54.2322		12.5153
71.6236	-47.5602		6.79227
71.9195	-45.2086		14.7557
56.4915	-115.014		-9.44185
56.004	-104.738		-8.79417
53.9114	-116.104		-5.17809
57.3242	-125.477		-10.3569
58.3844	-113.819		-13.6992
58.2411	-133.052		-11.3447
58.8981	-139.127		-12.1603
59.8472	-131.38		-15.6528
55.9094	-134.867		-6.94234
49.9855	-99.5236		1.28186
50.5214	-93.8748		2.45386
47.0344	-101.345		5.43055
50.2474	-106.98		0.189429
53.2335	-98.4358		-3.59491
59.1635	-96.3678		-16.5773
59.2343	-103.265		-17.2157
59.7262	-95.0589		-21.6308
59.3129	-90.9868		-16.0532
57.7509	-96.9507		-12.2967
63.1751	-69.5644		24.3459
64.5364	-65.9966		26.4223
61.1237	-71.5828		31.9915
61.7342	-72.7993		21.5178
64.6679	-67.66		16.2836
67.481	31.56		23.4828
70.5846	39.1889		18.7598
63.6955	34.1415		34.014
67.6376	22.3632		25.6546
73.0169	29.5182		11.5256
77.6431	42.5805		-29.9067
77.8552	39.3859		-38.9882
76.3673	49.6819		-35.0269
77.6191	44.504		-19.3073
78.3854	35.235		-25.0844
9.60521	-112.999		40.8053
2.354	-114.357		39.6309
8.77918	-119.493		37.97
13.1547	-112.759		39.6123
9.96705	-109.309		43.3077
8.93225	-130.522		32.4316
9.67145	-141.261		28.1415
11.8924	-129.34		30.7144
7.68134	-132.242		32.3607
4.53349	-150.339		27.3756
8.34837	-149.919		26.818
3.87935	-142.444		29.6518
1.09272	-150.236		27.7441
5.45102	-155.711		26.4217
64.5194	-52.9174		-32.8841
66.8427	-46.9399		-30.5404
64.2273	-59.14		-28.0549
62.1084	-58.9151		-35.2883
66.8291	-46.32		-36.289
68.896	-41.4327		-39.0627
65.874	-47.1603		-42.7069
70.4782	-37.1545		-41.973
71.7471	-36.7863		-35.9194
62.393	-125.228		-31.3261
62.8004	-131.836		-33.5961
61.2285	-122.434		-37.9865
61.7295	-127.894		-25.167
4.64332	-132.558		32.8209
1.62623	-121.477		37.2351
1.65661	-132.544		32.8253
67.17	-52.3287		30.1407
65.2663	-45.9623		30.1176
62.4099	-51.8014		37.5751
66.7621	-57.2701		29.1142
65.6589	-65.7296		8.47494
63.1618	-68.9138		6.58142
64.7296	-63.8544		0.383148
67.0334	-61.7593		9.93234
10.7584	-92.6413		87.2749
6.20182	-92.7411		88.4046
10.6401	-96.6088		84.7318
15.8999	-92.6244		84.9973
11.1287	-88.6002		88.8249
18.1417	-91.9377		82.9813
17.8121	-95.8723		80.5614
22.8815	-89.867		79.4926
18.5503	-87.6815		84.5871
4.04513	-85.3514		91.4099
7.86443	-85.1552		90.8795
4.43995	-81.4113		92.0781
0.660858	-85.6496		91.6322
3.2631	-89.1773		90.5011
11.1604	-99.7765		81.3374
11.7538	-101.938		77.0633
15.4038	-99.5199		79.3195
6.88657	-99.8195		82.6122
10.4093	-103.553		70.8405
8.41277	-103.533		72.6986
9.39808	-104.554		64.2932
17.7648	2.27561		81.6012
18.0515	-1.9325		84.5919
20.195	0.0671861		80.1574
17.3829	6.3201		78.788
15.2555	5.14254		83.3204
45.535	-28.8779		71.9615
51.108	-29.9982		65.644
44.5994	-23.6468		71.2182
39.3507	-27.1722		76.924
45.9312	-34.0685		72.0007
55.306	-20.0175		58.0543
59.1431	-19.3409		51.6835
54.5621	-14.3236		58.6693
50.0395	-19.3827		64.7706
55.4936	-25.1547		58.3357
64.8938	0.183997		39.2858
66.827	-0.939255		34.6541
62.9387	7.81446		39.5363
62.8304	1.85361		43.0753
46.0362	-38.7396		71.4299
46.1455	-43.5022		70.839
50.7371	-40.1312		65.2815
41.3189	-37.3164		76.5392
1.96114	6.56336		99.8016
1.58275	11.8077		95.3477
0.411779	6.90478		99.8822
2.4251	1.65827		103.95
3.84577	5.77509		99.2889
30.5547	70.757		68.4278
25.5637	71.3919		70.5246
29.7613	64.6857		72.0542
35.6808	69.2116		65.5007
31.7696	76.1746		64.4703
1.62983	-105.607		60.2245
1.07163	-106.092		53.5287
4.96068	-105.371		59.6653
1.8874	-105.322		66.1586
-1.30542	-105.763		60.0711
59.9482	-51.9718		44.5477
57.0739	-51.7343		51.281
58.5583	-57.7799		44.255
60.9129	-46.2662		44.5521
2.84712	-100.174		82.7338
2.72892	-97.2996		86.1375
-0.538067	-100.501		82.4724
3.60734	-102.424		78.1023
4.71288	-103.691		73.0934
1.0303	-104.011		72.9065
36.7237	-87.6352		59.2035
31.7728	-90.7858		64.8171
39.6141	-90.5839		56.0492
41.4615	-83.8662		54.8573
37.2229	-84.5617		62.6693
44.8681	-90.9347		34.6638
42.5058	-94.3497		30.0781
48.9949	-87.7055		29.6179
46.995	-88.0187		39.0666
39.7595	-94.1891		39.3719
0.397837	-107.302		47.5933
3.14708	-107.362		46.5256
-2.20547	-107.217		47.6992
-0.0678655	-110.174		42.5327
8.32742	-3.93857		105.214
8.65852	-7.07544		108.165
11.0292	-5.3259		102.628
7.87577	0.200813		101.356
5.86998	-2.93361		106.712
26.3972	-20.5813		83.5968
29.4375	-22.9747		82.1969
24.8213	-16.2457		83.3246
22.9242	-18.2305		85.1974
31.2332	-56.8857		79.8924
33.1657	-56.4442		79.3087
13.6275	-23.7003		96.207
15.1157	-22.5732		96.073
13.0694	-24.6938		95.8493
15.5067	-24.2097		94.5133
13.4907	-28.5736		94.8819
14.0422	-30.1367		94.6318
15.9676	-29.005		92.9854
13.3949	-27.1238		94.9895
11.4001	-27.4202		96.4342
2.24579	-24.2999		104.423
2.08186	-23.853		105.74
1.25192	-24.6497		105.586
2.56259	-25.2656		103.139
3.94268	-24.1175		103.502
18.3871	-28.4319		91.2383
20.6565	-26.7946		89.4679
18.0451	-27.0373		91.5837
19.0413	-30.1259		91.15
8.65526	-15.1974		110.9
6.20312	-15.4631		113.152
8.246	-16.979		110.047
11.3979	-15.071		107.371
9.06246	-13.6632		111.162
26.5637	-71.91		82.1953
30.3613	-68.2893		79.5069
26.7793	-68.2407		83.1849
22.9369	-74.1048		85.1059
27.0788	-75.3174		80.751
31.2217	-50.1208		83.8054
30.1232	-45.6359		86.0873
29.2026	-49.2589		85.8745
33.2216	-50.9498		82.0829
3.2302	-29.9857		101.165
3.56806	-32.7211		101.002
4.85456	-29.7995		100.721
2.85975	-27.4579		101.743
1.42458	-30.2985		101.551
6.18325	4.3925		98.0828
10.1757	2.48296		95.5063
5.88639	8.95863		94.0854
20.042	-17.8311		91.8037
19.4449	-15.4849		94.0511
19.5139	-16.4814		94.007
20.0867	-19.3933		91.0121
20.4189	-17.6808		90.4174
5.66409	-25.7707		100.601
5.74578	-27.1737		100.44
7.19181	-26.05		99.2227
5.55397	-24.758		101.205
4.24206	-25.9798		101.503
5.42756	-23.9835		102.247
5.18996	-23.6146		103.343
18.713	-15.0184		96.1565
18.3833	-14.1372		96.5092
19.1064	-16.9028		95.1228
19.7991	-21.4796		90.7673
19.1367	-20.4193		92.4718
19.0731	-23.8275		90.9386
4.54752	-41.5499		101.351
5.00916	-43.6923		101.592
