1814
21.5189	-128.629		24.7524
33.1033	-65.6046		77.1914
31.6635	-62.7631		78.5015
37.6712	-92.0304		52.8353
30.6947	-60.9072		78.8763
28.0641	-62.216		80.6603
29.3749	-58.5195		79.4949
29.2986	-58.317		79.6371
26.8523	-58.6728		81.2542
28.2542	-77.9133		78.8628
28.8064	-81.4988		77.53
29.1795	-85.1292		75.9628
21.9653	-53.3804		85.8625
18.61	-53.7198		89.5906
21.9372	-52.7824		84.3757
25.9681	-56.3008		81.2403
22.0738	-52.9903		83.7933
18.1896	-52.6823		87.6903
22.1016	-53.3448		83.4338
22.1228	-54.5921		82.7147
18.2868	-53.3404		86.3439
21.0752	-57.8513		82.2597
19.9136	-61.8898		82.2623
17.7561	-57.4592		84.7995
15.9419	-115.193		33.2492
16.7874	-111.001		35.5048
15.8816	-120.896		30.8656
19.6828	-148.227		22.5721
18.3805	-140.65		24.7623
14.8633	-149.182		24.4406
20.8235	-153.401		21.0663
17.0283	-130.243		27.876
8.7224	-106.491		42.911
12.5392	-106.137		41.4057
9.54197	-104.301		50.7734
11.7598	-148.757		25.4913
12.8426	-153.698		23.8871
10.3087	-102.601		59.3101
14.7386	-52.32		90.5538
14.6438	-52.5475		89.7575
14.5841	-53.0975		88.9742
14.8006	-54.3341		87.8465
14.3978	-57.0468		86.7538
13.6864	-61.1795		86.0076
71.3179	48.7722		14.2008
75.0808	46.9659		3.84498
72.0732	55.8777		9.36717
67.5313	49.8816		25.5191
80.7142	25.6252		-19.3232
74.603	-19.5717		-49.8843
71.7716	-21.4335		-54.7768
53.3506	-95.6782		-52.9342
53.9839	-85.6846		-51.465
56.2166	-99.0365		-46.6945
53.357	-106.323		-54.53
50.0225	-92.8971		-59.1932
54.6295	-114.319		-56.089
55.086	-122.533		-57.3116
51.3768	-112.262		-60.956
60.0011	-82.9944		-39.331
59.259	-92.5808		-39.6383
57.4233	-79.0295		-45.4251
61.114	-74.1728		-39.0032
22.2093	112.638		19.2908
28.8564	109.835		19.1138
22.36	117.219		4.52034
15.2326	114.594		19.4948
23.0263	101.02		-77.8211
23.9431	109.695		-61.9451
30.1734	99.0597		-75.9105
21.7736	90.8614		-91.9075
15.5156	102.498		-79.9011
21.4308	78.5625		-101.379
28.1454	77.3697		-99.1647
21.2565	65.2738		-108.54
14.5309	79.0824		-103.039
23.6552	115.742		-45.8116
30.6907	113.32		-44.3409
16.4689	116.895		-46.6955
22.9287	118.483		-28.7408
7.60779	122.468		-11.4456
-0.253271	122.864		-11.6081
7.69809	119.732		5.53279
15.1806	121.719		-12.1887
7.64087	122.21		-29.4187
20.8945	52.4169		-113.432
27.4576	51.0494		-111.37
20.6948	39.1934		-116.743
14.562	53.0228		-114.868
19.9398	25.3068		-118.15
26.2145	24.4237		-115.991
19.4821	11.4595		-118.301
13.59	26.3		-119.716
17.4946	-26.8794		-107.882
23.2741	-27.5404		-105.875
17.1811	-38.4904		-100.775
12.188	-26.8046		-107.778
18.3048	-14.3304		-113.704
7.66004	-1.28827		-117.652
1.36473	-1.11875		-118.128
7.88306	12.2835		-119.919
13.8731	-1.70028		-116.627
6.65458	-13.7645		-114.581
15.4039	-85.89		-83.2617
15.7317	-76.2029		-84.1027
20.713	-86.6998		-81.9175
15.2803	-95.7929		-82.9175
10.4727	-85.0274		-82.867
5.74499	-105.042		-83.5562
11.0053	-105.82		-83.2204
5.51214	-114.035		-83.4633
0.6963	-104.622		-83.6787
5.44868	-93.8502		-82.7754
17.4649	-48.0272		-94.686
22.7066	-48.5111		-93.1206
17.054	-56.2116		-90.2062
11.8819	-47.366		-94.2698
16.362	-66.0113		-86.3661
21.9037	-66.9317		-84.5852
11.1546	-64.7904		-86.2399
5.85179	-64.5225		-86.689
6.09117	-55.1979		-90.2616
5.58634	-75.0533		-84.3434
0.520988	-64.7281		-86.742
46.724	97.7477		16.3402
52.2562	92.2957		15.1408
47.9713	101.453		3.0705
41.0755	102.341		17.6373
47.0133	70.5435		-89.0274
52.4383	67.443		-84.7906
46.7362	58.6847		-95.8475
41.1844	73.2117		-92.9041
47.8374	80.666		-79.148
48.4341	89.9102		-66.8426
42.8086	93.5022		-70.0921
48.9161	97.0823		-53.5099
53.9112	85.5265		-63.2586
48.9128	101.191		-39.7594
54.3618	95.4259		-38.2073
43.267	105.976		-41.2899
48.9898	103.76		-25.7324
48.764	103.528		-11.1266
42.788	108.565		-11.0096
54.4848	97.7518		-11.2553
46.3168	46.4775		-100.695
45.7543	33.5281		-103.843
40.4379	48.1284		-105.025
51.6352	44.4421		-96.5681
44.5343	21.1462		-106.131
49.8995	19.681		-101.879
43.6989	8.13141		-106.374
38.8511	22.2887		-109.852
42.3807	-4.20432		-105.056
41.1066	-17.0641		-101.582
37.1624	-3.96706		-108.571
47.2071	-4.96905		-100.909
40.3989	-29.8555		-95.6109
45.0529	-29.3717		-91.807
39.8164	-40.7496		-89.0558
35.0204	-29.1521		-99.6412
39.2303	-50.1852		-83.4916
38.5826	-59.8974		-78.6902
34.0156	-50.0273		-87.1755
43.8414	-50.437		-79.2599
36.5357	-88.7658		-74.0112
35.7936	-98.3214		-74.9425
31.4386	-88.533		-77.354
37.3117	-79.0716		-73.8797
41.2615	-89.6011		-70.0085
25.458	-105.592		-80.4748
25.5763	-114.211		-80.6925
20.5543	-105.02		-81.9059
25.5804	-97.1679		-80.2091
30.5881	-106.353		-78.4021
37.9048	-69.3848		-75.4336
42.6036	-69.9121		-70.9282
33.009	-68.7459		-79.1087
67.7725	69.2281		-49.9725
67.6819	73.6236		-40.4179
70.6624	62.9658		-45.9988
66.8055	63.2898		-60.5031
63.5064	75.1534		-55.0998
68.2157	76.3886		-29.4137
72.0184	68.6227		-24.3029
63.9618	83.5052		-33.391
68.6058	77.2261		-18.3641
67.6039	77.9359		-7.71402
70.2425	70.6628		-2.97611
63.9397	84.9619		-10.092
56.4367	42.1155		-91.8375
56.9337	53.301		-86.8915
60.6379	39.5709		-87.184
55.5632	30.171		-95.4782
57.2383	64.0961		-80.2911
58.1024	72.9768		-70.7945
61.7538	60.1719		-75.1869
51.9637	-5.67959		-95.9764
53.6788	6.28227		-97.3119
56.4836	-6.44448		-90.3702
50.2798	-17.6919		-92.7176
54.7826	17.9712		-97.2368
59.1984	16.7439		-92.2868
49.3086	-29.008		-87.4889
53.4282	-28.9657		-82.3553
48.7916	-40.0678		-80.8009
47.9539	-49.7546		-75.0234
51.7029	-48.3424		-71.033
47.2999	-70.6529		-65.3197
51.453	-73.4174		-58.8084
46.56	-80.9319		-64.5058
76.6491	35.1684		-47.5267
76.1776	29.195		-54.8413
75.0535	40.4867		-52.1261
57.101	86.4275		14.5657
58.5627	89.893		1.80039
76.5381	46.0034		-7.30793
76.3188	53.4773		-13.2145
67.0324	-7.42378		-74.1762
63.9206	-7.42105		-79.5073
68.4716	1.98447		-75.7382
69.9184	-7.70953		-68.5919
65.294	-17.2262		-71.4511
69.2001	11.5394		-76.4773
66.1811	13.5293		-82.1269
69.8788	20.8572		-75.209
72.0288	9.36775		-70.3022
70.654	29.9825		-71.7807
67.7514	33.1154		-77.2347
71.5966	38.3682		-65.4951
73.3159	26.1657		-65.8823
60.026	-42.3885		-60.3472
57.3445	-44.6893		-63.8773
61.6635	-34.736		-64.1897
62.7233	-40.1807		-56.5756
58.5543	-50.2647		-56.6613
68.9934	-23.0295		-59.4062
67.2676	-30.5648		-56.1726
66.3228	-24.6658		-63.5363
70.7624	-15.4903		-61.7289
54.9297	-76.0109		-51.6712
55.9085	-66.8445		-53.2234
78.5214	-38.3616		-5.18246
79.1624	-34.8541		-2.97446
77.0212	-41.2507		-3.05995
79.1239	-33.0666		-1.41827
82.1604	-7.92869		-2.32135
82.764	-2.71269		-4.47315
93.1982	4.08732		-38.3642
93.3029	9.74269		-35.7909
93.7583	3.76626		-37.6527
83.8808	-35.3678		-24.7925
83.0149	-38.5313		-20.4883
93.0108	13.3192		-32.0728
92.0211	13.6141		-32.583
92.3201	16.4638		-27.8852
93.8976	12.6661		-31.5077
87.2439	8.18805		-11.1684
85.9204	8.17929		-11.8343
91.8243	17.5854		-23.6205
92.6825	16.9769		-22.8617
88.5821	-19.2898		-35.2329
85.4915	-36.9964		-17.6693
84.9271	-36.8764		-14.9757
83.6916	-38.6118		-18.3383
83.0864	-0.151273		-6.20682
88.6783	15.7887		-19.042
86.8469	12.7398		-16.3652
87.6347	14.9338		-20.6451
84.6022	8.45682		-13.2958
83.7269	8.89612		-14.908
91.3883	13.4613		-32.7991
82.942	8.60904		-16.3739
84.172	10.5775		-19.0518
85.6801	12.4688		-22.6649
83.6044	10.3375		-23.7783
88.0533	-27.5417		-27.6049
88.3314	-29.9863		-20.3395
82.2365	-39.9583		-18.7313
84.1985	-35.9293		-12.6724
85.326	-33.0266		-12.6422
86.2435	-30.5578		-13.4919
86.6864	-29.0637		-14.359
93.9729	3.47202		-37.2223
94.401	8.8836		-34.7603
91.4838	14.1643		-15.3123
91.6831	13.5417		-15.0363
92.6426	15.8009		-18.4189
91.679	12.9482		-14.9029
92.8773	14.6543		-17.9526
91.5375	11.8869		-15.079
94.2809	12.13		-31.1426
93.7152	15.0306		-26.9608
94.3983	11.6273		-30.9915
93.2521	16.2752		-22.3833
93.4805	15.692		-22.2658
93.4986	15.1137		-21.9983
93.8711	13.9922		-26.5921
94.3584	11.2553		-30.6712
93.5867	-1.14793		-36.2191
91.3028	10.5833		-15.6407
88.9237	3.37699		-13.219
92.9134	10.5474		-24.1899
93.2344	-4.96716		-30.9877
93.2509	-3.08146		-30.6627
93.1426	-1.24055		-30.0334
92.9803	-0.0159987		-29.0192
92.6064	1.19662		-27.7451
91.7285	2.05007		-25.1821
84.9303	-25.8271		-12.142
85.8611	-27.2177		-13.7384
87.1892	-3.21786		-10.2564
83.9768	-17.9671		-9.92271
86.7709	-28.3671		-14.8319
32.6298	25.9152		74.6413
32.9103	94.2304		42.2199
34.0626	100.914		31.6002
8.50585	102.555		44.4018
7.72924	108.837		33.7465
0.277992	102.73		44.629
35.0285	106.513		18.4232
35.7968	110.73		4.26909
7.70967	114.835		20.9142
-0.209418	115.275		20.7637
22.4078	119.686		-11.7987
29.5276	116.765		-11.3797
36.2281	113.115		-11.216
36.4754	113.045		-27.0728
62.6366	52.6512		34.7408
71.1269	63.5042		2.86245
73.8903	61.988		-8.06121
59.4184	91.717		-11.214
59.7966	91.6638		-23.8684
7.82139	119.044		-47.5126
8.0744	112.259		-65.2222
0.0438872	119.388		-47.6886
37.0886	110.128		-42.5113
37.2838	104.769		-58.1399
74.5672	60.9209		-18.7594
74.4717	59.462		-29.503
59.3144	89.7304		-36.215
59.4409	86.5059		-47.6862
73.5956	56.7152		-40.1164
73.2381	51.981		-49.5765
72.5574	46.0274		-57.8565
69.4944	51.0506		-63.8619
45.8298	-91.1823		-65.1965
45.3003	-100.934		-66.2834
46.1071	-110.745		-65.3883
46.2692	-119.087		-66.8736
40.566	-108.387		-71.571
7.86731	102.842		-81.0487
7.5713	91.4048		-94.4015
0.404666	103.438		-81.5543
7.87831	78.5572		-103.949
7.59445	65.6882		-110.687
0.392471	79.1534		-104.345
8.13506	52.0045		-115.716
7.99429	38.8299		-119.019
0.204439	53.0719		-115.795
7.54044	26.8814		-120.861
0.700791	26.8207		-121.383
18.9302	-1.4971		-117.001
25.1328	-2.47692		-114.734
5.95281	-26.3399		-109.092
6.21184	-38.7494		-100.435
-0.0409407	-26.2126		-109.645
6.19229	-47.4902		-94.5431
0.508183	-47.7168		-94.5077
5.52443	-84.5712		-83.2694
0.548376	-84.3812		-83.3985
34.7534	75.5537		-96.313
35.7048	86.6802		-86.6614
34.4747	62.78		-103.592
36.5801	96.4938		-73.3797
34.032	49.4302		-108.488
33.5974	36.5498		-111.617
32.5294	23.5161		-113.144
31.984	9.95008		-113.48
31.3106	-3.34786		-111.909
30.218	-15.8606		-108.569
29.1766	-28.2916		-103.074
28.4899	-39.792		-96.4968
28.4353	-49.3988		-90.5251
28.2342	-58.3533		-85.6375
27.5091	-67.8412		-82.2581
26.8247	-77.7659		-80.4419
26.1979	-87.6676		-79.9184
35.5794	-107.057		-75.7421
36.4694	-116.21		-74.8376
58.7586	80.8328		-59.3965
65.9207	56.0294		-69.3864
65.1151	46.6864		-76.7897
64.3377	36.929		-82.2262
63.6323	25.9411		-85.9033
62.802	15.464		-87.4363
61.9498	4.23804		-86.7985
60.3927	-7.19267		-84.8464
58.5937	-18.0662		-81.7944
56.9331	-28.08		-77.8032
60.2815	-27.4976		-72.7328
55.6886	-37.8846		-72.4652
54.6226	-46.5649		-67.5511
57.3351	-58.4247		-53.8523
59.5129	-56.871		-50.4681
75.4228	22.8034		-60.2825
74.8589	15.2915		-63.299
77.2739	19.0488		-54.0577
72.2399	-7.59959		-63.6546
73.448	0.213548		-64.4622
63.3305	-26.1931		-68.1722
74.2201	7.92838		-64.7495
65.4378	-37.8292		-52.8967
63.8098	-45.1897		-49.6983
17.197	-107.354		40.0272
63.9152	-72.3098		3.26231
53.1191	-87.9409		4.53607
14.8304	-45.6817		95.3577
18.0961	-46.7642		93.1304
21.1915	-48.3285		90.2419
8.3824	-57.0579		98.3869
8.72418	-58.0591		98.4157
8.96633	-59.0914		98.3192
23.4035	-61.0676		83.9042
23.0506	-59.3094		84.5269
22.6487	-57.7387		85.2394
19.1918	-42.5288		92.2878
39.1734	-53.7612		76.0497
29.5015	-29.449		81.0106
31.1242	-34.1808		81.3064
32.4614	-38.8377		80.973
60.5013	-39.4599		57.1799
18.5488	22.3731		73.7579
79.1165	15.3842		-47.6692
82.6874	12.1728		-28.0706
83.3818	10.25		-25.6963
75.6388	-44.0803		0.274603
25.3974	11.6742		72.8703
49.2649	40.8187		63.8953
7.72955	-28.6557		95.7709
44.118	17.8868		68.151
12.068	-27.2652		93.2707
83.2941	10.0651		-24.6312
59.2601	-102.425		-40.1349
63.3515	-65.7541		-37.5406
62.4501	-59.7014		-43.0286
62.2199	-53.6971		-47.0264
22.2468	-23.6498		83.8622
15.3093	-53.614		92.4945
27.6998	-56.1928		79.7511
7.44013	-51.8951		95.6752
-73.1459	-44.825		12.5117
-74.1769	-39.755		13.7932
-74.0311	-43.4472		5.41228
-72.0432	-49.9247		11.6274
-72.2389	-45.6901		20.472
-57.4819	-115.297		-10.0074
-57.6114	-104.784		-10.1679
-59.4466	-115.305		-13.5605
-57.9228	-128.387		-10.2799
-54.8901	-116.373		-6.34032
-58.6501	-136.635		-11.3731
-56.1986	-138.626		-6.90659
-61.0038	-132.953		-15.7277
-59.9077	-140.309		-12.1356
-51.6313	-99.9887		-0.677496
-54.0744	-101.856		-1.76833
-51.4358	-107.595		-1.74161
-47.881	-102.164		3.62612
-51.367	-97.198		4.2011
-60.403	-98.8002		-14.3126
-58.9149	-99.566		-10.1582
-60.8032	-93.2333		-13.797
-61.2923	-97.3195		-19.2173
-60.8693	-103.372		-17.2312
-65.0447	-66.5991		22.9262
-66.1823	-64.9702		15.876
-62.575	-71.2483		21.4122
-62.7719	-68.4289		30.1215
-66.7858	-62.2313		24.9602
-70.9649	32.8054		24.6401
-74.5012	32.0871		12.7742
-70.7558	25.5283		27.905
-65.7621	36.6192		35.4622
-70.6634	41.9106		19.4634
-77.8504	42.1675		-28.8504
-79.1928	34.9556		-23.8475
-78.2893	44.0865		-18.0159
-75.7496	47.9969		-33.8728
-76.5413	37.1584		-38.4048
-6.58989	-114.416		35.2463
-6.77053	-109.948		37.4134
-9.8549	-114.103		33.9801
-7.0492	-120.932		33.8359
-4.08963	-114.536		36.0358
-8.44857	-131.446		30.7565
-9.63002	-141.965		27.3505
-5.22598	-131.581		31.9538
-11.9941	-130.643		29.1463
-2.92053	-149.683		26.8339
-3.27471	-154.482		25.4951
-2.58322	-142.474		29.0516
-6.59649	-149.421		26.2447
-68.1246	-52.9542		-32.358
-68.861	-45.1884		-36.8376
-65.2749	-59.4495		-34.2421
-67.6095	-59.6371		-26.6427
-70.7788	-46.6343		-30.3283
-69.8767	-39.3402		-40.312
-73.258	-34.1758		-37.4642
-70.8525	-34.3243		-43.0131
-65.959	-45.6118		-43.2947
-61.4018	-126.805		-31.4643
-62.1698	-129.157		-25.1413
-59.7997	-124.352		-38.1921
-61.3871	-133.52		-33.8664
-2.2063	-131.82		32.6329
-1.76636	-121.298		35.6029
-70.8007	-46.9949		28.6791
-69.5355	-52.8958		28.033
-68.3609	-47.8698		36.001
-71.5939	-41.1805		29.1914
-66.9371	-63.6048		8.82532
-68.9086	-59.0077		9.65077
-67.1581	-63.356		1.07928
-64.8905	-68.2453		7.29131
-8.87251	-92.1106		92.2478
-9.10962	-87.5711		93.4638
-13.4795	-91.5688		89.6046
-9.1794	-96.2807		90.0608
-5.18339	-92.5729		93.8187
-18.4516	-90.3742		86.0388
-18.8509	-85.6531		87.1915
-23.43	-88.2422		81.8659
-18.1775	-94.587		84.1215
-2.79325	-83.6356		96.2866
-2.42796	-88.2774		95.8099
-2.98614	-79.0402		96.1158
-5.91572	-83.2497		95.2694
-9.3294	-99.4978		86.8932
-5.87192	-99.7524		88.4386
-13.5371	-98.999		84.3471
-9.69225	-102.183		82.0193
-10.2863	-104.848		73.9135
-11.156	-101.573		66.2315
-6.41114	-105.493		75.0332
-17.1053	3.22852		80.8482
-14.4419	5.23746		82.7372
-16.5316	7.40841		78.2324
-19.6958	1.64751		79.1019
-17.7235	-1.29349		83.3252
-47.7248	-25.0318		71.6679
-48.5938	-29.5544		70.8902
-41.9452	-24.1468		75.5172
-47.0481	-20.5349		71.9646
-53.5052	-25.9503		66.6349
-58.214	-15.9136		61.0567
-58.9909	-21.146		60.6046
-52.0902	-16.0667		67.3832
-56.6361	-10.3269		61.9793
-63.6601	-14.4745		53.7467
-68.3559	3.85407		42.2153
-65.6505	5.57687		46.6428
-66.8794	10.4948		42.2378
-70.2178	2.22174		37.5186
-49.2005	-34.0975		69.7783
-43.9429	-33.0728		74.3728
-54.5768	-35.1598		64.1486
-49.3355	-38.9149		68.9651
-2.61596	4.49122		98.897
-4.37382	3.84764		98.338
-2.68951	-0.0209022		102.833
-2.85321	9.46212		94.4973
-28.5187	67.9456		66.3374
-29.5539	73.487		62.0683
-33.7469	66.3248		63.7861
-27.213	61.346		71.101
-23.6244	68.8626		68.2375
-3.36626	-104.017		60.4052
-3.75502	-102.652		68.2187
-6.67293	-103.677		59.6421
-2.57932	-105.291		52.0509
-65.4438	-48.756		43.2055
-66.3624	-42.2799		43.521
-63.4869	-55.7339		43.2369
-61.9645	-48.5316		50.0446
-2.87349	-100.063		89.1379
-2.9038	-103.886		81.4258
-2.43698	-96.9867		92.32
-3.07868	-105.756		75.7347
-37.3297	-87.4497		60.7539
-37.954	-84.0725		64.3902
-42.0771	-84.6303		56.0507
-35.7815	-90.094		57.3447
-32.5386	-89.9589		66.4696
-40.9316	-93.1412		35.2214
-36.0308	-95.887		39.8943
-43.5137	-89.5107		39.9674
-45.6774	-90.1398		30.2472
-38.317	-97.2172		29.7804
-1.94375	-106.854		43.8498
-1.72223	-109.905		38.5722
-4.55338	-106.86		43.0616
-7.51847	-5.16082		103.994
-4.93798	-4.40067		105.653
-7.01994	-1.48642		100.583
-10.4009	-6.41779		101.174
-7.98174	-8.13594		106.707
-27.1596	-21.288		81.9917
-23.6375	-18.6065		83.4193
-25.8962	-16.4263		82.0919
-30.4049	-22.3175		80.6032
-33.0652	-54.1203		78.264
-31.053	-54.5397		78.5264
-31.954	-53.4601		78.6361
-13.9863	-24.5925		94.2109
-15.8423	-24.9734		92.3922
-13.2045	-25.5891		93.847
-15.5516	-23.2503		94.2914
-13.5632	-28.8849		92.2749
-11.5238	-28.4279		93.8654
-13.3705	-27.9731		92.5027
-16.0756	-29.1118		90.3678
-14.1395	-30.3126		92.0812
-2.5625	-26.3187		101.757
-4.36084	-26.0624		100.935
-2.82152	-27.4206		100.4
-2.59924	-25.1438		103.596
-18.7584	-28.6034		88.4259
-19.3837	-29.9647		88.2333
-18.2361	-27.625		88.8634
-21.0735	-27.2664		86.6423
-8.41763	-16.1552		109.314
-8.50133	-14.6318		109.758
-11.3243	-15.8844		105.745
-8.17944	-18.0477		108.26
-5.68792	-16.5558		111.58
-26.9806	-68.267		81.8938
-27.469	-72.382		81.3266
-23.0682	-70.3004		85.068
-26.0562	-64.945		82.9535
-30.2318	-65.8481		79.3135
-31.9535	-47.5898		81.8743
-33.8305	-48.3089		80.3435
-29.7415	-46.9647		83.7732
-30.959	-43.7024		83.5968
-3.37179	-31.7953		98.26
-3.12806	-29.8681		98.6935
-5.28512	-31.4022		97.8274
-3.48747	-33.9356		98.226
-6.67919	2.77635		96.9414
-6.90815	7.17384		92.8293
-9.53638	1.05279		94.5825
-20.3763	-18.2236		90.1293
-20.7264	-18.0624		88.866
-20.5111	-19.9694		89.3057
-19.7203	-16.9907		92.2228
-19.5322	-16.0118		92.2045
-6.34368	-27.697		98.0016
-4.8099	-28.065		98.8375
-6.28381	-26.641		98.5868
-7.89561	-27.7582		96.7854
-6.37772	-29.3085		97.4801
-6.03326	-25.7794		99.6903
-5.92765	-24.7757		101.309
-18.7859	-15.6603		94.151
-19.305	-17.4488		93.3433
-18.4842	-14.7365		94.4289
-20.259	-22.3574		88.7074
-19.4871	-24.5117		88.643
-19.7165	-20.6981		90.813
-4.28659	-41.0932		99.0563
-3.92915	-38.4687		98.6428
-6.99892	-40.392		98.6562
-4.52601	-43.1369		99.4622
-25.7191	-31.3182		84.6361
-23.6025	-28.0789		84.3848
-27.9763	-31.0972		83.337
-27.6674	-34.873		83.9635
-23.1692	-31.5774		85.8029
-10.3061	-67.623		94.1624
-14.5925	-66.9556		92.3725
-10.1931	-70.1768		93.3081
-6.43278	-68.1565		95.1385
-10.364	-65.5849		95.035
-27.4902	-49.9581		84.4141
-26.9963	-48.1745		85.6013
-29.9553	-51.072		80.6307
-28.0112	-50.5308		83.459
-18.2307	-14.1381		94.28
-16.4455	-12.832		96.8437
-18.3689	-13.5755		92.8347
-18.6932	-65.9623		89.8985
-18.6004	-64.0885		90.6057
-22.1334	-64.7366		87.2728
-18.7077	-68.3449		89.1233
-3.04876	-68.7105		96.1547
-3.15885	-66.6155		96.5023
-2.99367	-71.0313		95.9238
-57.647	28.895		57.0564
-58.2736	30.1659		55.1969
-59.4932	23.0799		53.4294
-56.7521	27.7606		58.7705
-37.6793	53.0473		68.1232
-38.5862	58.3548		64.1493
-43.5865	50.5267		63.7207
-37.2289	48.3758		71.5597
-32.5167	54.9788		71.6856
-49.5958	47.6612		58.4922
-50.5715	53.0423		54.1594
-55.2516	44.0412		52.5281
-48.9351	43.2075		62.4006
-37.079	39.1838		74.6154
-36.5896	41.379		74.0134
-37.6865	36.6635		74.839
-32.3514	40.1874		78.8285
-59.4236	31.624		52.0635
-62.8154	25.9339		46.6358
-54.2818	36.5927		59.2521
-59.6283	35.7176		48.9665
-21.36	30.4125		78.8279
-18.4574	29.9024		79.1123
-20.7589	31.7975		79.6128
-24.9973	30.9475		78.3483
-22.264	29.1606		77.732
-7.47587	17.8042		84.2535
-7.23734	14.9865		86.182
-5.15861	19.4327		85.6517
-7.6607	19.8641		83.1556
-9.73149	15.5658		82.3374
-30.3922	-3.73997		75.369
-25.1292	-2.09183		77.1662
-29.0137	0.63601		74.3472
-36.5561	-4.59734		73.3034
-31.9159	-8.56203		76.4811
-56.8373	8.42656		56.7946
-54.2316	5.20378		59.88
-54.2074	10.0083		58.8785
-57.34	11.6838		55.5513
-59.3262	7.27745		54.6311
-7.02454	11.4617		89.0791
-4.63772	12.9523		90.3525
-9.40842	9.28899		87.3985
-38.2841	34.5782		74.7751
-38.3137	32.7221		74.7539
-33.0811	36.0107		78.4564
-44.1025	35.5594		71.9036
-48.707	33.4606		68.6116
-52.9047	30.2647		64.4607
-48.1555	31.4498		69.286
-52.9919	16.2974		60.2087
-54.8855	16.2447		58.4591
-52.6932	13.3553		59.7836
-50.8845	16.5089		62.0344
-52.8803	19.5828		61.5934
-41.1307	21.5232		70.5654
-39.2813	22.341		71.9581
-42.4928	20.1816		68.986
-37.0945	22.4906		72.8257
-34.9888	23.1449		73.3995
-37.1452	23.3182		73.2049
-39.6098	23.1456		72.2819
-34.7905	23.9971		73.795
-32.4653	23.8651		73.6419
-30.1776	24.3612		73.4849
-31.9514	24.3434		74.0617
-29.416	24.5121		73.9117
-27.6786	23.8136		73.1874
-25.5602	23.3385		72.5694
-23.7909	23.0129		71.7052
-22.0462	21.5253		71.0266
-22.6904	23.6017		71.9182
-24.3796	23.6472		72.8611
-20.9257	22.0863		71.3191
-20.9247	20.277		70.3743
-21.4047	24.0526		72.2572
-23.3869	24.3928		73.2804
-31.6681	25.2224		74.488
-28.9301	25.371		74.3469
-46.0736	16.1214		65.0309
-45.1191	15.6281		65.6177
-28.9908	31.0462		77.7758
-29.3915	29.4286		76.9191
-28.7248	32.8692		78.5553
-33.438	30.8529		76.7222
-44.9697	25.4752		70.6714
-43.5866	23.9798		71.0043
-41.9698	26.9398		72.7583
-46.4831	27.4808		70.1603
-36.2284	9.97108		70.7557
-30.3937	10.4752		71.9868
-41.1707	10.3606		68.6576
-36.8672	8.09		70.5321
-25.6808	11.6489		72.161
-25.8876	9.92336		72.4785
-22.2257	12.6084		72.0157
-18.7078	15.6494		71.5756
-19.5531	14.6229		71.6983
-18.315	16.4694		71.3484
-35.2919	13.3026		70.9853
-30.1223	13.625		71.9327
-39.766	13.8043		69.4017
-21.5903	15.7771		70.6806
-20.8469	16.2412		70.4322
-23.1313	15.1178		71.1089
-20.2871	16.6676		70.3276
-19.7288	17.2246		70.3018
-15.4487	24.4152		75.0491
-14.0854	25.3723		76.9812
-16.5849	25.228		75.3778
-16.6663	22.3147		73.0455
-18.0616	17.878		71.2513
-26.1935	25.2364		73.856
-17.507	21.3895		72.1096
-18.5667	22.9223		72.3397
-16.9366	19.8413		72.0303
-35.3136	14.5199		71.142
-30.105	14.8514		71.8937
-21.814	16.5593		70.1712
-23.2221	16.2059		70.6566
-21.0676	16.7902		70.024
-20.7018	17.0825		69.8825
-43.5197	18.8599		67.5344
-3.62295	31.3547		83.7391
-3.49972	34.1216		83.8808
-6.16302	30.9178		83.2563
-3.70647	29.3329		83.6096
-20.1809	7.30387		74.9297
-23.1127	5.86895		74.2855
-21.0817	4.62692		76.1281
-18.2445	8.66767		75.5881
-19.8994	9.26208		74.0591
-16.0878	10.2101		76.6922
-13.9469	11.8757		78.297
-16.2906	15.2225		73.5556
-16.5004	16.7217		72.7637
-14.5419	15.8846		75.1603
-11.4543	23.5067		78.2561
-10.863	24.5085		79.1604
-12.3547	25.0067		78.0356
-20.5153	13.5681		71.8873
-20.052	12.3987		72.5706
-19.8319	10.9637		73.2526
-22.2602	9.67774		72.9893
-23.3032	-52.9808		83.7882
-19.5367	-52.7413		87.2498
-26.621	-52.9426		80.4694
-23.2095	-52.8575		83.4728
-28.3374	-53.0496		79.0675
-28.0369	-52.942		79.0701
-4.40688	-46.9112		99.7682
-4.33316	-48.173		99.4558
-4.53004	-45.5232		99.7141
-7.75777	-46.1807		98.9952
-10.2315	-48.7896		97.4152
-13.3296	-48.7318		95.9305
-10.0926	-49.7716		96.7543
-7.41627	-48.8331		98.369
-10.55	-47.4027		97.7713
-16.3465	-48.9837		94.0969
-19.4065	-50.0341		91.5976
-16.1783	-50.2512		93.3223
-16.5635	-47.8331		94.6582
-10.4861	-45.971		98.1329
-10.4187	-44.5847		98.3151
-13.3986	-46.1532		96.8829
-15.419	-44.2483		95.9904
-16.2741	-45.3054		95.4633
-12.3051	-43.8777		97.6056
-15.0316	-43.0844		96.1105
-22.8011	-51.2424		87.2622
-22.5053	-50.1877		88.9357
-9.32928	-50.7713		95.9691
-12.8975	-50.8643		94.2905
-8.65331	-51.4828		95.4121
-6.19929	-50.9792		97.1416
-16.423	-51.364		91.7997
-16.1766	-52.1395		90.8916
-29.289	-51.8316		80.4851
-30.2372	-53.3691		78.8695
-23.6019	-53.908		84.2565
-23.6572	-54.1199		84.5741
-19.7268	-54.0518		88.2167
-23.5612	-53.843		84.0221
-24.1143	-55.3425		85.1133
-20.6885	-56.0782		89.3814
-23.9512	-54.9297		84.9894
-17.5187	-56.4487		92.4865
-17.9448	-57.248		92.4204
-13.7466	-56.6635		95.2672
-17.2321	-55.6625		92.2996
-8.75425	-54.7529		96.8865
-5.5292	-54.8527		97.9827
-8.58191	-53.8481		96.3807
-13.0336	-54.7336		94.729
-8.97444	-55.9044		97.3571
-3.22621	-57.4084		99.3767
-3.15123	-56.2878		98.9519
-5.69845	-57.1565		98.788
-3.27957	-58.6006		99.5135
-28.5058	-54.5556		78.3977
-28.4796	-54.0208		78.8879
-26.7604	-54.5405		80.1257
-28.1136	-55.9703		78.0196
-2.7521	-54.1494		94.4515
-2.88475	-53.2926		95.3551
-2.71853	-55.4162		93.0898
-5.1898	-54.1853		93.9547
-3.30993	-59.7807		99.4402
-5.87589	-59.442		99.0588
-3.2189	-60.8694		99.3454
-3.1334	-64.8554		97.7131
-3.2258	-63.2035		98.6544
-6.04896	-64.3785		97.3249
-10.0887	-43.6709		98.4284
-7.69934	-43.6089		99.0364
-9.37905	-42.3857		98.5072
-3.09977	-55.0232		98.4522
-2.98065	-53.9771		97.8615
-2.90957	-53.4949		97.4264
-2.96155	-53.2234		97.0727
-5.39339	-53.4087		96.9862
-8.52631	-53.3962		95.9306
-8.48254	-53.1906		95.5021
-12.5192	-53.4292		93.8513
-2.99183	-53.1111		96.3761
-5.35297	-53.0941		95.7957
-16.2131	-53.7948		91.337
-16.5122	-54.0881		91.5823
-16.127	-53.6336		90.9154
-18.4663	-59.9776		92.0942
-18.624	-61.0293		91.6415
-14.9288	-60.5209		94.6361
-18.3262	-59.0647		92.3354
-10.0856	-60.9049		97.2513
-10.4627	-61.9828		96.5541
-5.99391	-61.4003		98.5281
-9.82603	-60.0214		97.5333
-3.24099	-61.9481		99.1409
-15.9984	-52.3134		90.2268
-15.8656	-52.2095		89.5936
-12.2972	-51.8759		92.8009
-28.5086	-53.7899		79.5348
-26.8494	-54.0168		81.1919
-8.5029	-54.1222		92.5363
-8.38112	-53.4255		93.8032
-8.52683	-55.5129		91.6247
-12.3061	-54.2132		90.8699
-8.38787	-53.1513		94.7896
-12.227	-53.2745		92.8902
-10.2689	-63.6613		96.0495
-14.899	-63.0915		93.6696
-18.157	-58.0978		92.3981
-14.5217	-58.5912		95.135
-18.6829	-62.4123		91.1244
-21.6432	-61.3419		88.3966
-15.5704	-51.8638		89.24
-18.8218	-52.2725		86.84
-14.9603	-50.6315		88.5552
-12.2503	-51.3655		91.1133
-8.68702	-51.1322		92.6533
-8.46752	-51.5676		93.7347
-9.34937	-49.8907		91.1456
-5.93893	-50.9525		93.3811
-14.2405	-47.9086		87.4715
-16.9105	-48.2821		85.9529
-13.8712	-44.2321		86.435
-11.6825	-47.5376		88.6665
-27.4106	-59.1441		77.7914
-25.6378	-59.2206		79.6575
-26.1101	-63.1827		78.7811
-2.54488	-58.4137		92.3948
-2.62039	-62.4361		91.8553
-4.95702	-58.162		91.5035
-9.19471	-47.2674		89.5056
-8.73509	-43.6709		88.3125
-6.50255	-47.0321		90.2479
-8.20917	-58.1692		90.6297
-8.17192	-62.4276		90.2401
-12.0757	-58.2838		88.9741
-30.0516	-54.2381		73.5611
-30.0478	-54.3806		73.1899
-12.4826	17.2081		77.2303
-11.9486	15.6165		78.7821
-80.5775	-8.67328		-43.3904
-82.1309	-9.26402		-41.6355
-81.2075	-4.25166		-43.3858
-78.6728	-7.99752		-46.7678
-79.8899	-12.8805		-42.6695
-80.1944	12.6654		-6.7601
-78.6106	13.6418		-0.72382
-81.0095	14.1485		-10.4339
-80.9343	15.5692		-15.3266
-80.991	14.2877		-22.4014
-81.3084	10.2524		-16.446
-80.4482	20.7897		-16.5136
-75.8155	-31.2977		-35.2031
-76.8502	-27.5894		-36.8565
-74.9762	-35.2868		-32.5337
-78.2206	-29.143		-33.4191
-77.1221	-24.8689		-38.1684
-79.2709	-23.7735		-36.1405
-78.0284	-21.1451		-39.7981
-74.9514	-26.4408		-41.2917
-83.677	-9.24565		-40.7334
-84.0008	-4.28863		-40.9263
-83.1249	-13.0506		-39.7249
-85.1921	-8.74291		-40.3738
-84.0551	-25.0461		-32.8352
-85.1359	-26.1439		-31.7206
-82.6983	-23.491		-34.2591
-85.9107	-26.8723		-30.7702
-86.9889	-22.9229		-32.748
-85.4921	-30.0619		-28.8878
-86.6945	-27.2853		-29.5175
-90.4615	-17.1156		-30.7341
-91.6658	-12.6561		-33.8229
-90.4452	-16.5202		-29.9301
-79.9563	-39.1855		-20.0383
-80.0852	-37.6739		-22.9868
-78.9258	-38.4195		-22.0139
-79.5705	-39.8428		-17.9181
-80.4067	-39.4196		-19.3086
-82.3334	-30.7687		-7.94309
-82.0125	-31.4077		-7.87881
-81.4508	-32.6968		-8.18959
-90.3879	-16.1566		-29.5356
-89.9262	-16.7043		-28.6149
-92.9547	-1.88417		-33.5232
-93.0122	-1.22177		-35.1375
-92.8626	-3.19382		-31.8454
-93.0758	8.46938		-31.2176
-93.3084	9.74881		-31.3579
-93.159	11.3714		-30.2956
-92.2311	12.2173		-26.9195
-93.5796	12.3476		-30.8112
-92.0455	9.95743		-27.8201
-83.4387	-7.98381		-7.26228
-84.7382	-1.61985		-8.62932
-83.1029	-12.7367		-7.16327
-83.1181	-6.91722		-5.88573
-79.6957	-23.3449		-1.25331
-80.1334	-19.1582		-0.8383
-79.1724	-27.2682		-1.62153
-79.0548	-23.5172		1.40035
-82.8943	-19.3878		-10.1911
-82.822	-17.9139		-10.1575
-83.3801	-21.0589		-10.8042
-81.3198	9.77332		-16.4798
-81.3517	9.77267		-16.2677
-81.3482	10.5895		-19.9423
-88.8996	16.7437		-16.907
-89.3317	17.1653		-20.0981
-89.705	16.0577		-15.902
-87.6205	13.7727		-13.9954
-88.0404	17.1332		-18.0928
-88.8559	17.7581		-25.2571
-88.0771	17.5535		-22.1785
-88.107	16.735		-26.5973
-89.3575	16.4278		-28.9325
-89.1575	17.9152		-24.7549
-90.6811	3.90992		-39.6673
-91.739	4.19234		-39.1488
-90.9255	9.92591		-36.8778
-89.9016	3.42081		-39.8445
-86.1796	2.39919		-9.27897
-86.3421	0.472473		-9.78094
-93.5259	3.38971		-36.6324
-93.9169	8.63518		-34.4941
-93.5669	3.30073		-36.9976
-93.2497	0.600034		-36.7685
-91.7556	13.1525		-22.9929
-90.7881	12.6898		-18.9296
-91.8335	14.1363		-22.3846
-91.5695	11.7948		-23.7177
-87.4288	2.36083		-12.0488
-88.0886	4.5057		-12.5061
-86.9559	0.719759		-11.4582
-93.0668	4.13511		-33.8903
-93.1938	2.09808		-35.7414
-85.6572	-4.54274		-13.1518
-86.1216	-2.99848		-12.0834
-85.9197	-3.95683		-13.9838
-89.2952	-6.02124		-26.9207
-91.3267	-3.11923		-28.883
-89.2069	-7.09955		-27.0793
-89.0483	-5.55007		-26.3096
-80.4481	-15.2466		-0.738609
-79.6916	-15.38		1.85196
-80.6618	-11.8835		-1.1418
-84.2385	0.998648		-39.449
-85.1764	3.60932		-38.4963
-83.3166	4.48704		-37.2031
-83.0878	0.305168		-40.6102
-87.3066	8.39962		-35.8084
-87.6666	4.59011		-38.7526
-89.499	12.9056		-33.9417
-86.4128	10.9387		-32.4762
-88.8522	2.38796		-39.7718
-87.7745	-3.22207		-40.5883
-87.3572	-8.3115		-40.1985
-81.1631	-23.2017		-35.1548
-81.9487	-20.0206		-36.8452
-80.5125	-25.7848		-33.7732
-82.5628	-16.6941		-38.4318
-80.8246	-16.9309		-39.5554
-88.5546	-18.258		-27.4545
-79.9493	-28.4163		-32.4649
-79.0862	-31.5497		-30.423
-79.5547	-39.312		-15.1451
-78.9619	-39.6904		-14.83
-78.3531	-39.9098		-14.5206
-77.9942	-39.7863		-19.9982
-89.3816	-7.85776		-27.5533
-92.0539	-4.9643		-29.9632
-82.6436	-7.13938		-4.82595
-82.1221	-6.29108		-3.49135
-81.3277	-19.7719		-4.41594
-81.6651	-19.9271		-5.17587
-83.9787	-24.645		-10.6217
-84.1265	-23.4572		-11.4404
-85.0354	-26.6192		-12.2313
-82.6549	-15.6616		-6.86922
-83.0613	-15.8998		-9.15097
-86.1372	12.7859		-29.2852
-85.132	13.4536		-25.8997
-83.8391	9.11058		-32.0999
-82.9461	7.56135		-33.8892
-82.2584	9.73988		-29.595
-82.4905	7.24868		-34.9712
-91.5281	3.71434		-28.5663
-91.3758	2.2176		-28.2183
-86.3555	-3.04362		-15.421
-86.6552	-3.68195		-17.6438
-89.0067	-4.72596		-25.8181
-88.4487	-4.61678		-24.4062
-90.6173	-1.14985		-27.019
-6.84609	85.3897		61.5506
-6.79332	94.3819		53.791
-13.9009	84.3088		61.125
-6.83208	78.1051		66.8352
-6.15736	70.2311		71.0384
-12.8899	69.8999		70.4609
-4.83524	60.1594		75.0843
-25.9239	52.9052		75.032
-20.6313	54.0181		76.3417
-26.2018	48.4034		78.0257
-2.47165	-23.9029		105.799
-4.5469	-23.838		104.438
-2.70083	-22.44		107.979
-3.01366	-13.4504		113.126
-3.03888	-15.1648		113.255
-3.002	-11.5485		112.475
-5.67098	-13.3659		111.963
-3.03961	-16.8685		112.825
-2.98684	-18.6374		111.886
-3.02513	-28.5719		99.4227
-3.75246	-36.0071		98.2095
-6.13036	-35.6098		97.8753
-2.94384	-20.4958		110.2
-5.29776	-20.4438		108.726
-2.81356	-9.79559		111.437
-2.83723	-7.26509		109.462
-5.30278	-10.0479		110.447
-4.57336	43.8202		82.8915
-4.83993	47.6687		81.5402
-10.4084	43.8853		82.1796
-4.56878	40.9145		83.5199
-3.43464	20.2331		86.1602
-3.67506	22.4177		85.0388
-3.09086	17.4757		88.0124
-3.88343	24.2284		84.2927
-3.7121	25.5655		83.9237
-5.77511	23.6249		83.6671
-3.28158	-50.823		93.6274
-2.97193	-51.6614		95.2596
-3.48255	-49.5785		92.4258
-2.95804	-51.8041		96.2698
-3.04836	-51.6589		97.0162
-5.34051	-51.7184		95.7872
-4.21107	-49.2587		98.9659
-3.93869	-50.2482		98.493
-3.38012	-51.1364		97.8584
-4.67101	-44.4456		99.6696
-3.43807	-47.0243		90.8563
-3.14309	-43.6752		89.7037
-19.7611	83.6074		60.3398
-20.5062	91.674		52.8316
-25.1541	82.349		59.2443
-19.4638	76.4473		65.3458
-15.8218	44.8367		81.3963
-16.0678	47.5282		80.517
-21.0368	45.5876		80.3836
-16.1094	41.2429		81.8842
-17.3634	38.403		81.6715
-19.1157	35.2971		80.9835
-22.4945	38.999		80.7233
-20.093	33.4017		80.344
-24.1684	34.0194		79.6659
-16.5166	32.5806		80.9165
-25.3091	25.7139		74.3943
-28.1076	25.8586		74.8572
-22.2569	25.0821		73.7924
-24.5152	26.5674		75.241
-26.9279	24.4391		73.4443
-23.3092	27.5295		76.3057
-20.8018	27.4147		76.1583
-26.5928	27.9009		76.3101
-44.5847	87.3289		37.579
-42.8779	82.0654		44.2877
-39.0647	90.8973		40.0639
-46.252	91.4029		28.4524
-30.1605	80.7062		57.492
-35.5892	78.497		54.9064
-31.357	87.8344		49.9196
-26.2777	45.872		79.1829
-31.0403	44.5418		78.1598
-26.5231	42.6181		79.9167
-28.644	34.6794		79.1334
-27.9796	37.0171		79.6681
-26.9506	40.0079		80.0511
-29.8686	27.7425		76.1125
-33.8462	27.4543		75.5012
-30.7602	26.731		75.4008
-41.6549	75.6762		51.0665
-40.6398	69.1376		55.799
-47.7469	73.192		46.2095
-36.3459	43.2979		73.1509
-42.7283	43.3984		69.2149
-37.5941	24.63		73.7821
-40.6233	24.4514		72.6611
-34.6173	25.447		74.6098
-37.5523	25.4469		74.111
-38.5347	30.5523		74.5696
-43.6337	31.2135		72.4209
-38.107	28.4449		74.4498
-37.8241	26.7018		74.2896
-39.5803	64.0743		60.0865
-45.7343	61.4048		55.3927
-53.5226	71.662		38.7856
-59.0554	69.6397		31.3086
-52.4379	64.9515		45.0875
-41.4262	21.9559		70.9016
-43.0957	20.8048		69.2248
-42.8873	23.0287		70.9813
-44.5055	21.7129		69.2961
-41.9983	22.5519		71.0229
-47.4012	29.3176		69.754
-50.5856	26.5474		66.4622
-16.5471	29.2319		79.1154
-15.3586	30.1619		80.1884
-17.4841	28.2404		77.7396
-14.8401	28.0593		78.7512
-13.9232	31.413		81.2342
-12.6674	30.1961		81.0541
-18.3535	26.3813		75.8666
-19.2677	25.0205		74.3471
-4.37786	37.884		83.7883
-67.0641	-64.4881		-6.73111
-66.9043	-65.0388		-13.024
-68.8602	-58.8438		-5.11955
-78.7307	21.5072		-37.1546
-79.9846	15.9375		-31.9176
-79.3427	24.6594		-29.0207
-77.4395	27.0492		-41.9146
-78.8118	18.3475		-42.8917
-76.197	-7.58344		-52.7832
-77.1048	-1.97483		-52.7141
-73.8676	-7.75803		-58.4173
-75.281	-13.5503		-51.2594
-77.7691	4.31386		-52.378
-79.8514	1.94195		-46.0116
-78.3498	9.72124		-50.5098
-75.6632	5.94356		-58.7888
-71.6281	-29.9189		-45.9362
-72.2068	-25.2376		-46.8537
-68.5463	-33.0199		-49.9024
-5.13554	53.5507		78.6521
-10.4958	53.5318		78.2447
-15.8327	53.8298		77.3553
-16.6903	60.3175		73.5293
-20.0241	-100.145		52.4714
-14.5428	-101.853		56.3165
-25.1983	-100.774		50.0931
-17.848	-102.635		44.7508
-45.294	-86.0987		43.8565
-46.3837	-83.5419		48.0087
-50.4978	-82.6342		39.1562
-39.6834	-89.7899		48.6775
-51.854	58.6921		49.5969
-57.2637	55.4561		42.9017
-18.547	69.5651		69.4901
-64.5243	66.8741		22.4963
-63.4044	61.8522		27.4804
-69.381	64.3264		13.1805
-21.9661	99.1361		43.7739
-15.406	100.845		44.3303
-22.7108	104.962		33.2689
-27.8936	96.7915		43.1141
-60.6071	40.5943		44.5352
-61.7205	47.4111		39.5506
-45.5502	20.0386		67.6605
-55.7519	26.2909		60.1655
-54.3647	25.0701		61.8274
-56.5115	20.9907		57.8188
-52.7396	23.8017		63.3735
-1.62787	-114.7		36.5466
-58.7405	-71.6139		39.5835
-56.9947	-75.5311		36.1554
-52.8846	-76.0017		46.7702
-59.8306	-67.2402		41.7601
-9.00223	-40.3073		98.1575
-8.40638	-37.8364		97.7274
-10.8875	-40.5522		97.5154
-26.5982	-46.17		86.9035
-23.855	-44.749		89.8064
-25.9148	-42.1079		87.2797
-12.1022	-36.3826		95.7998
-11.0423	-34.0994		95.6254
-15.0254	-36.8579		94.2289
-12.9802	-38.7303		96.0736
-9.39305	-35.9594		97.0029
-35.4471	-48.554		79.275
-34.8234	-44.7428		80.6062
-37.1073	-49.6165		77.8221
-35.1495	-52.0786		78.1204
-61.1328	16.4783		50.6314
-63.0083	17.3421		47.4796
-62.1392	10.7272		49.8336
-59.2066	16.2186		53.4853
-65.0233	18.4056		43.6814
-67.7128	18.904		38.0487
-48.8531	16.8432		63.6964
-49.0375	15.2231		62.8568
-57.2665	16.0573		55.8799
-81.2383	7.88464		-37.0101
-81.377	10.4558		-33.0407
-79.964	10.2258		-41.1345
-81.7536	5.16874		-40.3298
-78.9206	-17.2799		-41.5538
-76.743	-17.7391		-44.6945
-71.2272	-51.1772		-15.8566
-71.557	-47.9208		-21.7364
-68.8262	-57.1219		-17.9875
-70.9581	-53.042		-9.60405
-73.4783	-46.4995		-13.8436
-81.6176	0.685867		-42.3862
-78.2617	-24.2203		4.67016
-77.3377	-24.9183		9.35294
-78.5711	-20.094		5.09462
-77.5658	-28.5686		4.24014
-72.974	0.996144		29.9878
-75.3001	-0.587381		21.3877
-73.3898	-5.29848		30.6138
-72.0112	8.45512		29.4567
-52.3587	11.3791		60.2083
-50.5509	9.2413		62.0503
-50.4199	12.6158		61.5905
-48.9596	13.722		62.7677
-47.7267	13.0955		63.8113
-76.261	-25.0466		15.8212
-76.7502	-19.9371		15.7666
-75.7573	-29.8767		15.2313
-74.9349	-24.9381		22.745
-24.4319	-11.0003		81.5533
-21.5846	-8.72376		83.2019
-23.1422	-5.78162		80.1622
-28.0333	-12.6361		79.7982
-33.4034	-13.6499		77.5543
-34.4348	-18.4809		78.2756
-39.8196	-14.567		74.9227
-18.4442	-6.24593		85.5868
-19.1117	-10.0205		87.3948
-15.4817	-3.29054		88.4311
-22.0324	-17.6219		86.3608
-20.6516	-15.0048		87.7799
-17.9268	-17.6067		95.7931
-18.7334	-18.6077		94.0765
-17.6259	-19.5346		95.1707
-16.5405	-16.6243		98.0878
-19.24	-19.5701		92.5327
-18.6925	-21.7469		91.9296
-38.2601	-32.0254		77.9448
-37.1153	-27.6907		78.3645
-39.6329	-36.7062		77.2699
-33.834	-31.396		80.4408
-35.4848	-22.9663		78.4769
-6.66922	-31.1541		97.159
-8.18621	-31.2175		96.3914
-7.199	-33.4361		97.2625
-57.8291	-47.4385		56.9367
-55.7803	-54.5129		56.9417
-53.3292	-45.9585		63.2892
-58.7559	-41.1756		57.2853
-29.7963	-39.2205		83.7976
-31.9363	-39.7062		82.853
-27.45	-38.82		85.5191
-40.2314	-41.7492		76.686
-36.7356	-40.8235		79.4775
-44.4196	-43.0534		73.0859
-40.2306	-46.7068		76.1286
-7.74058	-35.603		97.5117
-53.2889	-61.6725		56.7174
-50.128	-67.3346		58.249
-49.7212	-58.1557		63.264
-56.9405	-63.1105		50.1364
-59.7029	-25.9691		59.3781
-64.6225	-25.4301		52.0553
-59.8745	-30.7329		58.417
-27.7757	-92.4761		72.854
-22.5994	-95.2974		77.827
-28.2262	-89.2764		75.2297
-37.9818	-80.1913		67.507
-33.2454	-83.1168		72.0252
-37.1005	-75.79		70.7546
-42.0777	-76.5899		64.2032
-54.6759	-5.05114		62.4507
-49.042	-5.4363		67.0899
-52.2767	-0.0519546		63.1174
-45.1725	11.6316		65.9509
-46.1419	9.64242		65.4749
-50.5172	3.05964		63.614
-48.7336	5.4937		64.3608
-45.5914	2.0275		67.3481
-43.1968	15.0612		67.1187
-2.31896	-92.9001		94.5146
-45.9955	-55.3651		68.6113
-42.3368	-52.8163		72.8729
-47.5766	-50.0161		68.6298
-43.9416	-60.0511		68.9557
-36.1936	-71.587		73.1292
-32.2183	-74.2624		76.3734
-34.417	-66.9247		75.5859
-39.0827	-67.8977		71.0291
-43.4241	-5.16181		70.3682
-41.434	-1.25601		70.249
-45.0399	-10.2959		71.027
-48.7505	-44.2978		68.7001
-46.2261	-15.5703		71.564
-9.68085	-82.8222		93.5299
-14.1772	-82.0757		91.0404
-10.0763	-77.9788		93.2543
-18.9308	-80.8868		87.7014
-18.8429	-76.1526		88.2421
-23.5534	-79.0405		83.8451
-40.0402	1.70482		70.1378
-33.554	2.26729		72.3194
-38.7211	4.05491		70.2586
-47.3234	7.6273		64.8973
-43.0388	6.41009		68.0342
-37.7532	6.1828		70.3619
-31.5196	6.54833		72.0951
-12.5045	-0.936178		91.7388
-12.0381	3.06432		88.4236
-13.0318	-4.77683		94.6972
-13.9819	-11.5232		100.859
-14.285	-12.4973		101.176
-11.1859	-10.6766		104.972
-13.7727	-10.1936		99.6623
-11.9146	13.6001		80.1646
-11.8841	10.8811		82.2265
-22.0014	-0.344214		78.2226
-2.87813	13.7414		90.8777
-62.4224	6.3325		51.3043
-11.9679	7.20433		85.1164
-60.8847	-62.6863		43.21
-65.5015	-59.5293		34.6737
-68.1719	-13.2675		45.5953
-71.0519	-12.4733		38.2395
-68.5849	-19.4704		44.7562
-67.1848	-36.3493		43.8246
-69.9858	-36.0697		36.8233
-63.7659	-36.1882		50.8161
-67.9294	-30.6904		44.1129
-68.4818	-25.0416		44.3041
-71.2638	-24.9769		37.1824
-17.9016	-97.6826		81.5898
-10.033	-73.9436		93.5709
-14.1152	-73.0595		91.3888
-6.37448	-74.2905		94.6943
-18.5968	-71.9581		88.5073
-26.0115	15.6508		71.4448
-27.8617	3.55864		73.5632
-27.0829	6.09645		73.0766
-26.4808	8.15047		72.6542
-2.99849	-74.4839		95.4884
-7.11509	26.5446		82.4543
-7.23766	24.8998		82.4634
-5.45824	26.7564		83.2432
-7.68876	28.2629		82.4638
-8.55165	25.9182		81.5258
-19.3279	18.0251		70.3837
-19.3516	19.3292		70.5113
-16.6718	18.2015		72.2711
-9.80013	25.0908		80.3928
-10.4741	26.7291		80.3881
-3.72224	27.2486		83.6774
-6.4298	-23.4938		102.982
-7.00064	-22.1175		104.616
-8.42471	-13.2431		109.749
-11.4534	-13.1023		106.063
-8.36282	-11.8119		109.215
-18.038	-26.2127		89.5399
-15.5161	-27.2144		91.1578
-17.6142	-24.9746		90.632
-8.12152	-10.2423		108.445
-7.65675	21.9043		82.546
-8.25307	30.3043		82.6509
-10.0755	29.5854		81.7925
-19.7399	20.6153		70.7535
-11.6122	28.6305		80.6684
-12.5928	27.5366		79.4776
-13.3046	26.5327		78.3111
-20.938	-32.1144		87.9111
-22.6908	-35.1764		88.1523
-18.0013	-32.5707		90.2185
-24.7694	-38.4483		87.3389
-21.5436	-37.843		90.0196
-27.3049	-52.549		79.3584
-25.3315	-52.6488		81.1909
-26.9745	-51.5618		78.9814
-28.0877	-51.0014		82.7922
-25.4874	-50.3233		86.1694
-26.1684	-48.7774		78.4724
-24.8679	-45.4251		78.585
-22.9369	-48.7229		81.4394
-15.2681	-32.5094		92.1759
-16.6321	-34.8193		92.2569
-12.6196	-32.1869		93.9314
-18.4093	-37.3912		92.1185
-19.7834	-40.0501		92.113
-22.5004	-52.5577		83.7435
-20.8801	-51.3548		84.3803
-19.7803	-48.5769		83.9573
-19.2984	-44.8371		83.1209
-10.232	-31.6167		95.3081
-9.7414	-29.6154		95.2479
-14.2004	-41.1744		96.0364
-17.8469	-41.7582		93.9669
-18.9025	-12.2084		89.6966
-16.2004	-9.91413		93.4665
-2.78091	-3.89167		106.441
-13.3332	-7.92995		97.6196
-7.71565	-20.0052		106.733
-10.3655	-19.698		103.675
-13.1985	-19.708		100.169
-15.5751	-20.3882		96.8446
-13.968	-17.7087		100.892
-16.8734	-21.4076		94.6201
-17.3732	-22.7041		92.9151
-17.5317	-23.938		91.6386
-14.3087	-13.4608		101.569
-14.2932	-14.5709		101.779
-14.214	-16.0845		101.446
-38.5349	-143.089		11.1073
-37.2064	-135.268		11.7252
-42.7281	-141.566		8.02521
-39.654	-148.795		10.6613
-33.9534	-144.368		13.9569
-35.5754	-124.786		12.9933
-31.0316	-126.232		16.5819
-34.8567	-115.79		14.1381
-40.0102	-123.094		9.28417
-36.2721	-101.757		24.684
-36.0974	-103.985		17.0506
-32.4942	-101.156		25.101
-40.8721	-99.0703		20.5097
-35.1904	-109.128		15.2635
-39.5771	-106.959		11.4787
-30.369	-110.964		19.4029
-41.8711	-64.2594		69.6444
-39.0899	-60.4189		73.2905
-44.3859	-68.1161		65.2247
-46.7277	-72.4142		60.4957
-47.5217	-76.6199		56.7143
-47.3642	-80.4042		51.7818
-37.0524	-57.8583		75.5389
-35.0505	-60.4783		76.3403
-35.3468	-55.8307		76.9614
-38.4324	-54.4515		75.4728
-34.1963	-54.8239		77.7236
-33.1203	-56.5615		77.8811
-45.1135	-96.2963		16.2859
-49.1027	-93.7384		11.4541
-43.9084	-101.614		12.8606
-47.1666	-91.7464		20.0733
-49.7234	-87.4375		24.7436
-52.5225	-83.2879		28.9912
-53.2779	-84.8821		18.324
-54.9982	-79.2725		32.9531
-58.2495	-76.933		25.5974
-44.0631	-121.153		5.63283
-45.1746	-131.889		4.99838
-43.4624	-111.929		6.53436
-47.9459	-119.489		1.81865
-46.4785	-140.046		4.85126
-50.0818	-139.083		1.59962
-47.8096	-147.244		4.58617
-43.7806	-104.528		7.67196
-73.5326	-24.6367		29.9523
-73.7544	-18.7641		30.1661
-73.0432	-30.1297		29.7271
-60.3717	-75.1606		18.8766
-61.8606	-73.5993		12.0051
-58.1783	-78.8906		15.5478
-71.2525	18.2556		29.28
-74.8282	16.0853		18.3939
-68.1126	-57.5995		26.5401
-69.7224	-55.8318		18.4487
-72.2971	-35.6376		29.6358
-73.7743	-35.3924		22.0443
-73.5096	-12.0965		30.8434
-75.555	-13.2296		22.9209
-75.1354	-34.7095		14.6901
-75.9485	-33.9815		7.9624
-57.824	-89.409		-3.66029
-55.4376	-90.3713		1.08644
-58.6785	-84.7399		-1.90085
-59.8013	-88.7296		-8.30305
-57.1872	-94.8301		-5.10758
-56.7551	-100.694		-5.9674
-59.8878	-80.2976		0.556912
-61.3265	-76.1971		2.90352
-61.4777	-79.4548		-4.98714
-58.0736	-81.3918		6.01401
-77.191	-1.69466		12.7707
-77.0307	-8.84826		14.9587
-77.333	6.7572		10.7554
-77.2755	14.4991		7.56824
-76.9692	22.9222		4.69125
-77.7146	31.2322		0.342256
-78.4839	38.2645		-3.2173
-79.4748	29.1548		-9.76755
-70.6037	-54.6052		10.3561
-70.838	-53.7828		3.19344
-77.0319	-14.276		15.6574
-78.1044	-15.2653		9.38221
-51.6958	-117.724		-2.18748
-52.262	-128.958		-2.09829
-55.976	-82.94		12.1599
-54.0149	-87.201		8.85765
-53.3214	-139.113		-2.35927
-54.2451	-146.216		-3.37829
-60.6576	-115.207		-17.6631
-61.434	-124.368		-18.8751
-61.3383	-88.0041		-12.9319
-62.0414	-83.1743		-11.8237
-62.3567	-86.1084		-17.7766
-62.9985	-78.3561		-10.3846
-61.7509	-131.918		-20.244
-62.1631	-136.904		-21.931
-70.7712	-53.8931		-3.97756
-76.8259	-32.8157		3.48595
-75.9544	-37.0292		2.1636
-77.6349	-31.4211		0.321089
-78.9065	-15.5383		5.1759
-62.2619	-93.3334		-26.9024
-62.9115	-86.8703		-25.6898
-60.9921	-88.9486		-33.5661
-63.9097	-80.746		-24.5981
-63.4218	-74.1631		-30.5082
-66.816	-63.8407		-19.6183
-74.9246	-43.958		-12.8237
-75.9986	-41.4781		-19.2968
-57.2106	-121.523		-45.7189
-57.1037	-113.246		-44.168
-54.2905	-118.312		-52.7645
-58.1337	-127.656		-47.5954
-73.6562	-41.7605		-28.2967
-76.4486	-37.5338		-26.8177
-78.055	-35.8649		-26.1783
-79.0237	-35.149		-25.9872
-29.2119	-145.566		16.8718
-30.3341	-151.115		16.0402
-24.444	-146.63		19.4202
-27.9284	-138.027		18.1502
-24.9773	-112.325		23.93
-25.8613	-107.953		25.7073
-24.8427	-118.586		22.3156
-19.4488	-113.193		28.2431
-30.9363	-98.319		44.8109
-32.8887	-95.227		49.8051
-28.4615	-101.917		38.8458
-27.2734	-103.177		29.6747
-21.7907	-104.659		34.1703
-26.0756	-127.254		20.2997
-21.0672	-128.559		23.7531
-32.8549	-63.4497		77.5182
-31.7711	-60.3112		78.1333
-34.3888	-92.6386		53.8435
-31.2367	-58.5196		78.5684
-30.6854	-56.9175		78.7462
-28.9428	-60.347		80.2865
-30.0674	-55.721		79.046
-28.1397	-57.204		80.8579
-28.1045	-76.9533		79.834
-28.4553	-81.4315		78.6527
-28.4705	-85.8796		76.9955
-23.491	-54.5841		85.0598
-20.0378	-54.8726		89.0447
-23.3484	-53.8696		83.8415
-19.5153	-53.941		87.3188
-23.5319	-54.0833		83.274
-26.7983	-53.7973		80.6124
-23.573	-54.5847		82.9563
-23.363	-56.0435		82.5414
-19.6608	-54.5816		86.1081
-22.5851	-59.1323		82.2763
-19.0887	-58.8198		84.9034
-21.3145	-63.2259		82.985
-14.1978	-113.752		31.714
-14.5065	-119.995		29.6833
-14.8663	-109.734		33.7802
-19.5253	-147.704		21.8044
-20.6596	-152.82		20.446
-14.7375	-148.545		23.7574
-18.2	-140.328		23.719
-16.2558	-129.658		26.8081
-7.30974	-106.747		42.2492
-8.73987	-104.607		50.1994
-10.8985	-106.512		40.7029
-10.4843	-149.098		25.2268
-11.5448	-154.033		23.8169
-10.3727	-102.933		58.7919
-15.9286	-53.6298		90.3353
-15.8495	-53.86		89.5235
-15.8272	-54.388		88.8628
-15.989	-55.7134		87.9646
-15.6482	-58.5191		87.0988
-14.9404	-62.6864		87.0573
-72.5932	49.8273		13.2162
-67.3031	51.7057		24.1439
-73.3231	55.8585		8.52532
-76.3329	47.027		3.12106
-79.822	27.5223		-19.4044
-73.7226	-19.4698		-49.655
-70.7746	-21.4291		-54.2362
-51.6539	-95.4801		-54.2677
-48.4875	-93.1265		-59.0957
-50.9429	-107.406		-56.4954
-54.6556	-98.6706		-48.8793
-52.386	-85.1933		-53.0884
-51.2872	-115.97		-57.9258
-47.9866	-114.364		-62.5023
-52.3828	-122.978		-59.5883
-58.8142	-83.2395		-40.6802
-60.2282	-74.5822		-39.1883
-56.1913	-78.6706		-46.8976
-58.0726	-92.967		-41.32
-22.7122	111.403		20.3474
-15.744	113.434		20.6398
-22.7409	116.412		5.58945
-29.3465	108.532		20.1023
-22.2871	101.684		-79.1122
-14.7255	102.7		-80.3964
-21.3832	90.5048		-92.0361
-29.5028	100.077		-77.51
-22.9503	110.414		-63.3709
-20.9943	78.6577		-101.47
-14.0099	79.0803		-103.184
-20.7302	65.0923		-108.663
-27.7422	77.0248		-99.5466
-23.0468	116.097		-45.9426
-23.1759	118.99		-28.3199
-15.6078	117.927		-46.9858
-30.1628	113.594		-44.3443
-8.10848	122.405		-11.5188
-8.10164	122.168		-29.4711
-15.6877	121.132		-11.266
-8.07354	119.864		5.45401
-20.4628	51.9187		-113.558
-14.0219	52.4888		-114.908
-20.1047	38.4495		-116.802
-26.7055	50.7565		-111.546
-19.1544	24.9391		-118.397
-12.8664	25.9969		-119.986
-18.4732	11.3856		-118.266
-25.5095	23.8055		-116.307
-16.7837	-26.9817		-106.595
-16.7356	-15.1755		-111.44
-11.412	-26.5564		-108.316
-16.4044	-38.6466		-99.3833
-22.6009	-27.855		-104.289
-4.88825	-1.10633		-118.011
-5.05065	-14.0693		-114.053
-11.2334	-1.35386		-117.353
-5.52949	12.4061		-120.522
-14.4709	-85.5864		-82.1498
-9.38068	-85.1254		-82.8981
-14.2196	-95.043		-81.8218
-19.7669	-86.3847		-80.8327
-14.8322	-76.041		-83.0661
-14.1696	-104.643		-82.9007
-9.28633	-104.256		-83.547
-13.9376	-114.541		-82.7071
-19.2095	-105.092		-81.999
-16.5785	-47.8938		-93.294
-10.8703	-47.4186		-94.2909
-16.2022	-56.175		-88.8223
-21.8672	-48.483		-91.7447
-15.4092	-65.6906		-85.2885
-10.1196	-64.8708		-86.2629
-21.0387	-66.8256		-83.5768
-4.81297	-64.5628		-86.7006
-4.52099	-75.0985		-84.3568
-5.06888	-55.2316		-90.2722
-47.2429	96.3298		17.1961
-41.5475	100.958		18.529
-48.3235	100.433		3.99016
-52.8258	90.8462		15.9842
-46.7048	70.292		-89.9254
-47.2703	81.4591		-81.0204
-40.8039	72.5522		-93.3388
-46.2738	57.9693		-96.281
-52.1407	67.2274		-85.6965
