1859
-85.6259	7.67665		-11.0794
-86.7686	11.9834		-12.689
-84.8764	4.51768		-11.0542
-91.2229	-9.24908		-30.3164
-89.6056	-12.5917		-29.1664
-91.9838	-6.26154		-30.6235
-85.8816	8.2895		-15.9541
-85.5582	7.46558		-14.7728
-85.5102	5.55353		-14.2793
-85.3712	5.46854		-13.7452
-82.5383	-7.82601		-9.84052
-82.252	-3.92005		-10.1979
-81.9799	-12.0918		-10.5814
-82.3406	-7.80315		-8.69288
-84.8324	1.29556		-13.9868
-85.0679	3.01607		-13.3503
-84.9513	1.1475		-15.8168
-52.6033	-56.5644		-58.6165
-53.8912	-56.7382		-55.9428
-53.0348	-51.6648		-62.1058
-25.281	-22.4685		84.1391
-22.9273	-22.1772		84.9247
-25.7065	-20.6439		83.5127
-27.3302	-26.2719		84.4738
-19.7272	-20.2833		86.568
-18.7572	-20.792		87.6834
-20.0431	-16.9283		85.7655
-20.2961	-21.4775		86.3138
-48.8688	40.4237		64.9313
-49.2682	38.6175		65.0846
-42.5432	42.8668		70.1291
-48.679	41.8358		64.4962
-53.0269	35.6157		61.0034
-8.39718	-25.5203		97.9318
-8.62619	-24.7547		98.4673
-9.00438	-25.975		96.7187
-7.44086	-25.7767		98.6943
-8.88226	-23.6089		98.9478
-9.72551	-23.1411		98.6177
-7.93507	-23.1295		100.455
-44.8666	17.5987		67.4906
-44.5722	18.369		67.737
-15.8916	-13.7959		94.9419
-15.1199	-13.1755		96.7173
-16.1639	-13.6957		94.1332
-15.8727	-14.8881		94.8877
-63.1812	77.896		13.8111
-65.6438	78.5055		4.45241
-63.4877	73.4626		18.2902
-61.0398	81.2818		14.8274
-26.904	-60.4151		79.4451
-25.8218	-59.9893		80.695
-27.1347	-61.5838		78.7793
-27.5903	-58.4365		78.7912
-27.1218	-49.1402		78.6562
-27.7741	-51.1158		78.2812
-27.1523	-47.9433		78.3607
-25.7514	-49.367		80.0177
-10.8889	-22.6644		97.8094
-11.3785	-21.383		98.3737
-11.8204	-23.6002		96.0048
5.04049	-24.4232		100.091
4.16371	-23.7669		101.371
4.84829	-25.4062		99.2459
4.64945	-26.1934		98.9636
3.69091	-26.3525		99.2176
-9.53676	-26.8376		95.8617
-10.467	-26.7759		95.0443
-9.35536	-27.5802		95.5761
80.9442	-35.5876		-26.2243
79.0023	-36.0393		-25.7931
81.6275	-32.347		-28.7587
82.1144	-35.9649		-25.572
79.5475	-38.8077		-22.7105
70.8986	-47.9916		12.6717
69.7872	-49.2972		20.7128
69.8121	-53.13		11.4506
72.0743	-46.3172		5.73328
71.796	-42.6614		13.9924
56.744	-115.706		-7.61014
55.9919	-105.345		-7.20838
54.217	-116.651		-3.75936
58.0463	-127.971		-3.68834
58.7975	-114.983		-11.1957
59.3488	-135.398		-4.33208
60.7348	-141.238		-6.20831
61.7748	-133.642		-9.73515
56.7935	-137.229		0.0537576
50.1786	-100.876		2.05077
50.1234	-97.0701		6.09948
46.8052	-104.115		7.23301
50.1504	-107.705		1.07198
53.4077	-99.0772		-2.91753
59.8401	-96.6228		-15.8999
59.8231	-103.564		-16.0411
60.8461	-95.15		-20.9973
59.9742	-91.3696		-15.6959
58.2364	-97.4462		-11.7874
63.2012	-71.6372		23.5082
64.8536	-67.2747		25.2822
61.4389	-74.4852		31.5741
61.3125	-75.6286		21.3893
64.4703	-69.2171		15.6425
68.469	34.7336		29.9613
69.5961	42.4803		25.2911
63.5326	37.7254		40.5794
67.8914	27.7198		32.7451
72.855	33.0844		17.7484
77.1606	43.9033		-30.5471
77.0708	41.4048		-40.6881
75.8839	51.4063		-36.0793
76.8808	46.2498		-16.1057
77.9075	36.9265		-21.9627
10.4753	-115.364		37.3233
7.98941	-115.427		38.0374
10.3171	-122.424		36.0008
12.0561	-114.557		34.4722
10.7251	-110.613		39.9032
9.19046	-131.85		31.0057
9.67226	-141.816		28.2574
12.768	-130.743		29.787
7.81435	-133.93		33.9928
5.07826	-153.64		28.728
6.58468	-150.157		27.2241
4.93011	-145.57		30.9758
1.43965	-153.685		28.9576
3.20864	-156.654		28.5886
66.6219	-54.4213		-31.4517
70.1962	-48.5066		-29.6214
65.4341	-60.8232		-25.8942
63.8627	-60.5854		-33.9626
68.8096	-47.262		-36.3101
69.6259	-41.641		-39.5179
66.0473	-47.548		-42.756
70.268	-36.6535		-41.7965
72.6522	-36.8075		-36.0518
62.4703	-125.856		-26.2509
62.3989	-132.121		-29.1265
60.8695	-122.699		-33.603
62.7438	-128.962		-19.2948
4.73468	-134.231		34.5594
4.85751	-122.863		37.5218
1.8032	-134.211		34.7808
68.1941	-51.7004		28.9514
69.2422	-45.1827		29.5482
66.6843	-53.2554		36.625
67.2681	-57.5549		27.9677
65.6351	-66.9845		7.8595
63.6427	-70.9448		6.50149
66.1902	-65.7066		0.0890388
67.2301	-62.4517		9.05221
8.37799	-92.7933		92.0278
4.57866	-93.1205		93.5183
8.40504	-97.1592		89.4116
12.8595	-92.6918		89.3414
8.45881	-87.9562		93.4563
18.7049	-94.081		83.072
18.6519	-98.4329		80.4988
23.7702	-92.7954		79.1371
18.7756	-89.2184		84.4741
1.87435	-83.9266		95.8884
5.02594	-83.4796		95.5314
2.38011	-79.1343		96.0281
-0.805574	-84.101		96.0743
1.56898	-88.9409		95.4144
8.42323	-100.665		85.6869
10.3431	-105.026		78.4934
12.6027	-100.364		83.3399
4.75137	-100.562		87.7792
11.2958	-106.267		73.4873
7.27846	-106.748		74.4793
11.6787	-106.066		66.2449
12.3716	3.58347		80.6083
13.1054	-0.562666		82.9932
14.6938	1.47236		79.0816
11.5258	7.53441		78.3657
10.0326	6.34672		82.4612
49.3673	-26.9009		74.4892
55.7955	-27.1407		68.6165
49.1979	-20.1312		72.8868
41.6117	-26.8255		78.7089
49.796	-32.2538		74.4189
60.3012	-16.1783		62.4651
64.2961	-15.9295		56.1466
58.8352	-10.4988		63.4877
54.5069	-15.4743		68.8117
60.8714	-21.9411		62.127
67.1663	2.96155		44.8863
69.0931	2.10773		39.8832
65.834	10.7531		44.2019
64.7609	4.82618		49.1502
50.0737	-37.4796		73.8767
50.014	-42.9692		73.2006
55.5283	-38.5746		68.0059
43.9588	-36.3762		78.5692
0.26119	4.69051		99.2965
-0.233455	9.84997		95.0805
-1.38607	4.49249		99.364
0.322344	0.392485		102.662
1.98852	4.07908		98.6377
27.6503	69.4635		66.7836
22.6368	70.3475		68.5833
25.7635	63.4063		71.8741
33.1115	67.9744		64.3395
29.2465	75.586		62.7267
4.30154	-107.139		60.5082
4.54883	-107.374		52.8287
7.778	-106.901		59.9313
3.9733	-106.848		67.6493
0.915052	-107.174		60.7517
64.6397	-53.981		44.2055
61.9522	-53.7887		51.8988
63.2374	-61.2689		43.787
65.8205	-46.9497		44.7317
1.62536	-100.811		88.4873
1.51281	-97.6277		91.7453
0.572392	-103.394		85.4178
3.43631	-105.668		80.5886
3.83116	-107.064		75.0482
0.607549	-107.08		75.3171
39.6453	-93.4571		59.0147
33.9884	-96.0273		64.0039
38.7514	-95.8013		56.1644
45.0713	-89.8421		55.1741
40.0483	-90.1706		62.4118
43.9658	-94.7012		36.3053
40.8174	-97.4439		32.7076
47.7954	-92.0333		31.6593
46.7591	-92.5336		40.2096
39.1339	-97.7336		40.85
5.1663	-108.234		45.5736
7.90039	-108.198		44.966
2.58757	-108.28		45.5798
6.00299	-110.643		40.8912
4.52967	-4.24263		103.358
4.79092	-7.40642		106.245
6.89971	-5.15219		100.547
4.37156	-0.444843		99.8925
2.23521	-3.54566		105.112
21.7246	-20.3575		87.1389
26.2357	-22.2916		86.8865
19.9585	-14.4219		84.4988
18.0423	-16.9613		86.9967
27.7011	-57.6023		80.3378
29.5892	-57.3439		80.1207
8.8797	-25.5518		95.9844
10.0909	-24.1139		96.3773
8.44997	-26.8849		95.7599
10.4093	-25.6573		94.7885
8.86223	-30.5177		94.8364
9.34212	-31.8896		94.5913
10.9338	-30.5085		93.6303
8.63195	-29.3818		94.6211
7.07736	-29.9061		95.8934
-0.333252	-26.5213		101.911
-0.418252	-24.8063		103.257
-1.81971	-26.3197		102.052
-0.177884	-27.9244		100.574
1.27204	-26.2773		101.119
13.101	-29.4961		92.6742
15.3325	-27.8181		91.3019
12.6074	-28.3093		92.5911
13.7824	-30.979		92.4276
4.93718	-15.4623		108.972
2.46448	-15.9551		111.596
4.67315	-17.4255		107.691
7.38878	-15.6992		105.11
5.2514	-14.1939		109.438
25.819	-71.6318		82.166
29.2291	-68.8737		79.9576
24.133	-67.8409		82.4819
21.6346	-73.3326		84.0882
27.0813	-75.8006		80.8084
27.9298	-51.0382		83.1492
27.112	-47.1763		84.9654
25.592	-50.2663		84.691
30.0444	-51.7149		82.0376
0.229403	-32.7228		98.7161
0.300621	-34.7812		99.0095
1.80173	-32.4603		98.4326
-0.0356118	-30.7753		99.2245
-1.60792	-32.7015		98.8679
4.16645	3.78339		96.2646
6.22269	2.6307		93.9445
3.90906	8.01309		92.56
14.2039	-16.614		91.04
13.4691	-14.6842		92.8756
13.6035	-15.8229		92.9335
14.408	-18.5298		91.0153
14.6224	-16.2476		89.8284
2.79166	-28.9487		98.8738
2.88851	-30.6459		98.4144
3.96844	-28.9804		97.811
2.84859	-27.777		99.3106
1.48497	-28.9946		99.3601
2.65445	-26.4191		100.249
2.60207	-25.0939		101.525
12.8601	-14.7396		94.7702
12.7454	-13.4667		94.1565
13.2164	-16.5533		93.957
14.1965	-22.0077		91.9514
13.6567	-20.2484		92.851
13.5058	-24.6636		92.4253
0.493673	-42.6878		98.9314
0.945757	-45.0683		100.203
2.87647	-42.3184		99.9269
0.357571	-39.8517		99.0162
-1.77237	-43.2198		99.0933
20.9748	-32.522		90.5455
18.2104	-32.8006		91.5311
23.1745	-36.5471		90.833
23.7113	-32.4442		89.9906
18.6698	-28.7158		89.9102
8.58108	-68.5		95.296
8.63056	-66.806		95.7555
5.29845	-69.0848		95.9452
8.5127	-70.8268		94.8415
12.1523	-67.6989		94.022
23.3691	-52.7266		84.6242
23.7803	-53.4079		83.9013
25.7561	-54.1242		81.9139
23.3175	-51.1608		85.7733
12.5689	-12.7793		93.8826
12.7777	-12.0503		92.5022
11.3831	-11.68		96.2517
15.7547	-66.9336		92.1488
16.0661	-69.1333		91.3393
18.9764	-65.4849		89.8589
15.3988	-65.1802		92.7861
2.55931	-69.4744		96.3727
-0.0590537	-69.5942		96.5154
2.58191	-71.4036		95.8869
2.43929	-67.9811		96.8955
54.5516	31.6376		61.5612
53.6527	30.856		63.1402
58.2895	23.7911		54.3822
55.3116	32.6869		59.8152
36.7776	54.5468		68.4025
30.5711	56.567		72.9682
36.0026	50.4691		72.2173
41.4528	53.9207		68.676
37.8488	59.9089		64.8696
47.6517	50.7815		63.8925
47.0827	46.9385		67.0395
53.34	46.6243		57.6635
48.7753	55.9851		60.059
37.0568	44.5131		73.8673
36.485	46.2456		73.7243
31.4616	46.3568		77.7848
37.529	42.578		73.8604
56.5789	33.8782		56.8119
57.4491	36.6585		53.911
52.1813	39.9761		63.709
59.6633	27.7517		51.4878
18.3881	36.3339		79.9619
18.2449	34.4246		78.6989
22.6697	37.0546		79.1938
18.1955	38.0385		80.9848
14.4291	35.1161		80.0097
3.24801	18.3737		83.9407
5.7331	15.7856		82.1016
3.15457	20.6713		82.561
0.960001	20.2403		84.845
3.29288	15.6032		86.073
25.6516	-2.48028		76.6256
27.53	-7.49878		79.1143
35.3734	-6.64774		76.6401
23.8209	1.29136		75.3348
19.9469	-1.17187		77.8893
56.2444	8.05092		59.1333
58.9797	6.63374		56.7447
56.4755	12.3699		57.5653
53.599	9.62935		61.1524
54.7041	4.52226		62.1982
3.72594	12.1556		88.9624
6.11853	9.96135		86.8771
1.22776	13.6241		90.3995
37.9906	40.6631		73.9141
41.6115	40.8013		74.481
32.9173	41.2443		76.5727
37.2552	38.9315		74.4209
46.2205	38.8555		71.7165
45.7476	36.9125		72.2219
50.3169	34.7754		67.9925
52.1795	17.0689		61.6425
51.9005	20.9699		62.6274
50.075	16.8013		63.5578
52.1946	13.7625		61.5647
53.9283	17.2005		59.8858
39.7652	21.317		71.6876
41.3816	19.9966		70.4143
37.9899	22.3938		72.8489
34.4856	24.648		71.4338
32.4239	25.2292		72.1225
34.3818	25.544		71.8564
31.7878	26.1148		73.1326
38.3432	23.4471		72.9497
29.3771	25.3608		73.1896
26.7409	25.1568		72.8418
29.0531	26.3339		73.352
26.1386	26.0961		73.437
24.8278	24.7788		72.1973
22.5447	23.6194		71.6013
19.5981	21.8939		71.2547
16.6236	20.0889		70.9422
18.2008	22.6834		71.4585
15.293	20.7461		71.2673
21.0966	24.1669		72.1878
14.5076	18.5161		70.7642
16.6347	23.1307		72.2505
19.6278	25.0019		72.8224
28.758	27.4355		73.562
25.6162	27.1853		73.6629
44.9013	15.1779		67.4038
45.2023	16.251		67.2558
43.8816	14.208		68.1958
27.6252	37.2769		77.8088
32.4781	37.3823		76.0465
27.4927	38.8864		78.563
26.2724	35.1905		77.1446
44.2038	27.8288		70.5133
42.5729	25.4985		71.2072
43.7188	32.4646		73.3
38.973	30.9998		75.7268
35.2132	6.91795		74.2193
40.3511	7.68772		71.8509
26.6311	10.0785		72.6312
35.9452	5.32456		74.1529
20.9578	10.6925		72.6919
17.0701	12.0844		72.386
20.8742	8.95272		73.0333
13.476	14.6249		71.5163
12.8707	14.603		71.8534
14.206	14.1645		71.7215
32.1656	13.2074		71.4163
38.3114	10.5011		72.3619
26.671	13.0981		72.3401
16.0813	15.1368		70.8017
17.8524	14.6215		71.3761
15.2404	15.3048		70.4656
14.6732	15.3541		70.351
13.9777	15.1423		70.8053
9.51743	23.6991		75.0066
8.7461	26.394		76.9028
10.4634	20.863		73.0409
11.0286	25.7427		75.5561
12.1811	16.0028		71.8111
22.4925	26.3562		73.7329
11.1118	19.6691		72.3854
10.7058	18.0223		72.5755
12.3351	21.7606		72.3087
31.9771	14.3556		71.413
26.6394	14.2723		72.2234
16.4093	15.2825		70.1278
15.4913	15.4745		70.0427
18.0205	15.5395		70.7104
14.8084	15.0864		70.4189
42.4737	18.52		69.2979
0.707972	34.5101		83.6057
-1.16849	34.4349		83.5489
-0.257701	31.9293		83.8163
2.81144	34.203		83.3399
1.27883	37.4102		83.6916
14.6295	6.63263		75.4833
14.2841	8.76796		74.6
12.8227	8.30278		76.0227
15.4761	3.77859		76.6821
17.4463	4.95248		74.9178
10.9967	10.1399		76.9344
9.58506	11.6148		77.8159
11.1934	14.1581		73.5669
9.59415	14.4987		75.4758
11.2199	14.9487		73.0729
6.09924	23.7718		78.5833
6.88899	25.9339		78.1092
5.46047	25.0752		79.2895
15.1513	13.3545		72.1422
14.6292	12.1464		72.8997
14.3366	10.5773		73.6805
16.6396	8.81215		73.6172
18.4986	-53.2895		87.4299
18.3992	-53.1756		87.1616
23.1295	-55.6924		81.6535
15.2406	-53.1497		89.8045
24.7999	-55.9281		80.602
24.5021	-55.8238		80.5786
1.31183	-48.4979		99.9509
3.88348	-48.0953		99.8277
1.11869	-47.2864		100.161
-1.65993	-48.8675		99.7383
1.24378	-49.7098		99.4457
6.62565	-50.3478		98.4673
6.42233	-49.2734		98.9439
4.02632	-50.5585		98.8984
6.50694	-51.3033		97.7952
9.1015	-50.1833		97.7403
11.8913	-50.1769		96.4413
11.7445	-49.071		97.1937
11.9882	-51.3244		95.3086
14.9061	-50.6082		94.3127
6.25581	-48.0111		99.2191
8.94358	-47.88		98.7968
6.01808	-46.6761		99.3714
10.643	-45.9237		98.4323
11.5012	-46.8462		98.0006
10.1535	-44.9634		98.4563
7.77618	-45.9402		99.1547
18.3152	-51.7567		90.6046
18.1663	-50.7012		92.0472
6.08882	-52.3066		96.7095
3.56302	-52.4433		97.327
5.91985	-52.7769		95.7868
9.23508	-52.2296		95.5099
12.1789	-52.3434		93.8288
12.1633	-52.8704		92.8255
25.1508	-54.7055		81.67
18.758	-54.27		87.9214
18.7144	-54.2051		87.7125
15.3909	-54.5033		90.6108
18.8058	-54.4441		88.1668
19.3136	-55.701		88.75
19.1061	-55.2619		88.6677
16.3647	-56.8905		91.9321
13.47	-57.4333		94.4317
13.1862	-56.5846		94.1911
10.6042	-57.9127		96.2753
13.8138	-58.1329		94.3133
6.5727	-56.042		96.9555
7.08396	-57.2385		97.3178
9.80479	-55.7927		95.6292
6.20422	-54.9947		96.4368
3.71966	-56.1996		97.675
1.73142	-59.06		98.8652
1.87742	-60.2487		99.0395
4.33296	-58.7351		98.4673
1.46744	-57.7966		98.5588
-0.76323	-59.152		98.9647
25.0041	-57.4315		79.9296
24.7985	-56.8651		80.538
25.1601	-58.887		79.1749
23.2574	-57.3077		81.2268
1.22676	-55.1661		93.9198
1.11114	-54.5545		94.9962
3.3491	-55.091		93.5985
1.31674	-56.3341		92.7546
-0.648312	-55.1553		93.9377
2.01106	-61.5239		99.0489
-0.596769	-61.6184		99.1688
2.18359	-62.6662		98.9157
4.91862	-61.0806		98.6362
2.34964	-66.3719		97.5334
5.36686	-65.9151		97.2591
2.34971	-64.8353		98.1763
-0.338571	-66.5757		97.5715
5.71565	-45.7824		99.5343
4.93066	-44.3996		99.5119
3.55789	-45.7321		100.015
1.33252	-56.4971		98.0719
-0.831386	-56.7001		97.9581
1.12448	-55.3208		97.4852
1.00188	-54.7281		96.9909
3.23463	-54.6301		96.7394
1.01574	-54.4543		96.5393
-0.904549	-54.9196		96.8313
6.04521	-54.5117		96.0369
9.11733	-54.2879		94.7397
5.91576	-54.2679		95.6018
1.01794	-54.3513		95.9322
3.23627	-54.3439		95.6151
-0.875892	-54.4091		95.9671
12.2083	-54.3603		93.0033
12.0815	-54.165		92.5583
12.4487	-54.7824		93.3555
14.6521	-61.2283		94.1747
14.929	-62.2738		93.8386
14.3699	-60.0409		94.2772
11.7058	-61.7803		95.9866
8.48977	-62.6415		97.4765
8.64261	-63.8015		97.1144
8.33139	-61.5821		97.6884
5.19165	-63.2164		98.2757
2.36811	-63.6971		98.6164
-0.594626	-63.8695		98.809
12.0331	-52.8912		92.0547
8.96898	-52.8593		93.8318
11.9145	-52.7849		91.5178
27.6556	-56.3105		80.4503
26.5746	-56.6044		80.6015
24.8587	-56.5716		81.1262
22.9544	-56.6015		81.8355
5.88747	-54.9061		93.0019
5.83594	-54.3661		94.0776
8.89905	-54.8152		92.0155
6.05296	-56.0552		91.9894
5.84565	-54.1469		94.953
8.86407	-54.0485		93.793
8.54378	-65.0418		96.4202
12.0274	-64.3354		95.1581
14.0712	-59.0717		94.369
11.3532	-60.0092		96.4378
15.1218	-63.5742		93.3466
17.9694	-62.4047		91.1848
11.6366	-52.3856		91.1692
8.82914	-52.1861		92.4895
11.1076	-51.0715		90.5587
14.5061	-52.6006		89.3582
5.96495	-52.2321		93.4348
3.65422	-52.2687		93.8044
6.3551	-50.8488		92.2612
5.83009	-52.679		94.266
10.5789	-48.3982		89.8535
8.38571	-48.2662		90.6331
10.4347	-44.8602		89.2805
12.9425	-48.5516		88.6878
25.0339	-62.1695		78.6273
24.5988	-66.0756		78.5734
23.1017	-62.0225		80.1047
1.28353	-59.1409		91.7717
3.33825	-58.9914		91.4985
1.59132	-62.932		91.2749
-0.435993	-59.2041		91.7685
6.25163	-48.1029		91.1631
4.02989	-48.0176		91.5486
5.85242	-44.4003		90.7158
5.99146	-58.822		90.8836
6.34306	-62.9887		90.3334
9.03058	-58.8838		90.0123
28.5499	-57.1554		74.9897
28.7821	-57.3523		74.5663
7.92234	16.5536		76.9933
7.73957	15.1172		78.4294
80.6666	-9.19739		-43.0508
79.9813	-13.5408		-42.2978
78.6679	-9.00634		-46.3796
81.4106	-4.50495		-42.9534
82.2625	-9.56469		-41.2716
80.0674	10.3029		-5.3167
80.6205	13.1762		-9.63484
78.8027	12.5238		-0.300168
80.9245	15.2309		-14.9753
80.6454	20.7074		-16.3292
81.4595	10.1555		-16.0633
81.816	14.7106		-22.1567
75.2178	-33.6924		-33.8211
77.4669	-31.1605		-32.0658
74.0636	-37.9296		-31.2341
76.3068	-29.6316		-35.6421
77.3283	-26.0133		-37.7958
74.631	-28.0168		-40.646
78.3177	-21.8311		-39.6771
79.4844	-24.6011		-35.9526
83.6462	-9.46159		-40.307
85.387	-8.84471		-40.0862
83.0746	-13.6296		-39.4343
84.0512	-4.41776		-40.5055
86.1956	-27.9823		-30.5603
87.37	-23.7806		-32.6105
86.9913	-28.372		-29.3634
84.8869	-31.9169		-27.8314
90.5659	-17.6737		-30.5035
90.6015	-17.13		-29.8903
79.0538	-40.4329		-19.4271
79.5773	-40.6121		-18.7947
78.9885	-41.3766		-17.5895
78.2209	-39.5559		-21.5381
80.2393	-32.9666		-7.1192
80.1461	-33.6875		-7.12043
79.7178	-34.6956		-7.33265
90.5256	-16.7623		-29.485
89.8837	-17.2201		-28.3895
93.2455	-1.81752		-33.0153
93.2679	-1.24701		-34.5221
93.0964	-2.97423		-31.2649
94.0103	8.49339		-30.7197
94.2842	9.90887		-30.7781
94.5912	11.8323		-29.9208
94.0152	11.6633		-27.6619
94.7894	12.3026		-30.3304
94.2046	13.943		-26.796
83.4031	-9.47335		-7.22498
84.6841	-3.89748		-7.77729
82.7932	-8.6835		-5.83637
82.5358	-13.6139		-6.7596
78.2185	-25.7491		-0.381047
77.26	-25.8673		2.41436
77.7267	-29.6609		-0.940092
78.7163	-21.0818		0.200888
82.1937	-20.9567		-9.35808
82.5507	-23.0224		-9.90356
82.2205	-18.9267		-9.52213
81.4587	9.65044		-16.1199
81.984	10.8699		-19.6868
81.481	9.65205		-15.9159
89.8298	17.2791		-16.6071
90.9846	18.9613		-19.8174
89.0067	17.6667		-17.7912
88.221	14.1828		-13.6133
90.56	16.6163		-15.6488
88.5676	21.276		-23.1422
89.7716	19.3519		-21.8696
88.8469	21.4131		-22.6749
91.405	18.2239		-28.7437
89.9363	18.4834		-26.3679
90.9754	3.61624		-39.1493
90.1687	3.14484		-39.335
91.7279	10.2675		-36.2883
92.0191	3.91012		-38.6042
85.5627	0.929346		-8.43253
85.9927	-0.506978		-9.0769
93.8102	3.23298		-36.0716
94.5199	8.81682		-33.7435
93.6058	0.604022		-36.2649
93.872	3.13108		-36.4321
93.4982	14.8807		-22.7075
92.3637	14.3808		-18.6121
93.3173	13.4984		-23.4639
93.5665	15.9093		-22.1137
87.2698	1.56145		-11.2148
86.7376	-0.205421		-10.6899
87.8893	3.89502		-12.0106
93.5869	4.31721		-33.3063
93.4947	2.06428		-35.1601
91.1707	6.73388		-21.8337
90.6705	5.41667		-21.0925
92.7009	6.15855		-26.1097
85.4929	-5.39688		-12.5281
85.6448	-5.20646		-13.316
85.9577	-3.71102		-11.4073
90.8195	-4.86227		-26.879
92.4235	-1.78387		-28.527
90.5354	-4.37657		-26.2431
90.7214	-5.92753		-27.0712
79.1397	-16.9739		0.331791
79.7943	-12.5901		-0.474699
78.2392	-17.3088		2.86876
84.614	1.38817		-38.9738
83.4088	0.558082		-40.1551
84.9378	6.00372		-37.0834
85.7467	3.96642		-38.0683
88.2551	9.00223		-35.4258
88.3904	12.5334		-32.4399
91.0196	13.4852		-33.708
88.0592	4.59117		-38.2438
89.066	2.16065		-39.304
87.9362	-3.45698		-40.2513
87.5748	-8.25525		-39.8952
81.3707	-23.945		-35.0406
80.3881	-27.1373		-33.1851
82.0952	-20.63		-36.7597
82.6992	-17.1675		-38.3008
81.0352	-17.5217		-39.3681
89.1152	-17.0239		-27.076
79.2422	-30.0409		-31.4064
78.1492	-33.7689		-28.9874
80.416	-29.7359		-30.8937
78.0363	-37.603		-24.297
77.6157	-37.6203		-24.6276
77.0844	-40.9698		-19.4395
79.1579	-41.288		-14.9289
78.4019	-41.4129		-14.6804
77.8385	-41.616		-14.3789
90.6181	-6.45684		-27.3686
92.2582	-4.82229		-29.3097
82.1566	-7.94482		-4.61515
81.3831	-7.53097		-3.38473
80.0219	-21.7799		-3.37659
80.4032	-21.9439		-4.09407
83.2045	-26.6285		-9.70437
84.3215	-28.7731		-11.3804
83.3626	-25.4819		-10.4578
81.9724	-16.5337		-6.31417
82.4758	-16.763		-8.56608
87.9426	14.4231		-29.1571
85.6303	10.6393		-32.0661
86.8232	15.0987		-25.7348
84.7612	9.05779		-33.897
84.3887	8.74268		-34.9907
83.9346	11.2658		-29.5436
82.2279	-16.9393		-11.4917
82.4198	-16.883		-10.6303
93.4271	5.18622		-28.5568
93.2377	3.67613		-28.2059
86.1558	-4.41909		-14.7457
85.5262	-6.89803		-15.8809
87.2264	-3.32536		-17.5161
90.4785	-3.54908		-25.7473
92.29	0.137712		-26.9787
89.8431	-3.46803		-24.3318
6.67844	86.5602		61.795
6.16436	79.0117		66.9992
13.8664	85.6734		61.5533
7.31383	94.0998		55.0805
-0.721687	86.8066		61.8328
5.7191	71.2989		72.0474
-0.900141	71.1432		72.2079
4.93923	63.271		75.8659
12.2771	70.9971		71.5094
24.6976	57.4708		75.5741
24.8506	53.3934		77.979
20.5506	57.9513		76.715
-0.576287	-23.3146		105.67
-0.384882	-21.6538		107.522
-2.06529	-23.1702		105.979
1.29334	-23.3764		104.168
0.290281	-13.2803		112.919
2.64396	-13.0815		111.851
0.277475	-11.3406		112.314
-1.88379	-13.2789		113.241
0.201252	-14.8773		113.085
0.187047	-16.6475		112.59
-1.91852	-16.6917		112.967
-0.0585662	-17.8697		111.766
-0.0705865	-29.2989		99.8359
-1.72008	-29.2527		100.14
0.352313	-37.2039		98.5616
2.16283	-36.7193		98.4332
-1.6644	-37.5393		98.5483
-0.159144	-19.7835		109.903
1.96859	-19.8269		108.366
-2.14512	-19.8209		110.332
0.272634	-9.58177		111.199
2.57805	-9.48909		110.13
0.21344	-6.74849		109.075
-1.90005	-9.42712		111.408
5.00281	46.9332		82.0376
0.302414	46.2589		81.8226
5.02416	43.797		82.3009
9.2935	48.0111		81.5545
5.0355	50.366		80.8762
-0.957939	20.9404		86.0299
-0.632104	18.385		87.3309
-0.984082	23.1132		84.6827
-2.3443	21.1915		86.0457
-0.846782	25.1251		83.9651
0.795289	24.3192		83.3735
-0.832002	27.2502		83.58
-2.46102	25.3028		84.0311
1.21686	-52.1862		93.9232
-0.93175	-52.2438		93.9682
1.57004	-50.6457		92.9674
0.946148	-52.9307		95.1379
0.945432	-53.1182		96.038
-0.877149	-53.3307		95.8911
2.98528	-52.9855		95.7979
1.02878	-53.129		96.5543
1.33091	-50.6997		99.1137
1.31927	-51.7019		98.538
-1.43411	-50.8857		98.9661
1.24533	-52.5471		97.7651
-1.13898	-52.7295		97.5373
1.04409	-46.3046		100.65
-1.63405	-46.8555		100.674
1.48662	-47.9279		91.7379
1.19811	-44.1976		90.7892
-0.969252	-47.8704		91.7245
19.8652	84.5684		60.9034
18.7949	77.8061		65.7473
25.402	83.0549		59.8956
21.0264	91.6063		54.4726
15.3172	49.5128		80.9521
14.7993	47.2778		81.5135
20.481	50.1213		80.7855
14.2805	52.5597		79.9833
15.9237	44.7936		81.8754
17.2619	42.0157		81.8748
20.7371	45.6645		81.5028
18.6676	39.6607		81.2322
14.1385	38.9091		82.4559
22.6715	40.9109		80.7043
21.6218	27.4164		74.0146
20.8243	29.2645		74.5874
18.1306	25.8635		73.9616
25.0318	28.4628		73.9553
23.3113	25.329		73.4705
19.7857	31.3607		76.0414
22.7793	32.4495		76.9407
16.4852	30.1761		75.5655
44.6211	87.9245		39.3703
46.35	93.3219		29.6751
39.0648	91.524		41.7216
43.453	82.1021		46.5618
30.5076	81.4869		58.2806
32.0109	87.6707		52.1632
36.1545	79.3279		55.7914
25.06	50.2592		79.866
25.865	48.8179		80.2289
30.3987	49.6994		77.4907
27.0201	42.1401		79.7445
27.0712	43.7802		80.0912
26.323	46.7197		80.301
26.5497	32.5099		76.4209
27.9859	30.2219		74.0215
31.352	31.6778		74.3027
42.0873	76.7578		52.1083
46.8401	75.5938		52.0781
40.6705	71.4014		56.7734
36.3406	48.0681		73.107
41.1211	47.2212		72.7547
34.6872	27.4446		72.8115
34.9291	29.1675		72.8369
31.8919	28.3119		73.3946
39.508	25.3425		72.8241
36.6964	36.8742		74.4322
35.2087	34.2179		74.5592
40.8998	36.5359		74.9045
34.7849	31.2695		72.4935
39.1285	65.7568		60.9408
43.9251	64.634		61.2808
52.634	73.3128		45.8246
51.28	67.5418		51.0784
57.8881	71.3634		38.1301
39.976	21.9234		71.7294
41.8283	20.7013		70.4454
41.6669	23.9614		71.4606
43.4881	22.377		70.0621
40.3948	22.5143		71.6821
44.9138	34.9957		72.7433
48.0399	31.3068		69.8661
12.2828	32.9124		79.7514
10.1848	30.8275		78.6553
12.88	30.9564		77.8191
11.1226	34.7738		80.8582
11.358	35.9258		81.692
8.42489	33.8096		81.4273
13.5001	28.0385		75.4805
14.1268	25.5735		74.5299
4.19653	40.2436		83.0149
1.08246	40.7549		82.7371
66.209	-66.0667		-7.33655
68.0818	-60.909		-5.82068
66.1559	-66.0828		-13.6328
78.7483	26.1462		-39.3768
80.618	19.4488		-42.9213
77.8462	31.0622		-44.1433
78.779	27.4319		-26.7826
81.8209	17.6506		-31.8531
76.3627	-8.7731		-52.3428
75.3988	-14.7119		-50.8815
74.2664	-8.97011		-57.9699
77.4951	-2.60491		-52.2424
78.1273	4.00008		-51.6936
76.3177	6.03869		-58.08
78.8314	10.0958		-49.4753
80.3657	2.15243		-45.4716
71.0222	-31.7183		-44.6934
67.8368	-35.2482		-48.6293
72.488	-26.0458		-47.1108
5.05166	56.5157		78.6345
-0.612595	55.7983		79.1736
10.2095	56.6913		78.329
14.8201	57.4302		77.7961
16.2793	63.806		74.5662
21.5025	-104.536		55.6056
19.6488	-105.416		48.7855
28.085	-102.426		50.5348
15.0658	-105.902		59.0244
48.6568	-90.4492		43.8278
43.2966	-94.3566		48.5701
52.8005	-86.6707		39.1423
49.5884	-88.3006		47.6318
50.1149	61.655		55.5891
55.6865	58.6136		48.8389
17.7769	70.88		70.6284
62.2415	70.2783		24.5382
66.7004	68.3503		14.714
62.3831	62.4384		34.8727
21.9949	99.3982		45.4303
27.9734	97.1986		44.811
22.7537	106.82		34.16
15.4049	100.975		45.9202
58.641	41.6823		49.6197
59.8055	48.4289		45.4437
44.3218	20.245		68.9158
52.6539	29.9994		64.5024
55.3364	22.5398		58.8665
51.2593	28.745		66.0397
51.6699	25.4206		63.9611
5.61774	-115.587		38.475
3.2451	-115.645		38.7149
58.8125	-77.3967		39.6543
60.0142	-73.3108		42.2467
54.8475	-81.0125		46.5353
57.3654	-80.8787		36.3814
4.56844	-42.3521		99.6741
6.29986	-42.6379		99.0003
3.87925	-39.2624		98.5092
21.7093	-47.0848		91.0509
21.0147	-43.4641		92.3923
19.062	-45.6588		93.5583
7.51508	-38.1191		98.1236
5.06217	-37.0708		98.1017
8.2329	-40.5694		98.0748
10.075	-38.5327		96.8209
6.55097	-35.3683		97.2446
31.8643	-52.2876		81.6127
31.4665	-55.648		80.1851
34.4588	-52.9927		79.855
31.6704	-48.1982		82.6333
60.1603	17.5455		51.957
58.1287	17.281		54.9036
61.4646	11.2802		51.667
61.9601	18.1818		48.8264
63.7716	18.9659		45.1999
66.3486	18.7111		39.7913
48.2852	16.6771		65.0483
48.4763	14.4429		64.6737
56.0949	17.0822		57.4877
83.2311	9.41252		-37.0664
82.4647	6.06209		-39.8703
81.5876	11.6437		-41.0455
83.1793	12.031		-32.9907
79.0634	-17.8694		-41.2147
76.9016	-18.5231		-44.4057
70.6654	-52.5227		-16.326
72.7657	-48.1891		-14.1093
70.2739	-54.8239		-10.1401
68.6104	-58.1894		-18.6987
71.6165	-49.2121		-22.5365
82.0789	0.947424		-41.924
76.2426	-26.5794		5.6335
75.6096	-30.9753		5.00804
76.8054	-22.0053		6.05556
75.1162	-27.1426		10.0878
71.585	1.48693		31.7377
70.9918	9.62288		30.8175
71.8732	-6.11059		32.4635
74.0146	-0.00192437		22.6082
51.72	10.6929		62.4881
49.7665	11.7782		63.9025
49.9917	8.16407		64.8502
47.9989	12.699		65.174
46.5634	11.2766		66.6804
73.8375	-26.949		16.5587
72.5877	-26.5012		23.6264
73.1922	-32.1075		15.8187
74.4939	-21.5555		16.7234
19.0472	-9.15994		82.8147
22.8271	-11.0041		81.9017
18.2101	-4.02223		80.414
16.5233	-6.66963		83.3565
31.4539	-15.923		80.6555
39.6815	-14.9704		76.7878
33.2299	-20.6141		81.4925
13.5981	-4.35113		85.5541
11.1083	-2.14577		88.0856
13.8421	-8.01538		87.5382
15.8037	-15.4616		87.8888
14.6536	-13.2349		89.0231
12.0923	-17.3345		96.3275
10.9404	-16.4633		98.4775
11.6889	-19.3071		95.8063
12.6899	-17.9453		94.7189
13.1162	-18.6279		93.2163
12.7384	-21.6		93.8502
37.5526	-34.1763		80.1685
31.9915	-34.5691		83.2827
38.4376	-39.3995		79.6608
36.3115	-30.5901		81.7728
34.8015	-25.3365		81.9813
2.95785	-32.4854		99.0424
3.23299	-34.4431		98.3316
4.18987	-32.6004		97.9536
58.5438	-52.5		59.5744
59.6489	-45.6187		60.2394
54.4525	-50.4872		66.5689
57.1732	-59.5569		58.9907
25.8842	-42.5618		85.9913
22.5054	-40.3836		91.4859
28.2901	-43.1487		84.9857
38.3952	-45.4126		79.9052
38.3455	-50.3624		78.8989
43.9083	-46.8889		77.3153
34.0925	-44.4067		81.7559
3.54125	-36.7303		98.7143
55.245	-66.6751		58.4788
58.2861	-68.4842		51.4088
51.6921	-62.9649		65.6132
52.582	-72.5299		59.3332
60.7811	-27.627		62.0054
60.552	-33.4218		61.6826
64.6691	-28.1221		54.5484
28.2865	-98.1451		69.6232
28.9277	-94.8588		71.9798
22.826	-99.9168		74.2588
40.0306	-85.6561		66.1618
44.6497	-81.9476		63.4895
38.772	-80.4892		70.3075
34.7798	-88.5249		69.9456
56.7198	-5.45637		64.2862
53.9413	-0.807569		65.2152
50.7661	-5.90609		69.5837
44.3115	9.55367		68.9826
45.6324	7.82822		68.5001
51.6745	2.20651		65.9414
46.6024	0.912903		70.1562
49.1135	4.27071		67.1856
42.1242	12.6977		69.9047
1.48363	-93.6338		94.1181
-0.956388	-94.0025		94.3727
47.3565	-59.4941		71.4081
45.5574	-64.1687		71.2925
48.531	-54.3265		71.8976
42.3243	-56.7449		75.99
37.0116	-75.4435		73.7168
40.2736	-71.967		72.4547
34.1665	-70.4401		76.9565
32.874	-78.1334		75.9727
43.2936	-5.78003		72.5993
45.5857	-10.1532		72.8583
41.0094	-2.25996		72.6384
49.5397	-48.5443		72.4412
47.5195	-14.8849		72.8448
8.60276	-83.0083		94.056
8.73662	-78.2759		94.2968
12.8423	-82.3418		91.9252
18.7302	-83.9729		85.2951
23.6118	-82.586		82.3993
17.0922	-76.7106		89.8695
39.5051	-0.204785		73.5344
37.5924	1.65633		73.8051
29.7171	3.4481		73.4659
47.314	6.06511		67.8373
42.3544	4.67452		70.2952
36.4118	3.39784		73.9379
27.6053	6.75751		72.778
8.48367	0.643573		91.3157
8.91938	-3.38698		94.076
8.30228	4.51282		87.8614
9.55155	-10.6718		100.256
9.41488	-9.25397		99.0583
7.60012	-10.127		104.289
9.82403	-11.8788		100.517
7.84578	13.1846		79.8966
7.99097	10.7718		81.951
16.8645	0.222486		78.622
-0.310608	14.3974		90.8332
-1.68908	14.7623		90.8005
61.8824	5.47885		53.5344
8.1172	8.28235		84.4207
61.2391	-68.3673		43.9461
64.2211	-65.4234		35.2952
67.6585	-14.8741		48.343
67.726	-21.8505		47.3583
69.9111	-13.9784		40.541
66.5515	-40.3671		45.2921
67.1169	-34.1393		45.8676
63.9584	-40.0612		53.0891
68.4095	-40.0944		37.7211
67.5413	-28.0157		46.4855
69.5581	-27.6845		38.6062
18.3733	-101.429		77.7775
8.54445	-74.0861		94.4643
5.38438	-74.6402		95.3429
12.3879	-73.4109		92.9568
16.564	-72.593		90.6115
21.9766	14.9707		71.645
22.6917	3.41055		74.1748
21.7447	5.41983		73.7224
21.2222	7.18156		73.3199
2.55005	-74.8582		95.7869
-0.24816	-74.8391		95.9203
2.20111	28.6011		82.6332
3.63439	27.7488		81.1005
2.82911	30.9725		83.0121
0.927461	28.9916		83.5591
2.10602	25.9357		82.0806
13.1947	16.0884		71.0704
12.8585	17.3167		71.1697
10.9313	16.3586		72.7324
4.70491	26.3645		80.0134
5.55394	28.8108		80.1606
-0.55441	29.4942		83.829
-2.5696	29.5948		84.3413
2.98556	-23.2715		102.671
3.4336	-21.914		104.708
5.23594	-12.7051		109.494
5.34275	-11.4035		108.717
7.74323	-12.578		105.4
12.2715	-26.5067		92.455
11.9173	-25.2128		93.2399
10.3127	-28.2632		93.5634
5.05573	-9.72249		108.015
2.70216	22.5691		82.6002
4.09142	33.6021		82.8719
5.46573	32.6463		82.146
13.2961	18.8926		71.2063
6.80202	31.3506		81.2335
7.7879	29.9788		79.0255
8.36178	28.4032		77.6606
15.5852	-33.2523		92.3133
12.7922	-33.7359		93.7417
17.6453	-36.2199		92.9089
19.7119	-39.7564		92.8968
16.4101	-39.1863		94.3253
23.78	-55.4156		80.7448
23.5907	-54.3518		80.3777
20.2504	-53.0551		85.6968
23.8674	-53.8546		83.3784
20.693	-50.9133		90.0197
21.616	-49.0699		83.2946
18.4083	-48.901		85.4632
20.9415	-45.6619		83.1455
10.5485	-34.2357		95.3886
8.02525	-33.6467		96.0246
11.7279	-36.3209		95.537
13.313	-38.8628		95.2485
14.6235	-41.5235		95.8689
17.733	-52.8509		87.3039
16.3669	-51.6094		87.6576
15.5464	-48.7803		87.2166
15.4159	-45.1849		86.7171
5.96432	-33.0769		96.9318
5.56295	-31.1624		97.0585
9.34392	-43.1161		98.0692
12.6279	-43.4666		97.3076
13.3849	-10.3026		89.8499
11.324	-8.3882		93.0034
0.26324	-3.21881		105.94
-1.60431	-3.15625		106.105
9.29332	-6.94047		96.7984
4.11852	-19.4333		106.096
6.20143	-19.586		103.308
8.14921	-20.1306		100.634
8.89233	-17.7745		100.831
9.90697	-20.6201		97.5242
11.084	-21.8799		96.3095
11.4938	-23.149		95.3545
11.6669	-24.2746		94.5419
9.72392	-12.9718		101.065
9.54228	-14.171		101.403
9.29311	-15.8047		101.239
38.712	-144.21		13.9935
34.148	-145.443		16.7696
40.4915	-151.49		15.5983
42.7188	-142.852		11.3231
37.3186	-135.273		14.4613
35.7516	-123.552		16.0576
39.7406	-122.011		12.7979
36.1438	-116.798		17.1328
31.4728	-125.579		18.7963
37.7168	-100.516		28.9328
41.824	-98.0987		24.9589
33.2765	-102.749		32.5751
35.4795	-104.632		25.1095
35.2965	-109.866		19.242
31.5325	-111.982		23.3581
39.3147	-107.977		15.5318
43.454	-68.4768		71.382
46.5764	-72.9584		66.6699
39.2073	-64.3057		75.6727
49.2882	-77.6126		60.7131
50.2579	-81.8313		55.6695
50.3668	-85.2885		51.3721
35.7907	-61.2834		78.0876
36.996	-58.1642		78.3586
33.122	-59.0686		79.2111
33.7969	-63.9142		78.3497
30.8185	-57.9349		79.408
29.8875	-59.7553		79.7887
45.5429	-95.7553		20.5577
47.9326	-92.2797		23.4474
43.1524	-100.442		17.2328
48.2462	-93.598		15.161
50.3926	-89.3033		26.5544
52.7941	-86.8097		20.3756
53.3885	-86.616		29.743
55.5737	-83.9642		33.3777
57.6072	-81.4494		26.1183
43.4583	-120.738		8.36992
45.2877	-131.985		7.89391
47.1707	-119.369		4.60228
43.9271	-111.834		9.38345
46.4257	-141.781		8.94165
48.0233	-148.166		9.09748
49.9818	-140.416		5.67449
43.0763	-106.01		11.5948
71.1818	-26.8578		31.0578
70.5718	-32.8856		30.5931
71.6821	-20.4527		31.5814
59.1896	-79.0335		19.1411
56.9831	-81.5481		16.674
60.6595	-76.5431		11.8603
69.9477	17.9855		30.9488
73.9463	15.7588		19.1937
66.2111	-62.6745		26.7801
67.5742	-59.936		18.372
69.9046	-39.1408		30.152
71.3116	-37.7345		22.4822
71.8702	-13.2634		32.5359
73.6146	-14.2065		24.3083
72.5114	-37.3331		15.1385
73.7623	-36.6536		8.52966
56.1549	-90.2807		-2.23478
56.0945	-93.003		-6.39097
58.1967	-88.9791		-8.3143
56.8026	-85.5558		-0.165023
53.814	-90.8449		3.40801
56.03	-98.1388		-7.50141
58.6573	-81.4889		1.78942
57.0125	-82.913		7.4005
59.5103	-80.5922		-3.8849
60.1914	-77.8516		3.28035
76.0526	-1.75515		13.8819
76.4642	6.1889		11.2371
75.5568	-9.3057		15.9481
76.8653	14.3915		8.08804
75.5045	24.0823		9.48221
76.1324	31.8797		5.82799
77.9503	31.2099		-5.3334
76.3252	39.8703		1.09187
68.6159	-57.889		10.277
69.5006	-56.5709		2.41856
75.0438	-15.5286		16.8209
76.3192	-16.7428		10.404
50.7053	-117.927		1.0118
52.0159	-129.795		1.09944
55.0787	-84.7689		13.8589
53.1161	-88.1076		11.2317
53.356	-138.862		2.32999
54.8402	-144.84		1.69672
60.2074	-114.383		-14.7141
62.1609	-125.086		-12.3759
60.2324	-86.8069		-15.1786
61.4435	-84.6304		-20.064
60.4176	-83.687		-11.9543
61.3403	-79.4959		-9.72758
63.0143	-131.951		-14.0077
63.6553	-137.446		-16.805
70.1196	-56.3082		-4.64743
74.8937	-35.4961		4.0745
76.1111	-33.7529		0.781607
74.2875	-39.4824		2.54373
77.2612	-17.4503		6.26817
60.9497	-92.2967		-27.1823
59.7964	-88.3233		-33.3372
61.4958	-85.4368		-27.1521
62.2929	-79.3143		-26.3031
62.1472	-74.0251		-31.7743
65.7054	-64.5213		-20.0003
74.377	-45.7417		-13.0702
75.154	-42.6326		-19.2201
58.3794	-119.848		-40.6725
58.5908	-127.112		-42.8838
55.3373	-116.895		-48.1194
58.3019	-111.778		-39.1831
72.7273	-44.2236		-27.4526
74.9383	-40.146		-25.6485
76.6749	-38.3677		-24.8114
29.4769	-146.864		19.8071
28.1466	-137.776		19.8855
24.5699	-148.034		22.6267
30.4415	-154.034		20.8928
26.2545	-113.352		27.1218
20.7625	-113.774		29.9937
26.3573	-119.519		24.6277
25.9559	-109.016		32.6966
33.9361	-100.238		45.7821
31.4291	-102.074		41.0845
36.189	-98.8766		49.9961
28.4564	-104.713		36.4998
22.5355	-106.214		40.642
26.7139	-126.937		22.2233
21.8486	-128.247		24.9717
31.7588	-66.6775		78.8945
29.8982	-63.2444		79.5333
37.6828	-97.5287		53.445
28.484	-61.5726		80.3399
26.4264	-63.5322		81.5807
27.5283	-59.993		80.5912
26.6517	-58.7686		80.7742
24.9252	-60.1653		82.0843
28.4312	-80.6996		78.8302
29.1391	-85.733		76.7811
29.4519	-90.7172		74.2243
18.7462	-54.862		88.654
15.7782	-55.4683		91.4406
18.5362	-54.2585		87.5136
23.1576	-56.558		81.8721
18.6354	-54.4628		87.1048
15.1805	-54.3847		89.8167
18.6496	-54.9148		86.7688
18.6707	-56.2596		86.1124
15.2091	-54.9293		88.8501
18.4809	-59.5295		85.4539
18.1079	-63.8066		85.1429
15.1597	-59.2738		87.3704
15.7992	-114.638		32.646
14.9162	-110.973		38.7571
16.0062	-120.384		31.0096
19.5813	-149.158		24.9676
18.2432	-139.908		24.8994
14.7086	-149.904		26.3721
20.7984	-155.831		25.7251
16.9682	-129.38		27.9664
10.6607	-108.125		44.3347
12.0462	-107.921		45.9102
10.9378	-106.871		51.3507
10.5795	-149.973		26.45
11.6218	-156.78		28.2739
11.6185	-106.396		59.3777
11.9306	-54.1784		92.0636
11.7976	-54.2548		91.2407
11.793	-54.7545		90.6217
12.1094	-56.0257		89.6855
12.0047	-58.923		88.7926
12.0421	-63.3043		88.3074
70.6527	50.4905		19.8858
73.7753	49.023		6.02299
70.4241	59.2134		9.96937
66.2325	52.41		30.7679
78.0479	29.8783		-19.3759
73.8765	-20.4517		-49.4207
71.1253	-22.4962		-54.3444
52.118	-95.9014		-51.3191
53.0333	-86.3917		-51.5532
55.106	-98.7695		-45.033
52.1054	-105.593		-52.0508
49.0184	-93.5912		-56.7271
52.9486	-115.828		-55.2434
53.4398	-124.562		-57.5395
49.2986	-114.514		-61.0049
58.1337	-83.7174		-39.547
58.1007	-93.4637		-37.1866
56.4969	-79.9552		-45.86
59.8246	-75.2873		-39.499
23.1544	113.923		20.1465
29.7391	111.018		19.9898
23.0556	118.217		5.34845
16.1112	115.906		20.3184
24.1978	102.742		-79.9426
24.7024	111.549		-63.8814
31.2909	100.804		-77.9651
23.5292	91.7366		-93.2171
16.538	104.25		-81.3992
23.145	79.7612		-102.846
29.9745	78.0605		-100.791
22.8801	66.29		-110.085
15.9919	80.5111		-104.489
23.5681	118.561		-44.9132
31.3639	115.292		-44.4408
16.0479	120.403		-46.0148
23.7015	120.715		-28.1859
8.26497	124.046		-11.7161
0.283956	124.653		-11.5323
8.21229	121.495		5.0837
15.9351	122.784		-11.3575
8.65751	124.026		-29.5094
22.5454	53.1879		-115.062
29.0196	51.8875		-112.974
21.4284	39.449		-118.137
16.0045	53.9803		-116.598
19.5699	24.9238		-119.37
26.1527	24.12		-117.163
19.8236	11.9615		-119.082
13.1178	25.7834		-120.827
17.499	-25.677		-108.055
23.5131	-26.779		-104.78
17.2263	-37.9774		-99.0095
11.6496	-25.4463		-109.489
18.5029	-13.2214		-112.754
6.78534	-0.19711		-120.284
0.327112	-0.0506093		-120.847
6.67736	12.5526		-122.283
13.1434	-0.438172		-118.901
6.55899	-12.2953		-115.354
15.2363	-85.2392		-81.7952
15.576	-75.5564		-82.7905
21.0186	-87.8387		-81.8389
15.7875	-96.7718		-82.8985
10.1574	-84.7742		-82.5878
6.6069	-105.673		-83.7669
11.5563	-106.092		-83.5062
6.05506	-114.944		-83.3382
1.72976	-105.363		-83.8474
5.11873	-93.6846		-82.4714
17.3932	-47.0742		-93.6096
22.7251	-47.9622		-91.3549
16.9716	-55.8078		-87.9685
11.6917	-46.5698		-95.2468
16.1521	-65.0687		-85.1592
21.6974	-68.525		-84.8028
10.871	-64.2385		-86.1878
5.56054	-63.9318		-86.6578
5.80841	-54.742		-89.7318
5.28184	-74.6051		-84.164
0.226016	-64.103		-86.7157
47.6964	98.3705		17.9119
51.1565	94.812		18.873
49.0336	102.637		3.84808
41.9681	103.06		19.0834
47.2651	71.5303		-89.6272
52.8072	68.8052		-85.2556
46.8014	58.5068		-96.4329
43.0817	73.7394		-94.4483
47.4663	82.823		-80.1811
47.7503	92.4531		-68.0028
43.7209	95.2871		-72.4344
49.4474	98.8972		-54.4127
53.2157	88.0059		-64.3582
49.7506	102.961		-40.0357
53.9646	98.0958		-37.7913
43.9808	107.836		-41.2422
50.3424	104.42		-25.5478
50.0402	104.886		-10.955
43.8665	109.678		-10.6461
54.0733	99.5115		-11.9236
46.3932	46.1764		-101.532
45.7403	33.4192		-104.838
40.6387	48.1033		-105.63
51.6674	43.947		-96.996
45.0164	21.6388		-106.019
50.2611	20.0069		-101.998
43.9817	8.29506		-106.455
39.3687	22.8196		-109.637
42.6144	-4.61909		-105.001
41.4354	-17.9302		-101.496
37.2315	-4.46192		-108.736
47.4688	-5.2757		-100.643
40.5355	-31.1304		-95.7086
45.2208	-30.8955		-91.8282
39.7176	-42.3834		-89.3367
35.0718	-30.441		-99.8183
39.0877	-51.8792		-83.5501
38.5203	-61.1492		-78.5682
33.8602	-51.7555		-87.4595
43.788	-51.8127		-79.2341
37.1465	-89.8693		-73.7508
35.0975	-100.404		-74.2307
32.1794	-89.3939		-77.239
38.008	-80.0504		-73.6389
41.4658	-90.9941		-69.5777
23.8846	-108.372		-79.3888
24.5306	-116.925		-79.7791
18.5981	-107.904		-80.8047
26.0167	-98.3396		-80.0364
29.3057	-109.332		-77.3632
38.1137	-70.6335		-75.1674
42.7393	-71.0908		-70.5561
33.1214	-69.9748		-78.9478
66.9917	71.9253		-50.7468
67.2994	75.3581		-40.0166
70.4776	64.5157		-45.3594
66.4675	66.1274		-61.2354
62.8387	77.9387		-56.0863
68.1171	78.4291		-30.8805
71.6913	70.3347		-25.4827
63.6673	85.1484		-34.0756
68.1519	78.7199		-19.1517
67.0085	80.278		-9.08671
69.1569	73.0223		0.679713
63.6311	86.7502		-11.0798
56.3532	42.0267		-92.6662
57.1104	54.1528		-87.7408
60.654	39.9731		-88.3202
55.6723	29.5792		-95.6418
57.5817	65.7114		-80.6112
57.7493	75.5196		-71.7866
62.0602	62.0162		-75.5198
52.3671	-6.01273		-95.5802
53.9845	6.31571		-96.9085
56.8875	-7.01373		-90.0397
50.5181	-18.9181		-92.7978
55.0522	18.3807		-97.1827
59.496	17.064		-91.7039
49.3164	-30.6639		-87.7197
53.3703	-30.5561		-82.5266
48.6961	-41.6904		-80.862
47.7831	-51.2316		-74.8791
51.4074	-49.5583		-70.7905
47.7473	-71.6988		-64.8787
51.7312	-74.3151		-58.2796
46.947	-81.9582		-64.0373
76.3826	36.2224		-47.3752
76.2281	30.9372		-53.7028
75.0298	42.2527		-52.132
55.8907	89.6435		16.2281
58.1021	92.1416		0.654567
75.5202	47.0231		-6.46642
75.224	54.4566		-10.5737
67.2386	-8.52327		-74.1154
64.245	-8.57513		-79.2533
68.7072	2.05333		-75.1747
69.8848	-8.86699		-68.4285
65.1307	-18.7282		-71.37
69.2341	11.6278		-75.8574
66.3317	13.2449		-81.5739
70.0098	20.9785		-74.256
72.0544	9.4523		-69.7696
70.8336	30.7982		-71.1129
67.6601	34.4284		-78.0058
71.8563	39.7711		-65.3988
73.3625	26.9744		-65.0515
59.6116	-43.4339		-59.8902
56.9493	-45.8195		-63.4587
61.1878	-35.8875		-63.8578
62.2256	-41.0438		-56.0381
58.1244	-51.1928		-56.0722
68.3625	-24.5335		-59.0565
66.626	-31.5112		-55.7809
65.8248	-26.214		-63.2612
70.3801	-17.0315		-61.4987
54.7104	-77.1065		-52.5518
56.0913	-67.7727		-52.6362
76.5392	-38.1007		-4.81615
77.138	-34.3706		-2.69766
74.8426	-41.1639		-2.64695
77.02	-32.3929		-1.13468
80.5447	-6.31919		-1.96635
81.3671	-0.932495		-4.23584
93.0078	3.81656		-37.8529
93.4066	10.2093		-35.3417
93.7039	3.57719		-37.1955
83.0631	-36.167		-24.7193
81.6115	-38.86		-21.3457
93.6229	14.7453		-32.1121
92.6647	15.057		-32.6143
92.8702	17.9181		-27.9283
94.4921	14.0824		-31.5481
86.3955	9.95479		-11.0119
85.1146	9.93589		-11.6604
91.939	19.3187		-23.5292
92.8211	18.6366		-22.817
88.5733	-19.3516		-34.9699
84.1898	-36.6899		-17.1189
83.6368	-36.5855		-14.5447
82.3838	-38.7735		-17.6388
81.8306	1.6005		-6.00617
88.342	17.6044		-18.8936
86.3272	14.5244		-16.2049
87.3111	16.7124		-20.5172
83.8387	10.1981		-13.1222
83.0018	10.6211		-14.7603
92.0008	14.9076		-32.8335
82.2517	10.3172		-16.2411
83.6374	12.2914		-18.9423
85.3274	14.1783		-22.5948
83.1469	12.1107		-23.6926
87.6963	-27.542		-27.7795
87.2822	-28.8033		-19.7126
80.9853	-39.993		-18.2377
83.3515	-36.0316		-12.5379
84.528	-33.0422		-12.4335
85.5547	-30.4965		-13.3179
86.0641	-28.9491		-14.2052
93.874	3.29608		-36.7971
94.477	9.36694		-34.3299
91.068	16.0213		-15.1789
91.2517	15.4094		-14.9187
92.4088	17.6609		-18.3278
91.2475	14.7989		-14.77
92.6228	16.5007		-17.8402
91.0921	13.7103		-14.9094
94.8522	13.557		-31.1956
94.2281	16.484		-27.0124
94.973	13.0536		-31.0432
93.3948	17.919		-22.3249
93.6171	17.3332		-22.2072
93.6276	16.7475		-21.9157
94.373	15.4473		-26.6246
94.9214	12.691		-30.7217
93.4356	-0.957296		-35.7521
90.8394	12.3583		-15.4435
88.1945	5.05417		-13.0227
93.137	11.9722		-24.1287
92.9796	-3.8024		-30.5527
92.9777	-1.85575		-30.1298
93.021	-0.0356851		-29.5939
93.0795	1.28157		-28.875
92.9852	2.34302		-27.8024
91.9717	3.22673		-25.2026
83.702	-25.137		-11.7574
85.0593	-26.8249		-13.4953
86.1605	-1.64091		-10.0241
82.4234	-16.8599		-9.70787
86.1707	-28.1579		-14.6881
28.534	28.5885		73.747
33.4249	94.6867		43.569
34.938	101.214		32.9351
7.82491	102.147		46.1055
8.13357	110.187		34.1422
-0.175867	102.588		45.9487
35.8618	107.332		19.6769
36.8602	112.139		4.88545
8.29904	116.954		20.465
0.251841	117.402		20.2753
23.1817	120.764		-10.9736
30.4585	117.684		-10.8721
37.2241	114.142		-10.7971
37.6063	114.132		-26.6251
61.1675	55.3073		40.2231
70.132	66.073		4.4393
72.8598	63.9683		-5.0036
59.025	93.4349		-11.9321
59.705	93.7027		-25.1501
7.6624	121.192		-46.7228
7.91258	114.142		-65.6487
-0.220169	121.139		-47.3362
37.7894	112.147		-42.6365
37.0339	107.563		-58.0994
74.0831	62.5659		-19.98
74.1709	61.2305		-30.8137
58.8219	92.0656		-36.0037
58.7749	89.0362		-47.3864
73.3635	58.5969		-41.5149
73.0611	53.6122		-50.3323
72.6133	47.976		-57.8235
69.5845	53.0751		-64.0232
45.2182	-93.0171		-64.0811
44.4878	-103.423		-65.4715
44.3647	-112.686		-66.5281
45.0182	-120.459		-68.0028
39.2812	-111.034		-71.1784
8.3035	105.354		-81.9933
8.4203	93.7336		-95.6228
0.0845818	105.097		-82.178
8.63555	80.9785		-105.388
8.80613	67.6841		-112.515
1.10473	81.2076		-105.731
9.1013	54.3386		-117.534
8.83242	41.2045		-120.871
1.35977	54.7899		-117.72
6.12677	26.2618		-121.787
-0.635617	26.2592		-122.168
19.4483	-0.860202		-116.913
25.6869	-1.37468		-113.695
5.60602	-25.2778		-109.67
5.92259	-37.8704		-100.569
-0.11993	-25.4627		-109.185
5.98318	-46.7358		-95.6066
0.265329	-46.9413		-95.5782
5.20728	-84.2618		-83.0081
0.231955	-84.0186		-83.1437
36.5919	76.1172		-97.9791
37.0496	87.8986		-88.3744
36.2752	63.1898		-104.967
37.5855	98.3		-75.6144
35.7281	50.356		-109.968
33.7392	36.6294		-112.662
32.6342	23.094		-114.166
32.7324	10.3529		-113.361
31.2213	-3.78774		-112.192
30.0041	-16.7108		-108.751
28.9837	-29.875		-103.439
28.0549	-41.7052		-96.8554
27.9306	-51.3321		-90.8074
27.8874	-60.2614		-85.7964
27.5688	-69.2303		-82.2368
27.1321	-78.9228		-80.3276
27.0185	-88.5592		-79.9036
34.4878	-109.888		-74.7089
35.0656	-118.157		-75.957
58.1216	83.5791		-60.5232
66.0498	58.2038		-69.7557
65.3148	48.13		-77.3135
64.2827	37.583		-83.464
63.5606	25.8176		-85.8656
63.0976	15.5566		-86.6427
62.1981	4.14372		-86.0896
60.714	-7.86747		-84.6547
58.635	-19.396		-81.8184
56.8126	-29.6652		-77.832
59.931	-29.1956		-72.6045
55.5032	-39.3245		-72.3943
54.2771	-47.6866		-67.2322
57.4202	-59.5505		-53.2615
59.5778	-57.9763		-49.8773
75.3903	24.2303		-59.3416
74.6861	15.794		-62.1954
77.011	19.3829		-52.809
72.1185	-8.95134		-63.4068
73.6334	-0.262087		-64.0967
62.8829	-27.8818		-67.9118
74.3771	8.26978		-63.8119
64.8589	-38.5566		-52.3757
63.5157	-45.9108		-49.1664
16.946	-107.742		43.6222
61.6934	-74.2912		5.2295
51.1196	-92.0788		9.2918
11.6444	-47.8633		97.801
14.9235	-48.4854		95.8363
17.9799	-49.6022		92.8785
7.4558	-58.3197		97.5765
7.82942	-59.4317		97.7479
8.05947	-60.4897		97.79
23.3295	-65.5302		83.1564
22.6426	-63.7704		83.6816
22.0443	-62.0119		84.1065
15.9174	-44.3444		95.5412
38.0869	-54.2487		77.909
27.8708	-34.0417		84.4631
29.6509	-39.0147		84.4747
30.7364	-43.6088		83.8678
60.3325	-39.1975		60.8211
14.7926	23.8745		73.0403
79.1765	15.669		-46.7593
82.4518	13.8361		-28.0519
83.0462	11.8716		-25.6348
73.3531	-44.1532		0.758667
21.7389	13.6665		72.0412
46.9207	44.7401		68.7516
5.51914	-29.4384		96.9046
43.0643	19.0649		69.2257
8.23207	-28.1429		95.5385
82.9044	11.6963		-24.6011
58.1898	-103.023		-37.9386
62.7368	-67.7825		-37.5004
61.5889	-60.6411		-42.8093
61.8589	-54.7037		-46.5614
17.7645	-25.044		89.6332
12.7236	-55.6141		93.8615
24.8462	-56.5503		80.8377
5.78909	-52.9062		95.0798
-69.9332	-45.9391		13.6998
-70.8322	-40.0809		14.8565
-70.9892	-45.1299		7.20298
-68.7863	-51.4872		12.7655
-68.8638	-46.5518		21.6348
-55.8848	-117.263		-6.76157
-55.2824	-106.726		-6.21669
-57.9344	-116.036		-11.1817
-56.843	-127.924		-7.82194
-53.2776	-118.319		-2.46729
-57.855	-135.897		-9.05629
-55.5565	-137.796		-4.5726
-59.5478	-134.016		-13.7211
-58.6704	-141.586		-10.228
-48.837	-100.639		3.97755
-52.2288	-99.5996		-1.13998
-49.0662	-108.589		2.94903
-45.3406	-102.127		8.74389
-49.5147	-94.7309		5.16397
-58.8084	-98.0496		-14.6062
-57.308	-98.6656		-10.0894
-58.9448	-92.4928		-14.2202
-59.7212	-96.7811		-19.7761
-58.8558	-105.22		-15.0214
-62.489	-66.36		25.5588
-63.1948	-63.9109		18.6883
-60.4025	-69.7978		24.1899
-61.6412	-69.0195		33.1772
-64.4304	-63.1383		27.2043
-67.8987	33.4471		25.5382
-72.0794	31.7286		13.3365
-67.2832	25.9526		29.0213
-62.9977	36.5781		37.1034
-69.1559	41.2307		20.5469
-78.0946	43.8745		-28.9731
-77.1761	35.4618		-23.9948
-76.8999	44.8239		-17.6192
-76.5466	50.8241		-34.6556
-77.6341	39.9167		-38.3134
-4.69649	-115.54		37.8468
-4.83348	-110.999		40.4485
-8.35067	-115.239		36.8642
-5.78061	-122.36		36.2032
-1.87375	-115.606		38.4198
-7.26381	-133.544		33.0766
-8.53215	-144.829		29.6107
-4.06966	-133.847		34.0803
