1824
18.3169	-75.7824		88.0514
26.7507	10.1984		70.4208
28.4724	-0.24732		74.0604
27.5408	1.89211		73.3611
26.8959	3.57058		72.7488
2.63362	-78.0935		93.5261
-0.148109	-78.0899		93.3854
7.80921	26.1528		80.4797
9.21209	24.9348		79.4891
8.36948	28.3668		80.4937
6.25838	26.619		81.1242
7.68326	23.4495		80.6093
18.6724	13.8208		69.3515
18.4482	15.0378		69.4895
16.8449	14.1364		71.0359
10.4281	23.5825		78.3934
11.3747	26.1082		78.4126
4.45087	27.0561		81.535
2.40606	27.2174		81.7472
5.19956	-21.7244		103.042
6.22652	-20.9808		104.321
9.4189	-12.5858		109.028
9.4301	-11.0627		108.53
12.1654	-13.0281		105.843
16.2888	-25.2166		90.6746
16.0242	-23.8756		91.8624
13.6383	-26.4331		91.8639
9.15649	-9.49276		107.792
8.16713	20.0678		80.7871
9.50628	31.0222		80.9055
11.2976	30.0184		80.0229
18.8457	16.4837		69.666
12.8169	28.671		78.8289
13.8672	27.1538		77.5074
14.5105	25.5166		76.3212
18.4205	-31.6602		89.4832
15.5148	-31.7553		91.2169
19.6657	-34.7769		89.9944
21.1976	-38.7631		90.1907
17.9742	-37.6745		92.1688
22.6541	-54.5825		83.4572
22.4344	-53.3615		82.9733
20.8313	-54.3616		84.98
23.2416	-52.8604		86.6275
21.5747	-51.2419		89.0572
22.2196	-50.0755		81.9918
19.1798	-49.5546		84.3473
21.8863	-45.8501		81.2804
12.8654	-31.5955		92.8586
10.1384	-30.9975		94.4308
13.7277	-33.9547		93.448
14.9238	-36.7663		93.8423
15.937	-39.6357		94.2862
18.4912	-53.9373		86.7665
17.1777	-52.2374		86.8924
16.3628	-48.8371		86.1791
16.3865	-44.5738		85.1661
7.63112	-30.1616		95.8082
7.29168	-28.2051		95.6508
10.6109	-39.9424		97.7166
13.9189	-41.2514		96.1115
18.7642	-12.3564		90.5286
16.2201	-10.1446		94.5882
4.34695	-4		105.97
2.29158	-3.76817		106.14
14.1235	-8.13094		97.8436
7.29165	-19.1433		106.329
9.50612	-19.3229		103.636
12.1014	-19.2352		100.836
12.9274	-17.6721		101.576
14.3566	-19.2085		98.2583
15.8053	-20.3235		95.7848
16.203	-21.3701		94.4296
16.1478	-22.5577		93.0434
14.1862	-13.4417		102.376
13.8805	-14.6031		102.633
13.3951	-15.921		102.379
37.3832	-143.509		11.9705
32.9127	-144.75		14.9074
38.8178	-149.748		11.0849
41.2914	-142.178		9.04992
35.3509	-134.997		13.3999
33.1284	-123.014		15.3116
37.1523	-121.93		11.9696
31.661	-112.425		17.2142
28.8573	-123.979		18.597
33.9659	-97.3973		24.9671
37.7974	-95.8626		20.7704
29.8644	-98.7983		28.7876
32.5769	-100.971		21.3342
31.7287	-105.462		19.0848
27.4725	-106.131		22.9938
35.691	-104.487		15.3234
41.8252	-67.8739		72.122
44.4842	-71.5592		67.2925
38.5108	-64.3809		76.3277
46.5912	-75.5633		61.4825
47.1365	-79.4257		56.5613
46.9666	-82.7307		52.3391
35.6443	-61.705		79.1586
36.8989	-58.509		79.438
33.3062	-60.0288		80.9089
33.6393	-64.6023		79.5174
31.5687	-59.091		81.9487
30.491	-60.7824		82.0507
41.4274	-94.2394		16.6167
43.4724	-90.7787		20.2971
40.274	-98.1871		13.5522
45.0662	-92.522		11.7839
46.2542	-87.599		25.0012
48.8371	-85.708		18.8687
49.0419	-84.6606		29.3372
51.1281	-82.1314		33.5093
53.2829	-80.1774		26.5137
40.9967	-120.665		8.516
43.0726	-132.351		7.0433
44.7501	-119.693		4.82941
39.6611	-110.47		9.93899
44.9251	-140.855		5.91762
46.7336	-147.14		4.82417
48.401	-139.516		2.42657
39.5814	-103.288		11.5058
71.1941	-30.3796		32.2677
69.798	-36.0568		32.1464
72.5527	-24.1216		32.3619
54.9463	-78.5158		19.7515
52.939	-81.2577		16.1327
56.4245	-76.8063		12.6605
73.0275	14.6998		26.9207
76.2646	12.2614		16.5421
62.6237	-63.2976		29.8848
64.1153	-61.529		21.6231
68.3263	-41.758		32.1623
69.4499	-41.6006		24.6071
71.9797	-16.6213		31.0146
74.9318	-18.2718		24.8358
70.5445	-40.6835		17.3589
71.7863	-38.932		10.7824
53.9882	-89.8864		-3.52952
53.7029	-94.6422		-5.08178
56.2934	-89.5004		-8.42065
54.5001	-85.7471		-1.77199
51.347	-90.4599		1.25428
53.6401	-99.7676		-6.04746
55.3661	-81.9903		0.791848
53.2197	-82.9941		6.38254
57.3181	-81.1788		-4.89163
56.4262	-78.5824		3.26389
77.1709	-5.0698		11.6186
77.8392	2.87277		8.9522
76.0204	-12.979		14.1385
78.4844	11.0026		6.12593
78.7386	20.083		4.01669
78.6775	28.4238		0.666046
79.9222	27.6468		-9.87475
78.8001	36.4843		-3.24766
64.517	-60.0926		12.262
65.443	-58.669		4.0488
75.8984	-19.1444		17.6765
76.7485	-19.8704		11.4677
48.5845	-118.644		0.685192
50.2302	-129.914		-0.510277
51.2204	-84.2755		12.7237
49.5263	-87.5162		9.28125
51.7126	-138.062		-1.54461
53.0829	-143.722		-2.37974
58.6162	-114.798		-16.5102
59.4131	-123.829		-17.6252
57.337	-88.9816		-13.671
58.8735	-86.6217		-18.4861
58.559	-84.581		-11.963
59.2668	-80.309		-10.4558
59.8327	-130.728		-19.33
61.2037	-136.278		-20.7697
66.3056	-57.7449		-3.27611
73.3098	-37.738		6.12645
74.588	-35.8728		2.78575
71.9428	-41.2454		4.87588
77.4838	-19.975		7.33217
58.9458	-94.0894		-25.7515
57.5625	-89.112		-32.627
59.2104	-87.8062		-25.4245
60.0571	-82.0798		-24.2701
60.5487	-75.8589		-30.5148
64.0249	-65.8156		-20.3645
71.2224	-47.3957		-12.1435
72.9304	-44.4814		-18.932
57.4443	-120.065		-43.5167
57.4628	-127.586		-45.3128
53.968	-117.356		-50.9086
57.2664	-111.947		-41.9124
70.1944	-44.9801		-26.6851
72.605	-41.0982		-24.9084
74.2242	-39.4819		-24.2691
28.2741	-145.793		17.622
26.5836	-137.118		19.3215
23.613	-146.774		20.0322
29.7234	-151.939		16.4018
22.6895	-106.544		27.1524
17.6211	-107.021		30.7403
22.5986	-113.695		24.5691
23.6167	-103.059		29.2538
30.0913	-96.315		44.1523
27.6918	-97.6302		38.3124
32.0619	-95.2825		48.9761
25.1388	-100.108		32.8831
19.9001	-101.112		36.8066
24.3364	-124.603		21.8567
19.7236	-125.722		24.8194
31.5364	-67.4881		80.1322
30.0449	-64.6539		81.7402
33.4559	-94.3439		52.5745
28.9518	-62.6838		82.6631
26.8049	-64.5789		84.054
28.097	-61.2636		83.2455
27.3031	-59.9297		83.672
25.5509	-61.3566		85.1142
27.3847	-80.8068		79.1702
27.7099	-85.3167		76.8571
27.585	-89.9099		74.174
19.4209	-56.0909		88.2753
16.6061	-56.3222		91.1347
19.1424	-55.4101		87.004
22.0078	-55.6368		84.7102
19.1944	-55.6429		86.5665
15.9837	-55.0098		89.3979
19.1629	-56.1639		86.1622
19.087	-57.6496		85.4453
15.9748	-55.7372		88.348
20.6996	-63.0347		84.8449
20.0983	-66.8605		84.3646
15.5636	-60.538		86.6129
12.6343	-107.367		33.4698
13.2692	-104.217		36.0759
13.5337	-114.948		30.8306
18.8938	-147.829		22.1633
17.3535	-139.332		24.1707
14.2392	-148.635		23.9561
20.2295	-153.653		20.7507
15.2586	-126.743		27.4892
5.73773	-102.264		43.0816
9.84151	-102.262		41.8355
7.19264	-101.888		50.5926
9.24454	-148.347		24.4546
10.46	-152.754		24.0834
8.58927	-103.445		57.6176
12.6356	-54.4021		91.7231
12.5845	-54.6213		91.0852
12.546	-55.1944		90.4309
12.7164	-56.6934		89.3697
12.4531	-60.0888		88.2946
12.1921	-64.4118		87.5778
74.1366	46.9321		14.0487
77.0056	45.3263		3.20039
74.4017	54.6		8.80016
70.4605	49.3854		24.5546
80.3552	26.5121		-19.7921
73.5348	-21.5788		-50.7682
70.7738	-23.4165		-55.777
51.1174	-95.7914		-53.4763
51.8114	-85.5478		-52.4746
54.0017	-98.8831		-47.8439
50.3115	-106.057		-55.2436
46.9494	-93.4256		-59.3203
50.1666	-114.87		-57.2063
50.7193	-123.228		-58.7454
47.1458	-113.021		-62.1794
57.2063	-83.4428		-39.6238
56.7996	-93.2246		-39.5967
54.6199	-79.1364		-46.274
57.6109	-75.4234		-38.9504
23.6287	112.644		20.1449
29.5764	110.203		20.5968
23.3289	117.522		5.96098
16.8225	115.059		21.4975
23.7284	101.258		-80.5601
24.4811	111.116		-63.1904
30.1771	100.382		-77.2385
22.9923	90.3663		-93.6542
16.4292	102.357		-81.7264
22.4274	78.3932		-102.933
29.7324	77.3696		-99.57
22.6301	65.8588		-108.969
15.5503	79.1638		-104.883
23.925	117.035		-46.2546
31.4449	114.529		-44.3846
16.4736	118.746		-47.3235
23.6507	120.006		-28.4132
8.23232	123.65		-11.6246
0.173989	124.147		-11.8107
8.30431	120.979		5.66603
16.1782	122.048		-11.2146
8.36465	123.298		-29.6194
22.4542	53.1693		-113.554
28.8819	51.751		-111.465
22.0207	39.5844		-116.796
15.6509	53.445		-115.646
21.4463	25.5751		-118.624
27.7875	24.6733		-116.412
20.8769	11.7308		-118.795
15.1392	26.4936		-120.152
18.7451	-27.1077		-107.872
24.523	-27.896		-105.666
18.3147	-38.902		-100.447
13.1407	-27.0153		-109.043
19.6401	-14.4812		-113.743
7.79121	-0.300546		-119.987
1.38351	-0.295534		-120.326
8.0992	12.7746		-121.414
14.0527	-0.750659		-118.953
7.38956	-13.2008		-116.404
15.2653	-85.8821		-83.7862
16.4218	-76.37		-84.013
20.4054	-86.6801		-82.4046
15.1336	-95.2889		-83.4248
11.1647	-85.4207		-83.9677
5.48937	-103.726		-83.8823
10.3401	-104.215		-83.6155
5.66577	-113.653		-83.7978
0.820646	-103.467		-83.9436
5.57203	-94.5097		-84.6615
18.298	-48.2032		-94.3008
23.4931	-48.7853		-92.7395
17.845	-56.4688		-89.8098
12.6772	-47.6814		-95.366
16.9889	-65.9648		-86.2251
22.4658	-67.1478		-84.4391
11.8534	-65.1535		-87.2678
6.66067	-64.8574		-87.7259
6.89295	-55.5348		-91.2783
6.37556	-75.4015		-85.3942
1.46105	-65.0341		-87.7936
48.7012	97.7287		17.4921
54.5495	92.0591		16.1864
49.5553	101.397		4.05228
42.742	102.526		18.9148
48.8064	70.6647		-89.2976
54.1334	67.397		-85.2209
48.3573	58.5862		-95.999
42.9989	73.2889		-93.1514
49.1958	81.4848		-80.1277
48.5914	90.693		-68.9977
42.7294	94.6124		-72.1862
49.1623	97.7248		-54.854
54.1387	86.1583		-65.4367
49.7987	101.993		-40.1366
55.5664	96.1967		-38.4113
43.758	107.231		-41.5193
50.51	103.524		-25.3367
50.1708	103.461		-10.4527
43.8405	109.044		-10.1475
56.0351	97.4712		-10.6071
47.7946	46.5305		-100.987
47.165	33.8064		-104.267
41.9616	48.4744		-104.953
53.3109	44.1063		-96.683
46.2565	20.9214		-106.116
51.5393	19.4718		-101.746
45.2367	7.98456		-106.234
40.4816	22.1759		-109.934
43.8188	-4.53874		-104.775
42.3611	-17.4555		-101.193
38.6485	-4.19912		-108.452
48.5607	-5.30423		-100.53
41.2432	-30.1116		-95.2465
45.7042	-30.1448		-91.5841
40.2486	-41.3655		-89.0336
36.054	-29.4363		-99.2565
39.347	-51.0235		-83.4184
37.8564	-61.0061		-79.7214
34.4144	-50.5091		-86.9821
43.5633	-51.4831		-79.2598
35.7361	-88.7121		-74.079
34.7865	-98.5696		-75.1197
30.6167	-88.1954		-77.7104
36.4814	-79.2661		-74.0214
39.9906	-89.7186		-69.8483
24.9977	-106.478		-81.1846
25.1237	-114.675		-80.7909
19.9766	-105.59		-82.5285
25.0574	-96.8624		-80.5884
29.8729	-106.914		-78.6821
36.9192	-70.2555		-75.9746
41.881	-70.8513		-71.6817
32.1652	-69.3923		-79.5587
68.0413	69.6841		-51.7445
69.1054	73.5353		-40.4223
71.7352	62.7569		-45.9783
67.0788	63.6197		-62.2356
63.8445	75.625		-57.2323
69.8964	75.679		-29.1048
73.4596	67.6819		-23.8721
65.6901	83.0144		-33.3342
70.2941	76.6055		-17.9221
69.4761	77.3486		-7.13814
72.1317	69.7291		-2.30575
65.8313	84.3081		-9.53568
58.0314	41.8008		-92.121
58.7467	53.0508		-87.1824
62.1649	38.8906		-87.4885
57.3153	29.9357		-95.3664
59.0865	64.0465		-80.5595
58.6437	73.3054		-72.7523
63.3461	59.7663		-75.9619
53.1158	-6.17294		-95.6029
55.0127	5.8633		-97.0097
57.4023	-7.34137		-90.1742
51.0964	-18.4139		-92.5206
56.2983	17.8226		-96.9809
60.5824	16.1733		-92.0657
49.737	-29.84		-87.4709
53.3798	-30.1008		-82.5478
48.5624	-41.2179		-80.916
47.0495	-51.2828		-75.9611
50.6827	-49.8146		-72.3127
46.1174	-71.036		-64.9839
49.0226	-73.4971		-57.8209
44.8793	-80.8224		-63.9135
77.4624	34.1174		-47.4479
76.5822	28.0729		-54.8056
75.6077	39.6226		-53.151
59.795	85.7971		15.472
60.5612	89.4546		2.6157
78.5318	44.2431		-7.60461
77.8859	51.9869		-12.7189
66.8444	-8.53951		-74.5539
64.0961	-8.61863		-79.6809
68.7446	0.904738		-75.9367
69.4571	-8.83388		-68.8474
64.5977	-18.3148		-71.7396
69.7043	10.4946		-76.6333
67.0849	12.4278		-81.9626
70.6575	19.5907		-75.1694
72.1261	8.37698		-70.5757
71.564	28.8071		-71.8114
68.8858	32.4374		-77.3433
72.5446	37.2245		-66.3205
73.8649	24.932		-65.9048
58.7883	-43.6184		-60.791
55.6846	-45.7372		-64.7442
60.1742	-36.009		-65.3406
61.5437	-41.4788		-56.6729
57.1205	-50.8648		-55.4227
68.046	-24.8265		-60.6547
65.9242	-32.2733		-57.2335
65.2436	-26.0275		-63.4539
69.9327	-16.9249		-61.6783
53.1078	-76.1322		-51.7553
54.449	-67.097		-51.6152
73.7397	-40.3344		-3.62462
75.522	-36.3679		-0.742508
71.878	-43.319		-1.39015
75.5614	-34.5579		0.744585
80.4172	-9.30143		-3.43957
81.6151	-4.24085		-5.24594
93.1825	3.36601		-37.5365
93.5375	9.20198		-35.2626
93.8008	2.94408		-36.7917
80.4893	-36.8697		-23.7536
79.0759	-40.3586		-20.7069
93.1527	13.8737		-31.9632
92.1952	14.1966		-32.4683
92.2926	16.9414		-28.002
94.0328	13.2006		-31.3914
86.7197	8.12702		-11.5899
85.3822	8.0759		-12.2429
91.5827	18.227		-23.694
92.4996	17.5126		-22.9601
87.693	-20.7425		-35.384
81.791	-38.0958		-16.4143
81.2187	-38.4551		-13.8362
79.907	-40.5406		-16.9103
82.1847	-1.66436		-7.1167
88.1954	16.484		-19.1699
86.7371	13.2329		-16.2877
87.2218	15.6013		-20.7142
84.0508	8.35796		-13.6558
83.1626	8.83317		-15.3066
91.56	14.0442		-32.6855
82.3767	8.58457		-16.7188
83.6594	10.8328		-19.213
85.3249	13.1514		-22.4355
83.2328	10.8369		-23.5654
85.5343	-28.703		-26.8766
85.1439	-30.03		-19.4009
78.3821	-41.8905		-17.5654
80.4767	-37.7365		-11.5496
81.8445	-34.6568		-11.5308
82.8792	-31.9537		-12.3047
83.4414	-30.0482		-13.2665
93.9723	2.62714		-36.3467
94.617	8.26125		-34.1986
91.2175	14.8148		-15.4323
91.3365	14.1264		-15.0873
92.2794	16.5798		-18.615
91.4084	13.4799		-14.8595
92.5489	15.42		-18.0002
91.3062	12.4293		-14.8385
94.3714	12.6774		-30.9718
93.766	15.5658		-26.8845
94.5553	12.1423		-30.7204
93.0369	16.8128		-22.4724
93.2651	16.1986		-22.3191
93.3861	15.6102		-21.9765
94.034	14.456		-26.4898
94.499	11.7472		-30.3912
93.4012	-1.88847		-35.3311
91.1564	11.0239		-15.3866
88.1396	3.00918		-13.4989
92.8036	10.9361		-23.8852
92.5936	-5.68952		-30.7514
92.7031	-3.6659		-30.3647
92.7716	-1.57093		-29.6591
92.6111	-0.0570736		-28.7644
92.2732	1.16243		-27.5069
91.2712	1.84442		-25.1352
82.188	-27.4799		-11.3864
83.2855	-29.0872		-13.1215
86.0641	-4.85592		-11.0688
81.3154	-19.2468		-9.68754
83.6027	-29.3419		-13.8795
34.8891	24.8134		73.1937
35.7373	95.1698		43.8529
37.091	101.406		33.3442
8.20981	102.477		46.4815
8.80514	109.81		34.9608
-0.435669	102.785		46.3043
36.6241	107.303		20.1745
37.0755	111.568		5.88131
8.93041	116.324		21.5774
0.750964	116.821		21.4093
23.5273	119.952		-10.7311
30.6613	117.001		-10.2455
37.4388	113.814		-9.87281
37.6483	113.668		-26.3262
66.1178	52.81		34.0584
73.6097	62.1001		3.04163
75.6772	60.9093		-7.44614
61.1695	91.2838		-10.67
61.527	91.1208		-23.5074
8.56873	120.025		-47.9273
9.13801	113.486		-65.3977
0.69205	120.282		-48.1251
37.3667	111.361		-42.7363
37.1178	106.216		-59.4067
76.0836	59.8378		-18.2537
75.7152	58.3926		-29.1843
60.6824	90.0897		-36.3286
59.9079	86.8229		-49.0168
74.7866	55.7525		-39.9858
74.0131	51.3251		-50.2924
73.0744	45.2864		-59.1171
70.4184	50.3051		-65.0144
43.7764	-91.5264		-64.7918
43.308	-101.614		-66.192
43.9286	-110.98		-67.3182
44.5524	-119.773		-68.6141
39.3433	-109.077		-72.1089
8.84779	104.071		-81.8581
8.62044	92.1245		-95.6098
1.39506	104.604		-82.0409
8.63512	79.2819		-105.524
8.59418	66.3493		-112.721
1.30978	80.271		-105.234
8.51578	53.4516		-117.475
8.51021	40.6339		-119.821
1.26584	53.4458		-117.751
8.46384	27.1586		-121.107
1.32387	26.6987		-122.054
20.2199	-1.44584		-117.242
26.43	-2.49296		-114.867
7.17392	-26.7868		-109.859
7.11175	-39.0217		-101.706
1.26378	-26.782		-109.975
7.04687	-47.791		-95.6402
1.4379	-47.98		-95.6366
6.30873	-84.9267		-84.3516
1.43557	-84.6843		-84.4925
36.4185	75.5438		-96.5096
37.1983	87.3587		-87.1723
36.0021	62.8829		-103.545
36.4581	98.1633		-75.0878
35.4719	50.2783		-108.536
34.9197	37.1551		-111.746
34.2233	23.611		-113.469
33.5408	9.77565		-113.517
32.7674	-3.43183		-111.907
31.6486	-16.2213		-108.382
30.3909	-28.6481		-102.794
29.3593	-40.0228		-96.1758
29.0593	-49.5826		-90.2521
28.6807	-58.6573		-85.3304
27.8497	-68.0861		-81.9528
26.2851	-78.0288		-80.9
25.6538	-87.3937		-80.3846
34.8288	-107.794		-75.7407
35.1206	-116.825		-76.5139
59.0885	81.337		-61.5784
67.0784	55.5614		-70.505
66.5577	45.9178		-77.4778
65.778	36.0873		-82.5844
64.9657	25.3255		-85.824
64.068	14.5001		-87.1231
62.7864	3.09852		-86.6788
60.905	-8.26201		-84.8758
58.6124	-19.2726		-82.0603
56.6725	-29.3673		-77.9632
59.5893	-28.7887		-72.9047
54.7989	-39.203		-72.6012
53.221	-47.7884		-68.3972
55.8894	-59.0538		-52.1377
57.8341	-57.3858		-48.733
75.6531	21.753		-60.3018
74.8926	14.3186		-63.4382
77.432	17.8549		-54.1829
71.6982	-8.97139		-63.784
73.1331	-1.01447		-64.7357
62.3656	-27.4617		-68.1799
74.0719	6.95513		-64.9489
64.1234	-39.0052		-52.4697
62.5423	-45.8443		-47.9041
14.4063	-101.889		40.0302
58.024	-75.1883		5.69898
48.3968	-91.1891		6.72401
12.7994	-45.8177		96.8842
16.0186	-46.9537		94.8131
19.1446	-48.8107		92.0189
7.74879	-60.3836		98.688
8.06091	-61.5668		98.8287
8.49511	-62.6731		99.0499
24.0498	-66.7972		86.3331
23.5235	-64.9699		87.1988
23.0395	-63.4244		87.9239
17.1949	-42.7891		94.0066
38.151	-54.5187		79.9184
28.9723	-31.3885		84.8554
30.1211	-36.4439		85.0496
30.8473	-41.4641		84.9143
60.8999	-38.3653		60.8678
20.4734	21.0967		71.3671
79.0243	14.0246		-47.6669
82.2465	12.9261		-27.8138
82.9776	10.818		-25.3209
70.1213	-46.4003		2.22503
26.6324	9.05266		70.8583
53.1911	38.7758		64.8518
7.33926	-26.6835		95.6887
47.8124	15.709		65.9467
11.0764	-25.7841		93.822
82.8653	10.5449		-24.3913
56.8096	-102.783		-40.833
60.021	-67.3531		-36.9207
59.3452	-60.3859		-42.0306
59.9723	-54.3931		-45.2999
22.5962	-23.807		86.3605
13.4761	-56.3286		93.7552
23.6063	-55.7362		83.4862
6.1316	-51.6002		95.1155
-68.4807	-49.3393		15.5096
-69.5117	-44.5205		16.8196
-69.8247	-47.3519		8.11751
-67.3776	-53.9077		14.0773
-67.1631	-51.0224		23.9043
-52.8049	-116.419		-9.29399
-52.6807	-106.871		-9.55335
-55.8458	-115.777		-14.435
-54.2594	-126.787		-10.3568
-49.9905	-117.36		-5.25987
-55.5989	-134.22		-11.4195
-53.2674	-135.965		-6.98032
-57.2478	-132.396		-15.9609
-56.6257	-139.937		-12.493
-45.7338	-101.151		0.0282771
-49.4084	-100.359		-4.50385
-46.2175	-108.445		-1.23415
-41.9838	-102.54		4.07176
-46.0958	-95.9713		1.44397
-58.6245	-97.9714		-16.9057
-56.8695	-98.5117		-12.7633
-58.7655	-92.6835		-16.1866
-59.7932	-96.6561		-21.8098
-58.7903	-104.815		-17.7191
-59.0835	-70.3031		24.5512
-62.1347	-68.1011		17.0171
-56.9977	-74.3596		21.476
-57.7759	-71.7267		31.6317
-60.7074	-66.2334		27.0625
-70.7384	30.1466		23.5093
-76.7001	30.0585		12.3323
-70.1831	22.3817		26.1838
-66.905	33.2174		34.0342
-71.4955	39.176		19.7618
-78.0812	42.3896		-29.1334
-78.7265	34.2816		-24.2555
-78.1163	43.4855		-18.763
-76.3322	49.3251		-34.2373
-77.3419	39.0996		-38.7018
-9.03611	-107.691		34.3836
-9.35699	-103.874		37.0436
-11.6053	-107.513		33.0507
-8.26662	-116.797		31.7658
-6.70936	-107.814		35.3672
-8.97265	-129.341		28.7015
-11.2031	-140.422		25.9991
-5.99836	-129.544		29.9233
-12.1808	-128.418		27.1194
-4.88121	-147.783		26.5572
-5.10105	-152.87		25.9094
-4.69373	-141.215		27.6252
-8.22321	-147.416		26.0203
-66.1408	-54.4278		-32.0352
-67.1752	-46.8313		-36.0373
-63.4644	-60.3954		-34.6932
-65.2612	-60.8893		-26.8632
-68.7776	-48.4208		-29.4852
-68.457	-41.1956		-39.2325
-71.5949	-36.6527		-35.9091
-68.7186	-36.5753		-41.6451
-64.3052	-46.9801		-42.652
-59.3708	-125.943		-32.6511
-59.8059	-129.055		-26.4089
-57.9995	-123.087		-39.2569
-59.76	-132.448		-34.8636
-3.2177	-129.865		30.6079
-3.79261	-116.614		34.8695
-63.5736	-53.1383		32.3228
-62.679	-58.1937		31.0432
-62.1202	-53.6172		39.7313
-64.7631	-47.3132		32.7854
-63.0928	-66.3228		9.07411
-64.7477	-62.253		10.9232
-63.8461	-65.2979		0.713673
-61.2506	-70.2029		6.74302
-11.5779	-94.7497		86.0258
-11.4741	-90.0589		88.1294
-15.4204	-93.7657		84.2371
-11.5398	-100.078		80.7984
-7.77666	-95.3219		87.2943
-19.5539	-93.3029		80.3357
-19.6896	-87.5149		84.0643
-24.5604	-90.9376		77.1489
-18.9215	-97.6706		77.3011
-4.12731	-86.4307		91.5037
-4.43239	-91.1104		90.0989
-3.96792	-82.054		92.4618
-7.44592	-85.989		90.9188
-11.4274	-102.136		77.5084
-7.93793	-102.665		79.0007
-14.9443	-101.425		75.9438
-11.5542	-102.699		73.0762
-11.7993	-103.082		68.2162
-11.8365	-102.593		62.4494
-8.17194	-103.604		69.2309
-16.6849	0.701787		81.0822
-13.7149	3.22437		82.517
-16.3056	4.61997		78.2646
-20.103	-0.612708		80.0297
-18.0461	-2.41654		84.2616
-47.9392	-26.7823		77.1672
-48.6231	-31.6478		76.4551
-42.5509	-25.9814		80.534
-47.5589	-21.9714		77.1242
-53.3991	-27.3514		71.919
-57.8802	-17.3203		66.2093
-58.3315	-22.4501		65.9145
-52.6645	-17.4188		72.2653
-57.7853	-9.94707		66.6271
-63.4981	-14.8547		58.6827
-67.8025	1.38396		43.3346
-65.4624	2.88107		47.3
-66.4887	8.03568		41.5958
-71.0639	-0.0864756		39.0567
-48.6176	-36.2151		75.5102
-43.3667	-35.4116		79.8977
-53.637	-37.1833		69.6948
-48.3087	-41.4777		74.5979
0.77902	3.34578		98.1712
-1.32739	2.88078		97.603
0.506943	-0.774489		102.543
0.716659	8.39069		93.1298
-34.0386	71.4973		65.7805
-34.7125	76.8841		61.6973
-39.5152	69.6657		62.9417
-32.8514	65.2083		70.6237
-28.7401	72.5488		68.0899
-4.63228	-103.704		58.1138
-4.60609	-104.266		64.4297
-7.64783	-103.409		57.3004
-4.14577	-103		50.6904
-60.3479	-53.3726		46.8272
-61.7185	-46.8711		47.6771
-58.8136	-59.8907		46.0116
-58.401	-51.9494		53.545
-4.68694	-102.569		79.3398
-4.73227	-103.683		75.077
-4.39404	-99.2805		84.9451
-4.90516	-103.935		69.8341
-36.9369	-90.0612		57.8805
-37.7202	-87.0627		61.6362
-41.7256	-86.5798		53.8142
-35.6769	-92.0023		54.8728
-32.0665	-92.6539		62.6492
-39.2504	-91.8934		32.2727
-35.3044	-94.077		36.8336
-42.4459	-89.6369		37.436
-42.8799	-89.501		27.3241
-35.8502	-94.3448		26.3901
-4.51181	-102.119		43.7588
-4.81475	-103.873		38.6966
-6.92613	-102.035		42.8378
-5.18712	-5.07735		103.533
-2.43357	-4.25762		105.104
-4.63849	-1.83878		100.177
-8.39143	-6.39972		100.869
-5.62388	-7.63016		106.074
-27.4853	-18.7967		85.8577
-23.913	-15.9798		86.9667
-25.8662	-14.0012		85.3919
-30.6016	-23.3887		84.3783
-30.8371	-58.7061		82.9753
-28.7519	-58.9555		83.6558
-29.486	-57.9074		83.5407
-12.7863	-22.9944		95.7595
-14.7604	-23.5		94.2072
-12.0749	-24.0713		95.2317
-14.4776	-21.5594		96.0187
-12.2881	-27.5944		93.7355
-10.2438	-26.9181		94.9605
-12.0813	-26.6012		93.9532
-14.9288	-27.8736		92.1686
-12.8844	-29.0341		93.5852
-1.88439	-23.6994		101.745
-3.64685	-23.4207		101.038
-2.14542	-24.7582		100.427
-1.636	-22.7454		103.408
-17.724	-27.2764		90.6073
-18.3171	-28.7587		90.4992
-17.2952	-26.2022		91.0225
-20.3719	-25.7818		89.32
-5.97611	-15.3703		108.503
-6.06118	-13.7012		108.928
-9.95536	-14.7861		105.485
-6.67983	-16.634		107.831
-3.12776	-15.6868		110.576
-26.2232	-71.6916		83.9375
-27.3626	-75.3022		81.9763
-22.4664	-73.6387		86.4083
-24.992	-68.5969		85.6593
-29.4043	-69.3414		82.0738
-28.7413	-52.6307		85.8036
-30.7304	-53.4287		84.4814
-27.1266	-51.3316		87.5817
-28.9299	-48.0073		87.1478
-2.75857	-29.2471		98.3193
-2.5936	-27.3281		98.7477
-4.44098	-28.9297		97.9604
-2.8188	-31.4543		98.3889
-4.19629	1.96029		96.3227
-4.18848	6.01994		91.8907
-7.52999	0.177981		94.2279
-19.646	-16.2993		92.7287
-20.1207	-16.0498		91.6205
-19.8294	-17.9207		91.9687
-18.8653	-15.3583		94.3777
-18.6327	-14.7718		94.0273
-5.46591	-25.3026		98.2023
-4.04101	-25.5157		98.9356
-5.38611	-24.218		98.8764
-6.87985	-25.6065		97.2119
-5.42777	-26.9021		97.7489
-5.14776	-23.254		100.019
-4.98844	-22.4651		101.27
-17.7227	-14.9383		95.4246
-18.3468	-15.8404		95.3762
-17.444	-14.0168		95.652
-19.6725	-20.3242		91.3863
-18.7226	-22.7652		91.1972
-18.8496	-18.9921		93.1944
-2.89438	-40.5564		99.5833
-2.7598	-38.1275		98.7758
-5.40087	-40.172		99.2853
-3.2188	-42.3844		100.141
-24.6392	-33.4736		87.495
-22.9505	-29.4441		87.3867
-27.0246	-33.6573		86.7721
-26.4036	-38.1673		87.8655
-22.0111	-33.3767		88.597
-10.0794	-71.5416		94.4319
-14.306	-70.9461		92.8316
-10.4135	-73.9117		93.2555
-7.90225	-71.8755		94.7856
-11.9912	-69.2457		94.8648
-24.8276	-53.6487		88.3349
-24.862	-51.7854		89.0404
-26.5542	-55.7643		85.9054
-25.0313	-54.6009		87.7573
-17.2231	-13.4		95.4993
-15.4249	-11.9324		97.6849
-17.451	-12.8964		94.2615
-18.1774	-70.082		90.8138
-17.7657	-68.2648		91.9671
-21.3974	-68.6659		88.8212
-18.2291	-72.1631		89.949
-2.88076	-72.4646		95.5655
-3.01558	-70.6196		96.5561
-2.97904	-74.619		94.4447
-59.2508	26.1755		55.6489
-59.9788	27.6579		53.4639
-60.8506	20.4263		51.4737
-58.3792	25.0111		57.6707
-42.6985	56.1888		67.4254
-44.2692	61.8898		62.7777
-48.2713	52.8676		62.8873
-41.9299	50.4912		71.1129
-37.7128	58.1421		71.3371
-53.6998	48.6956		57.441
-54.4057	54.8896		53.3857
-58.3963	43.9015		51.0861
-52.7583	43.3154		61.508
-41.9242	41.6372		73.5715
-41.7197	44.2818		73.4755
-42.2275	38.837		73.7775
-37.0952	43.4065		77.4495
-61.1373	29.2803		49.9012
-63.509	22.8049		44.5907
-57.166	35.1532		57.6396
-61.9396	32.3387		46.747
-24.077	34.1136		77.9755
-20.2949	32.8676		78.0321
-23.4431	36.0057		78.7659
-28.3014	34.4104		77.4998
-24.865	31.7798		76.8394
-4.66665	15.8284		83.0213
-4.55932	13.2566		84.9309
-1.3727	17.6498		84.2247
-4.62428	17.9448		81.8698
-7.79726	13.4279		81.262
-32.0581	-4.81351		77.7205
-26.2255	-3.37613		79.0311
-30.3918	-1.10312		76.501
-39.1146	-5.81893		76.0867
-33.6844	-8.21712		79.9489
-58.826	5.14718		56.1026
-56.9536	2.62761		60.0428
-56.8015	6.17788		57.7458
-59.3078	8.5351		53.9775
-60.6875	4.29701		54.3811
-4.37077	9.93593		87.9472
-1.45346	11.6442		88.8976
-7.61349	7.90097		86.359
-42.5584	36.4256		73.8021
-42.4278	34.2926		73.786
-37.6541	38.502		77.0153
-47.3551	34.5598		70.8024
-51.8176	32.2745		67.347
-55.2253	28.4705		63.5133
-51.3131	30.2054		67.9687
-56.1167	13.241		57.9197
-57.5167	13.244		56.2798
-55.8519	9.68439		57.8365
-54.7389	13.376		59.3823
-55.8224	17.072		59.5198
-45.8885	19.2438		68.6432
-44.1117	20.4652		70.1831
-47.3932	17.6173		66.8756
-42.0751	21.4979		71.4005
-39.6775	22.2895		72.2986
-42.1769	22.4379		71.8163
-44.4371	21.3599		70.5348
-39.5181	23.2968		72.718
-36.945	22.8521		72.7896
-34.0499	22.8526		72.849
-36.627	23.7788		73.148
-33.4875	23.7114		73.1277
-31.1787	22.3727		72.5958
-28.6023	21.3384		72.1647
-25.9191	19.8288		71.3849
-23.5302	18.3772		70.4646
-24.5233	20.5856		71.4636
-27.3223	21.9785		72.2628
-22.0894	19.0175		70.6076
-21.9624	17.063		69.7545
-22.9783	21.1803		71.6211
-26.0771	22.8551		72.5408
-36.329	24.8361		73.5655
-32.8875	24.7239		73.5194
-50.9794	12.5935		62.3461
-49.9399	11.6938		63.0994
-32.8554	33.8698		76.8621
-33.2198	31.716		76.0405
-32.732	36.068		77.5393
-37.7838	32.9069		75.6791
-49.1634	24.24		68.8743
-48.2022	22.6642		69.0999
-46.2948	25.926		71.1241
-49.9509	26.2165		68.7273
-39.9417	5.43617		70.8135
-32.9919	5.82622		72.6298
-45.5081	6.03757		67.8528
-40.389	3.88804		70.9875
-27.2403	7.29312		72.6539
-27.2092	5.79861		73.1081
-23.376	8.94762		72.0052
-19.5774	12.61		70.7353
-20.4159	11.4557		71.124
-19.1023	13.5264		70.4605
-39.1268	8.41356		70.6068
-33.1792	8.72493		72.0906
-44.1969	9.12614		68.0416
-22.8863	12.4173		70.1211
-22.0293	13.0208		69.7184
-24.6195	11.4256		70.8447
-21.3363	13.5277		69.5363
-20.7088	14.181		69.4648
-14.7397	21.7864		73.7394
-13.3409	24.1113		75.3015
-16.5141	23.7104		73.8892
-16.4673	19.3587		72.0011
-18.743	14.9567		70.3165
-29.28	24.0635		73.1387
-17.5521	18.3708		71.1813
-18.8008	20.0546		71.3972
-17.0058	16.7499		71.2229
-38.9388	9.69073		70.5508
-33.1568	9.95933		71.9161
-23.154	13.2458		69.5226
-24.7762	12.6256		70.2248
-22.2992	13.5725		69.2633
-21.8029	13.9695		69.0457
-48.3938	16.0088		65.1617
-1.77683	32.4146		81.6611
-2.9358	35.5982		81.905
-4.29605	32.1611		81.2219
-0.524171	29.6677		81.5832
-20.5196	3.90299		75.4
-23.4996	2.35826		75.1556
-21.1844	1.12907		76.9419
-18.3945	5.46125		75.7126
-20.2305	5.93326		74.2936
-16.0319	7.22594		76.4695
-13.5505	9.24275		77.6414
-16.6374	12.2394		72.7663
-16.9675	13.8362		71.7917
-14.572	13.1333		74.1139
-9.66585	21.3638		76.7895
-8.6521	22.5037		77.6701
-10.7853	23.5212		76.449
-21.3709	10.3227		71.5168
-20.7128	9.19518		72.3224
-20.2474	7.6847		73.2576
-22.8751	5.99216		73.4103
-21.051	-56.3948		87.6421
-17.8769	-55.5817		89.6738
-23.8037	-56.802		85.7318
-20.8617	-56.2441		87.6117
-25.5922	-57.1017		84.5047
-25.3021	-56.9816		84.4757
-3.55696	-45.8088		100.432
-3.63444	-47.2133		100.103
-3.49683	-44.4168		100.548
-6.35852	-45.6962		99.8591
-8.91193	-49.2319		98.246
-11.4971	-50.1751		97.0366
-8.82908	-50.8293		97.4926
-6.48948	-48.8386		98.9947
-8.93719	-47.5548		98.8754
-14.2769	-50.8811		95.5847
-17.5252	-51.8679		93.4427
-14.4034	-52.3135		94.687
-14.3232	-49.5179		96.2321
-8.78818	-46.0409		99.18
-8.66752	-44.6149		99.4018
-11.3556	-47.0645		98.1178
-13.1118	-45.5452		97.5231
-13.8985	-46.8016		97.1036
-10.2564	-44.3458		98.8212
-12.5213	-44.2892		97.7178
-20.9622	-54.1237		90.2727
-20.993	-52.5265		91.3191
-8.39873	-52.484		96.485
-11.4843	-53.1052		95.2162
-8.03416	-53.2841		95.6447
-5.75253	-51.9324		97.4441
-14.7178	-53.8579		93.375
-14.6819	-54.6034		92.4287
-25.8252	-56.3865		85.7809
-27.7212	-57.5808		84.1213
-21.2297	-57.4445		88.2134
-21.3435	-57.6864		88.4782
-17.9914	-57.1031		90.6891
-21.1955	-57.3578		88.0014
-22.1411	-59.1031		88.9639
-19.2152	-59.9171		91.8976
-22.0021	-58.5675		88.8664
-16.2119	-60.3975		94.4647
-16.7491	-61.3361		94.3884
-12.6988	-60.6188		96.4509
-15.9871	-59.4005		94.2119
-8.376	-57.7693		97.394
-5.37804	-57.9073		98.2519
-8.11136	-56.2835		96.71
-11.9676	-57.8697		95.8656
-8.68786	-59.3761		97.962
-3.29663	-61.5914		99.5863
-3.16989	-60.0298		99.2501
-5.74938	-61.095		99.2092
-3.38232	-62.9587		99.7255
-25.8279	-58.5696		83.6899
-25.7261	-58		84.3557
-23.8762	-58.4211		85.2743
-25.4302	-59.9562		82.9694
-2.48824	-55.7524		94.5538
-2.68238	-55.0237		95.6173
-2.11434	-57.4811		93.651
-4.7006	-55.8634		94.2702
-3.43695	-64.1979		99.6762
-6.00712	-63.5845		99.3815
-3.40421	-65.1768		99.6741
-3.08492	-68.8751		97.7429
-3.43279	-67.3488		98.5497
-6.32477	-68.284		97.3204
-8.3642	-43.5421		99.4441
-6.09234	-43.0938		99.9778
-7.5553	-42.1456		99.4477
-3.05287	-58.2386		98.6792
-2.89633	-56.4777		97.9291
-2.80703	-55.5064		97.3222
-2.74894	-55.0509		97.1089
-5.09832	-55.4384		96.9888
-7.95838	-55.4898		96.1774
-7.86772	-55.2305		95.8107
-11.3423	-55.9554		94.8583
-2.77967	-54.8754		96.5508
-5.02122	-55.0221		96.0612
-14.7263	-56.5478		92.9473
-15.007	-57.1488		93.3554
-14.619	-56.3381		92.5741
-17.434	-64.3303		93.8983
-17.6404	-65.343		93.4308
-15.7541	-64.4809		95.5711
-17.2197	-63.3402		94.2138
-11.573	-64.7724		97.4942
-11.7589	-65.9161		96.8367
-6.19363	-65.6474		98.8439
-11.3049	-63.813		97.8642
-3.4229	-66.1886		99.2579
-14.6286	-54.7919		91.826
-14.4992	-54.7315		91.339
-11.26	-54.0249		93.7143
-25.6815	-57.8614		84.8867
-24.0701	-57.955		86.2653
-7.71747	-56.1754		93.4225
-7.6395	-55.3165		94.5547
-7.64472	-57.8501		92.3556
-10.9917	-56.521		92.2903
-7.76553	-55.1756		95.3106
-11.0661	-55.6159		93.9559
-11.7515	-67.3729		96.1356
-15.9461	-67.0071		94.3604
-16.9852	-62.3344		94.39
-15.2537	-62.4706		96.1138
-17.7643	-66.7388		92.7033
-20.4405	-65.5476		90.6521
-14.188	-54.351		90.9945
-17.0484	-54.9506		89.5251
-13.5067	-52.6438		90.4895
-11.1628	-53.5747		92.3445
-7.95191	-52.9436		93.6387
-7.90997	-53.4358		94.3509
-8.31552	-51.4161		92.1654
-5.43332	-52.5697		94.0287
-12.8596	-49.3768		89.3161
-15.4677	-50.0298		88.2381
-12.8131	-45.2235		88.2376
-10.469	-48.7471		90.0745
-25.0332	-63.1223		82.3643
-23.1562	-63.0757		83.8743
-24.6484	-66.5308		81.6138
-2.07662	-61.0824		92.4088
-2.27515	-65.5295		91.974
-4.2758	-61.0433		92.2065
-7.95584	-48.1256		90.7896
-7.69204	-44.002		89.7134
-5.54938	-47.6656		91.1048
-7.20131	-61.061		91.6476
-7.53628	-65.6059		90.7826
-10.5059	-61.2784		90.667
-27.9449	-57.8989		78.4367
-28.3975	-57.6551		77.367
-11.6557	14.4293		76.2086
-11.0778	13.1525		77.6389
-79.7801	-9.02727		-42.8913
-81.209	-9.57324		-41.0806
-80.2222	-4.24356		-42.4943
-77.7472	-8.24295		-45.9832
-79.0654	-13.5705		-42.1824
-80.6959	9.32482		-5.51147
-79.6783	11.3851		-0.634211
-81.047	12.3216		-9.8819
-80.115	14.3172		-15.1186
-80.9134	14.0348		-22.2105
-81.0463	9.34673		-16.1572
-80.069	19.9464		-16.5498
-74.2477	-33.6808		-33.4682
-74.9599	-29.8192		-35.2309
-72.9424	-38.1519		-30.7556
-76.7207	-31.4205		-31.7457
-75.483	-26.185		-37.2582
-77.9093	-25.003		-35.3617
-76.9268	-22.1249		-39.2383
-72.9916	-28.1542		-40.3164
-82.6693	-9.53348		-40.1711
-83.1284	-4.41736		-40.3739
-82.1231	-13.8516		-39.4063
-84.1944	-8.97219		-39.808
-82.9284	-26.1964		-32.2658
-83.8049	-27.3105		-31.0411
-81.1888	-24.6504		-33.5758
-84.6557	-28.0837		-29.9823
-85.3558	-24.0702		-32.0591
-83.8916	-32.0662		-27.4857
-85.4472	-28.5167		-28.7225
-88.9855	-18.2895		-30.1257
-90.4802	-13.6426		-33.4543
-88.97	-17.7353		-29.3261
-77.9688	-41.0144		-18.8258
-78.5282	-39.2582		-22.0114
-77.2365	-40.08		-21.016
-77.4658	-41.7289		-16.701
-78.3967	-41.2565		-18.1026
-79.8027	-33.8897		-5.88847
-79.4431	-34.4593		-5.846
-78.752	-35.6585		-6.10424
-88.8924	-17.3864		-28.8719
-88.2605	-17.9796		-27.8033
-92.0817	-2.34979		-32.9467
-92.1758	-1.66808		-34.4447
-92.0938	-3.81053		-31.4525
-92.3475	8.07574		-30.282
-92.7313	9.42896		-30.5031
-92.9401	11.5186		-29.5869
-92.5193	13.5858		-26.3957
-93.0881	12.0391		-29.9175
-92.4054	11.2351		-27.488
-83.0982	-10.4568		-6.61542
-84.5729	-4.88499		-7.4235
-81.9885	-14.6276		-5.8839
-82.5732	-9.7434		-5.27774
-77.0622	-27.0767		1.19545
-77.7997	-22.7074		1.61403
-76.3442	-30.8972		0.783591
-76.0702	-27.5976		4.07035
-81.3648	-21.821		-8.40122
-81.4307	-19.8074		-8.60017
-81.6275	-23.8843		-8.89575
-81.0395	8.83649		-16.1024
-81.0728	8.83385		-15.9017
-80.9436	10.1047		-19.5645
-89.0584	16.5775		-16.7767
-89.9494	18.3321		-20.0131
-89.82	15.8448		-15.7477
-87.4265	13.3192		-13.6821
-88.1894	16.9824		-18.0241
-89.3774	19.1793		-24.8388
-88.6058	18.7491		-22.099
-88.5384	18.1119		-26.1874
-89.794	18.0027		-28.368
-89.6414	19.3045		-24.3509
-89.6207	3.5953		-39.1669
-90.6654	3.85966		-38.6449
-90.0506	9.46613		-36.5124
-88.938	3.25577		-39.1462
-85.671	-0.165449		-8.19834
-85.9603	-1.3965		-8.85686
-92.716	3.17955		-35.7135
-93.1796	8.3965		-33.4544
-92.7678	3.09664		-36.0884
-92.3861	0.333761		-35.9175
-92.0822	14.2596		-22.7786
-91.3046	13.6407		-18.7842
-92.1961	15.2596		-22.1835
-91.9241	12.8795		-23.5296
-87.2723	0.706356		-11.1404
-87.7685	3.08365		-11.8895
-86.6328	-1.11727		-10.4598
-92.2324	3.8201		-33.0018
-92.3368	1.75125		-34.8836
-85.1441	-6.21003		-12.1756
-85.7047	-4.56768		-11.1031
-85.3176	-5.91893		-12.9045
-89.064	-5.26697		-26.4501
-91.1574	-2.57325		-28.5568
-88.9254	-6.40131		-26.6187
-88.8013	-4.8508		-25.8448
-78.5032	-18.6658		1.47479
-77.6616	-18.9526		4.08502
-79.4339	-13.9658		0.462962
-83.2387	0.982924		-38.5863
-84.284	3.51714		-37.7362
-83.2131	5.67831		-36.5824
-82.1573	0.392265		-39.8079
-86.877	8.55963		-35.172
-86.8934	4.48898		-37.9567
-89.1228	13.1956		-33.3708
-86.6815	12.3269		-31.9558
-88.0164	2.35946		-38.9911
-86.7495	-3.26497		-39.7477
-86.3984	-8.45914		-39.6351
-79.5022	-24.3942		-34.4438
-80.6062	-21.0729		-36.2847
-79.0264	-27.4824		-32.6522
-81.4749	-17.5925		-37.9748
-79.8157	-17.8214		-39.0243
-88.2907	-17.8659		-26.9752
-78.5218	-30.3626		-30.9811
-77.1951	-34.1362		-28.5135
-77.1462	-41.4684		-13.7004
-76.6295	-41.7398		-13.5423
-76.0455	-41.9565		-13.2129
-76.0587	-41.5775		-18.919
-89.1276	-7.1505		-27.0938
-91.1534	-5.7157		-29.4581
-81.9744	-9.16616		-4.14685
-81.2361	-8.74827		-2.88177
-79.1388	-23.0253		-2.10315
-79.4717	-23.223		-2.83209
-82.0413	-27.4543		-8.50625
-82.296	-26.3086		-9.48075
-83.0259	-29.4559		-10.1567
-81.2691	-17.7126		-5.26952
-81.7565	-17.8052		-7.63367
-86.5134	14.0282		-29.0913
-85.5368	14.5592		-25.7252
-84.0446	10.3233		-31.7901
-83.0956	8.75282		-33.6499
-82.4919	10.795		-29.37
-82.6724	8.50489		-34.6135
-91.7285	4.774		-28.3186
-91.6026	3.22058		-28.0208
-85.7954	-5.1655		-14.4324
-86.7444	-3.87651		-17.1971
-88.7815	-4.0061		-25.3403
-88.1595	-3.98382		-23.9354
-90.7114	-0.280568		-26.6614
-9.2596	87.7112		62.0534
-9.37579	94.6593		55.3541
-17.1983	86.7464		61.4874
-9.25626	80.8451		67.2793
-8.88439	74.0581		71.6478
-16.6715	73.6884		70.8508
-8.35976	66.8175		75.7273
-31.9966	59.1331		74.7561
-26.5653	59.9691		76.7169
-31.3284	54.0814		78.2981
-1.30756	-21.498		105.622
-3.49872	-21.5126		104.272
-1.22178	-21.0121		107.116
-0.497328	-12.5573		112.023
-0.472199	-14.1993		112.081
-0.565356	-10.6961		111.438
-3.17218	-12.4131		110.982
-0.453021	-16.0308		111.647
-1.05384	-17.4697		111.004
-2.41765	-25.952		99.4077
-2.97084	-33.7847		98.79
-5.02941	-33.6357		98.5939
-1.31489	-19.0863		109.352
-3.73664	-18.9805		108.092
-0.4794	-8.78781		110.38
-0.232925	-6.63928		108.636
-3.05637	-9.07381		109.507
-6.49073	47.2555		82.4734
-6.33633	52.8653		82.581
-12.993	47.9016		81.8967
-6.16584	43.853		82.051
0.904904	18.4255		84.536
1.02833	20.5964		83.3579
0.676069	15.8243		86.355
0.922401	22.6148		82.5634
0.667857	24.7402		81.9963
-1.40063	21.8398		82.2453
-2.8494	-52.2567		94.3207
-2.76482	-53.0721		95.5778
-3.07061	-50.542		92.9147
-2.73657	-53.1729		96.4737
-2.90287	-53.0744		96.7487
-5.04742	-53.2543		95.8981
-3.5964	-48.7333		99.5745
-3.47315	-50.2512		98.9337
-3.2203	-51.7806		97.9534
-3.46694	-43.3935		100.472
-3.63496	-45.5746		91.2559
-3.46867	-41.5254		90.1518
-23.684	85.6012		60.5263
-24.0895	92.0165		54.1224
-29.6494	84.0177		59.1879
-23.4524	79.4952		65.4045
-18.9395	49.841		81.8125
-19.224	53.3337		81.5344
-24.9821	50.8611		80.9143
-19.0647	45.6133		80.9411
-20.0233	42.9732		80.569
-21.7095	40.025		80.0061
-25.7795	43.7899		79.6995
-22.7769	37.9535		79.4385
-27.4042	38.5428		78.8249
-18.263	36.5721		79.7776
-28.1845	25.0437		73.5527
-32.1153	25.7261		73.8994
-24.5826	23.7792		72.921
-27.2941	26.6183		74.2478
-30.3006	23.1856		72.8439
-26.0058	28.6821		75.299
-22.3043	27.5924		75.0232
-30.0956	29.2467		75.3055
-47.555	87.4316		38.1687
-47.2184	81.951		45.119
-41.9803	91.1143		40.7684
-48.3956	92.5331		28.5235
-35.0833	82.2973		57.1646
-40.7538	79.9132		54.3412
-35.6804	87.9294		51.2438
-30.9502	51.2241		79.4439
-36.2066	48.9432		77.6708
-30.9864	46.8032		79.4209
-32.5244	38.444		78.1496
-31.905	41.0794		78.5897
-31.1613	43.9702		79.0103
-33.9547	29.1552		75.1498
-38.4356	28.175		74.3424
-35.3114	27.2745		74.4198
-46.6784	77.0019		50.422
-46.0126	72.2154		54.8354
-52.3331	73.8486		45.5499
-41.6666	46.8172		72.7368
-46.6985	43.7807		68.8042
-42.6993	24.3128		72.395
-45.453	23.0932		70.8755
-39.4584	25.318		73.4611
-42.6834	25.6059		72.7151
-42.6721	31.8877		73.549
-47.2025	30.281		71.1009
-42.5528	29.5043		73.3106
-42.6317	27.1849		73.0026
-45.1659	67.1868		58.8397
-50.7425	63.8872		54.2026
-57.5077	71.0075		39.3312
-61.8495	68.5849		31.9235
-56.6939	65.8415		44.2588
-46.3304	20.0364		68.9151
-47.8386	18.2586		67.0567
-47.6837	21.502		68.9676
-49.1633	19.6068		67.1145
-46.8224	20.7481		69.0879
-50.6954	28.3142		68.4183
-53.3495	25.0518		65.3224
-17.0486	30.8788		77.6444
-15.9069	32.6458		78.7546
-18.0681	28.6477		76.2437
-14.4785	28.4912		77.0519
-14.4176	34.4147		79.7297
-11.9573	31.8062		79.3347
-19.049	25.7654		74.4102
-20.3907	23.7003		73.0573
-5.02059	40.1169		82.0954
-64.2623	-65.9147		-7.4801
-64.597	-66.0704		-14.2736
-66.0376	-60.8191		-5.19889
-79.1138	23.2793		-37.4047
-80.3786	17.335		-31.6015
-79.5623	25.4594		-28.5988
-78.1019	28.79		-42.2462
-78.7673	19.1046		-43.1049
-75.273	-7.77357		-52.2679
-76.3634	-2.20973		-52.7209
-72.9491	-8.60957		-58.3098
-74.3362	-13.911		-50.3999
-77.0829	4.09237		-52.3243
-78.8519	1.8243		-45.6766
-77.7388	9.66158		-50.484
-75.0093	5.77513		-58.841
-69.5889	-31.7479		-44.5587
-71.3689	-25.9005		-47.1231
-66.4749	-35.0795		-48.5848
-7.75453	59.3129		79.5873
-14.3541	59.4709		79.1103
-20.6484	59.8195		78.0845
-22.6302	66.7398		73.7624
-19.9469	-100.769		50.8221
-15.0002	-102.001		54.3968
-25.9676	-97.9852		46.823
-18.0145	-100.914		43.259
-45.2384	-87.4653		41.6915
-46.6302	-85.3901		45.5357
-48.8731	-84.0819		37.152
-40.3218	-91.1722		45.9577
-55.6619	60.3612		48.866
-60.1523	56.7653		42.4084
-23.137	73.2805		69.6144
-66.2425	66.1178		22.898
-65.6118	59.6467		28.8503
-69.9947	63.9624		13.2735
-24.2014	99.3616		44.9966
-17.1322	101.048		45.7051
-23.6018	106.284		33.6169
-30.4899	96.9985		44.2002
-62.9001	37.8532		43.0365
-63.6498	45.7787		39.1946
-50.2421	17.4423		65.051
-57.5039	23.8222		59.2238
-56.3711	22.5923		60.7535
-58.4214	18.6034		56.1594
-55.1538	21.3958		62.0272
-4.42385	-108.003		36.0434
-55.4883	-73.8211		39.4429
-53.8559	-77.8255		35.3261
-51.6212	-78.0583		45.6013
-56.4722	-70.0607		42.4435
-7.0109	-40.3227		99.0301
-6.59479	-38.1218		98.3695
-8.81468	-40.8411		98.6412
-24.4543	-49.2908		89.776
-21.608	-46.9657		92.1932
-23.7255	-45.2836		90.5878
-10.0105	-37.1361		96.67
-8.93943	-34.6655		96.0467
-12.7571	-38.0771		95.5571
-10.8291	-39.5834		97.2511
-7.6144	-36.2954		97.3953
-32.2554	-53.79		83.5446
-32.7155	-49.3609		84.7339
-34.7581	-54.236		82.2462
-32.5529	-56.9457		82.7066
-62.2736	14.3905		48.6363
-63.6626	15.1255		45.6005
-62.8706	8.33064		48.6154
-60.8147	13.918		51.4132
-65.2498	15.8017		41.7626
-67.3279	15.6369		36.4031
-53.2979	13.658		60.7974
-53.3104	11.4471		60.2993
-59.318	13.2367		53.847
-81.3732	9.27452		-36.5067
-81.6344	11.6807		-32.8429
-79.6722	11.1872		-41.0535
-81.2163	5.52322		-39.7193
-77.957	-18.0557		-41.1046
-75.8669	-18.4926		-44.3044
-69.2511	-52.7789		-15.8715
-70.1213	-49.2457		-21.9752
-67.0663	-58.3163		-18.747
-68.4472	-54.9663		-9.36463
-71.1926	-48.4999		-13.2854
-80.8774	0.799443		-41.7058
-75.017	-28.5393		7.40754
-73.8473	-29.4986		12.0607
-75.918	-24.0743		7.61833
-74.0944	-32.7782		6.92792
-73.166	-1.54235		31.5041
-75.115	-2.77679		22.7145
-72.862	-9.36558		33.0907
-73.0169	7.01616		29.8916
-55.3431	7.01877		58.7034
-53.8276	5.1996		60.9031
-54.1031	8.37321		59.6253
-53.1068	9.66929		60.4353
-51.8869	8.52486		61.7685
-72.5394	-30.0718		18.7537
-73.6925	-24.7451		18.5596
-71.5173	-34.9617		18.2426
-71.3054	-30.3414		25.9798
-24.9325	-10.0068		84.1783
-21.9568	-8.92291		84.8955
-24.0818	-6.36938		81.8319
-28.7546	-11.1857		83.2233
-34.9981	-12.8513		81.5011
-36.1196	-17.5161		82.7206
-41.7609	-13.941		79.4343
-18.5648	-6.52388		87.0107
-18.638	-9.73261		89.2657
-14.2146	-4.63872		88.9998
-21.4991	-15.295		89.4753
-20.1299	-13.2996		90.5039
-16.871	-16.189		97.2713
-17.7293	-16.9252		96.0481
-16.5579	-17.9084		96.9173
-15.2499	-15.7922		98.7916
-18.3139	-17.7991		94.7063
-17.794	-20.0071		94.1403
-37.9911	-34.779		82.8275
-37.4151	-29.8224		82.9858
-38.5662	-40.1254		82.3384
-33.4523	-34.3584		84.7217
-36.244	-24.6771		82.8539
-5.66959	-29.014		97.5579
-7.03295	-29.2942		97.0338
-6.074	-31.3867		97.8117
-55.62	-50.4347		60.5797
-54.2391	-57.2816		59.25
-52.281	-48.584		67.2443
-56.8558	-44.1928		61.8395
-28.0081	-43.2079		87.7532
-30.2802	-43.8994		86.6425
-25.5382	-42.3119		89.1087
-38.5507	-45.4994		81.5748
-34.9685	-44.9908		83.9517
-42.9469	-46.1828		78.1869
-38.2183	-50.7993		80.7457
-6.01661	-35.8831		97.7235
-52.3502	-64.4901		58.1018
-49.7431	-70.4072		58.7207
-49.2413	-60.9438		65.539
-54.7848	-66.311		51.327
-58.6001	-27.6137		64.7696
-62.83	-28.3463		57.0231
-58.5289	-32.8026		63.7474
-28.0887	-95.6729		67.3087
-22.693	-98.5033		71.0875
-29.0355	-92.8057		70.0234
-39.0604	-83.729		64.8144
-34.5432	-86.6386		68.3791
-38.0613	-79.002		69.4649
-43.0061	-79.9659		62.2901
-56.9357	-5.39852		65.626
-51.7608	-5.94634		70.6748
-55.2925	-1.7538		64.6595
-49.5012	7.33621		64.3517
-50.1588	5.5467		64.3592
-53.7736	0.935704		64.5136
-52.2209	2.72994		64.6786
-49.1757	-0.0458298		68.8363
-47.7897	10.4606		65.101
-4.32949	-95.7614		87.9119
-46.0688	-58.0149		71.5327
-41.7013	-56.3254		76.3924
-46.8949	-52.953		72.2743
-43.9625	-63.244		71.2689
-36.4766	-74.8666		73.3828
-32.7484	-77.6776		75.6505
-34.3083	-70.2346		77.9752
-39.3304	-71.2799		72.2977
-46.1153	-6.12637		73.7421
-44.9046	-2.74048		72.6431
-47.2325	-10.0265		75.3758
-47.8528	-47.233		73.2209
-47.1495	-17.0243		76.3952
-11.2196	-85.4087		89.6996
-15.3191	-84.3898		87.8787
-10.9755	-80.995		90.8307
-19.7582	-83.1511		85.4783
-19.3364	-78.9165		86.955
-24.0482	-81.5298		82.7233
-43.6262	-0.313674		72.147
-36.3365	0.185227		74.4455
-42.4178	1.3725		71.8273
-51.0704	4.09937		64.4703
-47.0607	2.94284		68.1355
-41.1852	2.30777		71.1139
-33.7899	2.71801		73.1761
-10.6779	-1.99895		91.9406
-10.694	1.72114		88.0944
-11.1643	-5.48783		94.9829
-12.5823	-10.9531		101.2
-13.0672	-11.6901		101.576
-8.94102	-10.2415		104.618
-11.8205	-10.2189		99.6796
-10.8349	11.3721		79.2698
-10.6925	8.90007		81.4461
-22.9206	-1.88995		79.761
0.580873	12.4253		89.2607
-62.9266	3.50777		51.6766
-10.6778	5.44964		84.5556
-57.1105	-66.1626		45.0937
-60.0201	-63.7768		37.0543
-68.4079	-15.4794		49.8151
-70.636	-15.4857		41.7099
-68.0008	-21.8112		49.4127
-63.1374	-40.4697		48.3275
-64.6704	-41.3451		40.8657
-60.9839	-39.4152		55.5386
-64.3824	-34.5905		48.8373
-65.4443	-28.6458		49.2397
-69.0338	-28.5411		41.1216
-18.5079	-100.266		74.0933
-10.6523	-77.2436		91.8945
-14.5529	-76.4295		90.5382
-6.92661	-77.7469		92.9165
-18.6869	-75.3723		88.5323
-28.1459	11.2774		71.4721
-29.2093	1.28712		75.3794
-27.9729	2.4564		74.1717
-27.5563	4.18342		73.5581
-3.5579	-78.0112		93.3172
-3.97172	26.1606		80.6754
-3.52169	23.3856		80.9783
-1.98879	26.7584		81.3008
-5.12071	28.7678		80.5246
-5.74733	25.2609		79.8461
-20.19	15.1049		69.5181
-20.1209	16.3171		69.5908
-17.0677	15.3359		71.2749
-7.40235	23.8559		78.7373
-8.51611	26.4214		78.6424
0.169554	27.1789		81.6694
-5.33142	-21.2149		103.018
-5.85913	-19.9033		104.617
-6.03245	-12.2522		108.917
-9.18681	-12.5157		105.511
-6.06841	-10.9066		108.426
-17.0919	-24.6175		91.7172
-14.396	-25.8004		92.9403
-16.6573	-23.4192		92.7597
-5.80164	-9.469		107.711
-4.32642	20.0319		81.1951
-6.58415	31.5089		80.6283
-8.43263	30.4999		79.8835
-20.4675	17.4351		70.0095
-10.1724	29.1574		78.8387
-11.4305	27.5995		77.713
-12.3318	25.9417		76.5699
-19.3817	-33.5392		89.8383
-20.8896	-36.955		90.3208
-16.2561	-33.5795		91.4983
-22.6386	-41.2922		90.5279
-19.2934	-39.9815		92.3327
-24.5406	-56.4672		84.646
-22.7553	-56.2657		86.0558
-24.1815	-55.3257		84.1229
-25.1569	-55.0454		87.4292
-23.2772	-53.4672		89.5362
-23.6317	-51.9202		83.4277
-23.0983	-47.7988		82.4874
-20.757	-51.5283		85.2892
-13.3848	-33.4198		93.0492
-14.6192	-36.0192		93.5159
-11.0072	-30.7113		95.0476
-16.078	-39.097		93.8952
-17.298	-41.9983		94.2396
-20.2131	-55.7837		87.6232
-18.9331	-54.1521		87.6644
-18.1732	-50.7933		86.8658
-17.8771	-46.698		85.5277
-9.00153	-29.92		96.2202
-8.57645	-27.8487		96.0026
-11.8227	-42.2569		97.5534
-15.2961	-43.5355		95.9825
-18.2008	-11.6834		91.5204
-15.3804	-9.52827		94.6562
0.0913184	-3.8775		105.933
-11.4856	-8.15008		97.6835
-6.28191	-18.6288		106.175
-8.97773	-18.5764		103.331
-11.9317	-18.1281		100.884
-14.3572	-18.7244		98.3131
-12.5657	-16.7894		101.145
-15.7601	-19.7717		96.3984
-16.407	-20.936		95.0553
-16.5389	-22.2458		93.8233
-13.0923	-12.5024		101.903
-13.0001	-13.6321		102.048
-12.9267	-15.0921		101.763
-38.2081	-141.387		10.9711
-36.0643	-133.165		11.2736
-42.1313	-139.956		7.90213
-39.6833	-147.366		10.7656
-33.8331	-142.618		13.9642
-33.6162	-122.786		11.6464
-29.2477	-124.109		14.9074
-31.3083	-112.38		14.0208
-37.5068	-121.471		8.21416
-33.0289	-97.5173		20.9406
-31.7452	-101.186		17.1611
-29.5621	-98.6945		25.1041
-36.0732	-96.4301		16.7483
-31.1422	-105.332		15.2867
-34.6111	-104.862		11.5359
-27.5163	-105.972		19.239
-42.0495	-67.4947		71.3298
-38.9369	-63.8953		76.447
-44.7655	-71.0673		66.0522
-45.7973	-74.8365		60.5215
-46.5598	-78.6791		55.083
-46.415	-82.0243		50.4579
-35.9344	-62.0262		79.2981
-33.9757	-64.4883		79.9983
-33.5823	-60.4721		81.2511
-36.9194	-58.8885		79.5018
-32.0378	-59.3339		82.3379
-30.8257	-61.1543		82.4897
-39.4243	-95.0551		12.8608
-43.3634	-93.0109		8.44434
-38.5503	-98.8249		9.84626
-41.668	-91.3432		16.7072
-45.2319	-87.8144		21.8272
-48.7865	-84.4254		26.7018
-49.9507	-85.0377		16.0037
-51.7595	-81.1173		31.333
-53.5728	-79.1972		24.5064
-39.8222	-119.863		6.65335
-43.5205	-130.097		5.27806
-38.5953	-110.484		6.68102
-43.2429	-119.071		3.06776
-45.6094	-138.563		4.60702
-48.9254	-137.32		0.969577
-47.4603	-144.941		3.79991
-38.1989	-103.78		7.92551
-70.236	-29.6596		33.4596
-71.4068	-23.5266		33.4338
-69.0761	-35.3151		33.2807
-57.0172	-76.9064		18.142
-58.2036	-75.2215		11.246
-54.6525	-79.9464		14.2324
-72.5685	16.0233		29.0234
-75.693	13.9778		18.2386
-61.8212	-62.2365		29.3374
-65.1368	-59.9163		21.0683
-67.9288	-40.9564		33.0862
-69.1284	-40.8424		25.389
-72.2868	-16.4937		33.8006
-73.6188	-17.92		25.7144
-70.468	-39.8489		17.7958
-71.9045	-38.3496		10.8681
-54.8865	-89.068		-5.94276
-52.1976	-89.7544		-1.35462
