1834
73.5878	-8.26924		-58.1802
76.351	-1.71097		-51.7691
77.3898	4.41178		-51.9241
74.7624	6.16315		-57.4514
78.6079	9.73606		-50.8508
79.97	2.26689		-46.4891
70.6695	-30.9894		-45.3548
67.5992	-34.5287		-49.0607
72.2575	-25.3134		-47.7159
6.57649	57.9952		82.3717
0.869919	57.3292		83.4722
12.5787	57.9954		81.9363
18.0669	58.345		81.0045
19.1276	64.1586		77.1418
27.2196	-107.312		63.6171
25.0397	-108.138		59.2212
33.2805	-103.359		56.6337
20.2997	-108.53		72.7327
50.1339	-88.1684		43.0228
46.259	-92.6288		49.8332
53.6751	-83.7079		36.6851
51.0421	-85.9772		46.6386
50.3562	61.0667		54.42
55.4397	58.4075		46.9747
20.2398	71.5169		72.5105
62.5151	67.5159		26.1759
66.6016	65.6926		15.687
61.4254	61.2718		32.6415
23.6267	100.082		45.6001
26.167	96.8981		47.0575
23.5916	107.143		33.817
16.2302	101.245		46.255
58.1513	42.0768		47.3171
58.7869	48.0324		43.0706
46.0129	25.1185		69.4912
54.7803	29.4008		63.3801
56.009	24.4912		59.4504
53.3268	28.4469		65.0202
51.8761	27.7459		66.3646
6.71313	-116.65		58.5844
4.11637	-116.773		58.8338
58.6054	-72.4631		36.4893
58.528	-67.8963		38.4347
55.1064	-76.8093		43.826
57.6944	-76.6117		33.3925
4.27616	-43.2568		96.7522
6.2242	-43.4238		96.4165
3.65149	-39.2022		96.6237
17.4605	-48.9083		90.6133
17.4953	-44.8922		90.6516
15.424	-48.0893		91.9871
6.8022	-36.8778		95.5036
4.39133	-35.7886		96.0321
7.61014	-40.4711		95.6419
9.63598	-37.6663		94.3928
6.07502	-33.0789		94.9434
28.158	-52.3329		80.2678
27.8806	-56.5887		80.4233
30.4741	-52.8762		78.5025
27.5911	-47.7909		79.6637
61.2047	20.9698		49.9225
58.8718	20.3626		53.5688
61.587	15.0198		48.8393
61.893	22.3135		46.6417
63.9836	22.9592		42.5099
67.4753	23.2325		36.5143
49.5961	21.6487		64.9834
49.3636	19.3355		64.0983
56.8919	19.8077		56.4197
81.7533	9.95039		-37.8716
81.706	5.8866		-40.8591
80.3648	11.6502		-41.7085
81.6093	12.7102		-33.8671
78.581	-17.2259		-42.1074
76.5069	-17.8749		-45.1349
71.7668	-50.8204		-18.8973
72.7665	-45.6581		-17.0759
70.8126	-52.4346		-12.928
70.3238	-56.6465		-21.0859
72.065	-47.1274		-24.3147
81.6496	1.10692		-42.9176
76.8145	-23.0802		2.03209
76.453	-27.5343		1.47398
77.1876	-18.5044		2.41628
75.6169	-23.5481		6.09309
71.1907	5.94682		27.9674
71.3005	13.8608		27.3564
70.8648	-2.01113		28.6843
74.0034	4.05169		19.0721
51.5156	14.29		60.8593
49.9802	15.9593		62.6186
49.7219	12.6534		62.2036
48.5017	17.9938		64.1927
47.0072	17.0079		65.1958
74.3964	-23.4044		11.8397
72.7486	-22.7983		18.2741
73.636	-28.4456		10.9822
74.7251	-17.9205		12.4106
21.3942	-10.0522		80.6068
28.3658	-10.3314		73.2424
19.4149	-4.73829		79.3139
18.2655	-7.81464		81.6619
33.2283	-10.5376		71.0667
38.6823	-9.63478		68.0429
34.0636	-14.8793		70.5246
14.4498	-5.10579		84.3908
11.0536	-2.11926		87.0566
15.2424	-9.19943		85.758
19.2084	-16.5981		85.1112
17.5665	-14.3462		86.1998
13.5698	-18.236		94.0303
11.7587	-17.8843		96.0555
13.4797	-19.8234		93.6973
14.7981	-18.7147		92.4957
15.7976	-19.3416		90.8233
15.4533	-21.2627		90.6852
35.3884	-30.2138		71.6504
29.7687	-30.7398		74.7895
35.4237	-36.5818		72.2164
35.1162	-24.6074		71.5437
34.9315	-19.508		70.0075
1.93628	-29.3145		95.861
2.42835	-31.754		96.1707
3.4862	-29.2826		95.6805
52.4263	-46.9646		51.8849
53.0282	-39.7202		51.8069
47.9341	-45.003		58.3584
51.9994	-54.338		52.309
20.9544	-41.1973		87.7452
19.2544	-40.7201		88.9539
24.7218	-42.5131		80.0435
34.8431	-42.7262		73.6369
34.1484	-48.6587		75.1003
38.9587	-42.9394		69.3395
31.1991	-42.7042		76.3465
2.95228	-35.2419		96.4467
51.4332	-61.6365		53.3154
55.1729	-63.0654		46.1925
47.3429	-59.3879		59.9921
50.5175	-68.7543		55.212
55.6629	-20.2803		53.0723
54.8672	-26.3069		52.2979
59.9664	-21.2302		46.7255
36.9568	-99.9138		73.6224
37.4869	-97.5176		75.5471
32.5579	-102.421		78.2463
45.2212	-85.6543		66.7094
47.3212	-80.6477		62.6007
42.8537	-80.9791		70.1821
41.8731	-89.8855		72.0895
53.7391	0.465102		57.7232
51.7591	4.38566		59.7718
48.3108	0.0136835		63.4756
44.9663	15.4625		66.5947
45.7992	13.614		65.5782
50.1309	7.04289		61.4506
45.4292	6.19458		65.0663
48.2115	9.19853		63.2119
43.5661	18.5805		68.021
9.57854	-98.8015		98.9569
5.51272	-98.8921		99.6152
42.6652	-56.7366		66.4479
42.3103	-62.6235		67.8396
43.0132	-50.3436		65.1942
37.9001	-54.9177		72.1145
39.6622	-76.5011		73.6076
40.8484	-72.418		71.4626
35.7045	-72.0939		76.9522
37.659	-80.2837		76.3049
42.3075	-0.35295		66.9717
43.6131	-4.48594		66.3414
41.1553	3.30606		67.7705
43.4412	-43.5795		64.1521
44.6546	-8.61965		65.4445
15.8567	-87.4949		96.6926
14.1637	-80.9412		96.1248
19.9194	-87.411		94.4023
27.2657	-87.0679		86.1686
31.3524	-85.4106		82.8459
21.7986	-80.9065		91.904
40.3286	5.98693		68.6151
39.4384	8.04856		69.1366
33.9288	5.65925		70.7871
47.052	11.1501		64.3538
43.2561	10.3478		66.935
38.6252	9.75354		69.7537
31.9961	9.58634		71.9658
9.03307	0.202049		89.8031
8.20084	-4.23611		92.4272
8.69702	5.17203		87.5866
9.28056	-12.6465		97.7549
9.11363	-10.9559		96.7611
6.55459	-12.2517		101.112
9.23007	-13.8282		98.6681
10.2776	16.5881		80.8061
10.137	13.8447		82.3182
17.7013	0.631884		78.7794
0.429067	17.5043		89.4863
-1.13003	17.9525		89.6441
60.818	9.50303		50.0534
8.66504	9.7664		85.2208
58.813	-62.0298		39.0165
62.9888	-59.5614		30.467
64.316	-8.99187		43.1277
64.1487	-15.7922		41.3658
67.5042	-8.89522		36.279
62.2197	-34.98		38.5274
62.9407	-28.4341		39.2261
58.4669	-33.9781		45.032
65.62	-35.1544		31.9287
63.6786	-22.0273		40.1018
66.8794	-22.7037		33.2922
27.7429	-104.674		81.8448
12.4015	-75.2752		95.4149
9.33838	-74.5553		96.3446
15.7954	-75.8798		94.1123
19.5388	-76.2252		92.173
27.6614	19.073		71.8765
27.1625	5.83364		72.9144
26.467	8.37287		72.8746
26.0009	10.3292		72.7578
6.43778	-73.8313		96.8271
3.50963	-73.5324		97.0903
5.35673	31.4712		83.9411
6.93146	30.519		83.0092
6.26639	33.4847		84.563
3.46905	32.1632		84.6243
5.06648	29.3532		83.5699
17.671	21.3213		72.3185
17.3245	22.6382		72.6355
15.3109	21.5685		73.9957
8.16159	29.3977		81.7391
9.501	31.2202		82.3238
1.36068	32.6631		84.9899
-0.897115	33.0717		85.088
1.57028	-24.06		100.214
2.08602	-23.4126		101.503
3.63687	-16.0408		105.287
3.72081	-14.117		104.841
6.77769	-15.414		102.181
14.8528	-25.3713		88.5963
14.4346	-24.1		89.8394
12.2016	-26.279		90.2919
3.18747	-12.1262		104.246
5.81445	25.4715		83.2776
7.29418	35.9053		85.611
9.00621	34.9363		84.7176
17.7184	23.9029		72.9118
10.7784	33.7715		83.5625
11.9209	32.1144		81.9984
12.8956	30.6745		80.491
17.0058	-31.304		87.9132
14.3169	-31.379		89.7989
17.323	-35.3948		89.1014
17.3169	-40.1175		90.205
15.2475	-39.4302		91.4547
16.6109	-56.9091		87.066
16.306	-55.5065		86.1313
15.0307	-56.7324		87.9825
17.022	-55.5217		89.5003
15.5999	-54.4499		90.6175
16.413	-51.7565		84.328
14.0664	-51.7484		85.9426
16.9292	-47.1272		82.3814
11.1449	-31.418		91.7564
8.09215	-30.913		93.3172
12.0482	-34.4939		92.311
12.7651	-38.7364		92.834
13.1898	-42.5385		93.2072
13.2662	-56.0881		88.6955
12.2153	-54.5141		88.2089
12.0186	-51.3456		86.9349
12.6577	-46.7327		85.2626
5.67116	-29.8305		94.8018
5.34427	-27.6263		94.5533
8.69106	-44.0003		95.6603
11.2834	-44.7504		94.5747
15.1374	-11.8348		87.7024
11.6517	-9.69387		91.6204
-0.500035	-4.68167		102.274
-2.40084	-4.35876		102.409
8.73782	-8.0021		94.8634
2.66643	-22.231		103.464
5.43364	-21.6247		100.462
8.11393	-20.9686		98.3659
8.97049	-19.5151		98.5383
11.0673	-20.9791		95.3797
13.0192	-21.5499		93.157
13.9188	-22.2931		91.8867
14.2227	-23.2021		90.7194
9.20879	-14.9975		99.1507
9.23761	-16.4309		99.3699
9.23894	-17.9513		99.071
39.3336	-143.927		21.6096
34.337	-145.675		25.9028
40.816	-149.64		19.5652
43.0279	-142.338		18.8838
38.2069	-135.336		23.7141
37.4919	-124.854		26.728
40.9853	-122.693		21.2116
37.8278	-114.763		27.6193
31.8019	-126.762		31.2569
44.4318	-97.517		32.0601
48.1796	-94.2642		26.09
40.0412	-100.815		38.0367
42.6458	-102.253		29.9668
40.9147	-107.208		28.6386
36.4111	-109.655		34.9403
44.8248	-104.701		22.9848
41.828	-67.7121		69.3793
45.9535	-71.3554		63.8586
37.2826	-64.397		74.156
48.9611	-74.9185		58.6207
51.1564	-78.8976		53.8917
51.6241	-82.937		50.2642
33.3059	-61.9975		77.4735
33.4638	-58.1897		76.9078
29.9286	-60.4133		79.3676
32.6497	-65.5033		78.4188
27.8254	-59.6216		80.5468
27.5513	-61.9986		80.8765
51.2771	-91.243		20.3687
52.6002	-87.1701		22.3162
49.7138	-96.6196		18.597
53.9446	-89.0174		14.2561
54.0638	-84.3257		24.5982
56.5518	-81.1778		18.106
55.4573	-82.2531		26.9061
56.6894	-79.7503		30.0034
59.4457	-76.2133		22.9239
44.6141	-120.581		16.6241
45.4689	-132.126		17.3673
47.82	-118.713		12.0924
45.0567	-110.457		17.662
45.1651	-139.466		19.2111
47.9138	-145.108		15.8006
49.7096	-136.754		15.0135
47.7567	-102.238		17.4169
70.104	-22.9775		25.6009
69.4034	-28.8193		24.7708
70.6843	-16.5135		26.6916
61.4619	-73.3358		15.6963
59.6768	-76.0696		13.572
62.5626	-71.4894		8.67998
66.9328	20.7367		29.1924
70.5745	18.1452		18.0792
66.7428	-57.2379		22.2533
69.0663	-55.6717		14.6603
68.7128	-34.8235		24.3316
71.1993	-33.9723		16.9339
70.588	-9.17725		28.4037
73.2528	-10.2966		20.1484
72.9377	-33.5368		10.1474
74.7769	-32.8382		4.57592
59.9375	-85.7826		-3.39875
58.9988	-91.1818		-3.86573
61.9379	-85.4101		-8.49331
60.7896	-81.3098		-2.35635
58.1074	-86.4308		1.86365
57.8318	-96.8388		-3.43186
61.5222	-77.152		-0.606439
59.9865	-77.9793		5.11178
63.0276	-76.7151		-6.32646
62.3704	-73.4545		0.91295
76.2529	2.32259		10.3925
76.8789	9.9523		8.13122
75.6835	-5.30697		12.2571
73.4018	16.4218		7.20757
73.8839	23.5488		4.89104
74.3636	31.1994		1.72828
76.5063	29.847		-9.33215
74.8167	38.7953		-1.97972
69.4013	-54.1907		6.81587
69.3314	-53.1644		-1.06438
75.1435	-11.8768		12.9879
76.6018	-13.2213		6.82092
51.3892	-116.992		7.25088
52.1551	-128.634		7.21855
58.2468	-79.2659		11.614
57.1026	-83.0344		9.4837
55.3033	-134.691		8.00415
56.4113	-140.742		6.38277
60.9582	-112.483		-11.6374
61.9181	-122.026		-13.2428
63.3368	-85.3606		-13.3741
64.3301	-83.8237		-18.606
63.7714	-80.7479		-12.8446
64.5059	-76.0074		-11.9144
63.1371	-128.681		-14.4086
63.6081	-134.422		-16.4326
69.7724	-53.1104		-7.80576
76.0588	-31.9522		0.788259
77.0877	-30.4413		-2.11426
74.5569	-36.2104		-0.315347
77.5396	-13.7703		2.83228
63.5458	-91.7967		-25.9711
62.2894	-87.9068		-32.9652
64.0689	-85.4668		-25.2866
64.955	-79.5816		-24.7714
64.5623	-73.3861		-31.0069
68.277	-62.8892		-22.0044
73.7259	-42.9493		-15.8042
75.6442	-40.719		-22.0046
59.0057	-118.966		-42.2169
58.3224	-126.759		-42.9263
55.8962	-116.612		-49.3373
59.1405	-110.799		-41.0181
73.0075	-42.232		-28.903
75.2742	-38.3866		-27.3754
76.9181	-36.5233		-26.8486
28.0789	-146.481		29.6875
27.4032	-138.722		31.4766
23.1511	-147.723		32.4361
29.3241	-152.397		27.767
30.9142	-111.919		41.5763
24.7413	-114.183		47.8837
28.9515	-118.56		38.1516
33.0427	-107.357		43.2609
38.5405	-99.5325		50.102
36.635	-101.448		47.3274
40.6803	-97.961		53.4608
34.9435	-103.801		44.8179
29.4113	-106.671		51.3366
26.5539	-128.455		36.4103
21.2449	-130.484		40.7586
32.3404	-69.058		79.216
29.349	-66.3738		80.8205
42.4969	-96.5829		56.6437
27.0174	-64.5481		81.5786
25.9217	-66.6719		82.7037
21.8323	-62.3728		87.8463
20.2285	-60.8472		88.1822
19.4504	-62.4961		89.1235
34.9651	-83.1169		79.4139
37.2884	-88.4616		78.1698
37.9147	-93.7472		77.2939
14.6835	-57.814		90.3656
12.7253	-56.368		91.7558
13.8764	-57.4596		89.2662
16.0637	-58.2924		88.334
13.7975	-57.7502		88.9487
11.7874	-56.055		90.1508
13.788	-58.1939		88.6869
14.0581	-59.5578		88.1972
11.4397	-56.8277		89.4178
14.3455	-62.6003		87.6832
14.5202	-65.3989		87.4737
11.6431	-60.8741		88.6799
20.4268	-113.738		52.5383
19.6686	-110.697		60.0496
19.8519	-119.312		48.1536
23.1949	-147.866		30.6241
22.1839	-139.981		34.7633
18.2196	-148.827		32.8267
24.2636	-153.035		28.173
20.7555	-129.338		40.7155
11.9123	-110.792		67.7576
16.2194	-110.128		65.6894
13.2905	-110.052		70.4068
13.8474	-149.5		34.3902
14.7917	-154.508		31.9162
17.5085	-109.521		69.8653
9.71058	-54.9833		91.3068
9.43918	-55.2797		90.6936
9.17104	-55.8265		90.227
9.24213	-57.0056		89.6825
9.15414	-59.5038		89.3524
9.30781	-63.2111		89.2674
69.6137	49.4691		16.068
72.8745	47.6397		4.79634
70.1425	56.6817		10.659
65.3397	52.0435		27.523
78.6462	28.0846		-19.8731
73.7114	-19.7198		-50.0417
70.8229	-21.7879		-54.6581
53.322	-95.3282		-52.9384
53.8013	-84.849		-52.3688
56.4311	-98.3482		-47.3578
53.1277	-105.663		-53.7071
50.1842	-93.084		-57.8569
52.9834	-114.604		-54.7652
53.0494	-122.999		-55.6546
49.8273	-113.079		-59.4894
60.2435	-82.524		-40.3629
59.5599	-92.182		-40.4272
57.484	-78.1541		-46.6479
61.4949	-73.9222		-39.3624
23.56	113.525		19.8448
28.223	110.447		21.1507
22.9407	119.564		4.70969
16.0258	115.223		20.2305
21.2514	100.705		-79.6711
22.6153	110.33		-64.3621
30.8297	99.5244		-79.1745
20.528	89.5726		-92.7194
13.8365	102.144		-81.193
20.1739	77.5478		-102.11
29.1535	75.9891		-101.214
19.9854	64.2257		-109.111
13.3211	78.3816		-103.866
23.1777	117.21		-47.6146
31.0798	113.894		-46.2751
15.4285	118.699		-48.6052
23.3314	120.981		-29.9346
8.02907	124.826		-13.0841
-0.259763	124.865		-13.0509
8.14617	123.034		4.1626
16.0035	123.968		-12.9312
7.8402	123.774		-31.1375
21.0298	51.29		-114.542
26.802	50.2332		-111.116
21.8361	38.0411		-118.061
14.7924	52.1883		-116.147
21.5268	24.1103		-119.742
25.2665	22.527		-115.15
20.2483	10.0664		-119.467
15.083	24.9147		-121.279
18.1207	-28.0097		-107.581
23.9771	-28.5178		-105.054
16.7134	-38.7281		-97.0798
12.5467	-27.9027		-108.765
18.5148	-15.4868		-114.034
7.29537	-1.83081		-120.407
0.965361	-1.70189		-120.87
8.20218	11.2648		-122.257
13.4115	-2.23922		-119.35
6.64428	-14.4389		-116.622
13.8757	-86.0385		-79.1648
14.2586	-76.4943		-80.4002
19.2049	-86.8012		-77.8107
13.5907	-95.5333		-78.5367
8.79855	-85.5898		-79.9669
3.47738	-104.112		-79.002
8.48383	-104.591		-78.6942
3.48097	-113.791		-78.5107
-1.45689	-103.861		-79.1006
3.70797	-94.3886		-79.6539
15.9937	-48.2465		-90.7341
21.2921	-48.812		-89.1554
15.6671	-56.8173		-86.8268
10.254	-47.5586		-91.4137
14.8544	-66.2083		-82.9767
20.5005	-67.3043		-81.2213
9.54815	-65.3974		-83.988
4.26298	-65.1236		-84.4788
4.48324	-55.7657		-88.1727
3.92661	-75.5646		-81.7656
-1.08054	-65.243		-84.5397
46.1375	98.2989		18.8959
51.5879	92.857		17.8618
48.3406	101.667		4.23254
40.5504	102.958		20.0792
47.9288	69.3058		-90.5231
52.8367	66.4112		-85.6254
47.3658	57.3129		-96.9083
42.4882	71.7874		-94.8463
48.2567	81.2456		-80.7022
48.6887	90.6425		-69.8283
43.2955	94.12		-73.6581
49.0139	98.221		-55.197
53.9729	86.4612		-65.709
49.4658	102.07		-41.182
55.1415	96.392		-39.227
43.8927	106.564		-42.9167
50.1502	103.837		-26.2849
49.573	103.965		-11.112
43.6251	109.057		-11.189
55.1898	98.0738		-10.9528
45.6974	45.2937		-100.395
45.0373	32.5251		-103.312
39.848	47.1146		-104.436
51.0241	43.1489		-96.0255
43.9899	19.6373		-104.913
49.2364	18.377		-100.569
42.902	6.75023		-104.668
38.3382	20.7479		-108.799
41.5145	-5.67223		-102.889
41.8118	-17.9544		-101.347
36.0682	-5.59213		-106.266
46.3129	-6.35805		-98.6229
41.1443	-30.1843		-95.5575
46.4225	-29.616		-92.0871
40.4961	-40.8922		-89.0126
35.4144	-29.9488		-99.1493
39.9106	-50.1721		-83.2018
38.8906	-60.2005		-77.7753
34.2999	-50.2298		-86.4605
43.8477	-51.0958		-78.3736
36.5134	-88.8347		-71.8092
35.5175	-98.8665		-72.4029
31.402	-88.4855		-75.2051
37.2286	-79.3095		-71.9368
41.268	-89.6944		-67.7977
24.9626	-106.519		-77.6876
25.3432	-115.336		-77.748
18.4282	-105.446		-77.1399
25.4021	-97.3706		-77.7251
30.5698	-107.238		-75.7523
37.7438	-69.9943		-73.8246
42.4045	-70.2536		-69.3045
32.8295	-69.3183		-77.5263
67.5786	69.363		-52.371
68.4287	73.4319		-40.9135
71.32	62.9001		-46.403
66.4739	64.1071		-61.2616
63.3148	76.3028		-56.8877
68.8369	76.3662		-29.4848
72.4624	68.722		-24.0979
64.9084	83.5363		-33.7833
69.0441	77.532		-17.9315
67.7181	78.1343		-6.60193
69.4889	71.08		-1.24698
64.5135	85.0305		-9.30026
55.713	40.9439		-91.4169
57.1376	52.0771		-87.5175
59.9504	38.4134		-86.5123
55.0082	28.9748		-94.3767
57.2212	63.4368		-80.4996
57.7752	73.9031		-71.3047
61.5834	59.525		-75.6577
50.96	-6.90011		-93.7919
52.8413	5.02249		-95.379
55.4628	-7.55893		-88.2551
48.9615	-19.158		-91.3108
54.037	16.8275		-95.7803
58.4027	15.6134		-90.6855
48.0849	-30.1262		-86.1817
52.9569	-30.0583		-81.6377
48.5252	-40.9798		-80.0074
47.5447	-50.5415		-73.9703
51.3213	-48.8339		-70.1806
47.0041	-70.635		-63.7403
51.4269	-72.8664		-57.4123
46.4433	-80.5916		-62.6815
77.045	34.7303		-47.5665
76.1518	28.6796		-54.7289
75.2194	39.925		-53.2913
56.3487	86.6954		17.2488
58.8082	90.1204		3.29951
75.4582	46.3389		-6.50789
75.9801	53.5129		-12.1645
65.7136	-7.94678		-72.6382
62.6653	-8.11882		-77.7139
67.2219	1.37135		-74.1731
68.517	-8.07477		-67.1544
64.4923	-18.0382		-71.0461
68.0991	10.9292		-74.9673
65.2548	12.4595		-80.4225
68.9599	20.0484		-73.5733
70.7744	9.06634		-68.8854
69.7675	29.3237		-70.3543
66.8914	32.5846		-76.0837
70.6625	37.8219		-64.9535
72.2847	25.6466		-64.3603
59.4581	-42.6272		-59.8338
56.8434	-45.0003		-63.2244
60.9703	-35.1115		-63.6864
62.0633	-40.3205		-56.1995
58.0764	-50.2833		-56.0272
68.1676	-23.6139		-59.1833
66.4365	-30.7712		-55.9767
65.5827	-25.4003		-63.2247
70.021	-16.2182		-61.5836
54.7065	-75.3432		-51.8244
55.8717	-66.264		-52.2047
76.954	-35.475		-7.47929
77.8448	-31.3286		-5.35333
74.4411	-38.095		-5.60414
77.8795	-29.3172		-4.03361
80.9138	-3.06602		-4.95559
81.7187	2.00743		-6.9012
92.5475	4.17951		-38.9223
92.6752	10.0647		-36.4708
93.1494	3.8294		-38.2341
83.0366	-34.5308		-26.6817
81.7972	-37.1112		-23.6857
92.0778	14.9944		-32.9714
91.1339	15.3059		-33.4523
91.1531	18.5296		-28.9113
92.8954	14.374		-32.4423
83.0734	11.2685		-11.5399
81.8167	11.1662		-12.1345
90.2928	19.9465		-24.544
91.1475	19.2785		-23.8637
87.9002	-18.4277		-36.0457
84.1556	-35.0636		-19.8761
83.3225	-34.7751		-17.3576
82.6006	-36.9789		-20.5338
82.1663	4.51799		-8.50952
86.4911	18.1295		-19.659
83.4613	15.3554		-16.6605
85.5961	17.2189		-21.3361
80.6733	11.5192		-13.7391
79.7515	11.948		-15.1074
90.4879	15.1653		-33.661
79.3606	11.6251		-16.6007
81.1066	13.211		-19.6966
83.4815	14.7501		-23.4311
81.3251	12.6926		-24.4774
87.4736	-26.5701		-29.5835
87.0538	-27.5562		-22.4978
81.0472	-38.179		-21.0233
82.685	-33.7975		-15.1119
83.7636	-30.706		-14.9073
84.6572	-28.3308		-15.7282
85.1771	-26.8804		-16.5922
93.3254	3.57313		-37.8448
93.7202	9.23822		-35.4677
89.1144	16.6668		-16.1066
89.2013	16.1085		-15.818
90.5715	18.2348		-19.262
89.1965	15.5161		-15.6948
90.6716	17.0728		-18.754
88.9158	14.3477		-15.7725
93.2766	13.855		-32.0821
92.4986	17.1586		-28.053
93.3744	13.3916		-31.9592
91.7009	18.6033		-23.3791
91.9054	18.0422		-23.2921
91.8823	17.4789		-23.0244
92.6059	16.1813		-27.7002
93.1507	13.0805		-31.5609
92.3373	-0.637728		-36.641
88.6523	13.0913		-16.3131
88.7175	7.31295		-14.806
91.5057	12.7235		-25.2236
92.3359	-3.44535		-32.1223
92.4265	-1.46855		-31.9651
92.3226	0.432788		-31.3519
92.3171	2.14098		-30.557
91.3228	3.17651		-28.8807
90.2189	4.19887		-26.3414
83.225	-22.9727		-14.1259
84.3482	-24.7987		-15.8448
86.7282	0.804481		-12.0889
82.9792	-14.2567		-11.9579
85.2832	-26.1597		-17.0727
34.2673	31.1068		76.2401
31.7352	94.4183		45.9041
32.9849	101.051		34.4756
7.82248	102.196		46.5594
7.95511	109.881		34.4284
-0.764418	102.676		46.7874
34.4891	107.093		20.6501
36.2929	111.052		4.98651
8.16785	116.47		20.2522
0.0657318	117.06		19.9852
23.2134	121.88		-12.3699
30.2284	117.46		-11.9492
37.0923	113.64		-11.5952
37.613	113.427		-28.1304
60.2373	54.5009		37.9053
70.1553	63.8093		4.57149
73.2607	62.2839		-6.74091
60.1646	91.9457		-10.7789
60.5726	91.8045		-23.9723
7.1056	119.296		-48.9286
6.60579	112.488		-66.0786
-1.07648	119.545		-49.0156
37.584	110.755		-44.4164
37.6907	105.64		-61.3418
74.7176	61.008		-18.0971
74.6865	59.2118		-29.483
60.1997	90.2373		-36.9279
59.5082	86.8269		-49.6843
74.1581	56.3556		-40.2709
73.5358	51.6556		-50.4331
71.6668	45.7873		-57.9123
68.6756	50.6996		-63.8736
46.0555	-91.4326		-62.8099
45.5967	-101.672		-63.8989
45.7149	-111.164		-64.6399
45.6431	-119.93		-65.5613
40.7251	-109.4		-69.277
6.36392	103.172		-81.9767
6.2216	91.4977		-95.3299
-1.1306	103.475		-82.4618
6.27603	78.8595		-104.888
7.30196	65.7373		-112.041
-0.594918	79.0793		-105.376
8.23309	52.7179		-117.117
8.49413	39.525		-120.807
2.40578	53.4442		-117.774
8.34665	25.2711		-122.231
1.28536	25.4756		-122.788
19.7967	-2.73954		-117.547
24.065	-4.26487		-112.914
6.57457	-27.6883		-109.591
6.02947	-38.9955		-99.3151
0.745223	-27.7894		-109.747
4.49401	-47.3658		-91.1383
-1.41815	-47.503		-90.6342
3.82223	-85.0773		-80.3882
-1.19288	-84.8163		-80.525
35.8642	74.0661		-98.3354
36.4488	86.5799		-88.4737
34.9998	61.5578		-104.784
37.1609	96.9761		-76.8497
33.3901	48.8956		-108.089
32.8378	35.5906		-110.928
31.9644	21.735		-112.241
30.9803	7.92401		-111.845
30.0717	-5.1704		-109.661
28.7881	-17.3644		-104.922
30.1009	-29.3562		-103.085
29.4597	-40.3528		-96.5388
29.548	-49.3435		-90.5347
29.0336	-58.1638		-85.3048
27.4265	-67.8033		-80.6611
26.5894	-78.3889		-78.5639
26.1474	-87.7607		-77.7373
35.8785	-108.178		-72.745
36.1897	-117.118		-73.2626
58.7574	81.8216		-61.6907
65.1892	55.7471		-69.4364
64.9967	45.7712		-77.095
63.5711	35.9087		-81.4772
62.8348	25.0975		-84.5197
62.0086	14.2648		-85.7026
60.9756	3.13262		-84.9247
59.215	-8.07649		-82.98
57.6011	-19.2119		-81.0253
56.4228	-29.0852		-77.1524
59.6915	-28.3486		-72.2415
55.2109	-38.6596		-71.7357
54.1146	-46.9103		-66.7318
56.9927	-58.2778		-53.0145
59.3504	-56.6151		-49.8083
74.2053	22.6273		-58.8591
73.572	15.1454		-61.9109
77.0008	18.6843		-53.9894
71.2493	-8.42568		-63.4437
72.0477	-0.16227		-63.1917
62.7011	-26.9273		-67.7812
72.8682	7.74534		-63.3993
64.69	-37.8175		-52.6741
63.1468	-44.892		-49.4646
22.1896	-108.267		61.8901
63.3552	-69.9113		2.21423
56.0845	-87.4663		7.93613
10.1593	-49.7571		95.1521
11.9722	-51.5429		93.8334
13.7776	-53.5882		92.028
6.59869	-55.5047		96.2247
6.69109	-56.166		96.3959
6.79042	-57.1043		96.4787
20.8713	-67.8877		89.7486
19.2374	-65.6908		90.247
17.8692	-63.5821		90.6236
13.5276	-46.5926		93.2203
33.3574	-53.9005		76.1027
26.9017	-31.1343		76.7668
27.178	-36.7502		77.8628
27.1876	-42.6203		78.6288
54.0618	-32.6598		51.6865
19.5278	28.0443		75.4202
78.8878	15.0733		-48.0473
81.0454	14.3378		-28.9629
81.3412	12.5492		-26.5925
74.1634	-41.1318		-2.23636
27.3735	17.6506		72.1864
46.1039	42.2715		70.3536
5.52436	-26.1721		94.3923
44.9282	24.2531		69.169
9.40784	-25.5574		92.3598
81.2227	12.3051		-25.4781
59.2771	-101.834		-40.5162
63.5528	-65.5108		-37.8768
62.2251	-59.1342		-42.9132
61.9595	-53.3601		-46.6144
21.0907	-23.1935		83.5399
10.5463	-55.518		93.2411
17.4302	-58.3652		87.6742
4.73257	-53.0621		93.0005
-71.3268	-41.9299		11.3596
-72.2932	-36.7842		11.9813
-72.93	-40.4646		4.3785
-70.3941	-46.8143		10.4754
-69.152	-43.1166		18.9096
-59.9309	-113.421		-2.44465
-59.431	-102.945		-2.48346
-62.0062	-112.185		-7.2452
-60.864	-123.988		-3.21927
-57.2851	-114.485		2.30841
-61.7617	-131.822		-4.0293
-56.7085	-132.851		-2.24178
-63.5224	-130.031		-8.93128
-59.386	-136.825		-8.10386
-53.4673	-95.7292		10.9222
-56.7564	-94.6206		5.26323
-53.4903	-103.719		10.3503
-50.1518	-97.2639		16.5143
-54.1013	-89.6543		11.6244
-62.8817	-94.4649		-11.5984
-61.3757	-94.9252		-7.05182
-63.0034	-88.7169		-11.5454
-63.8633	-93.3934		-16.8124
-62.9612	-101.563		-11.6657
-61.778	-62.1775		23.9829
-64.2402	-60.0822		16.7223
-60.8142	-66.0609		22.2979
-58.0657	-65.2274		31.8573
-62.6514	-57.875		25.4956
-69.9287	38.7431		25.5372
-73.9816	36.4789		12.8197
-69.1751	31.6648		28.6785
-62.3756	42.4425		35.5795
-70.3885	46.8731		20.3386
-78.3789	44.7504		-28.6242
-78.033	37.9486		-25.0006
-76.1999	47.6095		-19.4157
-77.1974	51.2683		-33.896
-78.2933	40.9154		-38.5635
-4.22519	-116.334		57.0747
-4.60971	-112.269		59.9633
-8.09914	-115.536		54.8384
-5.59099	-121.256		52.6252
-1.31093	-116.672		58.0984
-7.06998	-131.821		44.6527
-8.10541	-142.341		38.0142
-3.5286	-132.126		45.9336
-10.8188	-130.757		43.0403
-1.07815	-150.174		36.0053
-2.03311	-155.138		33.8593
-0.813276	-143.14		39.8687
-4.90219	-149.825		35.4433
-69.7433	-50.9346		-30.7538
-68.8535	-43.1781		-37.0354
-66.0958	-56.6898		-32.2853
-68.0869	-56.7056		-25.2883
-71.1029	-44.6354		-30.2618
-68.0592	-37.6746		-40.7054
-70.4433	-32.5659		-38.1943
-68.8507	-33.0925		-43.1158
-66.1338	-44.2921		-42.7909
-64.4951	-123.435		-25.5992
-65.0062	-126.34		-19.1062
-62.9883	-120.797		-32.4368
-64.5536	-130.215		-27.6593
-0.181241	-132.422		46.5957
0.498576	-121.926		54.6233
-66.0149	-44.3005		27.5537
-65.0779	-49.2373		27.1116
-62.4684	-45.2685		34.8131
-67.2061	-38.6647		27.6856
-65.8243	-58.5675		9.56144
-67.6666	-54.7888		10.417
-66.8712	-58.0478		2.15167
-64.434	-62.7155		8.38234
-6.35458	-97.997		98.4046
-6.46855	-93.3831		98.9381
-11.3027	-97.8279		96.1579
-6.445	-101.85		96.8744
-2.19538	-98.2446		99.5363
-17.0604	-96.9117		92.8011
-16.98	-91.5731		93.3265
-22.7595	-94.665		88.7035
-17.2605	-100.706		91.4583
0.976523	-87.0273		100.062
1.47027	-93.7686		100.528
0.758388	-79.9504		98.6459
-2.76074	-87.2301		99.5595
-3.41172	-105.969		88.734
0.311865	-106.761		89.8088
-8.32055	-105.474		86.7581
-4.33373	-108.847		84.8584
-6.11249	-111.041		80.4435
-6.4613	-109.458		75.4274
-1.57733	-111.924		81.0219
-17.5381	5.67877		80.0663
-14.5543	8.14999		81.9546
-15.9206	10.5181		78.6127
-20.4662	3.83051		78.4345
-19.4884	0.852943		81.1416
-44.6888	-21.9004		66.8135
-44.3642	-26.9555		66.5275
-40.3065	-21.4742		70.675
-44.6209	-17.051		67.3871
-49.7894	-22.4177		61.7809
-54.1879	-11.6293		57.8481
-54.9997	-17.2388		56.6848
-48.6503	-11.9324		63.3956
-52.8821	-5.94723		59.4205
-59.0816	-10.4795		51.5168
-61.8874	9.94716		41.8501
-59.9881	11.2097		46.6067
-61.3957	17.7651		41.6925
-66.6387	8.97433		37.798
-43.8839	-32.0694		66.3545
-39.254	-31.61		70.7391
-48.2662	-32.8943		61.1499
-43.0074	-37.2275		66.7219
-2.10476	6.52705		94.868
-4.16904	5.78847		94.569
-3.69957	0.47006		98.8409
-1.76323	12.2009		91.9614
-31.1108	71.3336		68.3317
-32.3885	76.8826		64.0461
-35.5957	70.5351		65.4938
-29.6313	65.222		73.1045
-25.7769	72.3185		69.9613
2.27445	-110.5		71.5381
2.60238	-110.668		76.497
-1.64997	-110.146		71.1032
2.3095	-110.326		67.1637
-58.3345	-45.4425		42.7812
-59.6964	-39.7645		42.4153
-56.8477	-51.6158		42.8051
-54.2002	-45.8534		49.5574
3.55179	-107.64		89.976
3.22298	-110.505		86.1198
4.1065	-104.096		92.9519
2.76727	-112.205		81.6108
-37.2395	-90.5898		68.634
-37.1984	-87.1037		71.2659
-41.1683	-85.5081		62.5564
-36.787	-93.0227		66.1034
-33.0495	-94.8545		74.725
-42.863	-90.4791		43.4753
-38.202	-94.5259		49.8426
-43.9132	-87.988		46.4344
-47.4378	-85.9298		36.7415
-41.6636	-93.2201		40.2674
2.17255	-110.821		64.105
1.9691	-112.629		61.4378
-1.20706	-110.75		63.4936
-9.04743	-5.67951		99.7843
-6.96421	-4.99559		101.336
-8.13732	-1.02922		96.9171
-12.0585	-6.51827		97.0712
-9.80275	-9.30773		102.046
-30.9101	-18.5579		76.8224
-28.1392	-15.6778		78.5523
-29.8704	-13.5949		76.8989
-32.6201	-19.7974		75.6735
-25.6783	-56.8235		86.8068
-24.2269	-57.5762		87.332
-25.0201	-56.11		87.2662
-17.2508	-23.7783		90.3865
-19.197	-24.3496		88.3225
-16.3618	-24.7405		90.0795
-18.9142	-22.6557		90.3645
-16.2317	-27.9404		88.6944
-14.1989	-27.103		90.7727
-16.3742	-26.9321		89.1118
-19.1547	-28.2658		87.0029
-16.6856	-29.4033		89.0936
-5.50347	-25.3825		99.321
-7.27034	-24.884		98.3148
-5.63836	-25.873		97.9788
-5.57876	-24.9451		101.058
-21.8617	-27.7552		84.3998
-22.3068	-28.9309		84.8336
-21.727	-26.9091		84.9895
-24.5531	-26.0329		82.7036
-11.3033	-18.6871		104.639
-11.6066	-17.0723		104.979
-14.1512	-17.6577		101.117
-10.8872	-20.2018		103.674
-8.75705	-19.4578		106.645
-22.4438	-72.5763		88.6168
-24.0906	-76.6884		87.5825
-19.0065	-74.2414		90.745
-21.1446	-69.2627		89.4735
-25.1922	-70.0135		86.6647
-25.252	-49.9389		88.0301
-26.4782	-50.2415		87.0295
-23.8174	-49.062		89.1151
-25.4971	-45.1229		87.8479
-5.83781	-29.8185		96.0032
-5.57053	-27.7389		96.3592
-7.60822	-29.4301		95.4877
-5.74396	-32.5979		96.0445
-7.25312	4.77026		93.596
-6.30238	9.79132		90.3619
-10.4235	2.61186		91.7956
-24.1081	-16.3034		85.1742
-24.6037	-15.8206		83.7317
-24.6508	-18.048		84.5577
-23.4271	-15.5438		87.1961
-23.1446	-14.5926		87.3398
-9.12217	-25.7033		95.1905
-7.58813	-26.0217		96.697
-9.05128	-24.9578		95.8705
-10.644	-25.8886		94.1923
-8.99661	-27.2722		94.98
-8.83603	-24.5533		96.8679
-8.76623	-24.0376		98.4548
-22.1878	-14.74		89.493
-22.9071	-16.3605		88.3742
-21.9582	-13.9645		89.8006
-24.3108	-20.9575		84.3888
-23.1676	-23.4173		84.3488
-23.7205	-19.3609		86.1241
-5.7063	-44.6792		96.9343
-5.51787	-40.4791		96.7454
-8.08784	-43.5815		96.6767
-5.76376	-46.7693		97.2581
-26.3107	-31.271		82.436
-26.8843	-26.829		81.1511
-28.0542	-30.9774		80.9277
-26.0633	-35.9397		84.7467
-24.6899	-31.6279		83.8469
-6.82193	-68.42		95.4081
-10.4928	-68.7243		94.4772
-6.59169	-71.3464		95.609
-3.58654	-67.1916		95.8449
-7.28447	-65.722		95.3479
-21.4716	-52.6435		90.0311
-22.0541	-51.2568		89.9948
-23.2591	-54.2093		88.6871
-21.5031	-53.6064		89.7657
-21.6513	-13.3615		89.7367
-19.281	-12.6097		92.4719
-21.8335	-12.3884		88.3549
-14.2148	-68.4632		93.1185
-14.3719	-65.6051		93.2051
-17.615	-67.6574		91.5527
-14.4134	-71.4894		92.9787
-0.800173	-66.1263		95.8558
-1.2812	-63.7868		95.7078
-0.268353	-69.4488		96.2685
-53.7906	34.3933		58.4044
-54.5222	35.9798		56.3464
-55.6729	29.4749		53.6397
-52.912	33.1882		60.3216
-38.5033	58.6685		70.2841
-39.8263	63.5755		66.0551
-43.5854	56.5294		65.9771
-37.642	54.3193		73.9999
-34.1922	59.759		73.7307
-48.6446	54.1766		60.4619
-49.8094	59.6674		56.033
-53.2953	51.0006		53.9178
-47.6914	49.3454		64.5474
-37.4073	47.1594		77.6089
-37.4112	49.5166		76.925
-37.429	44.6392		77.8702
-33.4107	49.1291		81.8107
-55.7458	37.943		52.9692
-58.6453	32.4972		46.3878
-51.6464	42.472		61.0842
-56.6641	41.4169		49.7747
-21.3925	39.0159		83.253
-18.7586	37.7902		83.2056
-20.5517	40.6377		84.396
-25.3486	39.4307		82.316
-22.7068	36.9041		81.6204
-6.79141	21.7154		84.1794
-7.16993	18.8809		85.6082
-4.3018	23.5044		85.4912
-6.88981	23.8944		83.3867
-9.25863	19.2284		82.4803
-31.1497	-1.3711		73.7082
-26.2787	0.00766281		75.7999
-28.768	2.937		73.8757
-36.182	-1.77309		71.2838
-32.7595	-6.10306		73.3201
-52.678	13.1407		57.6386
-50.7745	9.75356		60.1082
-50.3595	14.6457		60.2596
-53.1433	17.3732		56.4923
-54.9521	12.0436		55.0629
-6.91889	14.9864		87.7252
-4.63013	16.8409		88.9942
-9.5505	12.6385		85.8507
-37.9037	42.1546		77.5877
-37.9565	39.9944		77.3354
-33.7102	43.0743		80.3971
-42.2542	40.6766		74.3641
-46.2542	38.8245		70.6701
-49.6618	35.6776		66.4996
-45.8158	36.8301		71.1641
-49.1832	22.7861		61.6754
-50.8554	22.6924		59.6647
-49.4842	19.1881		61.6465
-47.7674	23.1722		64.0961
-49.5169	26.3743		63.035
-39.8129	27.6454		72.1413
-38.4483	28.6967		73.3598
-41.0717	26.5707		70.8527
-36.7525	29.4329		74.2889
-35.0488	29.8027		74.8085
-36.8391	30.06		74.8074
-38.622	29.342		73.7718
-34.8799	30.3958		75.341
-32.5003	30.1905		75.153
-30.3405	30.3769		75.321
-32.189	30.7333		75.6066
-29.7246	30.9481		75.8155
-28.3269	30.3018		75.3254
-26.3132	29.4795		74.6465
-24.5098	28.0528		73.5818
-22.7382	26.5335		72.5363
-23.2577	28.5538		73.853
-25.3179	30.0602		75.0496
-21.566	27.1215		72.9062
-21.623	25.2608		71.8784
-22.0121	29.0284		74.3255
-24.4003	30.6223		75.5666
-31.9458	31.4565		76.2828
-29.1579	31.6539		76.4287
-43.9159	22.493		67.5716
-43.1363	21.4915		67.9943
-29.5864	39.1472		80.9204
-29.7293	37.2807		80.0098
-29.3233	41.1367		81.6945
-33.8127	38.6639		79.2423
-43.1898	31.2938		71.9956
-41.8736	30.309		72.4063
-40.5358	32.7119		74.2481
-44.4081	32.9094		71.756
-36.588	13.6162		71.2066
-30.9085	13.791		72.6232
-40.298	14.6448		69.3976
-36.817	11.8259		70.8699
-26.0092	15.0951		73.1212
-25.7742	13.0735		73.3862
-22.6676	16.6088		73.1543
-19.0455	20.358		72.8402
-20.0896	19.1		73.0196
-18.6084	21.2869		72.7014
-35.5379	17.1863		71.4988
-30.7769	17.3107		72.3091
-39.3229	18.2059		70.322
-22.33	20.4647		71.8211
-21.5835	21.0631		71.6306
-23.7881	19.5875		72.104
-20.9836	21.5344		71.5692
-20.3938	22.162		71.6037
-15.3716	28.7745		76.6708
-14.4779	30.4675		78.5105
-17.1915	30.6901		77.3117
-16.5313	26.9109		74.6976
-18.3738	22.8565		72.6672
-26.7598	31.5117		76.2593
-17.5084	26.2301		73.7495
-18.6058	27.9012		74.0875
-16.8796	24.7543		73.6893
-35.5227	18.5136		71.5295
-30.7029	18.6962		72.3396
-22.6095	21.3357		71.2692
-23.9268	20.768		71.6277
-21.8703	21.5956		71.2024
-21.3846	21.9902		71.1068
-41.7946	25.5555		69.69
-4.06944	37.1632		86.494
-4.37316	40.0855		87.169
-6.59619	37.3436		86.1654
-3.65782	35.1721		85.4293
-19.2671	10.1782		75.8927
-22.0108	8.44698		75.0266
-20.6714	6.72386		76.9672
-17.5667	11.9025		76.5762
-19.3238	12.6322		75.1653
-15.6627	13.7214		77.505
-13.6694	15.4897		78.876
-16.2594	19.6151		75.034
-16.325	21.3713		74.2607
-14.3096	20.3		76.5211
-10.9906	27.6192		79.477
-10.2437	28.6487		80.3632
-12.2402	29.8609		79.4435
-21.0297	17.9053		73.1097
-20.1969	16.4519		73.7843
-19.5855	14.6359		74.4576
-21.6274	12.8054		74.2
-18.0893	-55.5106		88.9912
-15.7143	-54.6417		89.9536
-20.1829	-55.7655		88.1618
-17.9189	-55.4045		88.7884
-21.6102	-55.9928		87.5652
-21.4522	-55.8999		87.302
-5.97978	-50.473		97.0322
-5.48266	-51.3492		96.6876
-5.93917	-49.1773		97.253
-8.78892	-49.6131		96.6979
-10.8002	-51.4741		95.3904
-12.4967	-51.226		95.0091
-9.98296	-51.8176		95.0024
-8.24903	-51.3807		95.8812
-11.026	-50.5399		95.8326
-14.0923	-51.7043		94.1352
-16.0248	-53.0824		92.6627
-13.8658	-52.6628		93.4607
-14.4555	-50.6841		94.577
-10.9975	-49.3287		96.2345
-11.064	-48.2889		96.3438
-13.2147	-49.4235		95.4912
-14.5221	-47.4521		95.2007
-15.0172	-48.5275		94.929
-12.5346	-47.2693		95.9691
-14.249	-46.2858		95.2899
-18.0384	-54.1929		90.8065
-18.2716	-53.6799		91.4376
-9.28142	-52.3666		94.3669
-11.3159	-52.5071		93.6595
-8.62407	-52.6584		93.7071
-7.10426	-52.3832		95.0217
-13.4881	-53.2022		92.5028
-13.2915	-53.6101		91.7243
-22.733	-54.9898		88.7268
-23.6983	-55.8918		87.87
-18.2502	-56.1214		89.4261
-18.3358	-56.2273		89.6721
-15.6806	-55.0358		90.5293
-18.1471	-56.088		89.2151
-19.0143	-57.112		90.2972
-16.4015	-56.0355		91.6965
-18.779	-56.7778		90.1717
-13.5537	-55.4099		93.3334
-13.863	-56.0014		93.4348
-10.8495	-55.4074		94.8906
-13.3775	-55.0332		93.1477
-7.35089	-53.8867		95.2821
-4.43145	-53.3762		95.9395
-7.32873	-53.3755		94.5532
-10.4013	-54.2906		94.1707
-7.4678	-54.44		95.8232
-2.29009	-53.9387		96.9746
-2.15782	-53.4765		96.6374
-4.68042	-54.3338		96.7582
-2.44189	-54.4815		97.1642
-21.9612	-57.6367		86.7304
-21.8433	-56.995		87.2581
-20.3903	-57.5761		87.6627
-22.2692	-59.2332		85.9898
-2.15427	-53.5872		91.8512
-2.15182	-52.9727		92.8077
-2.18829	-54.2709		91.2969
-4.25804	-53.7942		91.6685
-2.57278	-55.2533		97.2429
-4.97862	-55.8005		97.0453
-2.69048	-56.4135		97.1639
-1.79406	-61.7134		95.9275
-2.22662	-59.7723		96.318
-4.35387	-62.3629		95.8282
-10.8065	-47.3658		96.4595
-8.74197	-47.4209		96.8561
-10.1501	-45.9879		96.5379
-2.08704	-53.0417		96.0955
-2.08373	-52.7071		95.4566
-2.11341	-52.5787		94.983
-2.20737	-52.5532		94.4572
-4.51101	-52.7866		94.7495
-7.35683	-53.2047		94.1179
-7.3186	-53.1421		93.6652
-10.1601	-53.625		93.1499
-2.25364	-52.6569		93.7334
-4.48943	-52.8345		93.5093
-12.8396	-54.147		91.9271
-12.9948	-54.3037		92.311
-12.7583	-54.1278		91.5339
-14.4228	-58.9936		93.5533
-14.4553	-60.7895		93.5387
-11.4981	-59.3426		94.9991
-14.2675	-57.6577		93.5795
-8.18389	-59.033		96.138
-8.00376	-60.938		95.8468
-5.00697	-58.3371		96.7598
-8.21285	-57.6298		96.3381
-2.58141	-57.9571		96.8589
-13.123	-53.7243		91.1199
-12.9738	-53.6348		90.5754
-10.7153	-53.051		92.1078
-21.8277	-56.7158		88.1394
-20.5702	-56.9409		88.9334
-6.8529	-54.155		91.3261
-6.96255	-53.5302		92.1247
-6.91575	-54.9148		90.8455
-9.66213	-54.5357		90.7581
-7.1461	-53.2105		92.9837
-9.91043	-53.6376		92.1019
-7.62232	-63.2457		95.5003
-11.121	-63.4029		94.6337
-14.0561	-56.7015		93.5335
-11.3062	-56.9272		95.1317
-14.3842	-63.0904		93.3724
-17.3841	-62.5117		91.8943
-12.7323	-53.3008		90.1419
-15.0227	-54.0579		89.3378
-12.447	-52.1523		89.2958
-10.5162	-52.5908		90.6869
-8.34326	-52.1364		91.1593
-8.18347	-52.585		92.0793
-8.78295	-50.9549		89.8626
-6.3834	-51.8455		91.3137
-12.5631	-49.446		87.8596
-14.3335	-49.9938		87.4216
-13.1205	-45.0937		86.4816
-10.8493	-48.8514		88.1476
-22.7668	-62.1723		85.5575
-21.0624	-62.0631		86.6398
-23.4574	-64.757		85.1477
-2.28631	-55.8565		90.7874
-2.86241	-59.2662		90.7556
-4.31276	-56.1876		90.7005
-9.08352	-48.3911		88.3886
-9.23589	-44.2692		87.2323
-7.15055	-48.033		88.5813
-6.91386	-56.8853		90.4068
-7.4419	-60.2699		90.3131
-9.82908	-57.7226		89.8888
-25.0642	-55.2284		81.2538
-26.2619	-54.7005		79.1834
-11.8582	21.3554		78.3018
-11.6198	19.509		79.506
-80.3568	-6.30251		-44.1158
-81.5195	-6.62934		-42.7555
-80.7576	-1.91639		-44.334
-78.6338	-6.12485		-47.0752
-79.547	-10.7665		-43.3352
-77.8796	16.0363		-7.09193
-77.296	18		-1.82035
-77.8834	18.0091		-11.5997
-78.0769	19.702		-17.3092
-78.1763	19.091		-24.9434
-78.5304	14.7615		-18.3735
-77.385	25.1797		-19.0044
-73.0506	-29.391		-36.2677
-74.6766	-26.5553		-37.3399
-72.3195	-33.3148		-33.4397
-75.3315	-27.3439		-34.4768
-75.555	-22.8435		-39.2397
-78.4813	-21.6389		-37.1491
-77.2191	-18.9902		-40.8294
-73.0937	-25.1344		-42.1792
-83.109	-6.50819		-41.6831
-83.5684	-1.46217		-41.6003
-82.3645	-10.6708		-41.0338
-84.6532	-6.0014		-41.2765
-83.1699	-22.5839		-34.2363
-84.228	-23.6583		-33.1441
-81.736	-21.1187		-35.6054
-85.0124	-24.4158		-32.1284
-86.1819	-20.4463		-34.194
-83.7953	-28.2763		-29.7078
-85.7449	-24.7913		-30.9618
-89.3523	-14.254		-32.2412
-90.8785	-9.80965		-34.9128
-89.3113	-13.669		-31.4977
-77.7344	-35.5857		-22.556
-78.1063	-34.1049		-25.4105
-76.8895	-34.8021		-24.5233
-76.6418	-35.8733		-20.6788
-78.2459	-35.7682		-21.9056
-78.6133	-26.8491		-10.5165
-78.3139	-27.4459		-10.4637
-77.7067	-28.6453		-10.6835
-89.6102	-13.4112		-30.6274
-88.8166	-13.9231		-30.0575
-92.6338	1.13253		-33.7948
-92.7457	1.71571		-35.2689
-92.65	-0.0911597		-31.7586
-92.9291	11.4535		-30.9555
-93.1878	12.74		-31.197
-93.1379	14.8519		-30.3157
-92.4015	16.9707		-27.4299
-93.3058	15.2808		-30.7086
-92.349	14.858		-28.1571
-80.9867	-4.19635		-9.82307
-81.9774	1.39801		-10.3329
-80.1888	-8.28591		-9.48333
-80.3533	-3.35071		-8.4591
-75.3048	-18.7698		-3.47648
-76.1983	-14.3361		-2.82632
-74.9244	-22.7041		-4.04859
-74.5777	-18.6086		-0.626014
-79.9991	-15.5505		-12.2223
-79.9419	-13.6884		-12.311
-80.3719	-17.5901		-12.792
-78.5413	14.2749		-18.4757
-78.561	14.2836		-18.2724
-78.5974	15.3887		-22.5661
-86.0235	21.4156		-19.1775
-86.9885	22.9659		-22.2245
-86.7338	20.8227		-18.2631
-84.2008	18.9922		-16.6621
-85.3116	21.8096		-20.4022
-89.4224	22.4412		-25.0474
-85.8335	23.2371		-24.1215
-88.6429	21.3651		-26.3939
-90.0608	20.9741		-28.8306
-89.4382	22.503		-24.9895
-90.4641	6.79658		-39.6941
-91.5141	7.05386		-39.1738
-90.8312	12.7019		-36.7057
-89.6642	6.06956		-40.1501
-82.882	5.8372		-10.8512
-83.137	4.64318		-11.6025
-93.3207	6.21701		-36.681
-93.8639	11.366		-34.2621
-93.3777	6.10498		-37.0439
-93.04	3.46611		-36.9527
-91.3526	17.8955		-23.9134
-88.3085	18.7259		-21.1902
-91.2759	18.8383		-23.4818
-91.2952	16.6656		-24.5487
-84.1851	6.60366		-13.7977
-84.484	8.83118		-14.8488
-83.707	4.92404		-13.1751
-92.9733	7.09947		-33.6688
-92.9638	4.96651		-35.8442
-82.904	-0.395849		-15.0466
-83.3409	1.22129		-14.0097
-82.9631	-0.186588		-15.7918
-89.3324	-1.04686		-27.5421
-91.659	1.31915		-29.0124
-89.2414	-2.16837		-27.7288
-89.0505	-0.586697		-26.9361
-76.5668	-10.2585		-2.69349
-75.5494	-10.4302		-0.110097
-77.14	-5.81374		-3.24993
-83.952	3.7449		-39.9518
-84.9814	6.32922		-38.6736
-83.7694	8.6221		-37.5232
-82.8458	3.2594		-41.0058
-86.9031	11.5663		-36.3034
-87.2856	7.3935		-39.1949
-89.6486	16.2083		-33.8898
-86.9657	15.2861		-32.5003
-88.3268	5.23666		-40.3567
-87.3611	-0.660469		-41.2243
-86.9923	-5.59307		-41.0927
-80.1093	-20.9285		-36.4554
-81.1011	-17.7573		-38.0659
-79.192	-24.0043		-34.5566
-81.8737	-14.3706		-39.66
-80.1739	-14.7472		-40.557
-88.1517	-13.736		-29.0584
-77.8576	-26.814		-33.0121
-75.7245	-29.1776		-31.9371
-76.8782	-35.7051		-17.4771
-76.8286	-36.1248		-16.9844
-76.2041	-36.2938		-16.6976
-75.6292	-36.0377		-22.3122
-89.4427	-2.9131		-28.2153
-91.7724	-1.74176		-29.9022
-79.6492	-2.62483		-7.33468
-78.8852	-1.66085		-6.14836
-77.8299	-15.6808		-6.33165
-78.2104	-16.1535		-7.05304
-81.0119	-21.0347		-12.6473
-81.1508	-20.0447		-13.4124
-80.81	-22.7947		-14.2719
-79.6622	-11.1295		-9.03756
-80.1677	-11.5159		-11.3751
-86.6566	17.4327		-29.3562
-82.6506	19.2029		-27.9307
-83.8298	13.7536		-32.69
-83.2715	12.0419		-34.1249
-79.8903	15.4692		-31.8303
-83.0094	11.7526		-34.9814
-92.0665	8.53581		-28.618
-91.8836	7.0721		-28.2857
-83.3545	0.473739		-17.2284
-83.8535	1.62415		-20.5741
-89.2769	0.211481		-25.8256
-88.6823	0.346761		-24.4996
-90.9946	3.73092		-27.082
-8.5297	86.654		63.2687
-8.87951	94.1908		56.4023
-16.1206	85.8131		62.8378
-8.2565	79.239		68.4988
-7.51085	72.3652		72.8918
-15.0039	72.2039		72.4484
-7.29539	65.068		77.5123
-29.1467	59.6372		77.3199
-23.6943	60.6712		78.5772
-28.9503	55.7249		80.8094
-5.40909	-24.6613		103.118
-7.74268	-24.1695		101.968
-5.72074	-24.1549		104.035
-6.02892	-16.6494		108.245
-6.87512	-18.5431		108.492
-6.12131	-14.3455		107.539
-9.15477	-16.2015		106.986
-6.71849	-20.279		107.952
-6.14562	-21.4442		106.955
-5.74472	-26.487		97.5123
-5.58254	-36.4955		96.4724
-7.74077	-35.8954		96.2254
-6.16831	-22.7442		105.812
-8.27015	-22.3859		104.419
-5.42878	-11.9111		106.499
-4.97613	-8.86815		104.846
-7.94288	-11.9867		105.297
-5.04361	50.2488		86.7861
-5.45124	53.6358		85.1475
-11.618	51.3717		85.8172
-5.08765	47.1206		87.5294
-2.17927	24.3318		86.0884
-2.26051	26.6504		85.3035
-2.11941	21.4231		87.5055
-2.4566	28.6847		84.9014
-3.05617	31.0961		84.6534
-4.75545	28.0114		84.2436
-4.30195	-51.5932		91.3328
-4.04733	-52.3477		92.6364
-4.64585	-50.3167		90.1525
-4.08738	-52.6176		93.7021
-4.25816	-52.6649		94.5638
-6.09535	-52.5997		93.4598
-5.32459	-51.9797		96.3624
-5.08804	-52.2905		96.051
-4.69719	-52.523		95.4871
-5.94826	-48.1002		97.2996
-4.85614	-47.8122		88.7426
-4.76778	-43.8636		87.5491
-22.4787	85.1717		62.0483
-22.8044	91.9628		55.3107
-27.7959	83.8806		60.8876
-22.4672	78.5966		67.4521
-17.8389	52.6934		84.799
-19.0288	54.9008		83.8226
-23.4249	53.8576		83.2317
-17.3029	49.9556		85.516
-17.1793	46.932		86.3182
-18.7107	44.2816		85.6273
-23.1611	47.9295		84.6629
-19.6257	42.5097		85.0637
-24.321	43.0627		83.8318
-15.8187	41.4602		85.6633
-26.1056	32.0672		76.9005
-28.7352	32.3462		77.1212
-23.4015	31.2785		76.3183
-25.2644	33.0761		78.0756
-27.6611	30.8355		75.7684
-24.4237	34.7282		79.7409
-21.6475	33.9413		79.4229
-27.0131	35.1755		79.4382
-45.9286	88.7		39.5938
-44.2558	83.8931		46.8322
-40.5404	92.0148		42.0761
-46.992	94.1073		29.5387
-33.1977	82.4342		59.2756
-38.2474	80.7424		56.5259
-33.8082	88.3848		52.7991
-28.4023	53.7325		82.0817
-32.8179	52.7079		81.1591
-28.311	50.8667		83.0142
-29.0602	43.131		82.4002
-28.832	45.4711		82.8774
-28.3248	48.3444		83.176
-30.2241	34.9829		78.9038
-33.8563	34.2931		77.5003
-30.7562	33.2435		77.5865
-43.2275	78.9638		52.6745
-42.3305	73.9457		57.6129
-49.0606	76.3815		47.8504
-37.497	51.4217		75.9589
-42.0904	49.2634		71.9526
-36.8532	31.5808		75.4585
-39.2501	30.8744		74.1465
-34.4644	31.9302		76.3589
-36.9265	32.3551		75.8406
-38.0914	37.9176		77.0581
-41.8393	36.5441		74.4602
-37.5718	35.6998		76.6469
-37.2464	33.6382		76.1586
-40.9026	68.9851		61.93
-46.2085	66.8963		57.223
-54.7495	74.0137		41.4945
-59.3591	72.1054		33.5179
-53.5343	69.2499		46.9212
-40.0999	28.3241		72.4732
-41.3795	27.1013		70.9898
-41.1403	29.5124		72.3494
-42.4026	28.2642		70.8443
-40.1691	28.9286		72.4283
-45.1802	34.9282		71.4692
-47.6815	32.4056		68.353
-17.2205	36.0361		82.6109
-16.1212	38.0115		84.4457
-18.6254	34.3202		80.7577
-15.3685	34.2242		81.6457
-13.7894	39.845		85.3982
-12.637	37.2095		84.7811
-19.4534	32.6529		78.6115
-20.2403	31.1202		76.662
-4.29275	43.9818		87.6767
-67.3392	-59.1741		-5.03187
-67.5897	-61.1912		-13.8053
-69.4299	-54.7933		-4.32109
-78.6779	25.4507		-38.0889
-77.8353	21.5678		-34.1334
-76.9782	29.5878		-31.0819
-78.3452	30.9803		-41.9208
-78.9247	21.409		-43.3076
-75.8276	-6.19694		-53.3575
-77.0836	-0.352239		-53.1189
-73.6028	-6.6085		-58.9098
-74.7628	-12.0772		-51.8687
-78.1289	6.11766		-52.0481
-79.7089	4.22722		-46.6167
-78.7626	11.7571		-50.0636
-75.922	7.40967		-58.95
-70.2579	-28.816		-46.1858
-71.3154	-23.5867		-48.4933
-66.8595	-32.2914		-49.714
-7.15544	58.7568		81.8018
-13.2711	59.4161		80.9649
-20.1716	59.8245		80.3233
-22.3565	65.3904		76.5775
-20.3725	-106.304		69.2994
-13.9421	-108.696		73.2846
-27.3346	-102.282		63.0978
-19.1029	-107.227		64.7741
-44.6212	-85.7043		49.5842
-45.0032	-82.9009		52.7865
-48.9298	-80.6727		41.996
-40.3919	-90.3945		56.7097
-51.4617	64.786		51.4825
-56.2421	62.1164		44.4002
-22.9577	71.8989		72.3057
-64.9219	69.6674		24.2417
-63.6467	64.583		30.5332
-69.3028	68.4438		14.5476
-23.236	99.8025		45.8338
-16.7647	101.24		46.5957
-23.5473	107.165		34.3376
-29.2954	97.6808		45.2797
-57.9658	46.5567		45.4204
-59.7037	52.7029		40.8629
-43.0893	26.9111		69.4737
-52.0128	32.0037		61.8406
-50.7949	30.7709		63.5301
-52.8897	27.3707		58.7384
-49.4787	29.6814		65.0558
1.42764	-116.879		58.6232
-53.7751	-68.8574		39.8322
-53.4217	-73.0067		37.4329
-49.1676	-73.259		48.6455
-54.0546	-63.8412		42.1552
-9.51906	-43.4604		96.4513
-9.16999	-39.7939		96.3156
-11.1321	-43.7448		96.1042
-22.0712	-48.1918		90.3812
-20.1736	-47.7326		91.7061
-22.215	-44.2838		90.297
-12.4017	-37.4098		94.7586
-12.1283	-33.8049		93.721
-14.9606	-37.9075		93.494
-12.7925	-40.8197		95.2094
-10.3634	-36.462		95.513
-27.9348	-50.8369		85.6905
-28.569	-46.0193		85.0068
-29.6456	-51.451		83.8815
-27.0297	-54.5779		86.1007
-57.0783	23.7226		50.2182
-58.8176	24.6034		46.866
-57.1907	17.5538		49.6326
-54.9886	23.0188		53.7468
-60.5252	25.6102		42.7141
-62.7905	25.7763		37.0036
-46.1965	23.627		65.8953
-46.4735	21.4804		65.3106
-53.0876	22.4376		56.5454
-81.8905	12.2167		-37.2829
-81.8313	15.0134		-33.0408
-80.6635	13.8209		-41.1161
-81.8779	8.06762		-40.5719
-78.267	-15.099		-42.4594
-76.063	-15.9061		-45.5658
-72.5578	-47.9971		-16.0591
-72.7373	-44.821		-23.217
-70.5605	-53.6388		-17.2643
-71.7834	-49.7982		-10.0956
-74.3231	-43.3925		-15.2304
-81.4147	3.27187		-42.9106
-73.6308	-19.2793		2.41578
-73.4524	-20.2352		7.07651
-74.6876	-15.152		3.13354
-74.0331	-24.0183		2.22048
-69.5879	7.85255		29.7932
-72.3746	6.02043		20.7634
-69.3317	-0.00214462		30.3314
-69.5923	15.8926		29.21
-48.8576	16.0995		61.9913
-47.3859	13.9127		63.4198
-47.5042	17.821		63.6376
-46.2818	19.419		65.0025
-45.1711	17.9896		66.019
-72.992	-20.7411		14.0572
-72.9848	-15.3114		14.097
-73.141	-26.4518		13.2811
-71.6482	-20.4812		20.8714
-28.0174	-8.5705		76.9407
-24.8404	-6.35268		78.8087
-25.6952	-3.45609		76.7278
-31.4473	-10.1682		75.4114
-34.9077	-11.1704		73.2934
-35.3881	-15.9427		73.4313
-39.3223	-11.6913		70.9127
-20.7321	-3.99534		81.7608
-22.3174	-7.85547		83.1764
-17.0786	-1.52081		85.6577
-25.7854	-14.894		81.1295
-24.4504	-12.7389		82.795
-21.2352	-17.2614		91.0871
-22.2261	-17.6276		89.3502
-21.0076	-18.8398		90.5655
-19.6422	-16.7861		93.526
-22.92	-18.2765		87.6711
-22.4962	-20.8341		87.3141
-35.3414	-31.3796		74.3013
-35.5133	-26.0863		74.0264
-35.0972	-36.3132		75.9286
-31.9924	-30.8483		77.0524
-35.6014	-20.9559		73.765
-8.94078	-29.4221		94.8299
-10.3331	-29.7905		93.9376
-8.97433	-32.3484		95.2043
-49.9503	-45.0212		56.4614
-48.0959	-51.2474		57.8259
-45.9866	-43.8579		62.4729
-51.5737	-39.4581		55.0722
-25.6411	-40.3723		86.8689
-27.2238	-40.6406		85.4228
-23.9778	-40.0689		88.2088
-34.353	-41.7139		77.7891
-31.4305	-41.2974		81.071
-37.9471	-42.1994		73.4125
-33.0753	-47.2524		79.7299
-9.07621	-35.7788		95.896
-46.2735	-57.7126		59.2692
-44.7727	-65.0153		60.9066
-42.6876	-56.304		65.4666
-50.2713	-58.7942		51.6272
-55.0892	-22.4242		55.3914
-60.1424	-21.8112		48.5767
-54.453	-28.1169		54.4939
-28.426	-98.1975		80.7712
-22.7501	-101.222		85.7003
