1813
21.7518	-106.352		29.2369
33.6556	-97.4592		44.7188
30.4545	-100.016		38.1607
36.088	-95.2904		50.406
25.5144	-102.652		32.5851
19.9412	-105.571		37.1872
22.4537	-126.387		22.154
17.5259	-128.276		25.6604
32.5292	-66.0667		79.4884
30.5711	-63.0987		80.7056
38.0735	-93.3016		55.0057
29.107	-61.3237		81.434
26.8947	-62.5387		82.9221
27.5771	-59.4283		82.0038
26.5035	-58.0771		82.3383
25.4398	-59.5981		83.3111
29.7934	-78.8907		80.6734
30.6009	-83.2297		79.3494
30.9704	-87.3518		77.8488
21.7032	-55.4469		86.1008
19.1262	-54.8858		88.4571
21.3566	-54.7702		84.8878
23.8314	-56.4335		83.2788
21.211	-56.3634		85.0244
18.6072	-54.105		87.0122
21.189	-56.8253		84.6277
21.1666	-58.0929		83.9627
18.4696	-54.8363		85.959
21.0155	-61.1215		83.2138
20.7398	-64.8623		82.8213
18.0359	-60.3836		84.9599
14.1263	-111.008		31.2439
14.959	-107.426		33.3373
14.4265	-117.551		29.1746
16.8676	-148.193		24.3915
15.6372	-140.709		25.9741
12.1705	-149.185		26.3209
18.2813	-153.593		22.8659
13.0622	-129.718		28.9692
7.3506	-105.513		42.103
11.0392	-105.114		40.4363
9.41092	-104.206		51.0832
11.4041	-148.615		24.811
12.7986	-153.845		23.3615
10.8234	-103.712		60.8233
12.5997	-53.0051		91.6332
12.4715	-53.2619		90.9294
12.2612	-53.799		90.23
12.2931	-55.0414		89.2461
12.053	-57.9466		88.2403
12.1335	-61.8989		87.4436
72.2296	47.8492		15.9485
74.5271	45.7997		3.25895
72.1654	54.7661		8.95385
68.6671	50.0488		26.226
81.1656	25.9805		-20.2946
73.7436	-19.6392		-49.4884
70.9204	-21.4927		-54.3019
51.0147	-95.0847		-54.7136
51.749	-85.0014		-53.6425
53.701	-98.0182		-49.215
50.4423	-105.372		-55.5966
46.6944	-92.508		-58.7147
50.1236	-113.964		-56.7125
51.0946	-121.791		-57.7011
46.871	-112.076		-61.2083
56.2698	-81.6682		-40.9146
55.7202	-91.3812		-41.2041
54.4773	-77.8661		-47.0315
57.8611	-73.3954		-39.5503
21.684	112.238		21.0267
28.5424	109.336		20.864
21.6462	116.855		5.824
14.4877	114.28		21.2183
22.1799	102.535		-78.6062
22.8489	111.259		-62.4386
29.3827	100.551		-76.7502
21.4904	91.4322		-91.5455
14.7436	103.814		-79.9237
21.5227	79.2571		-101.327
28.2667	77.6968		-99.2922
21.6638	65.9581		-108.838
14.9473	79.9794		-103.309
24.1383	116.37		-46.1899
30.5397	114.284		-43.9132
15.851	118.844		-46.8825
24.2879	118.767		-29.1416
7.02914	123.158		-11.8375
-0.952502	123.596		-12.0015
7.00628	120.676		5.57712
14.9727	121.265		-11.367
7.0695	122.851		-30.0981
20.8054	52.8868		-113.618
27.7257	51.5458		-111.625
20.4251	39.0481		-117.025
14.1847	53.431		-115.28
19.1942	25.1844		-119.343
25.6744	24.2557		-117.103
18.7735	11.2798		-119.401
12.7191	26.5027		-119.071
16.7162	-27.3119		-108.107
22.5643	-28.1		-105.88
16.3149	-39.0853		-100.703
11.0931	-26.5265		-108.895
17.6198	-14.596		-114.026
6.16764	-0.310072		-119.433
-0.327528	-0.204373		-119.695
6.12902	12.8869		-120.687
12.3335	-0.734445		-118.396
5.17426	-12.8486		-115.943
14.7145	-85.9891		-82.8134
14.4239	-76.2732		-83.5858
20.0747	-86.7287		-81.5553
15.4579	-95.947		-82.8853
9.03594	-84.7499		-83.6085
6.20197	-105.152		-84.0029
11.2344	-105.737		-83.8277
5.81125	-114.426		-83.5437
1.41071	-104.912		-84.1523
4.02528	-93.6008		-83.4792
17.051	-48.368		-94.3908
22.2401	-48.8931		-92.7849
16.4986	-56.7348		-89.9682
10.7437	-47.0545		-95.2021
15.3981	-66.2403		-86.46
20.9756	-67.0568		-84.4721
9.8373	-64.4779		-87.0629
4.57855	-64.2056		-87.5157
4.89017	-54.8781		-91.1403
4.24606	-74.7458		-85.1208
-0.706751	-64.4089		-87.5655
47.0033	97.1371		17.933
52.7456	91.6732		16.6518
47.7498	100.672		4.36464
41.1184	101.785		19.3037
46.8792	71.0254		-89.3315
52.3433	67.9126		-85.1395
46.6786	59.0208		-96.2244
41.1465	73.6001		-93.0611
47.1617	81.9384		-80.1325
47.5499	91.317		-67.9344
41.9361	94.972		-71.2603
48.19	98.2686		-53.6175
53.0685	86.8636		-64.3337
49.0528	101.707		-39.7601
54.9768	95.5857		-38.5492
43.1072	106.969		-40.6872
49.6141	102.747		-25.3291
48.4664	102.851		-10.1915
42.4172	108.002		-10.0774
54.132	96.9946		-10.3436
46.0311	46.5127		-100.758
45.4104	33.6339		-103.938
40.2504	48.2914		-104.587
51.3697	44.4662		-96.6535
44.1021	20.8262		-106.88
49.4232	19.4291		-102.517
43.0825	7.98657		-106.885
38.4642	21.9152		-110.727
41.7381	-4.53304		-105.27
40.5606	-17.5327		-101.515
36.5407	-4.20893		-108.916
46.6335	-5.2666		-100.947
39.782	-30.073		-95.2396
44.5914	-29.7722		-91.4491
39.0719	-41.0764		-88.8134
33.7731	-29.5394		-99.3339
38.3217	-50.4407		-83.3555
37.6962	-59.8153		-78.3633
33.2885	-50.376		-87.0745
42.9468	-50.5505		-78.9901
36.3553	-88.8799		-73.9505
34.0899	-98.5589		-73.985
31.6635	-88.6206		-77.4954
37.2951	-79.1716		-73.7733
40.3388	-89.7081		-69.6302
22.9462	-105.865		-78.683
23.3259	-114.677		-79.0266
17.6907	-105.204		-80.0019
25.6605	-97.3895		-80.1453
28.2154	-106.773		-76.6791
37.2774	-69.4567		-75.1379
41.8109	-69.7398		-70.6155
32.332	-68.8047		-78.8659
66.8608	70.32		-50.8301
68.5111	72.8733		-40.7042
70.5978	62.334		-46.1162
66.0805	64.3578		-61.573
62.6476	76.3369		-56.0944
68.6676	75.0578		-29.0884
71.443	67.4225		-23.8359
64.7708	82.4185		-33.2938
68.0761	76.2282		-17.7496
67.3293	76.8807		-6.94842
69.8538	69.4268		-2.248
63.7528	83.9262		-9.18088
56.0987	42.3191		-92.2595
56.9253	53.7527		-87.3734
60.377	39.8027		-87.4954
55.1396	29.8517		-96.2261
57.0694	64.6993		-80.7063
57.3758	74.1353		-71.9211
61.4195	60.7568		-75.8181
51.4192	-5.95342		-95.8936
53.0258	6.05701		-97.5252
55.8161	-6.82435		-90.3943
49.4964	-18.0738		-92.7521
54.197	17.8371		-97.7785
58.6151	16.5108		-92.5777
48.7738	-29.2658		-87.31
52.7266	-29.2173		-82.2553
47.9701	-40.2832		-80.6192
47.0435	-49.8137		-74.6632
50.5797	-48.149		-70.6204
47.0662	-70.6968		-65.2047
50.8917	-73.1789		-58.7701
46.0975	-80.9202		-64.5133
76.0383	33.9898		-47.5054
75.3054	28.8368		-55.0633
74.5029	40.8743		-52.4893
57.8575	85.4816		15.9607
58.4247	88.9533		2.94254
75.8455	44.6498		-7.78866
75.3948	51.9136		-12.806
66.5842	-7.43324		-73.9248
63.5751	-7.57825		-79.1702
67.7976	2.07806		-75.7928
69.3623	-7.74958		-68.3158
64.5738	-17.2603		-71.0576
68.3023	11.5017		-76.7262
65.5049	13.3074		-82.2841
69.2179	20.5218		-75.3451
71.1198	9.45337		-70.5282
70.043	29.6088		-72.0728
67.3571	33.7155		-77.1159
71.3553	38.7859		-65.8682
72.5612	25.8174		-66.0691
59.1715	-42.3977		-59.9991
56.5679	-44.6832		-63.5732
60.5151	-34.5649		-63.668
61.7704	-40.1802		-56.1733
57.597	-50.1683		-56.2593
67.9865	-23.0555		-58.855
66.2041	-30.4204		-55.7401
65.3931	-24.7289		-63.0535
69.9873	-15.6558		-61.208
53.664	-75.8366		-53.1379
55.2025	-66.6687		-53.086
76.2459	-38.6073		-4.90586
76.6668	-34.9689		-2.77478
74.3859	-41.4757		-2.57377
76.6181	-33.2542		-1.29264
80.7806	-7.82929		-3.31828
81.6424	-2.63448		-5.27586
93.5558	3.6404		-38.2984
93.913	9.29255		-36.0742
94.1923	3.22499		-37.6058
81.8213	-35.5122		-24.7222
80.3023	-38.454		-22.0034
93.6615	13.7707		-32.7991
92.6287	14.0788		-33.3035
93.6413	16.3241		-29.2119
94.6521	13.0476		-32.2858
86.8561	8.34293		-12.1223
85.5282	8.34713		-12.8371
92.8512	17.5846		-24.8164
93.7544	16.8802		-24.0719
88.5131	-19.5269		-35.0891
83.8581	-37.0256		-18.0053
83.745	-37.3438		-15.4068
81.8398	-38.9155		-18.4735
82.1542	0.0294595		-7.06653
88.8581	16.0071		-19.9533
86.8226	12.9315		-17.2809
87.7938	15.1464		-21.5386
84.2915	8.62931		-14.2333
83.4612	9.06113		-15.812
92.2413	13.6447		-33.7966
82.6922	8.80697		-17.2559
84.0795	10.7911		-19.9311
85.8646	12.6107		-23.5718
83.6828	10.4686		-24.7068
86.5572	-27.559		-27.5146
87.6992	-29.9625		-21.2405
80.3116	-40.1461		-19.0935
83.2086	-36.4151		-13.0895
84.4532	-33.5452		-13.0961
85.5256	-31.1851		-14.049
86.0885	-29.6101		-15.0092
94.3595	2.94145		-37.2117
94.5353	8.48336		-35.1439
91.6066	14.4164		-16.2778
91.7835	13.7903		-15.9888
93.1003	15.9335		-19.4172
91.7497	13.1788		-15.8335
93.2673	14.7715		-18.9195
91.549	12.0661		-15.9894
95.0116	12.514		-31.9255
95.0102	14.8717		-28.3023
95.1161	12.0157		-31.7799
94.2902	16.1812		-23.5901
94.4969	15.5956		-23.4628
94.4842	14.9766		-23.1895
95.1231	13.8427		-27.9205
95.0613	11.6491		-31.4659
93.3631	-1.41525		-36.2378
91.2627	10.7534		-16.5335
88.4798	3.51128		-14.0825
93.8142	10.3601		-25.4186
93.2618	-4.90001		-31.4328
93.0457	-2.91929		-31.0897
93.5415	-1.26267		-30.5967
93.3303	0.22103		-29.68
93.3861	0.973757		-28.9866
92.5001	1.81274		-26.3969
83.7771	-26.1406		-12.4779
85.176	-27.7554		-14.3692
86.347	-3.12278		-11.0307
82.2186	-17.8705		-10.4617
86.2045	-28.8898		-15.5489
35.2495	25.3391		74.1785
34.1011	93.5885		45.0846
34.8449	100.189		33.5824
8.11057	102.291		46.5914
7.10148	109.457		34.9916
-0.350255	102.781		46.4795
34.8977	105.966		20.1338
35.3773	110.154		5.62304
7.00954	115.952		21.1207
-1.15335	116.458		20.9373
21.9339	119.263		-10.8621
29.0399	116.335		-10.4229
35.7684	112.645		-10.2919
37.4128	112.419		-26.941
64.3508	52.9706		35.8492
71.4313	62.3163		3.16133
73.2112	60.7111		-7.60252
59.0651	90.8821		-10.3839
60.0126	90.5366		-23.2924
7.11109	120.157		-48.3742
9.4558	112.99		-65.9144
-0.637109	120.482		-48.6136
37.0415	111.082		-42.3644
36.4614	106.168		-58.6066
73.7166	59.6738		-18.3637
73.8835	58.0667		-29.1001
60.7896	89.3366		-36.6668
58.7264	87.5129		-47.6412
74.4559	55.2207		-40.3082
72.6449	51.7479		-50.0301
71.9154	46.5291		-58.4725
68.9443	51.616		-64.5273
43.7283	-91.2436		-64.2295
42.3665	-101.003		-65.0357
42.8315	-110.154		-66.379
43.2061	-118.814		-67.5595
37.7807	-108.655		-70.5727
9.60962	103.679		-81.7511
9.44036	92.0138		-95.3123
1.46413	104.459		-81.8619
9.20008	79.7738		-104.635
9.27701	66.3548		-111.934
2.06197	79.8057		-105.047
9.7968	52.9673		-117.141
9.39443	39.7724		-120.183
1.57976	53.7498		-116.744
5.6403	27.2523		-119.758
-0.968935	27.1352		-120.258
18.2458	-1.83753		-117.804
24.4343	-2.78715		-115.433
5.04901	-26.2087		-109.546
5.17396	-38.4215		-101.421
-1.05169	-26.3678		-109.906
5.06541	-47.171		-95.4721
-0.604318	-47.3902		-95.4306
4.13578	-84.2852		-84.0082
-0.78853	-84.0903		-84.1295
34.7558	76.011		-96.5976
35.002	87.7069		-87.0742
34.4732	62.8965		-103.367
35.7092	98.0315		-74.4412
33.9248	50.0058		-108.45
33.8093	36.7677		-111.869
32.1542	23.2301		-114.241
31.5659	9.52985		-114.203
30.6885	-3.48555		-112.356
29.5632	-16.2668		-108.66
28.3049	-28.797		-102.97
28.0077	-40.1502		-96.1214
27.6181	-49.6899		-90.1753
27.2303	-58.6641		-85.3675
26.6108	-67.849		-81.975
25.9655	-77.8117		-80.0093
26.3015	-87.7959		-79.8946
33.0925	-107.541		-73.9173
33.7525	-116.208		-74.8481
57.929	82.0991		-60.4417
65.381	56.7228		-70.2041
65.0191	47.1964		-77.2634
64.0373	37.1206		-82.4902
63.0057	25.7525		-86.3741
62.2301	15.0626		-87.566
61.2557	3.91316		-86.8852
60.0967	-7.4482		-84.7239
58.1125	-18.257		-81.612
56.2727	-28.2592		-77.5487
59.4953	-27.6044		-72.4241
54.8356	-37.9598		-72.0891
53.3934	-46.3224		-67.0784
56.7449	-58.505		-53.5735
58.8112	-56.95		-50.1427
74.5354	22.6257		-60.4421
73.8283	15.2656		-63.5883
76.3475	18.8907		-54.3365
71.5535	-7.7875		-63.2842
72.9607	0.0885791		-64.4555
62.4151	-26.3026		-67.7808
73.4959	8.06318		-64.794
64.4446	-37.7673		-52.4644
62.9439	-45.0562		-49.3553
15.7069	-108.121		40.6594
61.6809	-72.7903		3.46737
47.6637	-88.2791		5.08144
13.7503	-46.2989		97.0098
18.8667	-47.4872		92.5108
21.9422	-49.6946		90.0883
7.19476	-56.1367		97.067
7.43168	-57.26		97.1553
7.61837	-58.3286		97.0963
24.6966	-64.8258		84.8681
23.8352	-62.3521		85.4571
23.2231	-60.7964		85.9704
19.7192	-42.9257		91.7021
38.3153	-53.7419		77.4437
31.026	-32.2985		82.2298
31.7174	-37.8295		82.7055
32.2066	-43.0868		82.8887
60.5289	-37.4197		56.4323
22.0257	23.4965		73.0905
77.8808	15.1072		-47.8813
82.9731	12.3046		-28.9623
83.5441	10.352		-26.5565
72.8258	-44.3064		0.977254
27.6612	12.4619		71.5786
53.0857	39.554		65.5689
8.10754	-26.8943		96.4229
45.8621	17.0594		68.3556
11.7423	-25.278		93.9225
83.3584	10.1971		-25.5061
55.3276	-101.047		-42.0361
60.7057	-65.4151		-37.7304
61.3405	-59.7574		-43.157
61.4527	-53.7863		-46.6772
25.6098	-23.8259		84.1829
13.1583	-54.0746		93.1505
25.3077	-56.0434		81.9008
6.96774	-50.943		94.6657
-69.0209	-48.5499		12.8464
-70.0927	-43.6712		14.4024
-70.2716	-46.6292		5.74322
-67.8239	-53.1124		11.1866
-67.7884	-50.2019		21.17
-54.8488	-115.687		-10.3269
-54.6596	-105.246		-10.3883
-56.6089	-114.716		-14.4933
-55.6595	-127.658		-9.92253
-52.235	-116.796		-5.95698
-56.9806	-136.155		-10.5563
-54.4692	-137.53		-6.20466
-58.6749	-134.308		-15.2535
-58.0445	-141.707		-11.2673
-50.4372	-101.043		3.61543
-53.8094	-99.9063		-1.43821
-48.7905	-107.408		-1.27365
-45.1997	-101.664		4.21355
-50.9028	-95.1673		4.61716
-60.2086	-97.8221		-14.7183
-58.6398	-98.4228		-10.37
-60.3411	-92.4114		-14.414
-61.1931	-96.4639		-19.8333
-57.8309	-103.892		-18.6961
-61.5876	-67.8154		21.7045
-62.6905	-66.6428		14.4257
-59.7259	-71.6791		19.4908
-59.8924	-69.3006		29.3295
-63.2492	-64.1778		23.7399
-68.2996	30.6884		21.8678
-71.9624	29.1757		10.2228
-67.6276	22.942		25.2297
-64.317	33.5527		32.8456
-69.1756	39.0333		17.1181
-76.5024	41.2131		-30.1835
-77.9176	33.5424		-25.5159
-78.6616	43.3102		-19.8992
-74.9686	48.1935		-35.285
-76.3959	38.0354		-39.6227
-8.59999	-112.644		34.6791
-8.82224	-108.361		36.9341
-11.5826	-112.263		33.682
-8.35373	-119.637		33.6015
-6.16587	-112.859		35.3015
-8.99252	-130.523		30.7746
-9.7313	-141.541		27.3573
-5.85534	-130.674		31.7997
-12.4531	-129.67		29.3691
-3.03347	-149.717		26.6843
-2.74969	-154.99		25.5249
-2.84184	-142.06		28.7946
-6.64075	-149.452		26.2027
-66.4152	-53.7476		-32.9572
-67.9383	-46.3079		-37.3257
-63.7191	-59.8393		-35.1784
-65.6015	-60.2339		-27.7052
-69.4739	-47.9367		-30.923
-69.1671	-41.132		-40.6662
-72.5993	-36.9371		-37.5836
-70.3735	-36.6604		-43.1026
-65.3971	-46.5634		-43.6613
-59.7813	-127.067		-31.2536
-60.2701	-130.51		-24.8933
-58.0918	-124.284		-38.2107
-59.8371	-133.636		-33.4332
-2.89696	-130.931		32.313
-3.13634	-120.109		35.0302
-66.0565	-51.4871		28.4507
-65.2515	-56.9337		27.6716
-64.4082	-51.9222		35.2254
-67.3777	-45.3524		28.4558
-63.8103	-65.0762		6.89699
-65.3253	-61.0336		8.32193
-64.6555	-64.242		-0.917715
-62.1824	-68.9545		5.1771
-10.0656	-92.2303		94.1349
-9.75623	-87.5165		95.0426
-14.3257	-91.9537		91.9418
-10.3579	-96.3364		92.0972
-6.211	-92.4605		95.5964
-19.3816	-90.8692		88.5174
-19.3299	-86.1536		89.2936
-24.0751	-89.032		85.2375
-19.2313	-95.2275		86.7688
-3.244	-82.9915		96.6594
-3.23995	-87.9203		97.0634
-3.13744	-78.0857		95.6704
-6.35022	-82.7503		95.9978
-10.3738	-99.2016		89.2632
-6.59469	-99.3802		90.6436
-14.5057	-98.9449		87.1387
-10.5514	-101.672		85.0565
-8.32662	-105.387		77.6527
-9.74231	-102.971		68.8026
-4.09692	-105.893		78.3608
-18.4062	4.33138		81.4563
-15.5594	6.33469		83.5449
-18.3343	8.36632		78.5351
-21.1927	2.83626		79.5431
-18.5644	0.172447		84.0429
-46.3733	-25.8952		72.8117
-47.248	-30.8379		72.2891
-41.3675	-24.2813		76.4952
-45.8631	-21.1459		72.863
-51.7378	-27.2765		67.6086
-55.9703	-17.1734		61.9028
-56.6053	-22.7887		61.44
-50.5242	-16.9608		68.1087
-55.2261	-11.7469		62.1122
-61.3032	-16.583		53.8619
-66.6869	0.934365		41.0364
-64.3906	2.90028		45.3622
-65.4199	8.21752		40.3909
-68.6352	-0.34067		36.1635
-47.7264	-35.8088		71.4005
-42.5459	-34.1907		76.2288
-52.8366	-37.0835		65.4845
-47.7709	-40.6992		70.985
-1.22388	3.25617		102.164
-3.06937	2.8028		101.545
-0.865096	-1.36074		105.973
-1.5625	8.72684		97.7344
-31.4672	69.2497		68.5268
-31.379	75.8676		63.4833
-36.9415	67.5689		65.0501
-30.6266	62.6952		73.9123
-26.2262	70.1792		71.3414
-2.27892	-104.553		61.9866
-1.68668	-104.201		70.3991
-5.74812	-104.237		61.3786
-2.88034	-104.923		52.7449
-62.1664	-51.8199		42.5535
-63.5316	-45.3525		43.1697
-60.3842	-58.2855		42.3881
-59.4951	-51.1203		50.0421
-3.24305	-99.6083		91.3521
-0.358826	-104.323		84.8754
-3.05898	-96.6173		94.4144
-0.479646	-106.119		78.7688
-38.6065	-86.8841		65.5142
-39.1093	-83.6843		68.6381
-43.0353	-83.8271		59.6831
-37.6215	-89.6845		62.479
-33.7759	-89.9174		71.3754
-41.4105	-91.4908		37.1255
-37.1096	-94.09		42.7033
-43.8217	-88.1837		41.8961
-45.4063	-88.5909		31.2853
-39.0778	-94.9102		31.886
-3.39215	-105.835		43.7049
-3.97391	-108.545		37.8097
-6.08296	-105.735		43.0561
-6.25311	-5.98567		106.376
-3.41818	-5.35227		108.194
-5.95647	-2.24411		103.379
-9.39865	-6.85802		103.294
-6.50729	-9.05484		108.802
-26.7846	-18.2169		83.1973
-23.5102	-15.2444		85.123
-25.2575	-13.2577		83.2445
-30.5274	-20.4328		81.5393
-30.4941	-56.1048		82.1004
-28.3917	-56.4094		82.6206
-29.2409	-55.383		82.4945
-13.0748	-23.9664		95.4699
-15.2	-24.1131		93.5039
-12.407	-24.9479		94.9174
-14.5562	-22.7791		95.4209
-12.7721	-28.0386		93.3977
-10.536	-27.6114		95.0336
-12.5698	-27.0829		93.5446
-15.4764	-28.0469		91.4235
-13.3	-29.5352		93.2504
-1.04647	-25.398		103.17
-2.90716	-25.1292		102.291
-1.25628	-26.2318		101.62
-0.747984	-24.7973		104.968
-18.315	-27.1642		89.4591
-18.8765	-28.6542		89.3122
-17.8395	-26.198		89.8325
-20.8589	-25.4642		87.6662
-6.26248	-17.7288		111.17
-6.47873	-16.2317		111.679
-9.45819	-17.113		107.683
-5.97214	-19.3164		110.095
-3.19602	-18.4042		113.284
-25.3557	-69.0143		85.5603
-26.538	-72.7977		84.6302
-21.653	-70.8851		87.341
-24.3405	-65.9656		84.9434
-28.6456	-67.0156		83.0782
-29.2962	-49.7616		85.3762
-31.2562	-50.4685		83.9438
-27.0926	-48.9496		87.1236
-28.5992	-45.6241		86.9006
-1.71206	-30.2205		99.3173
-1.554	-28.266		99.9726
-3.6251	-29.9488		98.9441
-1.76943	-32.561		99.243
-5.60649	1.96667		99.9816
-6.08653	6.86975		95.5989
-9.19858	1.0664		96.8207
-19.4287	-16.7862		91.4256
-19.8842	-16.1859		90.0689
-19.7347	-18.1491		90.66
-18.3661	-16.1963		93.5611
-18.1641	-15.1384		93.6149
-4.92334	-26.4559		99.319
-3.34762	-26.6729		100.128
-4.83527	-25.5834		99.8971
-6.56881	-26.6913		98.0394
-4.85632	-27.953		98.763
-4.58198	-24.8964		101.08
-4.37118	-24.2344		102.647
-17.6122	-15.2584		95.7291
-17.9817	-16.9583		94.7745
-17.3759	-14.3283		95.9934
-19.6544	-20.6129		89.7856
-19.0744	-22.8625		89.7935
-18.8416	-19.6291		92.0875
-1.99055	-40.7313		100.26
-1.92356	-37.9124		99.7461
-4.48071	-40.1025		100.104
-2.27117	-42.6792		100.613
-25.1364	-30.7955		86.2206
-23.6827	-26.4137		85.9469
-27.4097	-30.9214		85.0629
-26.5897	-35.7759		87.0293
-22.6892	-30.9113		87.6585
-8.57029	-67.532		94.5359
-12.3749	-67.0671		93.4931
-8.72638	-70.0368		94.0141
-5.1717	-67.7176		94.9909
-8.44526	-65.4393		95.2336
-24.3642	-51.491		87.7183
-24.2883	-49.7721		88.9585
-26.9068	-53.1151		84.646
-24.8483	-52.2511		86.8944
-17.1545	-13.6895		95.8479
-15.4087	-12.7177		98.5845
-17.3539	-12.8083		94.3426
-16.0693	-66.1693		91.5389
-15.7133	-64.2039		92.0683
-19.7303	-65.0149		88.7933
-16.6707	-68.7238		91.1818
-2.35524	-67.8667		95.1655
-2.28714	-65.828		95.4471
-2.48665	-70.0546		94.7907
-56.9734	27.0974		54.9014
-57.6054	28.5103		52.808
-58.3662	21.071		50.7301
-56.1908	25.8223		56.8431
-41.4773	54.114		68.5931
-42.1675	59.5667		64.4349
-46.7911	51.4088		63.1681
-40.8809	49.4495		72.0258
-36.4642	56.0768		73.392
-51.7715	47.7803		57.3533
-52.4938	53.3159		53.0241
-56.1886	43.3947		50.5527
-51.123	43.395		61.1991
-40.473	41.6579		74.4986
-40.8119	44.5686		74.4998
-41.2517	39.4885		74.8273
-35.7518	44.178		79.8371
-58.644	29.9326		49.3923
-60.7173	23.4705		43.8291
-55.2174	35.8635		57.291
-59.3749	32.8534		46.2847
-23.3835	34.144		80.4598
-19.5373	32.7648		81.0341
-22.937	35.8121		81.724
-27.3704	34.3682		79.3179
-23.9008	31.9618		78.6185
-7.26713	17.5247		86.7452
-7.06611	15.0367		88.6038
-4.17806	18.8306		88.4353
-7.18437	19.3063		85.501
-10.2205	15.7113		84.0739
-31.5533	-2.66076		75.8439
-26.4209	-0.623589		77.6801
-30.2459	1.48529		74.7275
-37.7924	-4.41352		73.5411
-32.8397	-7.22563		77.0116
-57.2373	5.8109		54.8899
-54.7904	2.93579		58.2789
-55.0559	7.43273		56.9828
-57.7768	9.55352		53.2708
-59.2161	4.57063		52.8263
-6.47667	11.3519		91.7014
-3.89057	12.6807		93.3076
-9.39263	9.56031		89.334
-41.5716	37.3117		74.4997
-41.3684	35.2433		74.2035
-36.0217	39.0068		78.6408
-46.3144	35.7978		70.9543
-50.5269	33.442		67.1446
-53.6048	29.3596		62.8468
-49.9448	31.4682		67.6157
-53.8363	14.742		58.1943
-55.5397	14.5189		56.2542
-53.4987	11.3529		57.784
-51.8876	15.1604		60.1286
-52.89	18.4122		59.4863
-42.0543	20.7771		68.482
-40.473	21.8797		69.7914
-44.1719	19.5434		67.0013
-38.8727	22.8582		70.7472
-36.9017	23.4838		71.3649
-38.6002	23.6182		71.146
-40.4804	22.6212		70.1212
-36.4147	24.285		71.7884
-34.3614	23.8923		71.7402
-32.0645	24.1035		71.935
-34.1021	24.717		72.1923
-31.2701	24.8269		72.3091
-29.944	23.9384		71.9204
-28.1	23.3929		71.6164
-26.0806	22.4142		70.9227
-24.2889	21.5911		70.1972
-24.8745	23.1628		71.2412
-27.0373	24.0644		71.9449
-23.0362	22.2853		70.5666
-22.9678	20.7495		69.734
-23.5344	23.7444		71.6704
-25.567	24.724		72.4739
-33.521	25.6397		72.7257
-30.8458	25.7812		72.9393
-47.601	15.0061		63.2818
-46.5822	14.2094		63.8649
-31.6076	34.044		77.9102
-31.5557	32.044		76.5644
-31.5577	36.2707		79.1342
-36.0352	33.3012		75.9486
-46.42	25.4667		68.52
-44.7901	23.7927		68.8581
-43.5894	27.0178		70.7792
-47.989	27.5933		68.2163
-38.7443	8.78976		69.476
-32.6139	9.51138		71.3097
-43.5253	8.90062		67.0943
-39.1966	6.92536		69.6084
-27.8163	11.1102		71.7536
-27.8983	9.66819		72.2462
-24.5615	12.7159		71.4804
-21.0874	16.574		70.7373
-21.9235	15.3004		71.0212
-20.6972	17.5558		70.6374
-38.0913	12.1619		69.4975
-32.8534	12.6045		70.9834
-42.2914	12.5079		67.5265
-24.0938	16.1104		69.9247
-23.3068	16.72		69.5956
-25.5615	15.0853		70.4009
-22.7493	17.2784		69.6181
-22.1699	18.0618		69.6322
-16.2445	24.3841		75.2587
-14.5089	25.7039		77.6026
-17.4663	25.7748		75.3866
-18.1909	23.0308		72.8421
-20.4059	19.1092		70.6263
-28.1595	25.5872		72.8919
-19.109	22.2784		71.729
-20.287	23.5112		72.0301
-18.9254	21.1726		71.7086
-37.9889	13.3991		69.45
-32.8422	13.7767		70.794
-24.3486	16.9061		69.4871
-25.739	16.2578		69.9792
-23.632	17.2905		69.3298
-23.1803	17.7254		69.1583
-44.9457	18.2571		65.6583
-1.19671	32.1449		87.0164
-1.62888	35.2289		87.4835
-4.07304	31.9118		86.0731
-0.58469	29.9736		86.4316
-22.4791	8.00702		74.9491
-25.1807	6.52102		74.4713
-22.9622	5.32597		76.4463
-20.4648	9.42643		75.5665
-22.2957	9.98311		73.8771
-18.1472	11.0459		76.6336
-15.29	12.6778		78.5148
-18.322	16.3972		73.0069
-18.68	18.1285		72.1682
-16.3759	17.2173		74.7069
-11.7546	23.072		79.5781
-10.435	23.7269		80.8313
-12.1033	24.8658		79.2359
-22.8491	14.0519		71.1571
-22.3328	12.9132		72.0007
-22.2738	11.6568		72.861
-24.6191	10.1171		72.7978
-20.1617	-53.9472		86.8288
-16.1759	-52.9735		89.499
-23.5401	-54.5821		84.1947
-20.0664	-53.877		86.5831
-25.4022	-54.8774		82.9722
-24.9626	-54.7896		82.9873
-2.42381	-46.0915		100.528
-2.1348	-47.2973		100.099
-2.46261	-44.7913		100.745
-5.21257	-45.6697		100.283
-7.44954	-48.2409		98.5093
-10.4983	-48.6766		97.4629
-7.36952	-49.3908		97.5078
-4.97426	-48.1817		99.1231
-7.69086	-47.0005		99.2527
-13.3086	-49.2278		96.0673
-16.0508	-50.1912		93.8919
-13.0405	-50.2805		95.0088
-13.5722	-48.0871		96.8144
-7.67032	-45.6937		99.7588
-7.63516	-44.3861		100.071
-10.5102	-46.1702		98.8066
-12.3945	-44.5571		98.3391
-13.254	-45.6898		97.8646
-9.47588	-43.799		99.5676
-12.0654	-43.4199		98.4841
-19.3833	-51.9106		90.2054
-19.4581	-50.7258		91.655
-6.88018	-50.409		96.3618
-9.98341	-50.7382		95.2843
-6.48404	-50.947		95.4997
-4.26897	-50.1705		97.1835
-13.1505	-51.4248		93.5153
-13.1611	-52.0371		92.4918
-26.2969	-53.7484		84.451
-27.4375	-55.1423		82.9511
-20.3313	-54.8807		87.3256
-20.3782	-55.052		87.5057
-16.1873	-54.1678		90.4359
-20.1479	-54.8769		87.1384
-20.857	-56.2309		88.0626
-17.2396	-56.0871		91.4861
-20.7127	-55.788		87.9776
-14.1124	-56.1884		93.8805
-14.498	-57.0174		93.9565
-10.9826	-56.3833		95.6951
-13.8745	-55.4506		93.6956
-6.82373	-54.1681		96.4255
-3.87945	-54.0591		97.11
-6.52988	-53.1445		95.9993
-10.2109	-54.4014		95.2705
-7.06152	-55.3821		96.7747
-2.08196	-56.555		97.9463
-1.95175	-55.272		97.7058
-4.32974	-56.5327		97.689
-2.06628	-57.7413		98.1323
-25.4898	-56.3391		82.2177
-25.3589	-55.7294		82.8869
-23.4903	-56.1931		83.8409
-25.2429	-57.6942		81.8325
-1.34546	-53.1589		93.8848
-1.16363	-52.3722		94.7233
-1.49681	-54.6247		92.4686
-3.28319	-53.2088		93.2535
-2.11785	-58.9494		98.0885
-4.48471	-58.9055		97.8483
-2.15674	-60.0619		97.8746
-2.27623	-64.2198		96.6176
-2.10712	-62.3934		97.2014
-4.84843	-63.9549		96.5794
-7.34378	-43.4433		100.166
-5.0523	-43.2333		100.573
-6.66652	-42.1114		100.194
-1.78828	-53.9874		97.3463
-1.48546	-52.9322		96.8721
-1.34836	-52.4524		96.5239
-1.34294	-52.249		96.1695
-3.49294	-52.4777		96.3171
-6.38921	-52.6768		95.6553
-6.30141	-52.4972		95.3644
-9.61946	-53.0533		94.5562
-1.34329	-52.1547		95.6068
-3.34351	-52.2422		95.4373
-12.962	-53.5639		92.8249
-13.1716	-53.9126		93.1247
-12.8793	-53.4263		92.4683
-15.0575	-59.8213		93.6265
-15.3063	-60.9273		93.2273
-11.9749	-60.355		95.2885
-14.8396	-58.86		93.8567
-8.10795	-60.7361		96.6792
-8.23707	-61.8993		96.2299
-4.60663	-60.9836		97.4113
-8.01374	-59.6997		96.8562
-2.12011	-61.1613		97.4941
-12.8899	-52.1907		91.8162
-12.7724	-52.0851		91.2455
-9.55736	-51.503		93.57
-25.4555	-55.467		83.525
-23.5844	-55.5801		85.0019
-6.0205	-53.5197		92.7455
-6.02596	-52.7302		93.8618
-6.28679	-54.9939		91.8415
-9.17815	-53.8741		91.8429
-6.05511	-52.4908		94.8039
-9.37529	-52.8526		93.6763
-8.2232	-63.4766		95.55
-12.0796	-63.0521		94.3862
-14.7098	-57.8726		93.95
-11.5143	-58.3897		95.7122
-15.4517	-62.4714		92.7552
-19.1158	-61.6879		89.3773
-12.5248	-51.7519		90.8987
-15.6224	-52.507		89.1681
-12.0166	-50.4966		90.2228
-9.44351	-51.0174		92.171
-6.30237	-50.5784		93.0971
-6.2404	-50.9365		93.8945
-6.80837	-49.3818		91.8095
-3.87418	-50.2372		93.3667
-11.5227	-47.5877		89.1229
-14.0715	-48.2051		88.0235
-11.7587	-43.6531		88.0602
-9.17453	-47.0068		89.9232
-24.8883	-60.7289		81.5308
-22.8852	-60.5468		83.1875
-24.1951	-64.1543		81.7678
-1.60546	-57.6144		91.2872
-1.92588	-61.4411		90.6378
-3.62716	-57.6842		91.1607
-6.90301	-46.5644		90.4232
-6.98023	-42.6858		89.4233
-4.39571	-46.2457		90.7784
-6.35325	-57.8559		90.763
-6.64984	-61.9704		89.9575
-9.52519	-58.1705		89.9997
-28.1382	-55.8363		77.0252
-28.3181	-55.5734		76.436
-13.8335	18.1805		77.5382
-13.0402	16.3385		79.2658
-80.0942	-9.15767		-43.1638
-81.307	-9.68329		-41.5416
-80.545	-4.46314		-43.2982
-78.7995	-8.36398		-46.5132
-79.7482	-13.4937		-42.128
-76.3391	8.34037		-7.95632
-75.3668	10.6162		-3.05404
-79.8906	12.5928		-12.9324
-79.6478	14.2194		-17.8214
-78.6531	12.8683		-24.0652
-79.8228	9.12411		-18.9667
-79.3532	19.6668		-18.7143
-75.1666	-33.9957		-35.2446
-76.5268	-30.1885		-37.0382
-74.0056	-38.1164		-32.7556
-77.6752	-31.8419		-33.6071
-77.4761	-26.4883		-39.2967
-79.5795	-25.5058		-37.0706
-78.5234	-22.7355		-40.6644
-74.9479	-28.479		-42.1511
-82.8659	-9.56396		-40.6343
-82.5116	-4.76026		-41.3176
-82.2094	-13.8482		-39.6235
-84.7414	-9.09409		-40.327
-83.9946	-26.8742		-33.8383
-84.9936	-28.0006		-32.7238
-82.7145	-25.241		-35.2401
-85.7314	-28.798		-31.7003
-86.5775	-24.4313		-32.816
-84.7033	-32.5264		-29.4687
-86.385	-29.2359		-30.5268
-89.5886	-18.3015		-31.299
-90.9627	-13.7408		-34.5456
-89.5683	-17.7217		-30.5201
-78.0069	-40.6816		-19.737
-79.5271	-39.2661		-24.3754
-77.2027	-39.7863		-21.8253
-77.4587	-41.3605		-17.7777
-78.4326	-40.909		-19.0579
-80.0119	-33.5802		-7.42792
-79.6932	-34.1485		-7.4069
-79.0636	-35.3545		-7.68767
-89.5022	-17.3451		-30.1049
-89.0269	-17.9248		-29.2512
-91.7182	-2.44576		-33.985
-91.8477	-1.76329		-35.5374
-91.5343	-3.79687		-32.3317
-92.3031	7.90802		-31.5908
-92.6006	9.28497		-31.7043
-92.7876	11.3958		-30.7776
-91.6976	12.9937		-27.9703
-92.989	11.8682		-31.1719
-92.0106	11.0543		-28.6115
-82.1622	-11.2887		-9.123
-81.5165	-5.7603		-10.3142
-81.8546	-15.1027		-8.37362
-81.6104	-10.5588		-8.00465
-77.2818	-26.7839		-1.46962
-78.0055	-22.6182		-1.29579
-76.5533	-30.5232		-1.43354
-76.283	-27.2485		1.28481
-81.4756	-21.9002		-10.4436
-81.5958	-19.9981		-10.9206
-81.8136	-23.8806		-11.0118
-79.8117	8.61503		-18.9571
-79.8364	8.60797		-18.7522
-79.0433	9.1517		-21.7313
-86.2865	15.3682		-18.8437
-87.4217	17.0406		-21.7799
-86.9665	14.5817		-17.7021
-85.4422	12.4518		-15.9403
-85.5007	15.7433		-19.9611
-87.2145	17.7512		-26.8377
-86.3188	17.4978		-23.8292
-86.3489	16.5553		-28.2353
-88.4809	16.9121		-30.1367
-87.4857	17.8802		-26.3807
-89.7642	3.56946		-40.0386
-90.9964	3.87618		-39.4756
-90.3855	9.66277		-37.1627
-88.9616	3.08113		-40.2168
-83.8869	0.198624		-11.8645
-83.6601	-0.992671		-12.5749
-92.7255	3.01173		-36.9752
-93.2649	8.19408		-34.8016
-92.7847	2.92118		-37.3273
-92.247	0.124121		-37.1333
-89.8757	13.0342		-24.5353
-88.8006	12.4386		-20.5864
-89.9331	13.9407		-24.0074
-89.6913	11.6513		-25.2525
-84.4795	0.0679852		-14.0702
-85.1053	2.42107		-14.8002
-84.0242	-1.37066		-13.7803
-92.2249	3.65444		-34.2245
-92.3216	1.59506		-36.0588
-82.922	-6.29706		-15.7152
-83.3263	-4.55824		-14.6893
-82.8356	-6.18931		-16.2324
-87.0394	-6.41249		-28.4231
-90.6139	-2.53628		-29.525
-87.1634	-7.24861		-28.4201
-86.7663	-5.9876		-27.8322
-78.5542	-18.7165		-1.54522
-77.6392	-18.9015		1.04945
-78.9859	-14.359		-2.85674
-82.6494	0.532369		-40.019
-83.6786	3.15165		-39.0886
-82.4967	5.29357		-37.9924
-81.5901	0.0131231		-41.1198
-86.7016	8.3863		-36.2556
-86.5907	4.19702		-39.2103
-89.2597	13.0925		-34.3897
-85.8837	11.7019		-33.3909
-87.7704	2.06601		-40.2347
-86.0586	-3.71001		-41.0361
-85.6622	-8.86073		-40.5483
-81.2057	-24.9461		-36.144
-81.7878	-21.2738		-36.7678
-80.1151	-28.0431		-34.6768
-81.8624	-17.534		-38.0813
-80.2207	-17.7751		-39.1233
-86.6272	-18.6491		-28.4317
-79.4244	-30.7789		-32.8483
-78.2317	-34.4596		-30.5458
-77.2007	-41.0601		-14.9124
-76.6863	-41.3222		-14.7521
-76.1123	-41.5293		-14.4446
-76.0626	-41.1977		-19.928
-87.5902	-7.80601		-28.7083
-90.4495	-5.71439		-30.4675
-81.2464	-9.91249		-6.84259
-80.3924	-9.52928		-5.5041
-79.4016	-23.0409		-4.91864
-79.6664	-23.1585		-5.35065
-82.298	-27.2774		-10.5287
-82.5226	-26.265		-11.3648
-83.2756	-29.2346		-11.8744
-81.3207	-17.9642		-8.05121
-81.8039	-18.0353		-10.1119
-84.2344	12.5789		-30.8316
-83.0912	13.2897		-27.6138
-82.0396	8.92221		-33.6749
-81.208	7.59766		-35.4538
-80.3425	9.54639		-31.2282
-81.2284	7.66205		-36.2185
-91.2706	4.67856		-29.3123
-91.0169	3.15051		-28.9411
-83.196	-5.82308		-17.392
-83.7124	-5.18596		-19.4227
-86.636	-5.20064		-27.3888
-86.0905	-5.13038		-26.042
-89.1352	-0.995731		-28.2117
-6.56536	85.4374		65.0068
-8.09812	94.2955		56.3674
-14.4814	84.6304		64.2231
-6.48616	78.1838		70.938
-5.80052	70.6257		75.7916
-13.5661	70.5144		74.6003
-5.50397	63.2574		80.3022
-30.0551	56.3906		77.5156
-24.6977	57.3073		79.7181
-30.222	52.0138		80.4304
-0.285786	-24.144		107.301
-2.58443	-23.8886		105.957
-0.180378	-23.4175		109.409
-0.460347	-15.3615		114.967
-0.346167	-17.1467		114.95
-0.684006	-13.152		114.373
-3.44081	-15.1533		113.877
-0.275418	-18.8563		114.395
-0.197395	-20.3357		113.445
-1.48875	-27.0725		100.695
-1.90418	-35.3051		99.339
-4.12237	-35.1121		99.1942
-0.214331	-21.9295		111.759
-2.7776	-21.7637		110.319
-0.846164	-10.9215		113.365
-1.00696	-8.24563		111.574
-3.61757	-11.1206		112.411
-5.16419	46.3001		87.8234
-5.46735	50.485		86.7702
-12.3519	47.388		86.6138
-4.7467	42.9256		88.0953
-2.13818	19.5817		89.0792
-2.34201	21.787		88.0403
-2.25663	17.0374		90.8876
-2.03862	23.7032		87.2722
-1.64008	25.6897		86.7443
-4.22501	22.8057		86.5742
-1.5013	-50.0431		93.476
-1.33326	-50.7053		94.6199
-1.67711	-48.7833		92.3455
-1.35125	-50.923		95.6301
-1.53868	-50.7586		96.4338
-3.53548	-50.905		95.3835
-2.08118	-48.2495		99.5078
-1.90257	-49.2458		98.6975
-1.82027	-50.0969		97.7111
-2.42713	-43.8358		100.745
-1.87053	-45.9522		90.893
-1.8868	-42.0893		89.8392
-20.6963	84.0238		62.8093
-22.7093	92.4196		54.4695
-26.3175	83.0064		60.7882
-20.4165	77.6299		68.3144
-17.7606	48.555		85.1452
-18.1908	51.3047		84.4459
-23.8038	49.421		83.5387
-18.4217	44.9478		85.2854
-19.5913	42.2056		84.7566
-21.3012	39.3222		83.6635
-25.3338	43.1349		83.1769
-22.3277	37.4257		82.7191
-26.8414	38.0999		81.4397
-17.8015	36.1241		83.637
-26.9897	26.4216		73.6171
-30.0349	26.7		73.574
-24.3	25.5494		73.2543
-26.076	27.7556		74.8238
-28.8871	24.6818		72.2764
-24.4006	29.2354		76.0916
-21.1632	28.436		76.0969
-28.3966	29.8204		75.7355
-47.9795	87.6775		37.6936
-45.7626	82.9428		44.2378
-42.1376	91.2152		40.8022
-49.363	92.6156		28.0828
-31.6866	81.3602		58.4282
-37.2474	79.0416		55.212
-34.1284	88.7476		50.984
-29.8036	49.6947		81.4536
-35.1556	48.184		79.6405
-30.13	46.3143		81.9135
-31.5111	38.5431		80.2343
-31.0477	40.8912		81.1173
-30.3591	43.7575		81.7917
-32.0072	29.7166		75.1235
-36.0205	29.1205		74.2848
-32.7041	28.0078		74.2242
-43.661	78.002		49.6229
-43.3275	70.5086		56.2104
-50.9865	74.0426		44.897
-40.7781	46.6449		73.6162
-45.733	44.1362		68.848
-39.2208	25.3486		71.8585
-41.6514	24.2243		70.5078
-36.2814	26.1654		72.7968
-39.6271	26.556		72.3212
-41.2369	32.9934		73.734
-45.7065	31.7259		70.9503
-40.6507	30.5583		73.2287
-40.0464	28.2368		72.7313
-42.6273	65.215		60.4245
-48.1771	62.2452		54.9899
-56.4202	71.5803		38.0476
-61.3883	69.2548		30.1517
-54.0045	64.655		44.1513
-42.5764	21.4533		68.7789
-43.9047	19.9945		67.1667
-43.792	22.7236		68.7398
-45.3193	21.0517		67.1627
-42.8962	22.0636		68.9188
-49.1721	29.6805		67.9371
-51.3811	26.0569		64.6258
-16.2438	30.9607		80.6266
-15.5588	32.3127		82.4068
-16.8925	29.1793		78.3398
-14.0477	28.9562		79.9204
-13.6339	33.9519		83.8203
-11.4334	31.5822		83.3176
-19.0386	27.262		75.7765
-20.7201	25.7924		74.1997
-3.57383	39.2775		87.8782
-65.0982	-65.0304		-8.52115
-65.3805	-65.3419		-14.905
-66.6738	-59.8896		-6.70242
-77.6289	21.9045		-38.541
-78.364	15.9316		-33.461
-77.594	24.0376		-30.4987
-78.4096	29.0773		-42.541
-79.0004	19.2734		-43.5557
-76.6827	-7.95422		-52.0424
-76.565	-2.45611		-52.5335
-74.5968	-8.10154		-57.5242
-75.7178	-14.016		-50.2885
-77.2217	4.04915		-52.3441
-79.16	1.93055		-46.1254
-77.7527	9.66004		-50.5716
-75.2949	5.84142		-58.8136
-71.6368	-31.9523		-46.0345
-73.1096	-26.5011		-48.5566
-68.41	-35.1909		-49.8605
-5.62694	56.3476		83.9318
-12.4114	56.6735		82.9718
-18.8075	57.1144		81.4728
-19.7177	63.6059		77.5254
-21.6892	-101.6		59.4763
-14.1272	-102.248		58.5691
-27.7562	-98.8426		54.1274
-18.3134	-101.792		46.6926
-45.9184	-85.2216		45.9029
-47.0692	-82.5311		50.0869
-50.1652	-81.7962		39.4675
-40.9089	-88.9555		52.5165
-53.3551	59.0106		48.5776
-57.9496	55.6224		41.2787
-20.5035	70.8211		73.2843
-66.6575	66.5956		21.1601
-64.9406	60.4626		26.2316
-70.6359	64.3923		11.6863
-24.546	99.1485		45.5279
-17.6125	100.794		46.2952
-25.2053	106.342		33.6807
-30.6661	97.0144		44.5617
-60.4801	37.9186		42.0402
-61.3176	45.0803		37.4179
-46.4146	19.3076		65.5403
-55.3087	24.6692		58.3302
-54.0907	23.334		59.9843
-55.8345	19.4323		55.4006
-52.7679	22.2114		61.4802
-3.77576	-113.093		35.6854
-57.0013	-71.8465		38.5985
-55.462	-75.4353		35.0426
-52.5181	-75.6464		47.0762
-58.1984	-68.4815		41.4256
-6.36149	-40.1433		99.8728
-6.0288	-37.6915		99.3707
-8.23624	-40.5439		99.5004
-24.0001	-47.8058		89.8831
-21.0197	-45.8471		92.758
-23.5617	-43.9118		90.709
-10.0005	-36.3912		97.724
-9.27688	-33.6473		97.2513
-12.982	-37.066		96.351
-10.433	-38.8949		98.2189
-7.43209	-35.6268		98.5571
-32.8746	-50.882		82.8873
-32.6237	-46.8804		83.9593
-34.3855	-51.6364		81.4439
-32.3806	-54.3227		81.8088
-60.2842	14.8589		48.0862
-61.4867	15.4618		44.8989
-61.5375	8.85573		47.7281
-58.9359	14.5348		51.0619
-62.8405	15.9983		40.9609
-64.6096	15.7256		35.531
-50.0653	15.697		61.8015
-50.2453	13.6484		61.0588
-57.2364	14.1753		53.5873
-80.1207	8.41254		-38.0985
-79.6313	10.3956		-34.5155
-79.5163	11.127		-41.7415
-80.3972	5.13843		-40.9628
-78.9215	-17.8416		-40.7806
-76.8957	-18.3436		-43.9411
-69.4601	-52.0978		-16.9927
-70.8581	-48.6482		-23.8053
-67.5125	-57.6156		-19.5131
-68.7723	-54.1844		-10.8277
-71.2067	-47.9065		-14.7438
-80.8233	0.639707		-42.543
-75.2062	-28.1585		4.66444
-74.2084	-29.057		8.82881
-76.1013	-23.8522		4.31839
-74.32	-32.1864		4.66418
-71.1092	-1.73333		28.7082
-73.5287	-3.01008		19.9851
-70.963	-9.27822		29.5785
-70.0206	6.23638		27.5765
-53.4492	8.81659		58.395
-51.7074	6.99839		60.4079
-51.4925	10.2834		59.7047
-50.2767	11.8526		60.8668
-49.2227	10.9218		62.1483
-72.9028	-29.3419		15.2604
-73.6644	-24.2514		14.9989
-72.1124	-33.9201		15.0559
-71.3218	-29.1412		21.948
-24.541	-8.59233		82.4273
-21.8746	-6.50716		84.0885
-24.0675	-3.70536		80.794
-28.137	-10.2237		80.5705
-33.8881	-12.3861		78.1032
-34.7134	-17.4872		78.9241
-39.8184	-14.3893		75.5412
-18.7731	-4.43057		86.5028
-18.7803	-8.68394		88.4871
-15.4644	-2.24213		89.6637
-20.8453	-15.4563		87.4402
-19.9081	-13.3583		88.9449
-16.3053	-17.6248		97.4151
-17.2965	-18.3309		95.5013
-16.0373	-19.4653		96.6472
-15.0323	-17.0087		99.9457
-18.2045	-18.9144		93.8591
-17.8414	-20.8242		93.1708
-37.4187	-32.8021		79.7066
-36.7908	-27.6655		79.6872
-38.0456	-38.0699		79.755
-33.2672	-31.9473		82.1467
-35.5958	-22.262		79.3879
-5.10048	-30.0537		98.4464
-6.67037	-30.4931		97.7306
-5.35609	-32.6292		98.507
-56.0835	-49.7014		57.6665
-54.154	-56.2116		57.7018
-51.892	-47.9085		64.6703
-57.0503	-43.528		58.0255
-27.775	-41.0132		87.3553
-29.9776	-41.5981		85.9498
-25.5896	-40.6249		88.8038
-38.2707	-43.402		79.6278
-34.714	-42.6846		82.5194
-42.5724	-44.6423		75.8319
-38.0514	-48.5471		79.4812
-5.75979	-35.1584		98.9508
-52.2847	-62.7698		57.996
-49.5901	-68.0563		60.7738
-48.8461	-59.5995		65.197
-55.5861	-64.5472		50.7266
-57.273	-27.8244		60.2421
-61.9615	-27.9566		52.0177
-57.6512	-32.8979		59.2849
-28.6111	-93.2332		77
-23.2663	-96.2787		81.3512
-29.111	-90.3447		79.1608
-38.7132	-79.912		71.5843
-34.0721	-83.1937		76.1467
-37.3899	-75.7318		74.8006
-42.6384	-76.4977		67.8311
-54.3637	-6.37344		61.8067
-49.2064	-6.61401		66.907
-52.919	-1.73966		62.1007
-47.063	9.9051		64.254
-47.8577	7.81383		63.8803
-51.5485	1.43047		62.3048
-49.8849	3.69044		62.993
-47.0328	0.832884		66.4959
-44.9717	13.2823		65.2489
-3.23788	-92.6279		96.3655
-45.1125	-56.9196		70.8093
-40.9617	-54.5303		75.7104
-46.5064	-51.794		70.7054
-43.3345	-61.3702		71.7759
-35.8251	-71.7868		77.3285
-32.0127	-74.5398		80.1953
-33.4603	-68.1869		79.6409
-38.6001	-68.6309		75.2051
-44.0367	-5.90078		70.4513
-43.0173	-1.70693		69.8298
-44.8494	-10.7664		71.4383
-47.4346	-46.1462		70.673
-45.364	-16.0234		72.2772
-9.97782	-82.424		94.7861
-14.2093	-81.861		92.8241
-9.7681	-77.536		94.1926
-19.0256	-81.174		89.5174
-17.984	-76.1213		90.2792
-23.4641	-79.6045		86.4031
-41.9433	1.10482		69.5068
-35.4445	2.38646		72.2445
-40.9763	3.298		69.598
-48.7664	5.75009		63.3594
-44.9698	4.89161		66.7303
-39.8665	5.11413		69.4825
-33.6815	6.31455		71.8094
-12.3649	-0.598551		93.543
-12.4866	3.8618		89.8824
-12.5029	-4.54749		96.4169
-12.714	-12.0669		102.889
-12.8951	-12.9997		103.209
-9.78311	-11.5969		107.017
-12.7588	-10.5509		101.492
-12.8707	14.0754		81.0512
-12.6169	11.3628		83.2787
-23.4893	1.03193		78.646
-2.0356	13.392		93.8836
-61.5874	3.55117		49.8127
-12.7147	7.95279		86.3807
-58.8659	-64.5501		43.1217
-62.4374	-62.4722		33.9876
-65.599	-15.81		45.2007
-68.3525	-15.7428		37.5865
-65.51	-22.2442		44.5456
-64.3702	-39.175		43.516
-66.5552	-39.5886		36.1374
-61.4673	-38.6957		50.9003
-64.9752	-33.427		43.8119
-65.3664	-27.9192		43.9331
-67.7406	-28.3871		36.5101
-18.7499	-98.2657		84.6259
-9.02932	-73.4146		93.8947
-12.948	-72.9488		92.5989
-5.78283	-73.5755		94.6121
-17.2366	-72.1754		90.6447
-28.7026	14.9949		70.7651
-29.5107	4.23435		73.7949
-28.9317	6.4964		73.1398
-28.5024	8.25247		72.6114
-2.69529	-73.6304		94.882
-5.33449	26.8572		84.9228
-5.79709	24.3219		85.1155
-3.52265	27.4388		85.8596
-5.5794	29.0071		84.9121
-6.8485	25.8783		83.6788
-21.7261	19.0648		69.7519
-21.6728	20.2236		69.8889
-18.8938	19.6568		71.7309
-9.02535	24.7906		82.3489
-9.35167	27.0118		82.261
-1.39929	27.9328		86.5079
-4.62089	-23.4694		104.448
-5.00672	-22.6209		106.191
-6.52074	-14.7559		111.704
-9.81173	-14.2948		108.097
-6.66725	-13.0752		111.211
-17.6369	-24.8572		90.415
-15.0186	-26.1509		92.1443
-17.1516	-23.7871		91.6496
-6.48754	-11.2915		110.427
-7.03545	21.2302		85.0128
-6.30482	31.3821		85.2258
-8.06219	30.4841		84.1244
-21.6878	21.2515		70.1732
-9.5481	29.3341		82.6227
-12.1487	28.2265		81.1333
-12.8296	26.934		79.3421
-20.193	-31.3394		89.293
-21.4914	-35.3549		89.9119
-17.1281	-31.7042		91.3949
-22.8748	-39.8053		90.4435
-19.4518	-38.5133		92.6486
-24.1861	-54.2802		83.2279
-22.0977	-54.0374		84.802
-24.0457	-53.176		82.6763
-24.8084	-52.7465		86.3709
-22.2483	-51.4089		89.2041
-23.4211	-49.9837		81.7983
-22.7665	-45.9448		81.1776
-20.0793	-49.5106		84.3925
-14.2506	-31.8261		93.3836
-15.1837	-34.5341		94.0265
-11.4033	-31.5707		95.1805
-16.4577	-37.8328		94.4651
-17.2875	-40.7008		94.8101
-19.2106	-53.4627		86.7914
-17.7872	-51.9024		87.0499
-16.8853	-48.8627		86.4677
-17.0898	-44.808		85.3123
-8.79782	-31.0565		96.7091
-8.41568	-28.8382		96.5549
-11.3387	-41.4541		98.4358
-15.0728	-42.4694		96.6927
-18.2933	-11.2913		90.8931
-15.5594	-9.22791		94.8938
-0.99014	-4.94481		109.016
-12.5389	-8.00926		99.4165
-5.49556	-21.0645		108.466
-8.36444	-20.4645		105.428
-11.5112	-20.173		101.835
-14.1341	-20.4292		98.4667
-12.2529	-18.382		102.772
-15.7065	-21.1026		96.0718
-16.5375	-21.9123		94.2109
-16.9213	-22.8073		92.8621
-12.8467	-14.0789		103.656
-12.7017	-15.2964		103.887
-12.511	-16.7802		103.581
-37.3583	-143.211		11.3734
-36.1275	-134.878		12.4413
-41.3712	-141.644		8.1458
-38.2421	-149.279		10.6736
-32.8891	-144.584		14.5126
-34.5793	-123.716		14.1043
-30.4088	-125.083		17.6488
-33.6717	-114.208		15.7478
-38.5022	-122.211		10.4909
-37.6873	-98.6065		27.2687
-34.4924	-102.34		19.211
-33.6277	-100.619		31.7354
-41.2947	-96.6079		22.1458
-33.8261	-107.546		17.1744
-37.8097	-105.761		12.9555
-29.7473	-108.927		21.274
-41.4949	-65.3705		72.7129
-38.0037	-62.0904		76.7566
-43.9457	-68.7823		69.0206
-46.578	-72.5982		63.6054
-47.7957	-76.2806		58.5051
-47.8475	-79.6356		53.9632
-35.1861	-59.6027		79.3177
-33.342	-62.2705		80.0333
-33.026	-57.7521		80.8449
-36.2524	-56.4486		79.0734
-31.6923	-56.7627		81.6055
-30.4338	-58.5386		81.8525
-44.9205	-94.1918		17.361
-48.448	-91.8828		11.9447
-44.027	-98.9755		14.4156
-46.5474	-89.9809		20.7522
-48.7611	-86.1062		24.8868
-51.2444	-82.4051		28.5712
-51.6807	-83.8352		17.883
-53.5963	-78.8563		32.0138
-56.0865	-76.6818		24.159
-42.2227	-120.509		6.72202
-43.4136	-131.949		5.79136
-41.3252	-110.904		7.80578
-45.918	-119.212		2.83465
-45.0093	-140.115		4.76363
-48.1105	-138.811		1.2613
-46.2282	-147.418		4.80153
-41.5332	-103.741		8.69238
-69.6457	-28.8632		29.2549
-70.1325	-22.9981		29.4571
-69.0472	-34.1427		29.2501
-57.8258	-75.175		17.1354
-59.2513	-73.8204		10.1705
-55.9065	-78.5319		14.2293
-67.837	14.9407		26.8315
-71.0255	13.1153		15.9234
-64.0486	-60.7417		25.5988
-65.5162	-58.9823		17.7504
-68.3607	-39.7038		29.0198
-69.8995	-39.3944		22.2048
-70.5976	-16.2367		29.9692
-72.5917	-17.3971		21.8972
-71.1158	-38.7474		15.0496
-72.2915	-37.4978		8.53855
-56.8575	-88.4423		-4.18221
-54.4418	-89.1704		0.780761
-57.3691	-84.0216		-2.71121
-58.9317	-87.9387		-8.99173
-56.5675	-93.4538		-5.32335
-56.4499	-99.0614		-5.91771
-58.1956	-79.8811		-0.568279
-59.2672	-76.1225		1.43899
-59.9884	-79.1315		-6.19199
-56.2606	-80.8285		4.99294
-75.4793	-4.10157		11.4058
-75.019	-11.7314		13.7195
-74.8678	3.52659		8.78567
-73.5524	12.219		5.02618
-74.0441	20.1829		2.24393
-76.6541	29.7576		-2.28549
-78.1612	37.1548		-5.30092
-79.3191	28.2983		-12.1433
-66.595	-57.1959		9.73918
-67.4833	-55.8606		1.91503
-74.3724	-18.4054		14.9742
-75.7139	-19.1543		8.61181
-49.2769	-117.691		-1.57816
-50.3218	-128.978		-2.22712
-54.1595	-82.1707		11.3236
-52.6663	-86.0175		8.49077
-51.4148	-138.297		-2.13591
-52.8866	-144.859		-2.61783
-58.0273	-115.094		-17.8045
-59.0407	-125.314		-18.4589
-60.612	-87.3565		-13.7653
-61.0493	-82.7184		-12.8797
-61.7578	-85.5731		-18.7949
-61.7212	-78.1206		-11.6781
-59.9544	-132.707		-19.5761
-60.4097	-138.008		-21.4707
-68.118	-55.3089		-5.12056
-73.42	-36.1922		4.17742
-72.5764	-40.1052		2.78889
-74.6141	-34.5371		0.883748
-76.7439	-19.2832		4.25551
-61.1768	-93.1164		-27.2641
-61.5494	-86.7974		-26.2331
-60.0347	-88.7899		-34.0869
-62.3034	-80.8534		-25.3474
-61.9371	-74.346		-31.4367
-65.6778	-63.935		-21.3411
-72.4554	-45.4721		-13.4856
-73.9577	-42.7855		-19.9612
-55.4381	-121.435		-45.8938
-55.2776	-113.19		-44.4033
-52.2169	-118.684		-53.0029
-57.087	-128.603		-47.1006
-72.2407	-43.6833		-28.6079
-74.7039	-40.2395		-27.1977
-76.6374	-38.8223		-26.5715
-77.6453	-38.0188		-26.4312
-28.24	-145.769		17.4076
-29.4731	-151.493		16.1093
-23.5471	-146.847		19.9791
-27.413	-137.506		18.7434
-25.0569	-110.135		25.4835
-25.8773	-105.419		27.8457
-24.8038	-116.444		23.5837
-20.1302	-111.161		29.1544
-32.8345	-96.4395		48.7299
-34.6405	-94.1252		54.2989
-30.7018	-99.0083		42.3609
-26.9592	-101.414		32.0776
-22.0704	-102.93		36.0574
-25.8166	-126.094		21.2371
-21.1309	-127.467		24.4668
-31.2951	-64.876		81.0976
-29.6464	-62.0018		82.14
-36.2473	-92.0539		58.8395
-28.6816	-60.2484		82.6322
-27.9235	-58.8913		82.9323
-26.2893	-61.8174		84.1341
-27.1618	-57.633		83.1889
-25.185	-58.9043		84.5896
-27.7538	-77.3494		83.523
-28.5957	-82.0086		82.3897
-29.1619	-86.5842		80.8285
-20.3111	-55.3349		87.9728
-16.7121	-54.914		91.1245
-19.9543	-54.9163		86.9298
-15.9705	-54.2036		89.679
-20.071	-55.174		86.4352
-23.4991	-55.3812		84.4635
-20.0946	-55.7204		85.9968
-19.9998	-57.0321		85.4249
-16.2292	-54.922		88.4143
-19.6687	-60.0931		85.1117
-16.0853	-59.2298		87.1911
-19.0431	-63.7787		85.0259
-15.4572	-111.829		31.9402
-15.3894	-118.367		30.0525
-16.0419	-107.733		34.3852
-19.1147	-147.692		22.0231
-19.8977	-153.342		20.7182
-14.3857	-148.507		23.9309
-18.0733	-139.863		24.034
-16.5559	-128.618		27.2587
-8.75566	-105.508		42.4778
-9.24952	-104.114		51.3663
-12.2179	-105.126		41.1712
-10.4504	-149.125		25.2893
-10.8607	-154.508		23.9369
-9.65926	-103.533		60.8439
-12.7031	-53.4344		91.9118
-12.4764	-53.742		91.2257
-12.4419	-54.315		90.4645
-12.7358	-55.6382		89.4482
-12.8074	-58.6401		88.8757
-12.6871	-62.7121		88.0812
-72.419	48.1021		11.2461
-66.2402	49.4101		22.2652
-73.9235	55.183		6.7909
-76.4126	46.0084		1.17607
-78.5662	26.2173		-21.3268
-73.8521	-19.9506		-49.1546
-71.1215	-21.7275		-54.0981
-51.7363	-95.181		-54.7072
-48.7155	-92.8435		-59.5947
-49.1263	-107.445		-56.8579
-54.5821	-98.3447		-49.2309
-52.2474	-84.9582		-53.6775
-49.2547	-116.398		-58.2689
-46.1871	-114.659		-62.8907
-50.4376	-124.457		-59.1018
-58.0691	-83.1139		-41.3255
-59.2235	-74.6137		-40.0329
-55.6569	-78.542		-47.6052
-57.5599	-92.7057		-41.7541
-24.2863	112.626		20.5747
-17.0935	114.641		20.9311
-24.0501	117.272		5.56528
-31.137	109.753		20.2473
-22.0648	102.493		-78.7936
-14.5323	103.789		-80.3882
-21.1678	91.4952		-92.0011
-29.5361	100.452		-77.0807
-22.9307	111.201		-63.4189
-20.2848	79.3976		-101.715
-13.0312	79.7796		-103.55
-19.7196	65.8004		-109.107
-27.5376	77.9176		-99.5376
-23.8539	117.184		-46.8454
-24.163	119.7		-28.9762
-16.41	119.011		-47.9171
-30.9445	114.71		-45.1522
-8.94972	123.178		-11.9119
-8.90751	122.877		-30.1487
-16.6642	121.926		-11.6573
-9.02619	120.696		5.46175
-19.2985	52.5401		-113.945
-12.5324	53.1191		-115.538
-18.6438	38.9571		-117.24
-25.8122	51.3764		-111.966
-20.7039	25.538		-117.562
-14.3518	26.4721		-119.129
-20.1355	11.7568		-117.834
-26.7532	24.4802		-115.557
-18.5517	-26.6096		-107.756
-18.4201	-14.2849		-113.076
-13.0309	-26.5682		-109.083
-17.5468	-38.2339		-100.266
-24.3871	-27.3929		-105.507
-6.74855	-0.251723		-119.349
-6.61054	-13.0151		-115.746
-12.9735	-0.624649		-118.338
-7.25632	12.8717		-120.525
-15.6249	-85.3177		-82.8295
-10.5991	-84.854		-83.5972
-15.4263	-94.8097		-82.4539
-20.8458	-86.1156		-81.4877
-15.937	-75.7492		-83.7975
-14.2172	-105.052		-82.5084
-9.75628	-104.863		-83.4561
-14.2859	-114.538		-82.5334
-19.7126	-105.476		-81.6363
-17.6307	-47.558		-94.1935
-11.9446	-47.0835		-95.201
-17.2471	-55.8545		-89.6732
-22.8851	-48.1471		-92.6348
-16.4738	-65.3838		-86.0811
-11.242	-64.5613		-87.0699
-22.0266	-66.5207		-84.353
-5.98634	-64.2479		-87.5179
-5.75051	-74.7954		-85.1195
-6.19509	-54.9076		-91.1424
-49.449	97.4343		16.8647
