1817
32.2815	-105.099		21.6411
27.885	-105.699		25.9537
36.5556	-104.074		17.6196
41.5374	-66.9896		70.4377
44.4923	-71.2047		64.7374
37.5467	-63.0024		76.0773
47.0176	-75.4101		58.2566
47.8916	-79.4021		53.2903
47.9042	-82.5424		49.2132
34.2583	-60.1093		79.6911
35.2776	-56.8827		79.5893
31.9043	-57.5134		82.6149
32.3875	-62.8597		80.4089
29.9693	-56.2649		83.886
28.9271	-58.0831		84.0672
43.581	-93.7375		18.6976
46.1192	-90.1939		22.0052
41.9382	-97.7835		15.6603
47.7487	-92.1028		13.6466
49.4174	-86.9354		26.1559
52.6355	-85.1906		20.2237
52.5113	-84.0265		29.7695
54.9349	-81.2001		33.1434
58.1049	-79.2061		26.9373
40.7649	-119.743		11.0791
42.6207	-132.653		9.70506
44.6286	-118.896		7.38326
40.775	-109.877		12.0546
44.4759	-140.323		9.81966
46.2572	-146.848		8.86036
48.2837	-139.163		6.5153
40.8696	-102.829		13.6205
73.5734	-30.9352		31.0098
72.8785	-36.6021		31.089
74.1093	-24.9637		29.4437
60.1399	-77.7627		20.8698
57.7729	-80.6212		17.4952
61.6334	-76.3172		13.9074
73.7618	15.0656		25.3609
76.7159	12.793		15.1594
67.3383	-63.3964		29.0338
69.1352	-61.8368		21.3492
72.0733	-42.1947		31.0308
73.5202	-42.4965		24.086
74.8369	-17.668		30.4304
76.5604	-19.5006		22.7139
74.7331	-41.6148		16.8354
75.848	-40.0199		10.1748
57.3703	-89.3851		-2.11315
56.7012	-94.0197		-3.61293
59.6347	-88.9486		-6.99508
58.2829	-85.3091		-0.309658
54.6835	-89.9581		2.87416
56.2493	-99.3024		-4.59246
59.5674	-81.5739		2.18657
57.5289	-82.5363		7.84902
61.3852	-80.7784		-3.5784
61.0853	-78.1655		4.56573
79.0158	-4.71295		11.0337
78.8335	3.05657		7.96303
78.5103	-13.1293		14.3508
79.3132	11.9335		5.15807
78.6132	19.4327		1.77619
78.6312	27.7672		-1.76968
79.9261	27.3104		-11.2018
78.8214	36.0537		-5.1997
70.2196	-60.0218		13.1221
70.8935	-58.4838		4.95772
77.8131	-20.1927		16.0132
78.8048	-20.6425		10.2129
48.3276	-118.303		3.18169
50.1834	-129.539		2.90038
55.3201	-83.7983		14.0907
53.0919	-87.1662		10.8045
51.5626	-137.699		2.59871
53.0986	-143.663		1.21743
60.4812	-114.321		-15.1689
61.1568	-123.112		-15.8907
61.4948	-88.3833		-11.8698
62.8633	-86.6763		-17.0217
62.2346	-84.0014		-10.7107
63.2223	-79.7014		-9.24244
61.4105	-130.049		-17.4961
62.4144	-135.603		-19.4481
71.2704	-57.7216		-2.4258
76.8312	-38.4463		5.60337
77.9048	-36.4876		2.23927
76.0766	-42.2119		4.34079
79.5535	-20.5935		6.35257
62.0299	-94.0599		-25.3711
61.0476	-89.6397		-32.5656
62.7429	-87.9709		-24.0891
63.7943	-82.2498		-22.9708
63.6712	-75.5722		-29.3972
67.9107	-65.6123		-19.3687
75.5845	-47.2309		-11.4376
76.8369	-44.3025		-18.2875
58.0155	-119.806		-44.5488
59.5502	-126.836		-47.8336
54.8264	-117.127		-52.0643
57.9317	-111.662		-42.8824
73.7433	-45.1905		-26.403
76.1144	-41.5838		-25.2584
77.7739	-39.9295		-24.8006
27.4116	-146.698		20.3226
26.6223	-137.051		20.727
24.9643	-146.378		22.3627
28.8568	-151.806		20.1279
23.882	-105.498		29.8216
19.4369	-105.516		33.9706
23.1682	-114.071		28.3533
24.0232	-102.419		32.7217
30.4932	-96.6913		45.0965
27.6214	-97.8762		40.4685
32.6497	-95.84		49.1299
25.2933	-99.8927		35.7182
21.8106	-99.9121		39.4226
24.5143	-124.256		23.6393
20.2328	-125.966		28.6208
31.1231	-65.5667		81.7324
28.9948	-62.2035		83.6399
34.1987	-95.0633		52.3359
27.5586	-60.0312		84.6498
25.4956	-61.9384		85.7755
26.3644	-58.376		85.3322
25.4099	-56.9766		85.6553
23.7393	-58.4252		86.8747
28.1092	-80.448		79.9374
28.9061	-85.4566		77.7596
29.1995	-90.257		75.2277
19.4902	-54.7244		88.9898
16.8318	-54.6483		90.8516
19.0885	-54.108		88.1665
21.8179	-54.547		86.6779
19.0695	-54.3446		87.8098
16.2025	-53.555		89.4151
19.0435	-54.8631		87.3852
19.1014	-56.4578		86.6663
16.0727	-54.2446		88.6436
19.0825	-59.9627		85.743
19.1004	-64.0874		84.938
16.0358	-59.2043		87.0251
15.3544	-105.495		36.9604
16.1165	-102.385		39.1537
14.4881	-115.224		35.3351
20.2841	-147.503		24.6765
18.5554	-139.064		26.994
15.6322	-148.368		26.6154
21.6006	-153.285		22.9862
15.8668	-127.118		30.9339
9.47974	-100.974		46.5321
12.628	-100.911		45.1237
9.68741	-101.586		53.0776
11.5209	-148.99		28.1071
12.787	-154.612		26.8507
9.65828	-104.064		61.4345
13.093	-52.7863		91.074
13.0068	-53.0861		90.4386
12.9165	-53.6072		89.9363
13.0954	-55.1575		89.0318
13.0569	-58.5047		88.0021
13.1848	-62.7926		87.2008
74.1509	46.9025		12.4506
77.0569	45.0957		1.19387
74.3046	54.7124		7.42755
70.3861	49.608		23.0118
80.7992	26.5094		-20.5055
75.1216	-20.7767		-49.2215
72.2657	-22.5699		-54.1453
51.9966	-95.8241		-54.5275
52.7898	-85.7139		-53.2393
54.9414	-98.8947		-48.5341
51.813	-105.887		-55.8192
49.1612	-93.1974		-59.2463
52.0588	-114.644		-57.2337
52.5229	-122.893		-58.3607
48.9869	-112.702		-61.7748
59.086	-83.9726		-39.9576
58.2344	-93.3893		-40.682
56.6185	-79.3882		-46.4077
60.6213	-75.6571		-38.4292
23.6523	113.42		22.837
30.5029	110.617		22.5233
23.4497	117.821		6.82867
16.7471	115.689		23.2782
22.2195	101.583		-80.3037
23.4572	110.786		-64.0282
29.7978	99.8207		-78.1748
21.4005	90.6549		-93.5337
14.7318	103.011		-81.7463
20.8934	78.7279		-103.148
27.786	77.025		-101.117
20.7505	65.8178		-110.073
13.9223	79.5984		-104.665
23.5591	117.215		-46.1802
31.7402	114.879		-45.2423
16.2405	119.079		-47.1227
24.1221	120.366		-28.2732
8.88223	123.721		-11.4479
0.987031	124.268		-11.3795
9.17387	121.562		6.48368
16.6581	122.502		-11.0809
8.57872	123.318		-30.1624
21.0098	53.407		-114.345
27.4761	51.9754		-112.378
20.9478	39.9916		-117.613
14.6628	53.9529		-116.709
20.4082	25.8617		-119.401
26.7634	24.8818		-117.194
19.8711	11.9214		-119.549
14.0673	26.8133		-120.921
17.0513	-26.5891		-107.512
22.9948	-27.2383		-105.073
16.886	-38.2661		-99.6425
11.8355	-26.3392		-108.754
19.5458	-13.4893		-115.084
6.95856	-0.0650244		-120.858
0.385821	-0.0546613		-121.034
7.04909	13.0761		-122.154
13.2241	-0.5019		-119.833
7.36085	-12.5947		-117.953
14.7745	-85.4252		-82.3412
15.1667	-75.8731		-83.2848
20.0344	-86.2244		-80.9737
14.5075	-94.8954		-82.0246
9.71447	-84.9701		-83.1211
4.52333	-103.453		-82.7592
9.46212	-103.907		-82.4581
4.61167	-113.116		-82.6078
-0.278191	-103.382		-83.0776
4.66097	-93.7701		-83.0404
17.1018	-47.5973		-93.9354
22.3911	-48.2051		-92.3359
16.6583	-55.9585		-89.2698
11.3834	-47.1171		-94.9645
15.7991	-65.5088		-85.5939
21.403	-66.6649		-83.8164
10.5275	-64.6836		-86.608
5.2263	-64.3924		-87.0625
5.5234	-55.0214		-90.7695
4.89695	-74.9469		-84.631
-0.126119	-64.651		-87.1337
48.845	98.6188		18.9792
54.543	93.18		17.5229
49.7168	101.924		4.88546
42.9933	103.229		20.5349
47.716	71.4838		-89.3799
53.2177	68.3396		-85.1046
47.3427	59.4418		-96.2414
41.8307	74.1576		-93.2405
48.4002	82.2642		-80.6999
48.6055	91.5742		-68.6865
42.9234	95.1174		-72.1076
49.754	98.537		-55.3962
54.2102	87.2017		-65.0759
50.524	102.847		-40.5126
56.3185	97.1262		-38.7641
44.6761	107.548		-42.0861
50.5791	104.075		-25.1894
50.3078	103.971		-10.0473
44.2018	109.066		-9.83402
56.1443	98.0973		-10.2398
46.7543	47.2646		-101.246
46.2699	34.5345		-104.789
39.9745	47.7099		-106.57
52.2162	44.9982		-96.9023
45.5188	21.6619		-106.802
50.7215	20.2404		-102.273
44.3044	8.54251		-106.787
39.5271	22.5103		-110.712
43.9955	-3.43448		-105.987
40.96	-16.8698		-100.884
38.4327	-3.29403		-109.675
47.8359	-4.8091		-101.031
40.1562	-29.4817		-94.5093
45.61	-29.6795		-91.9525
39.5904	-40.5215		-88.4698
34.8049	-28.8142		-98.3465
38.8764	-50.1385		-82.6441
38.0457	-59.7138		-77.6341
33.6734	-49.8581		-86.4492
44.303	-50.5212		-79.0377
35.5971	-88.2113		-72.7765
34.618	-98.1311		-73.7894
30.5709	-87.7171		-76.2497
36.6275	-78.6456		-72.611
41.0804	-89.235		-69.3327
24.3621	-105.517		-79.4775
24.5317	-114.364		-79.7314
19.3125	-104.79		-80.9331
24.6852	-96.4482		-79.1943
29.4733	-106.465		-77.3496
37.3126	-69.3091		-74.1923
42.866	-69.7557		-70.235
32.4216	-68.5835		-78.0348
68.3053	70.6911		-51.8649
69.7677	74.4269		-40.9851
72.4197	63.6848		-46.5565
67.3947	64.7659		-61.7494
63.9308	76.8146		-56.7941
70.0192	76.335		-29.4224
73.7431	68.3446		-24.2432
65.5711	83.6549		-33.7178
70.3373	77.2154		-18.0376
69.4916	78.0346		-7.12526
72.3284	70.5434		-2.52253
65.8478	85.0262		-9.37337
56.9454	42.6768		-92.2905
57.6646	53.9889		-87.2948
61.3157	39.9922		-87.4064
56.291	30.7405		-95.6558
58.0348	65.0415		-80.5982
58.7888	74.5138		-72.3846
62.5554	61.1031		-75.6585
52.6061	-5.62047		-95.9606
54.5093	6.56563		-97.4623
57.1508	-6.50675		-90.3176
50.6086	-17.6977		-92.7459
55.4601	18.581		-97.3505
59.9445	17.1504		-92.1731
49.7995	-29.3724		-87.7029
53.9357	-29.4594		-82.3149
49.2466	-40.3494		-80.6951
48.4655	-49.8704		-74.5926
52.0466	-48.4324		-70.6525
47.5035	-70.572		-64.3844
51.417	-73.1862		-57.7335
46.4046	-80.5581		-63.6293
78.1096	35.3125		-46.9072
77.2204	29.3728		-54.2615
76.0791	40.9284		-52.4809
59.6936	87.0173		16.5696
60.5645	90.2373		3.19595
78.8964	44.685		-8.70416
78.1864	52.5018		-13.4958
67.9631	-7.24546		-74.3161
64.6844	-7.45575		-79.48
68.9916	2.27134		-75.4108
70.8729	-7.67865		-68.655
65.8213	-17.6322		-71.1736
69.8199	11.9278		-76.1088
66.8808	13.7452		-81.7056
70.6505	21.0352		-74.6199
72.581	9.76417		-69.8698
71.5334	30.2637		-71.2744
68.5013	33.8064		-77.0001
72.5259	38.7402		-65.7744
74.2189	26.3181		-65.2963
60.2044	-42.9805		-60.0685
57.5563	-45.0775		-63.5618
61.8457	-35.6243		-63.7512
62.8025	-41.047		-56.3967
58.8182	-50.6979		-55.7656
69.4852	-24.1093		-58.9349
67.5176	-31.6125		-55.6334
66.8595	-25.6006		-63.1011
71.4164	-16.3553		-61.2254
54.1728	-76.2554		-52.3083
55.8514	-67.1246		-52.2168
78.1237	-40.3419		-3.26577
78.8118	-36.7682		-1.34396
76.4263	-43.5245		-0.851874
78.8207	-35.0596		0.0651167
82.3308	-8.89444		-3.3166
83.1235	-3.407		-5.04423
93.9214	3.8305		-37.9188
94.0451	9.67998		-35.6748
94.5541	3.40048		-37.1945
84.0385	-37.6332		-24.8542
82.8646	-40.5927		-21.1475
93.2337	13.7073		-33.2434
92.2905	14.0386		-33.6865
92.6862	16.8323		-29.1815
94.1868	13.1677		-32.4196
87.7992	8.42675		-12.4446
86.5871	8.42404		-13.1654
92.215	18.1184		-25.01
93.1249	17.3506		-24.2623
89.3174	-20.3985		-34.6812
85.5299	-38.6121		-17.1084
85.0047	-38.5555		-13.9716
83.8971	-40.7127		-17.0344
83.4783	-0.694101		-6.79918
88.7632	16.2192		-20.3153
86.8332	13.0418		-17.4256
87.6938	15.3254		-21.8096
85.1523	8.74527		-14.5506
84.2465	9.18255		-16.0663
91.6533	13.893		-33.8849
83.3795	8.91219		-17.4101
84.0879	10.8137		-19.9248
85.642	12.7779		-23.6901
83.5226	10.5201		-24.5989
88.4667	-29.2944		-27.5065
88.359	-31.3916		-20.5966
82.362	-41.8916		-17.3039
84.4216	-37.6395		-11.2466
85.5159	-34.7527		-11.8612
86.4312	-32.4222		-13.3375
87.1953	-31.4105		-15.2275
94.7396	3.07187		-36.7565
95.1471	8.71866		-34.6456
91.4829	14.4888		-16.698
91.6579	13.8044		-16.4106
92.7778	16.2202		-19.8348
91.633	13.1629		-16.2362
93.0158	14.9824		-19.2892
91.5319	12.0419		-16.2925
94.549	12.6103		-32.0828
94.0608	15.344		-28.2524
94.6848	12.0864		-31.9074
93.6701	16.5964		-23.9045
93.9165	15.9638		-23.7468
93.9465	15.4019		-23.3786
94.2444	14.2464		-27.8806
94.5986	11.5324		-31.8523
94.2149	-1.5128		-35.7005
91.5126	10.9724		-16.744
89.1489	3.3463		-14.0435
93.249	10.514		-25.6673
93.4752	-5.42023		-31.1728
93.4391	-3.6494		-31.0745
93.3729	-1.73723		-30.5177
93.201	-0.210448		-29.6232
92.9206	0.989218		-28.4743
92.1721	1.74336		-26.1662
84.6738	-27.3956		-12.3568
86.0669	-28.9711		-14.2329
87.458	-3.71706		-10.7274
83.7248	-19.1457		-10.3913
87.3037	-30.7697		-15.8562
36.1301	27.5982		71.6075
35.1211	94.5685		45.9519
36.1083	100.785		34.3583
9.27698	102.509		49.9089
8.98237	110.004		37.2936
1.11976	102.738		50.1301
36.904	107.289		21.707
37.2289	111.282		6.41062
8.68229	116.574		22.9473
0.48489	116.831		22.6326
23.469	120.278		-10.5147
30.6986	117.296		-10.1091
37.5271	113.615		-9.99302
37.8431	113.74		-26.5599
66.0339	53.3911		32.8477
73.7711	63.3165		2.97134
75.8043	61.5232		-7.93574
61.1782	91.9781		-10.3886
61.5103	91.7836		-23.3959
8.49478	120.231		-47.7185
7.60644	113.049		-66.3061
-0.115978	120.011		-48.5571
38.2627	111.721		-43.4091
37.7785	106.302		-60.2741
76.3189	60.3789		-18.7368
76.1878	58.9263		-29.7563
61.1248	90.9429		-36.5944
60.5897	87.8464		-49.54
75.1249	56.3845		-40.5489
74.4547	52.6943		-49.9114
73.4219	46.7424		-58.3966
70.2975	51.8898		-64.4108
45.4782	-91.1789		-64.3764
44.7437	-101.248		-65.8279
44.821	-110.637		-66.9437
45.0376	-119.265		-68.201
39.1227	-108.713		-70.9169
7.22018	103.976		-82.392
6.90181	92.4897		-95.9558
-0.320628	104.187		-82.7796
6.91618	80.1936		-105.397
7.57411	67.4552		-111.934
-0.342798	80.3359		-105.734
7.88003	54.5572		-117.174
7.70354	41.1448		-121.088
0.580539	54.6763		-117.146
7.33872	27.4702		-121.85
0.536998	27.1099		-123.393
19.6031	-1.11387		-118.308
26.0545	-1.91768		-116.045
7.05287	-25.6501		-110.906
5.59143	-38.4053		-100.674
1.91119	-25.6056		-111.597
5.67206	-47.2245		-95.232
-0.0428916	-47.4565		-95.1846
4.78184	-84.4763		-83.5283
-0.207906	-84.4074		-83.7641
34.4968	74.9949		-98.3311
35.2601	86.8018		-88.7208
34.0101	62.2944		-105.35
36.7293	98.1909		-75.2376
33.7899	50.0981		-109.686
33.8684	37.4048		-112.559
33.1936	23.8406		-114.266
32.6859	10.1366		-114.436
32.3715	-2.68778		-113.193
31.1503	-15.2896		-109.105
28.9973	-28.0043		-101.95
28.2449	-39.3958		-95.761
28.0673	-49.0493		-89.8136
27.805	-58.1681		-84.8195
26.9799	-67.6159		-81.3564
26.1909	-77.4485		-79.4175
25.4614	-86.9086		-78.9274
34.4759	-107.412		-74.4891
34.7455	-116.258		-75.1346
59.0562	82.528		-61.0265
66.6188	57.0532		-70.0535
65.9445	47.2725		-77.1578
65.0687	37.2797		-82.3851
64.2622	26.5005		-85.6405
63.5256	15.6414		-87.0406
62.715	4.34641		-86.5897
61.0475	-7.24317		-84.8335
59.027	-18.3144		-81.7224
57.4624	-28.6686		-77.6039
60.7207	-28.1921		-72.4993
55.9983	-38.6735		-72.1615
54.9321	-46.7431		-67.1306
57.581	-58.8357		-52.5927
59.784	-57.4646		-49.1791
76.2804	23.0019		-59.7529
75.5618	15.5656		-62.8464
78.2051	19.0646		-53.6684
73.1477	-7.88461		-63.4646
74.0715	0.143995		-64.1576
63.82	-27.0003		-67.8153
74.8032	8.19709		-64.3051
65.5649	-38.8298		-52.6653
63.9558	-45.8867		-49.0963
17.0001	-100.691		42.8945
63.0177	-74.8472		6.96677
51.409	-90.8929		8.34235
13.8923	-44.8503		95.7694
16.7327	-45.893		94.095
19.7125	-47.7848		91.8052
8.19413	-55.9442		96.4689
8.54622	-57.0797		96.5942
8.91069	-58.154		96.5281
23.0718	-64.0802		87.2701
22.2717	-62.1142		88.0643
21.5386	-60.3945		88.6754
18.0151	-41.5636		93.3503
36.1165	-53.0529		79.543
29.5641	-30.3188		82.1131
29.9692	-35.5938		83.6523
30.3856	-40.732		84.6819
60.5475	-36.5519		56.3675
22.2476	23.7759		72.3382
79.9528	15.1932		-47.196
82.6128	12.5172		-29.0192
83.3116	10.5229		-26.4223
74.9892	-46.6449		2.8095
28.3277	11.9581		69.0193
53.1702	43.6218		62.8452
7.30498	-26.4089		95.6572
48.5536	21.3304		61.2144
13.2762	-25.0543		91.9028
83.1863	10.2523		-25.3634
57.8889	-102.736		-41.7843
63.1156	-67.4825		-36.4079
62.2374	-60.8207		-42.167
62.4726	-54.4868		-45.8199
22.5833	-21.9794		83.0673
13.8204	-54.5401		92.922
23.4826	-54.6866		85.7531
6.62516	-50.0775		93.6907
-73.3593	-51.046		15.8372
-74.4247	-46.4943		16.1681
-74.4547	-49.0025		8.3249
-72.0591	-55.3822		15.2268
-72.0069	-52.7949		23.8039
-55.6696	-116.312		-6.79741
-54.9904	-106.016		-6.63268
-57.9309	-115.107		-11.2015
-56.6554	-126.55		-7.9055
-52.8105	-117.275		-2.53919
-57.7283	-134.243		-8.658
-55.2025	-135.803		-4.4629
-59.4671	-132.56		-13.0651
-58.4522	-140.035		-9.76161
-48.3415	-100.482		3.58973
-52.1565	-99.5817		-1.32599
-48.2447	-107.794		2.28618
-44.2754	-101.709		8.09494
-49.2291	-94.9595		4.96204
-59.0993	-97.7523		-14.5057
-57.431	-98.3191		-10.1485
-59.4906	-92.4817		-13.9461
-60.1636	-96.4291		-19.6342
-58.918	-104.547		-15.2178
-63.9075	-69.1602		25.2586
-64.7242	-67.9846		17.4079
-61.108	-72.7252		21.9448
-61.4811	-70.4887		31.684
-66.2228	-65.8934		27.8551
-73.7715	30.7132		21.2735
-75.877	30.03		11.0462
-73.2176	22.9446		23.8187
-69.0635	34.178		32.0437
-74.6556	38.7582		17.3053
-78.5009	41.9963		-29.6969
-79.6214	34.6138		-24.8379
-78.7318	43.8915		-19.1051
-76.8794	49.2654		-34.6251
-77.9006	39.0136		-38.9869
-4.96148	-107.353		40.1042
-4.05798	-103.071		42.571
-8.22953	-107.355		39.161
-5.78077	-116.583		38.5689
-2.44827	-107.232		40.6079
-8.17925	-129.592		33.356
-9.04248	-140.778		30.2014
-5.19197	-129.625		34.8279
-11.5921	-128.77		31.722
-2.48231	-149.747		29.9183
-2.79751	-155.294		28.8626
-2.19177	-141.58		31.9065
-6.06728	-149.395		29.0775
-66.4339	-54.4084		-31.6563
-68.3867	-47.2113		-35.8814
-63.6054	-60.3276		-34.0971
-65.8105	-60.8882		-26.335
-70.5112	-49.0917		-29.0099
-69.9887	-41.6856		-38.7973
-73.1677	-37.1213		-35.4618
-70.8262	-36.7809		-41.1356
-64.798	-46.9745		-42.4452
-61.0526	-125.321		-29.981
-61.106	-128.431		-23.0094
-59.7686	-122.477		-36.9899
-61.2045	-131.796		-32.5801
-2.28689	-129.957		35.3541
-1.01995	-117.082		40.4852
-69.9416	-54.0849		31.5752
-68.8093	-58.7963		31.3536
-67.6636	-54.3036		37.8352
-71.2647	-48.4145		31.1161
-65.2757	-66.4011		9.0124
-67.9488	-62.7306		11.6832
-65.7878	-65.4304		0.849088
-63.3795	-70.1021		7.21065
-12.3789	-93.2005		90.9268
-12.3093	-88.9039		92.7798
-16.2436	-92.7489		88.4489
-12.539	-97.9695		88.2623
-8.5482	-93.4143		92.6438
-20.2733	-91.6257		85.1842
-20.5688	-87.2878		86.8491
-24.0833	-90.2565		80.739
-19.9211	-95.6495		82.9825
-4.64139	-84.1932		95.5349
-4.5579	-89.2024		94.8836
-4.25534	-78.6157		94.6193
-8.10454	-84.0166		94.592
-12.1254	-100.681		85.8213
-8.57838	-100.959		87.2721
-16.0066	-100.505		82.8096
-12.0532	-102.828		81.1808
-12.2192	-104.31		73.7952
-11.5757	-104.315		67.1049
-8.14974	-104.898		74.8092
-17.0258	2.61562		80.8699
-14.8481	5.37452		83.3784
-17.0231	5.79352		78.4501
-19.1562	0.677019		78.767
-17.1758	-0.653492		82.7052
-48.8318	-23.8626		68.5564
-49.5467	-29.3774		68.0605
-42.6775	-22.8106		72.6451
-47.968	-18.511		68.6141
-54.8586	-24.6989		63.2715
-59.6347	-14.5067		57.9048
-60.3316	-20.0411		57.201
-53.624	-13.9798		63.8737
-58.4654	-9.18204		58.6918
-65.3148	-14.9348		50.6592
-69.9956	1.27183		38.7093
-67.1256	3.83583		43.0776
-68.944	8.96758		38.2304
-72.0532	-0.48482		34.5509
-49.844	-34.6997		67.5256
-43.9548	-33.6233		72.7951
-55.5923	-36.3488		61.5433
-49.704	-40.4226		68.3204
-3.01583	6.53829		99.6822
-4.76031	5.85266		99.1323
-3.13982	1.65225		103.163
-3.06882	11.4889		96.2747
-28.071	70.4845		74.4196
-29.4841	76.3666		69.6415
-33.7586	68.9967		71.4435
-26.4604	63.1897		79.561
-22.8116	71.3792		76.5627
-3.55938	-104.812		62.4296
-4.04409	-105.556		68.9004
-6.73799	-104.475		61.5018
-1.41545	-102.091		54.608
-65.0144	-53.7498		43.8624
-66.5166	-47.6063		43.4967
-63.0073	-59.8517		43.6729
-61.9132	-52.7486		49.7737
-5.03139	-101.205		88.1008
-4.9342	-103.68		82.3282
-5.09555	-98.3609		90.7174
-4.50175	-105.262		75.2722
-36.4008	-89.4906		56.0337
-37.1856	-86.4545		59.5611
-41.1284	-85.7921		51.3164
-35.1203	-91.7068		53.3195
-31.6871	-92.8664		62.157
-39.2533	-91.0779		34.394
-34.3787	-93.5592		38.6838
-42.2224	-88.5354		37.9911
-44.0483	-88.4926		29.8745
-36.098	-93.9291		30.0066
-0.034593	-101.215		48.0467
1.02098	-102.462		43.5668
-2.46382	-101.311		47.0842
-7.87044	-4.1905		103.877
-5.40204	-3.23663		105.601
-7.28366	0.101671		101.045
-10.491	-5.66718		100.818
-8.40795	-7.64512		106.106
-25.5659	-19.7522		80.1138
-22.1298	-16.7634		82.0321
-24.1506	-14.464		80.2479
-29.6678	-20.9625		78.393
-28.9835	-54.3381		83.8722
-26.9859	-54.5		84.4968
-27.5699	-53.4764		84.3815
-12.6503	-24.4879		93.0654
-14.3296	-24.8025		91.0843
-12.0856	-25.2955		92.7281
-14.0514	-23.3818		92.9933
-12.6604	-28.3509		91.8186
-10.8855	-27.7001		93.4874
-12.4377	-27.48		92.0585
-14.9186	-28.5819		89.7278
-13.1871	-29.6536		91.9353
-2.47099	-24.014		101.379
-4.23687	-23.8502		100.491
-2.49208	-24.9946		100.034
-2.61091	-23.1695		102.918
-17.4288	-27.864		87.5458
-18.0289	-29.1295		87.7138
-16.9479	-26.9503		87.9688
-19.6643	-26.288		85.5892
-8.61036	-16.2239		108.129
-8.81428	-14.6588		108.606
-10.9885	-16.3972		104.435
-8.29761	-17.8014		106.808
-6.21439	-16.2317		110.625
-25.8267	-69.4398		83.6136
-27.212	-74.042		82.0174
-22.4723	-71.3019		86.1462
-24.5795	-65.6954		85.3114
-28.7318	-66.8773		81.8194
-27.8123	-47.8924		86.5732
-29.6307	-48.6739		85.3096
-25.8924	-46.8881		88.0658
-27.4089	-43.7505		86.985
-3.01539	-28.8507		98.5548
-2.62069	-27.0092		98.4358
-4.96321	-28.7106		98.0102
-3.25254	-31.066		98.5025
-6.97256	4.52162		97.8066
-7.14771	8.95353		94.6123
-9.7459	2.52555		95.2417
-18.3593	-17.3933		88.3524
-18.8515	-16.965		86.9073
-18.5251	-18.895		87.5776
-17.6484	-16.5008		90.6434
-17.5462	-15.4914		90.686
-6.03772	-25.5669		97.45
-4.41809	-25.6557		98.3847
-6.01184	-24.7164		97.97
-7.68454	-27.0168		94.7062
-5.91931	-27.0864		96.8066
-5.78109	-23.8347		99.1367
-5.74712	-23.1109		100.634
-16.683	-15.5754		92.7733
-17.2291	-17.2854		91.9112
-16.5093	-14.6851		93.0778
-18.4707	-21.4851		86.7742
-17.8257	-23.7606		86.8695
-17.7441	-20.2686		89.1743
-3.78475	-39.3504		99.8526
-3.73096	-36.4689		98.9418
-6.40694	-38.7528		99.2598
-4.10981	-41.3061		100.213
-24.0904	-31.0117		84.5302
-22.592	-27.2921		83.7763
-26.3914	-30.9249		83.2296
-25.5035	-34.9243		85.6666
-21.7114	-31.2043		86.0792
-10.7043	-66.465		92.6088
-14.5024	-66.2641		91.4331
-11.2064	-69.1819		92.278
-6.90905	-66.7479		93.4331
-10.7394	-64.5175		93.4465
-23.7329	-49.4604		88.8696
-23.8332	-47.4971		89.449
-25.6528	-51.1022		86.5809
-23.9784	-50.2412		88.3806
-16.3472	-13.9421		93.0211
-14.9958	-12.9352		95.739
-16.5316	-13.1654		91.4729
-17.9815	-65.9639		90.015
-17.7567	-64.0272		91.0462
-21.3309	-64.9992		88.2471
-18.2456	-68.4296		89.0432
-3.34634	-66.8274		93.6226
-3.32436	-65.2481		94.4022
-3.3221	-69.3222		93.3955
-58.6611	28.4451		54.8757
-59.7269	29.8802		52.8396
-61.5585	22.9644		49.5986
-57.7507	27.2839		56.7748
-38.2807	55.0145		74.2074
-38.9356	61.0641		71.0515
-44.7625	52.925		68.512
-37.8977	49.459		76.7388
-32.3759	56.1348		79.1609
-52.006	49.5446		61.0475
-53.4296	54.9892		57.1262
-58.5137	45.0839		52.5075
-50.8769	44.5602		64.5879
-38.726	40.1585		77.965
-38.3217	43.2083		78.0582
-39.8192	36.9956		77.5249
-34.2424	41.1924		82.7648
-61.4594	31.2992		49.3258
-64.6527	24.7277		42.2704
-56.2941	36.8715		59.0871
-63.0176	33.9681		45.9368
-24.3897	28.5165		82.4903
-21.3329	27.9861		82.807
-23.9394	29.7542		83.8804
-27.6381	29.313		81.5736
-24.7562	27.569		80.2221
-8.09988	18.038		87.5562
-7.82649	15.8448		88.9496
-5.35648	19.9647		89.2338
-8.30822	19.6355		86.3602
-10.8221	15.5086		84.7233
-29.8179	-3.92074		73.9353
-24.1618	-2.4754		76.1315
-28.0389	-1.05005		73.3909
-36.8707	-4.42805		71.2036
-31.6245	-7.35906		74.3295
-57.6623	8.61176		53.1816
-55.4377	5.22394		56.6109
-54.6959	10.247		55.3394
-58.4391	12.8627		51.8924
-60.367	7.11058		50.8392
-7.51652	12.7107		91.4985
-4.90499	14.5951		92.7807
-10.0343	10.521		89.3538
-40.3373	34.4665		77.2012
-40.1402	32.5407		76.5311
-35.2794	35.3967		81.6303
-44.9316	34.5501		73.2719
-49.6094	33.4995		68.9268
-53.7449	30.0331		63.781
-49.3662	31.256		69.3644
-54.0632	16.9318		56.369
-56.0738	17.0979		54.6371
-53.449	14.2707		55.9642
-51.8135	16.5424		57.7829
-54.0291	20.006		57.999
-41.5579	19.5377		66.4247
-39.8633	20.4687		67.933
-43.0633	18.5322		64.7005
-38.1183	21.3491		69.0969
-35.8775	21.815		69.7083
-38.1115	22.0632		69.7564
-40.2024	21.2141		68.4919
-35.7041	22.4479		70.3087
-33.0506	21.9949		70.1101
-30.2279	21.7862		69.9499
-32.755	22.6112		70.6791
-29.7765	22.382		70.4878
-27.5023	21.2513		69.687
-25.2494	20.1833		69.0286
-23.2394	19.0307		68.6793
-21.9036	18.0008		68.4588
-22.2711	19.6992		69.228
-24.1399	20.6352		69.2716
-21.1249	18.7166		69.0364
-21.0595	17.0808		68.2693
-21.314	20.1712		69.8724
-23.2733	21.266		70.0286
-32.5322	23.3604		71.4991
-29.3422	23.1138		71.3381
-46.5681	14.682		60.5406
-45.5301	13.7514		61.2181
-31.422	29.7891		80.2554
-31.6083	28.3211		78.3527
-31.2413	31.532		81.7353
-35.6082	30.1827		78.1397
-45.9177	24.8857		68.5442
-44.3931	23.0305		68.0286
-42.9215	26.0008		71.1028
-47.2494	27.0482		69.0694
-36.3386	5.87355		67.5176
-30.1812	5.83874		69.4732
-41.562	7.04623		65.2256
-37.0225	4.68517		67.6472
-25.3468	7.24149		70.3498
-25.6321	5.90989		70.9052
-22.1909	9.06139		70.5219
-19.2037	12.6712		69.9159
-19.8779	11.5674		70.1858
-18.9341	13.5702		69.6503
-35.1701	8.43824		66.943
-29.7602	8.48945		68.5612
-39.985	9.66024		65.3095
-21.4638	12.2424		68.6581
-20.8482	12.888		68.4696
-22.721	11.2788		68.9223
-20.3764	13.4307		68.424
-19.9905	14.0937		68.4274
-16.6889	21.3357		74.6198
-15.6376	23.2022		77.7393
-17.7864	22.6561		74.8544
-18.0718	19.5719		71.7873
-18.8045	15.0395		69.5533
-26.1482	22.5581		71.2323
-18.6654	18.6124		70.4822
-19.473	19.961		70.5859
-18.1408	17.2846		70.5487
-35.0407	9.89609		66.9604
-29.4255	9.58464		68.2477
-21.6243	13.0472		68.0048
-22.7512	12.2935		68.2395
-21.0296	13.4383		67.9688
-20.7126	13.8305		67.8588
-44.1001	17.5651		63.0798
-4.57527	31.6513		88.9054
-4.70298	34.0588		89.4143
-7.68421	30.6943		88.2584
-4.24082	29.8312		88.6198
-20.3481	4.33164		74.7768
-22.5729	2.92202		73.9776
-20.5289	2.11794		76.1697
-18.747	5.98502		75.4526
-20.2602	6.18223		73.5562
-17.0394	7.97081		76.7551
-15.0886	10.4984		78.5518
-17.4164	12.5921		72.4257
-17.6696	14.1724		71.3125
-16.1041	13.7046		74.274
-12.6596	21.3804		79.8743
-11.8646	22.5025		81.4904
-13.624	23.0006		79.7174
-20.7134	10.3452		70.3502
-20.5202	9.27701		71.3916
-20.2712	7.8295		72.4941
-22.2902	6.18377		72.0687
-20.101	-52.4031		87.3201
-17.312	-51.8528		89.1421
-22.5076	-52.6315		85.6913
-19.9944	-52.3373		87.0948
-23.9902	-52.8995		84.699
-23.7325	-52.7919		84.6164
-4.20545	-44.6707		100.442
-4.15893	-46.0329		100.143
-4.299	-43.4409		100.631
-7.19579	-44.3279		99.8403
-9.44802	-47.022		98.0221
-11.8222	-47.2624		96.8199
-9.08753	-48.3399		97.1145
-7.00194	-47.0719		98.8337
-9.60335	-45.7313		98.5874
-14.2556	-47.6223		95.4381
-17.0877	-48.4965		93.3807
-14.1175	-49.0693		94.3654
-14.4812	-46.314		95.9744
-9.59564	-44.2288		99.0102
-9.50474	-42.8991		99.105
-11.9771	-44.3858		98.0805
-13.6557	-42.5705		97.2605
-14.3179	-43.6508		96.828
-11.1587	-42.1542		98.602
-13.3229	-41.4918		97.4202
-20.3041	-50.2966		90.2199
-20.226	-48.8373		91.4318
-8.49014	-49.5431		95.8288
-11.3175	-49.7996		94.5476
-8.12802	-50.1316		94.7134
-5.93168	-49.3596		96.8532
-14.2387	-50.4166		92.7639
-14.2388	-51.102		91.7374
-24.8365	-51.7392		86.3348
-25.9463	-53.1378		84.8554
-20.3245	-53.4063		87.9167
-20.4212	-53.6231		88.2146
-17.514	-53.2465		90.0235
-20.259	-53.3329		87.6794
-21.0792	-55.1047		88.8243
-18.7185	-55.9301		91.4072
-20.8143	-54.5663		88.7213
-15.8708	-56.2482		93.8385
-16.4016	-57.1423		93.7995
-13.1739	-56.0841		95.441
-15.5492	-55.3382		93.5675
-8.75363	-53.6167		96.1779
-5.8288	-53.6935		96.9875
-8.35356	-52.5028		95.5694
-11.9672	-53.8825		94.8992
-9.45731	-54.832		96.5413
-3.86508	-56.4979		98.039
-3.57702	-55.1925		97.7649
-6.59965	-56.0877		97.6401
-3.8849	-57.5485		98.0621
-24.2849	-54.3727		83.9055
-24.1376	-53.7235		84.5565
-22.6259	-54.2615		85.2483
-24.234	-55.7957		83.0727
-2.72213	-52.3552		92.987
-2.92075	-51.5575		94.3469
-2.34513	-53.7177		91.1744
-5.06773	-52.4558		92.8541
-3.93292	-58.7751		98.0529
-6.9949	-58.3562		97.7987
-3.84799	-59.7619		97.5892
-3.26436	-63.5366		95.2471
-3.65897	-61.994		96.5093
-6.58411	-63.0714		95.1743
-9.21996	-41.9655		99.2009
-6.97604	-41.8254		99.893
-8.55996	-40.6447		99.3246
-3.4109	-53.7873		97.2814
-3.19756	-52.5558		96.6787
-3.08147	-51.8552		96.223
-3.09651	-51.6134		95.8516
-5.39524	-51.8364		95.9506
-8.15425	-51.8985		95.1411
-8.03234	-51.6963		94.7771
-11.1845	-52.2018		93.9055
-3.11259	-51.5225		95.3312
-5.21839	-51.4999		94.991
-14.3044	-52.7828		92.1934
-14.628	-53.3639		92.6194
-14.1533	-52.5832		91.7879
-17.2479	-59.9704		93.27
-17.5254	-61.0369		92.7977
-14.4572	-60.0438		94.9864
-17.005	-59.0092		93.5322
-11.0048	-59.9557		96.4585
-11.0734	-61.0596		95.8871
-7.05353	-60.2857		97.3104
-10.7729	-58.9707		96.7466
-3.86952	-60.8331		97.2637
-14.1119	-51.216		91.1465
-13.9812	-51.1398		90.678
-10.9933	-50.5779		92.849
-24.1499	-53.4647		85.2435
-22.7312	-53.6317		86.4509
-7.73106	-52.6112		92.1914
-7.78236	-51.822		93.3066
-7.56259	-53.9406		90.5418
-10.8339	-52.9502		91.2444
-7.8736	-51.6604		94.2441
-10.8485	-51.9717		93.0123
-10.9195	-62.5783		94.8863
-14.6958	-62.5986		93.7475
-16.7665	-58.0934		93.7361
-13.9294	-58.215		95.5298
-17.6608	-62.4257		92.0783
-20.4124	-61.6268		90.2758
-13.6272	-50.7074		90.3053
-16.4835	-51.3191		88.7528
-13.0089	-49.3481		89.5969
-10.8335	-50.0444		91.5131
-8.0142	-49.6996		92.5114
-7.91128	-50.1843		93.4015
-8.30626	-48.4543		91.2492
-5.64727	-49.38		92.8992
-12.3968	-46.2393		88.4928
-14.6752	-46.6875		87.4508
-12.3421	-42.4048		87.5903
-10.2332	-45.812		89.2979
-23.9278	-59.2076		81.5625
-22.232	-59.1038		82.9542
-23.9122	-63.4447		80.7318
-2.3717	-56.6539		90.0937
-2.32696	-60.5332		88.9968
-4.59393	-56.631		89.8542
-8.15007	-45.4887		89.8994
-7.96102	-41.6414		89.0549
-5.97926	-45.2206		90.3514
-7.41701	-56.7579		89.1844
-7.56908	-60.8569		88.2568
-10.5029	-57.225		88.2606
-27.1584	-54.2815		77.2229
-27.7853	-54.5545		75.8107
-14.075	15.481		77.5976
-13.389	14.3593		79.6337
-80.4957	-8.86501		-43.2151
-82.0047	-9.41691		-41.4781
-81.1064	-4.15762		-43.2715
-78.595	-8.15147		-46.566
-79.7769	-13.3749		-42.3774
-80.1941	9.26055		-6.73907
-79.0735	11.2417		-1.82067
-80.4867	12.256		-10.6841
-80.505	14.5594		-15.7177
-81.3058	14.1823		-23.0684
-80.9842	9.4312		-16.6677
-80.1326	20.2095		-17.0101
-75.5758	-34.3046		-33.2516
-76.3339	-30.4693		-34.9828
-74.846	-38.5296		-30.4619
-77.7662	-32.1678		-31.5981
-77.3463	-26.4108		-37.3033
-79.1599	-25.089		-35.7505
-78.0578	-22.1865		-39.3947
-74.746	-28.3064		-40.045
-83.5152	-9.3935		-40.584
-83.8741	-4.29958		-40.8659
-82.9294	-13.6604		-39.5892
-85.0691	-8.87405		-40.2313
-83.9172	-26.4495		-32.4679
-84.9643	-27.5904		-31.2878
-82.5393	-24.7852		-33.9225
-85.7671	-28.4511		-30.2268
-86.6951	-24.0933		-32.3788
-84.6667	-32.604		-27.3686
-86.5052	-28.933		-28.9795
-90.1644	-18.3063		-30.6212
-91.4398	-13.7137		-33.871
-90.1841	-17.8045		-29.8978
-80.8815	-41.9279		-18.8966
-81.0574	-40.0461		-21.8867
-79.923	-40.855		-21.153
-80.4909	-42.8575		-16.9524
-81.3319	-42.2602		-18.2417
-82.8361	-35.0095		-6.81326
-82.5392	-35.5421		-6.75855
-81.9441	-36.6695		-7.20794
-90.2392	-17.5735		-29.5787
-89.6273	-18.0515		-28.4909
-92.4802	-2.32305		-33.1047
-92.5473	-1.60189		-34.6726
-92.3833	-3.72803		-31.4612
-92.6822	8.14852		-30.8803
-92.9596	9.58969		-31.1052
-93.1344	11.7203		-30.2457
-93.6379	13.1132		-27.7236
-93.3109	12.2066		-30.6466
-93.4091	10.8162		-28.477
-84.0996	-11.4889		-9.58415
-84.5947	-5.20399		-8.61037
-83.1759	-15.7313		-8.79898
-83.6595	-10.8556		-8.26427
-80.1361	-28.2161		-0.382989
-80.7433	-23.9323		-0.0134597
-79.6192	-32.0028		-0.567585
-79.2712	-28.8138		2.45253
-82.9622	-22.8954		-10.3804
-82.909	-20.9445		-10.7269
-83.3572	-24.9602		-10.7866
-80.9913	8.87822		-16.6105
-81.0283	8.87326		-16.4191
-81.3263	10.2595		-20.0345
-89.7506	16.4027		-18.3451
-90.7532	18.1074		-21.4816
-90.5555	15.6753		-17.3522
-87.986	13.496		-14.8724
-88.896	16.8116		-19.4837
-90.3702	18.7747		-26.3992
-89.58	18.4809		-23.4907
-89.5698	17.7103		-27.7013
-90.8196	17.5371		-29.7749
-90.6331	18.9011		-25.9434
-90.4326	3.97705		-39.5968
-91.2785	4.21581		-38.8005
-90.5287	10.0606		-36.5859
-89.8153	3.46159		-39.8719
-85.5187	-0.460609		-9.22174
-85.804	-1.72866		-9.807
-93.0896	3.2168		-36.2015
-93.5336	8.50735		-34.1778
-93.1384	3.11893		-36.5706
-92.7688	0.358587		-36.3261
-93.1933	13.9319		-24.1519
-92.1971	13.3367		-20.2173
-93.28	14.9066		-23.6126
-92.9957	12.537		-24.8837
-86.9499	0.460413		-11.8842
-87.4841	2.89797		-12.6508
-86.4114	-1.39378		-11.2914
-92.6434	3.86343		-33.5121
-92.7256	1.80307		-35.3164
-85.0768	-6.52616		-12.9228
-85.5944	-4.88533		-11.8891
-85.2253	-6.22073		-13.6103
-90.0928	-5.90642		-26.9971
-91.6314	-2.62817		-28.7058
-89.9931	-7.03084		-27.1584
-89.9217	-5.48737		-26.5902
-81.1334	-19.8644		-0.422361
-80.3569	-20.204		2.17592
-81.3063	-15.1736		-2.32821
-84.1335	1.04378		-39.5442
-85.2518	3.37066		-38.6614
-84.4399	5.11732		-37.6608
-82.9371	0.494492		-40.5984
-87.3521	8.5192		-35.5815
-87.8989	4.37197		-38.8377
-89.4699	13.484		-33.895
-87.7681	11.8251		-33.2464
-88.9999	2.27919		-39.8655
-87.7491	-3.35932		-40.5966
-87.2132	-8.3138		-40.0955
-80.9736	-24.4384		-34.8425
-81.7222	-21.0364		-36.5832
-80.52	-28.203		-32.5823
-82.33	-17.4565		-38.22
-80.6622	-17.709		-39.2915
-89.3531	-18.6277		-27.4377
-79.4729	-31.1523		-30.7159
-78.676	-34.8305		-28.4511
-80.389	-42.6669		-14.1025
-79.8142	-42.9544		-13.939
-79.2579	-43.1582		-13.5778
-79.0403	-42.7014		-19.0922
-90.2039	-7.74096		-27.6117
-91.5245	-5.65818		-29.5331
-83.2252	-10.3122		-7.11853
-82.5423	-9.92542		-5.89666
-81.8426	-24.3098		-3.65314
-82.0442	-24.4268		-4.44421
-84.0469	-28.5444		-10.1488
-84.1601	-27.3586		-11.2572
-85.0268	-30.5492		-11.497
-82.8502	-18.7915		-7.79581
-83.0834	-18.9029		-10.1045
-87.5004	13.6418		-30.2935
-86.502	14.2547		-27.0249
-85.0964	9.85254		-33.0123
-84.1458	8.27833		-34.7898
-83.4597	10.4504		-30.628
-83.7181	8.00092		-35.7724
-92.7115	4.36187		-29.0207
-92.6467	2.80576		-28.8016
-85.6304	-5.4508		-15.0245
-86.635	-4.10845		-17.7456
-89.915	-4.63099		-26.2302
-89.5414	-4.50096		-25.3436
-91.5734	-0.849324		-27.2288
-6.33743	87.0437		68.6127
-6.97005	94.327		60.9408
-13.117	86.319		68.1368
-5.90283	79.8107		74.7223
-5.04941	72.7657		79.7301
-11.6686	72.3496		79.1522
-4.29044	65.0174		83.9054
-26.6923	57.2158		82.2762
-21.2816	57.3582		84.3257
-27.1367	51.2086		84.7538
-2.8295	-22.2686		104.887
-4.63603	-22.2511		103.567
-3.22057	-21.116		106.825
-3.87143	-12.9666		112.475
-3.88841	-14.6804		112.523
-3.86616	-11.0484		112.008
-6.35486	-13.032		111.153
-3.80106	-16.239		112.034
-3.7828	-17.8465		111.023
-2.55992	-25.8319		99.2258
-3.46741	-33.8469		98.6624
-5.76108	-33.6376		98.2493
-3.58049	-19.5577		109.03
-5.74297	-19.5526		107.487
-3.7333	-9.0894		111.013
-3.5843	-6.3515		109.126
-6.13658	-9.28224		109.801
-5.68489	45.3126		90.5687
-4.7219	50.1097		89.8987
-11.909	45.079		89.8177
-5.96541	41.4283		90.6794
-3.43749	20.9063		89.9435
-3.66795	22.8157		89.0699
-3.13879	18.6129		91.2361
-3.87562	24.7099		88.4775
-4.04305	26.407		88.2417
-5.96737	23.711		87.7896
-3.32537	-49.2131		93.1214
-3.06983	-50.0206		94.4281
-3.54365	-47.8988		91.9668
-3.0705	-50.1678		95.2651
-3.16468	-50.1125		96.0782
-5.27037	-50.1835		94.974
-4.00208	-47.1644		99.4705
-3.78765	-48.1953		98.593
-3.50132	-49.3139		97.4926
-4.31415	-42.4587		100.546
-3.48726	-44.972		90.6047
-3.24207	-41.1399		89.6665
-19.113	85.2561		67.5042
-20.6072	91.7853		60.1511
-25.5003	83.1142		66.3429
-18.3462	78.6809		73.099
-16.9095	46.1447		88.5352
-16.3216	50.0666		88.0294
-22.2614	47.1292		87.0988
-19.1263	40.936		88.6285
-20.8271	36.4879		87.627
-22.5803	32.8876		86.0048
-25.9426	37.4921		86.3077
-23.4946	31.0046		84.876
-27.1842	31.9487		84.0641
-19.8117	30.5759		85.5341
-25.4562	23.2725		72.3338
-28.9423	23.8234		72.3372
-22.3397	21.9792		71.1373
-25.2335	24.3582		73.9608
-26.7798	21.7914		70.2026
-25.0433	25.7595		76.5903
-21.9882	25.1252		76.5737
-28.4155	26.3201		76.5331
-45.9458	87.1464		42.2057
-45.0378	81.6535		50.1295
-39.9962	90.8004		45.0908
-47.4348	92.4279		31.5356
-30.7443	81.8753		64.1371
-37.1673	79.2054		61.084
-32.4177	87.587		57.0792
-27.5237	47.914		85.413
-32.4183	47.1597		83.3511
-28.4663	43.4188		85.318
-31.4002	33.2808		82.8769
-31.0145	35.5354		83.9549
-30.1197	39.3946		85.0733
-31.7423	26.4953		76.0198
-35.6017	26.5192		74.6835
-32.1939	25.1798		73.8943
-43.6725	76.6419		56.4629
-41.984	71.9176		62.0007
-50.4614	73.6719		50.508
-38.0851	45.8164		77.6528
-43.9629	44.1425		72.3338
-38.953	23.7636		71.1346
-41.429	22.9443		69.5541
-35.8269	24.0485		72.0731
-39.1066	24.9877		72.1218
-40.1279	30.501		75.5258
-44.5643	30.6463		72.8973
-39.7442	28.5061		74.4854
-39.378	26.5013		73.1027
-40.444	66.5875		66.7223
-47.7787	63.6723		60.4643
-56.6868	70.9341		42.8145
-61.6395	68.7433		34.1771
-55.8911	65.7478		48.1932
-41.9548	20.2054		66.8197
-43.5082	19.1232		64.9589
-43.6175	21.8431		67.5572
-45.064	20.4459		65.4295
-42.5929	20.914		67.2398
-48.4238	29.3565		69.5326
-51.5936	26.4638		65.2682
-18.6781	27.4398		82.3403
-17.9829	28.3107		84.1533
-19.021	25.977		79.681
-16.53	26.2393		81.5335
-16.6338	29.973		85.9259
-14.7539	28.4217		85.2752
-19.5198	24.0272		75.892
-20.0363	22.2992		72.5843
-5.73375	37.829		90.2429
-65.8533	-66.004		-7.06447
-65.8446	-66.14		-13.6994
-68.0142	-61.0828		-4.91743
-80.0022	22.8329		-37.9482
-81.2366	16.9505		-32.9355
-80.347	25.1381		-29.9575
-78.7202	28.6713		-42.3913
-79.5177	18.9684		-43.0554
-76.1034	-7.71253		-52.4514
-77.0466	-1.78258		-52.5602
-73.8406	-7.80932		-58.1611
-75.206	-13.9143		-50.9087
-77.6459	4.53362		-52.2383
-79.771	2.30338		-45.9669
-78.2148	10.1253		-50.4186
-75.5747	6.44847		-58.7629
-71.1983	-31.8934		-44.2438
-72.7191	-26.0574		-46.8499
-68.4428	-35.1757		-48.1364
-4.84199	57.3772		87.4459
-10.5725	57.1006		86.7769
-16.1808	57.1595		85.697
-16.8146	64.7618		82.0754
-18.6855	-100.402		54.7449
-13.414	-101.816		58.5082
-24.4493	-97.9975		48.8535
-16.1774	-100.343		47.6839
-44.3608	-86.1262		40.9385
-45.5751	-83.9953		44.0219
-49.3445	-82.606		36.8503
-38.6986	-90.0069		45.3169
-54.7617	60.3186		52.6824
-60.9117	56.686		44.0265
-17.4898	72.0712		77.9571
-67.008	65.9584		23.7783
-66.8158	59.4555		29.3982
-71.0188	63.9448		13.5623
-21.4916	99.3377		49.5609
-14.2176	101.29		50.2187
-22.1467	106.477		36.9242
-27.7669	96.9256		48.8101
-64.4923	39.0183		42.1411
-65.2661	46.0809		38.6396
-46.138	18.9767		63.319
-57.1745	25.9989		58.2288
-55.4483	24.7203		59.7824
-58.0295	21.4353		54.4253
-53.6562	23.4967		60.9947
-0.0830645	-107.295		40.9252
-57.5552	-72.7419		38.7188
-55.6107	-76.214		34.6852
-52.2299	-76.4965		43.6423
-59.0929	-69.2814		41.2586
-8.14896	-38.7922		98.6571
-7.75665	-36.3015		98.1998
-9.89804	-39.1456		98.1049
-23.551	-45.1362		89.8153
-21.0692	-43.1836		91.7164
-22.8599	-41.1675		90.0384
-11.0867	-35.0815		96.4692
-10.3871	-32.6006		95.802
-13.6003	-35.8099		95.0826
-11.7451	-37.3746		96.8035
-8.8473	-34.2164		97.2745
-31.2925	-49.2498		84.187
-31.3992	-45.413		84.1809
-33.4833	-50.4833		82.4775
-30.9354	-52.7186		83.5811
-63.3961	16.8294		46.1604
-65.5598	16.9313		42.7834
-64.0713	10.8176		45.671
-60.8699	17.0006		49.5278
-66.9589	17.2106		38.6241
-69.5781	16.4863		33.0895
-49.5862	16.2517		59.2557
-49.6806	14.4583		58.6004
-58.6897	16.958		52.132
-82.463	8.76365		-37.7659
-82.5864	11.283		-34.0402
-80.8811	10.9267		-41.4608
-82.1135	5.00748		-40.3546
-78.8258	-17.9408		-41.2417
-76.7623	-18.4682		-44.4625
-71.4851	-53.4042		-15.359
-72.8233	-50.2273		-21.184
-68.1103	-58.4246		-18.4819
-71.2175	-55.7256		-8.00203
-74.7918	-49.9046		-12.395
-81.5367	0.940997		-42.3667
-78.4384	-29.7374		5.69899
-77.5138	-30.7465		9.91399
-79.1336	-25.4113		5.69949
-77.6861	-33.8631		5.33245
-74.6816	-2.72322		27.4264
-76.9199	-3.97016		19.066
-74.6403	-10.4753		29.0338
-73.7343	6.21915		25.8443
-52.6965	11.2834		56.5685
-51.1185	8.59792		58.49
-50.9081	12.2027		57.6399
-49.4613	12.8997		58.5372
-48.0677	11.2546		59.8962
-76.3946	-31.2564		16.2553
-77.1468	-26.0912		15.8879
-75.8752	-36.3659		16.2834
-75.1029	-31.5856		22.8893
-23.1787	-8.98249		79.3521
-20.5001	-6.66411		81.1561
-22.2549	-4.40696		78.46
-26.874	-10.8038		77.5123
-33.2244	-11.9636		74.8878
-34.5166	-16.7668		75.6051
-40.635	-12.8075		71.7689
-17.6466	-4.61513		84.2793
-17.7852	-8.33111		85.7785
-14.9052	-2.09508		88.1215
-20.1473	-16.001		84.5166
-18.9614	-13.7125		85.9422
-16.0488	-18.0717		95.033
-16.754	-18.7414		93.0525
-15.7131	-19.88		94.3154
-14.5858	-17.2646		97.1781
-17.2024	-19.2854		91.0304
-16.8014	-21.532		90.4369
-37.5456	-32.6055		76.8837
-36.9114	-27.3707		76.0687
-38.1891	-37.6939		78.0397
-32.8092	-31.7656		79.8503
-35.59	-21.7059		75.9625
-6.43165	-29.0669		97.3477
-7.93265	-29.6822		96.1862
-6.87188	-31.3443		97.2572
-58.2029	-50.8844		56.0137
-56.4256	-57.4533		56.206
-53.6906	-48.6932		62.6565
-59.8248	-44.3434		55.5577
-26.6124	-39.2394		86.4913
-28.7855	-39.9777		85.1936
-24.4063	-38.3788		87.8361
-38.1738	-43.1137		78.4254
-34.0273	-41.7722		81.6353
-43.1193	-44.6997		74.2305
-37.7504	-48.0901		79.2579
-7.36211	-33.706		97.7323
-54.0223	-63.9007		55.6613
-50.2868	-69.3978		56.1708
-50.1391	-60.5559		62.8352
-57.1208	-65.5688		49.0329
-60.9376	-25.6467		56.3077
-65.664	-27.298		48.9266
-61.072	-31.8506		55.5327
-27.2906	-95.6219		69.774
-22.8694	-97.3177		75.9728
-27.9852	-92.7875		72.2323
-37.5567	-82.7598		63.426
-33.1454	-86.2527		68.7689
-36.6421	-78.3785		68.323
-41.698	-78.7304		60.376
-56.5724	-4.2458		59.1206
-50.7572	-4.51436		64.1393
-53.9467	0.222127		59.9375
-45.6789	9.20569		62.1155
-46.8351	7.7046		61.8485
-51.9474	2.87554		60.4283
-49.797	4.66791		61.2285
-46.7017	1.3694		64.6208
-43.3773	11.8645		62.9021
-4.73195	-93.5724		93.6416
-45.8828	-57.507		69.3392
-41.2814	-54.6898		75.4127
-47.4106	-52.3354		69.3635
-44.0868	-62.0795		69.7684
-35.695	-73.7597		73.1764
-31.9255	-76.6354		75.9306
-33.3615	-68.5371		77.1665
-38.6908	-70.0651		71.5433
-44.7601	-4.66034		67.7442
-42.5553	-1.61413		67.9675
-46.289	-8.68849		68.0528
-48.8844	-46.6361		68.2713
-47.2296	-13.4191		68.4757
-11.8514	-83.7074		92.9829
-15.8974	-83.0211		90.574
-11.3712	-77.9169		92.3527
-20.162	-82.1432		87.3876
-19.5581	-76.7829		87.8577
-24.2799	-80.9322		83.6954
-40.8774	0.553138		67.8416
-33.6398	0.403511		70.5461
-39.383	2.06807		67.8525
-48.2046	6.24047		61.5755
-43.7742	4.36571		64.9238
-38.0676	3.4105		67.7435
-31.4911	3.31325		70.0831
-12.4103	0.217427		92.1888
-12.3754	4.41107		89.1552
-12.6408	-3.95018		94.6683
-13.3272	-11.5267		100.188
-13.5129	-12.6641		100.478
-11.1888	-10.4498		104.058
-13.1071	-10.1114		99.0291
-12.9629	13.002		81.471
-12.6966	10.9379		83.6176
-21.2379	-0.966949		77.5655
-3.00448	15.4929		93.4213
-63.5764	5.24075		47.6195
-12.5067	7.85496		86.2868
-60.5509	-65.594		43.2274
-64.7595	-63.6997		36.5877
-69.5658	-15.5264		43.2125
-72.2461	-16.4028		36.8974
-69.4058	-22.6489		42.5782
-67.6599	-41.6643		42.1055
-70.0576	-42.642		36.2726
-64.6262	-40.123		48.3549
-68.5619	-35.2439		42.1421
-69.0123	-28.8757		42.2759
-71.6663	-30.3291		35.9352
-19.6462	-99.4219		80.1704
-11.3316	-72.906		91.9267
-15.3752	-72.5915		90.4715
-7.39819	-73.108		92.9197
-18.8584	-72.3093		88.5307
-25.2815	10.9106		68.5286
-27.0655	1.20191		72.6775
-26.5274	2.94265		71.986
-26.0837	4.48931		71.341
-3.67445	-73.3135		93.6046
-8.27686	26.3412		87.0255
-7.95917	24.3666		86.5911
-6.39673	27.2761		87.9285
-9.15256	27.9574		87.0499
-9.75218	25.4051		85.734
-19.7357	15.0657		68.5191
-19.8089	16.2719		68.611
-17.8659	15.6603		70.7369
-10.866	23.9332		83.5729
-11.8704	25.732		84.1382
-4.15281	28.1239		88.371
-6.23623	-22.1476		102.027
-6.93508	-21.0977		103.544
-8.8972	-13.1947		108.7
-11.426	-14.214		103.77
-8.91267	-11.5263		108.196
-16.4812	-25.5346		87.8834
-14.38	-26.7688		90.5138
-16.0744	-24.5138		89.0331
-8.62317	-9.78808		107.52
-8.27654	21.4085		85.998
-10.062	29.5949		87.3648
-11.8602	28.4552		86.1953
-20.2361	17.6178		68.8778
-13.2848	27.3415		84.7164
-14.2037	26.0954		82.7711
-14.816	24.744		80.6049
-19.4215	-31.4871		88.0677
-20.6532	-34.5501		88.839
-16.679	-31.7124		90.2475
-21.9861	-37.7915		89.3282
-19.1791	-37.0513		91.181
-23.0541	-52.2975		84.6172
-21.3815	-52.1568		85.8274
-22.7701	-51.2682		83.961
-23.9416	-50.7815		87.9025
-22.3876	-49.4501		89.8307
-22.4024	-48.2249		82.6153
-22.2418	-44.5202		81.3405
-19.7263	-47.786		84.6935
-14.2139	-31.74		92.0276
-15.2466	-34.0591		92.75
-11.8564	-31.172		93.7765
-16.5279	-36.5181		92.9825
-17.4634	-38.8855		93.2476
-19.3716	-51.952		87.1017
-18.003	-50.3856		87.0004
-17.1667	-47.2443		86.2394
-17.0766	-43.3566		85.0581
-9.81887	-30.2799		95.27
-9.36036	-28.4115		94.9204
-12.7086	-39.7081		96.9933
-15.6289	-40.4557		95.0672
-17.3553	-11.1291		88.0461
-15.0394	-9.34401		92.5717
-3.33842	-2.75832		106.44
-12.749	-7.37601		97.1923
-7.63056	-19.4363		105.397
-9.79309	-19.6589		102.416
-11.9105	-20.145		99.2037
-13.8993	-20.756		96.0984
-12.5655	-19.2182		98.7226
-15.2114	-21.7582		93.926
-15.5912	-22.5929		91.6968
-15.8777	-23.623		90.1358
-13.4675	-13.7597		100.868
-13.2964	-15.9277		99.6965
-13.0338	-16.5739		100.542
-37.3427	-143.258		13.9991
-35.3334	-134.768		15.2387
-41.4753	-141.756		10.7485
-38.768	-149.247		12.8428
-32.7472	-144.449		16.9461
-33.2414	-123.198		17.1011
-28.8999	-124.329		20.5837
-32.16	-113.607		18.7246
-37.3546	-121.936		13.6809
-33.5482	-97.3222		25.5432
-31.9721	-101.374		22.0606
-29.0244	-98.8436		29.3714
-38.0708	-95.6413		21.4401
-31.169	-105.884		19.9628
-35.5282	-104.718		16.1617
-26.664	-106.65		23.9676
-41.7362	-66.2312		69.8484
-38.3648	-62.3166		75.7979
-44.3879	-70.3887		64.174
-46.2805	-74.1675		57.3073
-46.9015	-77.9584		51.9453
-46.4563	-81.2393		47.2355
-34.9103	-59.0147		79.6089
-33.3255	-61.6746		80.2094
-31.9935	-56.4925		82.1472
-35.885	-55.9675		79.5683
-30.3557	-55.1761		83.2141
-29.1932	-56.8405		83.4294
-42.432	-93.7824		17.2344
-46.7517	-91.8606		12.2786
-40.9525	-98.0726		14.2207
-44.9554	-89.8759		20.7478
-48.05	-86.2456		24.9833
-51.1706	-82.8266		28.6533
-51.5188	-84.2416		18.9467
-53.8179	-79.449		31.8023
-57.0309	-77.3743		25.6654
-41.2606	-120.501		9.98665
-43.3322	-131.949		8.5343
-39.762	-110.257		10.777
-45.2507	-119.419		6.15335
-45.2041	-140.278		7.31082
-48.7427	-138.809		3.61853
-46.8473	-146.517		6.33679
-39.9093	-103.247		12.2893
-73.4944	-31.0395		29.6499
-74.1855	-24.8424		29.657
-72.9624	-37.0868		29.7508
-58.9946	-76.0169		19.3508
-60.3359	-74.7997		12.2855
-56.6099	-79.2591		16.0616
-73.1525	15.247		24.9278
-75.7985	13.5826		15.4904
-67.4557	-62.5953		29.7703
-69.2203	-61.1484		22.2082
-72.1098	-43.0748		29.9905
-73.7972	-42.9036		23.2138
-74.6292	-17.7114		29.7983
-76.4964	-19.2998		22.2117
-75.1105	-41.7284		16.0095
-76.2144	-39.9239		9.58484
-56.1528	-88.6764		-3.37865
-53.5647	-89.3583		1.56589
-57.0192	-84.4546		-1.64326
-58.3046	-88.1765		-8.22512
-55.5087	-93.4585		-4.8108
-55.0694	-98.8789		-5.72665
-58.2719	-80.5329		0.772927
-59.7359	-76.9403		3.04873
-59.9935	-79.7371		-4.96808
-56.3437	-81.4686		6.40315
-78.3203	-4.72762		10.8675
-78.2649	-13.1029		14.0284
-77.3635	4.12844		8.96058
-77.6046	12.8213		5.90099
-77.7734	21.0333		3.2115
-78.0046	29.272		0.085776
-78.0613	37.4331		-3.32923
-79.2668	28.4592		-10.1505
-70.3139	-59.3406		14.0366
-70.9742	-57.8518		5.91172
-77.8597	-20.0414		15.4706
-78.9058	-20.6166		9.52398
-49.2234	-118.233		1.92029
-50.7422	-129.361		0.737781
-54.2168	-82.7639		12.6965
-52.0586	-86.4094		9.45424
-52.103	-137.375		-0.239208
-53.6214	-143.438		-1.14869
-59.1289	-113.839		-16.0751
-60.0338	-123.676		-16.5328
-60.0268	-87.5806		-13.063
-60.7307	-83.0968		-11.9686
-61.2176	-85.8013		-18.1475
-61.6928	-78.6691		-10.5748
-60.5609	-130.947		-17.6459
-61.3037	-136.011		-20.1066
-71.0289	-57.0545		-1.73049
-77.0998	-38.1422		5.01562
-76.4472	-42.258		3.68098
-77.9232	-36.063		1.46249
-79.6757	-20.6085		5.60766
-60.32	-93.2208		-26.4584
-60.9491	-87.0371		-25.2021
-59.1969	-88.9048		-33.3527
-61.9312	-81.2269		-24.121
-61.6086	-74.7361		-30.3069
-65.9118	-64.5909		-20.3872
-75.8811	-47.3487		-11.9274
-76.9906	-44.2551		-18.6947
-57.9509	-119.549		-43.8631
-56.3312	-111.019		-43.4662
-54.7829	-116.755		-50.9489
-57.4411	-127.283		-46.2299
-74.0472	-45.1873		-26.413
-76.3897	-41.284		-24.9303
-78.1399	-39.4916		-24.3049
-78.7601	-38.7385		-23.9529
-28.0495	-145.56		19.8941
-29.5426	-151.553		18.4929
-23.2962	-146.582		22.6197
-26.2986	-137.1		21.7526
-21.5403	-106.901		28.7082
-22.3636	-103.334		30.6551
-22.623	-114.622		26.9248
-17.3739	-107.792		33.3692
-29.655	-95.8064		43.5336
-31.7641	-94.5379		47.3247
-26.7327	-97.4958		38.576
-23.9591	-100.201		33.9164
-18.882	-101.091		38.1701
-24.3663	-125.166		23.8918
-20.1063	-126.76		26.5358
-31.5176	-64.539		80.931
-29.339	-60.9746		83.0683
-33.5639	-93.3514		50.6465
-28.034	-58.702		83.9723
-26.8178	-57.0518		84.6651
-26.1726	-60.7663		85.2348
-25.9161	-55.6777		84.9748
-24.4928	-57.2103		86.2401
-28.2426	-79.3461		79.4596
-28.4061	-84.2325		76.8529
-28.6294	-88.9718		74.4983
-20.5039	-54.1181		88.6298
-18.0063	-54.3526		90.8765
