1843
9.1925	-50.3581		89.2015
5.85574	-51.5907		88.9258
5.98614	-48.9931		92.2926
9.20856	-49.4107		91.0286
7.72184	-61.1266		92.2361
11.7709	-60.7605		91.0126
14.1113	-55.8203		91.096
10.9779	-56.1299		92.8487
15.1579	-60.2481		89.4476
18.2776	-59.0915		87.6149
12.4755	-48.0929		88.3623
9.48028	-47.3229		89.6254
12.0247	-46.6714		87.7267
15.4981	-48.7363		86.6007
6.3006	-46.8233		90.6153
3.71095	-46.5113		90.9849
6.84821	-45.5186		89.3892
6.11292	-47.3793		91.4802
11.711	-43.4012		86.8006
9.36215	-42.846		87.6068
11.7083	-39.5854		86.2298
14.1849	-43.9965		85.7099
25.4773	-60.2173		78.1158
24.7079	-64.2726		78.0129
23.3888	-60.3589		79.5517
0.105107	-54.7856		88.1543
2.5279	-54.8237		88.0278
0.230689	-58.9942		87.194
-1.80343	-54.7663		88.1335
7.05583	-42.4335		88.1726
4.57433	-42.072		88.5513
6.86508	-38.6815		87.5633
5.55217	-54.9408		87.5587
5.55682	-59.2206		86.4626
8.92938	-55.2242		86.7326
28.8363	-55.11		74.393
29.0295	-55.1165		73.9417
11.1464	14.7023		76.596
10.7768	13.2246		78.1985
82.0463	-8.65323		-43.139
81.5324	-12.8976		-42.3765
80.1948	-7.96232		-46.5134
82.5796	-4.26608		-43.1195
83.7113	-9.55526		-41.2949
81.7805	8.3283		-5.94696
81.7913	12.605		-9.93164
80.7246	10.3698		-0.890663
81.7554	14.6075		-15.1746
81.3082	20.0531		-16.4788
82.4231	9.64207		-16.2068
82.3188	14.0757		-22.224
76.9985	-31.9728		-34.0677
79.5993	-30.653		-31.9193
76.202	-36.1863		-31.4761
77.992	-28.0668		-35.9044
78.837	-25.1136		-37.7519
75.9557	-26.2401		-41.1912
79.7561	-21.1836		-39.5883
81.3223	-24.377		-35.6868
85.2587	-9.58032		-40.3739
86.8813	-4.94083		-40.8547
84.8582	-13.7636		-39.4102
85.4189	-4.5492		-40.6027
87.9364	-27.7499		-30.0171
88.5936	-23.5762		-32.2176
88.6856	-28.1407		-28.7576
86.9226	-31.6681		-27.4107
92.3256	-12.5188		-31.3318
92.304	-11.8813		-30.543
82.656	-40.988		-19.218
83.0916	-41.1178		-18.5528
82.3134	-41.5535		-17.3026
81.7742	-39.9193		-21.1736
83.3386	-27.4375		-6.83002
83.0701	-28.0128		-6.81756
82.6947	-28.9357		-7.09931
92.2458	-11.4773		-30.1392
91.6406	-12.0385		-29.093
94.5582	3.10891		-34.1715
94.5906	3.53091		-35.6931
94.5435	1.63066		-32.4538
94.592	10.0557		-31.1963
94.864	11.0442		-31.3035
94.7231	13.1746		-30.4892
94.1158	13.0915		-28.2727
94.866	13.6158		-30.904
94.1359	15.4194		-27.5192
85.4247	-9.35891		-7.19438
86.4448	-3.75335		-7.96852
84.9134	-8.56818		-5.87486
84.79	-13.2888		-6.65437
81.4427	-25.3681		-0.000868948
80.9832	-26.5163		2.78136
81.0125	-29.0743		-0.444575
81.9574	-21.7125		0.356908
84.3795	-16.0466		-9.17271
84.7336	-18.1215		-9.69591
84.369	-14.384		-9.05214
82.4464	9.12576		-16.2381
82.7576	10.3112		-19.7393
82.4827	9.12855		-16.0174
90.2545	16.6696		-16.8072
90.6249	20.211		-21.0599
89.3943	17.0557		-17.9906
88.9789	13.6365		-13.8122
90.5209	18.3146		-16.9868
90.6805	18.8789		-25
89.903	18.6891		-21.9921
90.9566	19.0246		-24.5258
91.1479	19.092		-29.3427
89.9251	17.8311		-26.3759
92.4515	5.71548		-39.8221
91.6657	5.26045		-40.0146
92.5424	11.2918		-36.8908
93.3275	5.81402		-39.216
87.0928	0.862527		-8.60625
87.9306	4.67679		-10.1336
95.174	5.56575		-36.7006
95.4472	9.7859		-34.4749
94.8959	4.0798		-37.1234
95.2204	5.45729		-37.0458
93.3374	16.5203		-23.7036
92.3383	16.1491		-19.8129
93.3169	14.9809		-24.2326
93.2953	17.5731		-23.2504
89.0264	6.51652		-12.1751
88.5205	4.95036		-11.6568
89.4345	8.94661		-13.0279
94.7618	7.29176		-34.2593
94.7902	5.08039		-35.9998
91.9939	10.3666		-22.5783
91.5612	10.1326		-21.9141
93.2817	9.80011		-26.7805
87.3867	-0.219419		-13.2424
87.5088	0.0330976		-13.9831
87.8128	1.43001		-12.1278
91.8461	0.354564		-27.7036
93.6605	3.01639		-29.6187
91.5719	0.832531		-27.0449
91.7671	-0.715848		-27.8386
82.5515	-18.745		0.231019
82.976	-14.1823		-0.654512
81.8697	-18.2919		3.06367
85.5716	0.477915		-39.0694
84.4346	-0.0543549		-40.2214
85.3234	5.18175		-36.9655
86.4726	2.995		-38.1538
88.6849	8.06394		-35.4882
88.3481	11.9042		-32.2845
91.3463	14.3675		-33.973
89.4957	6.56394		-38.8979
90.4061	5.46223		-40.0752
89.3527	2.10456		-41.3327
89.1089	-3.2408		-40.8621
83.096	-23.8017		-34.725
82.2341	-26.9456		-32.8317
83.9286	-20.6121		-36.5012
84.4682	-17.1911		-38.0957
82.7027	-17.0358		-39.2009
91.0917	-12.1047		-27.8292
81.3008	-29.6138		-31.0856
80.4583	-33.4172		-28.7353
82.6216	-29.2757		-30.6174
81.2906	-37.0212		-24.0869
80.7263	-37.0366		-24.4896
80.7827	-41.2287		-19.1671
82.139	-40.6956		-14.2187
81.6183	-40.8722		-14.0228
81.1046	-41.0428		-13.6455
91.9834	-1.41235		-28.3087
93.8026	-0.13022		-30.5303
84.3497	-7.92254		-4.83382
83.7257	-7.87033		-3.56889
82.9015	-21.4899		-3.16373
83.1863	-21.6736		-3.80987
85.2987	-21.7041		-9.99552
86.2133	-23.6931		-11.5962
85.3958	-20.5036		-10.5923
84.3557	-16.3493		-6.12524
84.7067	-11.952		-8.0731
87.9936	13.7817		-29.0787
85.7489	10.0246		-31.8819
87.0265	14.4591		-25.7207
84.8995	8.44445		-33.6588
84.4652	8.12449		-34.7398
84.2158	10.6592		-29.3982
84.2586	-16.6463		-11.1977
84.5239	-11.9908		-10.1503
93.9276	8.87179		-29.1562
93.7994	7.36833		-28.7927
87.8955	0.868189		-15.6621
87.3244	-1.63246		-16.4819
88.7568	2.07081		-18.3327
91.5364	1.75332		-26.517
93.063	5.34684		-27.7428
91.0342	1.77327		-25.1648
7.70625	83.2843		63.7839
7.44937	75.3763		69.7843
14.9229	82.2996		63.6445
7.8199	91.1473		56.8728
-0.0695272	83.3755		64.016
7.2573	67.7587		74.4788
0.10554	67.3647		74.7904
6.97075	60.0624		78.964
13.9633	67.9102		73.7053
28.2355	53.85		77.809
28.7938	50.7912		80.2844
24.1137	54.264		79.2427
0.826157	-20.8886		107.042
1.07248	-19.6926		109.634
-0.841613	-20.8698		107.621
2.81039	-20.7452		105.619
1.18303	-13.1525		114.42
3.6352	-12.8898		113.392
1.45772	-11.7262		113.651
-0.904744	-13.4786		114.727
1.17787	-14.3374		114.697
1.18743	-16.1009		114.257
-0.836662	-16.5465		114.609
1.24874	-16.3713		113.963
1.15871	-24.5906		99.5812
-0.709489	-24.7749		99.7772
1.59786	-31.2881		97.7234
3.8441	-30.65		97.4919
-0.946221	-31.5625		97.7554
1.29441	-18.0569		112.171
3.38991	-17.9254		110.826
-0.898652	-18.0643		112.698
1.42808	-10.2814		112.827
3.53399	-10.1117		111.543
0.910169	-7.45493		110.852
-0.829066	-10.3472		113.231
6.45028	45.1382		86.4832
-0.143726	44.6841		87.5005
5.71133	42.4151		87.4119
12.4725	45.6653		85.8052
6.67247	48.4362		85.134
1.04867	16.8087		85.6416
0.733529	14.6287		87.3552
1.19628	18.7544		84.5857
-0.722897	17.2441		85.7071
1.28529	20.9344		84.0112
3.39734	19.9092		83.3493
1.28148	23.0581		83.719
-0.804661	21.2141		84.1642
1.15634	-46.3491		91.0947
-1.36696	-46.3757		91.1445
1.58059	-44.9309		89.9876
0.760731	-47.2985		92.4078
0.643385	-47.4815		93.2562
-1.53914	-47.5579		93.2165
2.9491	-47.3626		92.9503
0.741043	-47.3242		93.8861
2.23611	-43.8737		97.6297
1.96261	-45.102		96.7423
-1.21342	-44.0845		97.7598
1.3121	-46.4017		95.2469
-1.43086	-46.5302		95.2253
2.51257	-38.8805		98.7791
-1.0561	-39.5237		98.8844
1.80018	-41.8889		88.7627
1.76255	-38.2271		87.9769
-1.09392	-41.7982		88.7773
21.06	81.2214		62.86
20.5411	73.9166		68.1988
26.6655	79.8732		61.4519
21.8002	88.4178		56.0795
19.2706	45.9761		85.1998
18.7411	44.1932		85.9589
24.73	46.4024		84.7145
18.432	49.4585		83.5873
19.8723	41.3336		86.3484
21.5711	38.4352		86.1995
25.0755	42.0593		85.49
22.8683	36.0547		85.5228
18.8246	35.4275		86.0254
26.8335	37.2695		84.793
26.7144	24.5046		74.012
26.1474	25.9354		75.4643
23.0727	23.2772		73.5306
30.3627	25.7797		74.1286
28.3491	23.1172		72.658
25.1194	27.8823		77.2505
29.0864	28.7898		77.0784
21.7166	26.7948		76.9767
44.8312	85.8387		40.4311
46.3681	91.3031		30.4307
39.3871	89.2413		43.0838
43.8595	80.1491		47.6704
31.6586	78.0917		59.8036
32.8727	84.2633		53.4442
37.096	76.8823		56.9657
29.3667	46.3697		83.1959
29.9782	45.2149		83.5844
34.4444	45.6654		79.8246
31.3848	38.0758		83.208
31.0545	39.9296		83.6138
30.4379	42.9293		83.8334
32.7394	29.2035		76.1119
33.4199	27.4541		74.8086
36.8386	33.3571		76.2989
42.9649	74.7137		53.0628
48.8259	72.3598		48.0664
41.719	69.0167		58.0258
39.4585	46.7629		74.3718
44.785	44.8212		69.7402
40.0723	29.8624		73.7144
40.2329	31.1228		74.184
37.1202	30.7949		75.1343
42.4472	28.9093		72.1831
41.5122	37.1296		75.136
41.0913	34.7336		74.812
45.6989	35.2492		71.8493
40.5298	32.6656		74.5051
40.5377	63.2333		62.3665
46.733	61.2672		57.1919
54.4392	70.3996		41.35
53.5265	64.9289		46.3928
60.1576	67.5488		34.1002
43.198	26.1014		70.1356
44.6118	25.0018		68.5289
44.6698	27.2814		70.0237
46.3626	25.919		68.129
43.8251	26.8746		70.2638
48.8941	32.9307		68.49
51.7275	30.0534		64.8908
17.2503	29.6774		81.1057
14.9497	27.257		80.0833
17.8312	27.7685		78.8508
16.4722	31.1548		83.0045
15.6121	32.8452		85.009
12.6444	30.6881		83.4869
18.511	24.9462		76.0434
19.0621	23.1126		73.9645
5.52661	38.5391		87.7055
0.451808	39.3662		87.5273
70.9268	-64.6253		-7.86095
72.5898	-60.1455		-5.5344
70.4725	-64.8377		-14.9325
80.602	23.4857		-37.0664
80.3852	19.6173		-42.7658
79.3705	29.2159		-41.8512
80.9815	25.9187		-28.8828
81.8484	17.2384		-31.7831
77.5452	-7.50357		-52.4824
76.8208	-13.4769		-50.947
75.1161	-7.48777		-58.2798
78.3745	-1.67104		-52.4934
78.9271	4.50626		-52.0886
76.6229	6.25027		-58.6901
79.447	10.1125		-50.2366
81.24	2.40033		-45.8252
72.4254	-30.3134		-45.2379
69.0691	-33.6709		-49.2859
74.0425	-24.9467		-47.3866
6.82024	53.6995		82.4438
0.0528589	52.3508		83.5582
13.0488	54.026		81.7725
18.6019	53.8564		80.6028
19.4505	59.8455		76.9541
21.9603	-99.3658		56.6677
20.8689	-101.918		48.9464
28.9127	-96.8519		51.2079
15.8983	-101.203		59.6221
50.0836	-82.2444		44.1128
44.1152	-85.7884		49.429
55.1325	-78.6976		38.9508
50.6027	-78.4601		46.8011
52.5538	59.0383		50.7814
57.9961	56.4705		43.9025
19.7439	67.2011		72.5508
65.2877	65.1231		24.4968
69.4157	62.4683		14.2529
64.7343	59.74		30.4189
22.5164	96.5361		46.4858
28.4754	94.3139		45.9919
22.9355	104.369		34.8693
15.4213	98.4244		47.2517
61.7628	40.1211		44.4648
62.5334	46.8349		40.0532
47.0393	24.3862		66.5755
56.1426	29.3081		59.0619
56.694	24.4628		56.1553
54.671	28.31		60.358
53.2951	27.0409		61.535
4.95752	-113.599		37.7461
2.33992	-113.747		38.0362
60.8017	-68.7169		39.0077
61.8764	-65.998		41.8391
56.0205	-70.8273		45.2616
60.1233	-72.7646		35.3882
6.66489	-35.1242		97.6765
8.59965	-35.5788		97.2213
6.05306	-32.7867		97.3628
23.0061	-46.088		86.7235
22.2841	-38.9653		89.4762
20.5772	-40.7136		90.8323
9.76293	-31.7636		95.7683
7.14827	-30.9571		96.6922
10.4851	-34.063		96.0479
12.6366	-32.4788		94.4177
8.99876	-29.4169		95.4995
32.2019	-50.0642		80.691
32.37	-53.512		79.8092
34.6169	-50.9465		79.3066
31.3192	-45.8053		81.8084
61.4952	19.097		49.4947
59.3015	19.0201		52.1693
62.3472	12.6892		49.5278
63.3498	19.4153		46.4864
65.5745	19.9838		42.8471
68.4006	19.7083		37.4234
50.2783	19.3231		61.1577
50.1999	17.1373		60.5944
57.3033	18.985		54.3
83.2024	8.91188		-36.8648
83.1752	5.21604		-40.0794
81.7359	11.4107		-40.9955
83.275	11.4587		-32.8585
80.5646	-17.2264		-41.2749
78.3345	-17.5323		-44.6169
74.5198	-51.9318		-16.3839
76.646	-47.8531		-13.644
74.4119	-54.2725		-9.74329
72.1936	-56.5738		-19.6981
74.6187	-47.2894		-22.7785
82.9252	1.05345		-42.2118
80.3966	-27.5486		6.14863
79.8221	-31.6201		5.5548
80.8474	-23.0935		6.42349
79.6329	-27.8597		11.0462
75.6047	1.02814		30.464
74.6124	8.9918		29.3748
76.0023	-6.43957		31.6369
78.032	-1.13596		22.2606
52.4578	12.8536		58.9225
50.9468	14.2584		59.972
50.7052	10.327		61.1772
49.5458	15.3835		61.0544
48.1123	13.9825		62.4494
78.7872	-28.5939		17.2058
77.4368	-28.1515		24.1116
78.1647	-33.6557		16.6725
79.3506	-23.1292		17.3188
23.406	-5.20038		83.3891
27.1874	-6.86194		82.2217
21.7179	-1.46638		81.6103
20.1127	-3.27325		84.5457
32.9728	-12.8014		79.0942
38.9722	-14.5776		77.48
34.0572	-17.7328		79.9517
16.9939	-2.66753		86.9981
14.1661	-2.83655		89.7477
17.6593	-4.79325		88.9283
21.2897	-11.1216		88.3311
19.6693	-9.14691		89.7403
17.0067	-13.381		97.5507
15.211	-12.9588		100.231
16.8133	-15.0809		96.7392
18.0194	-13.9282		95.6463
18.6768	-14.4482		93.9459
18.2614	-16.5786		93.0261
36.2882	-32.344		79.9338
31.7546	-31.7156		81.7006
36.9435	-37.5959		79.4689
35.785	-27.6829		80.2311
34.8327	-22.6718		80.2508
4.53098	-26.8089		97.323
4.96554	-28.6538		97.1231
6.01577	-26.8778		96.623
59.6608	-49.5911		58.2815
59.8003	-43.6161		59.3427
53.5354	-47.7011		65.5206
57.6727	-56.5256		57.7841
25.7753	-40.174		85.2696
23.841	-39.1761		86.5183
28.0144	-40.8033		84.0279
37.2406	-42.5541		78.6482
37.5968	-48.0259		78.1138
41.9391	-43.9482		75.4518
33.3132	-41.8308		81.1019
5.44804	-30.5493		97.1658
55.6582	-63.2403		57.1306
59.3333	-65.1611		50.4993
51.3454	-59.6773		64.4858
52.7545	-68.92		58.133
59.0765	-27.1798		62.584
59.0999	-32.1507		61.8098
64.7036	-27.0727		54.5193
27.9573	-86.6725		71.8063
28.0705	-86.2897		74.6915
21.4195	-89.773		76.3691
39.4327	-78.9814		67.5577
44.3316	-77.7658		63.2088
38.211	-76.8719		70.1884
34.116	-82.5813		72.0831
55.5774	-6.03725		63.8336
52.9638	-0.368515		63.8175
49.4595	-6.4682		68.9733
45.6145	12.3418		64.9774
46.6058	10.2238		64.6898
51.1485	3.16014		63.8717
46.6625	1.31427		67.3602
49.1837	5.89382		64.2124
43.8653	15.719		65.8802
0.15362	-89.2431		88.9136
-3.39007	-89.0971		89.408
46.7614	-56.5651		70.2475
45.1115	-61.2686		70.3496
47.6034	-51.6529		70.5972
41.8348	-54.1688		74.7521
36.6237	-72.9258		73.2567
39.9751	-69.4067		71.9378
34.1759	-68.667		76.2947
32.2092	-75.7477		75.7467
42.7751	-6.00419		72.4477
44.1361	-10.8183		73.786
41.4267	-1.60659		71.2209
47.519	-45.7953		70.9885
45.3848	-15.5879		74.4143
7.55311	-78.6912		88.2239
7.34037	-73.3841		87.7436
12.0214	-78.0514		86.5782
17.0477	-81.3424		84.8506
21.8242	-79.5034		82.005
16.5973	-73.3384		86.53
40.3984	1.38104		70.3643
39.2557	3.8905		69.9063
33.4259	2.35178		72.486
47.8843	8.12297		64.3632
43.8344	6.73056		67.3685
38.4231	5.88417		69.6763
31.3173	4.51889		71.7327
11.2911	-1.28486		92.6304
11.6619	-3.96899		95.8279
10.7927	2.65399		88.6841
12.2507	-9.33466		102.56
12.2216	-8.06437		101.351
9.27178	-9.39056		106.483
12.6705	-9.56084		102.867
10.729	11.376		79.8246
10.7505	9.1235		82.0414
20.8947	-0.473991		79.6075
0.572176	11.5205		90.3964
-1.05768	11.7476		90.3902
62.4578	6.48815		51.8004
10.8709	5.96924		85.2545
63.1443	-65.03		43.3403
67.2032	-63.1521		35.3405
68.5463	-13.6838		48.381
68.9233	-20.4621		47.5972
72.4437	-13.3254		40.344
68.505	-38.8437		46.0073
68.7537	-33.2217		46.0796
64.6091	-38.7682		53.1907
71.4062	-39.542		38.4684
68.975	-27.0974		46.5979
72.5359	-26.4311		39.0011
16.7335	-92.218		79.5682
7.29585	-71.0344		89.6871
3.30739	-71.3334		90.2552
11.5604	-70.2713		88.559
16.0913	-69.17		86.8107
26.1607	12.5784		70.4297
26.9242	2.03735		73.9218
26.1916	4.1994		73.0743
25.6633	5.68949		72.2705
-0.091855	-71.5174		90.4639
-3.61137	-69.1104		88.9902
4.80272	24.4696		82.5451
6.32501	23.5643		81.5056
5.50129	27.1792		83.1205
3.232	24.7479		83.2796
4.762	21.64		82.2826
17.202	14.9499		69.6779
16.9417	16.0385		69.8723
15.2105	15.4471		71.5877
7.76137	22.0082		80.3156
8.84962	24.5058		80.8071
1.55158	25.274		83.6851
-0.65697	25.362		83.8247
4.62496	-20.4031		104.046
5.16676	-19.2118		106.184
6.47277	-12.3039		111.434
6.43712	-11.0449		110.647
9.60737	-11.7854		107.65
17.5913	-21.0719		89.8928
17.2031	-19.8986		91.1851
15.1662	-22.4875		91.1116
6.13554	-9.37576		109.852
5.44136	18.4234		82.1856
6.77707	30.1134		84.1849
8.57862	29.2323		83.1392
17.4411	17.4179		70.1734
10.2673	27.605		81.8825
11.6402	25.9916		80.2756
12.3965	24.4321		78.7156
19.3826	-27.6223		88.5767
16.7331	-27.8463		90.2268
20.2714	-30.9734		89.0861
21.4212	-34.991		89.3868
18.5754	-34.0371		91.1433
24.0035	-53.4198		80.1177
23.8008	-52.4088		79.6135
22.0505	-53.3633		81.3113
24.4401	-52.0755		83.1987
22.0489	-50.5919		85.62
23.2015	-48.969		78.8461
19.8513	-45.2486		82.5068
22.262	-41.9034		80.1392
13.9709	-27.9304		92.0293
11.0514	-27.7116		93.8572
14.7725	-30.3936		92.3742
15.794	-33.217		92.6831
16.5971	-36.0748		93.0339
18.8889	-49.4279		84.4813
17.5594	-47.9355		84.7428
16.8702	-44.6429		84.2874
16.8226	-40.7551		83.7137
8.28119	-27.2845		95.4874
7.89544	-25.3351		95.5288
11.5157	-36.7124		96.1469
14.4998	-37.7615		94.7526
17.6932	-7.15011		91.4943
14.8012	-5.70986		94.9006
0.9453	-5.04189		107.441
-0.806557	-5.06275		107.724
11.866	-6.24356		98.8833
5.77805	-17.4091		108.801
8.56019	-16.8309		105.583
11.626	-16.3308		102.018
12.3902	-14.4904		103.058
14.403	-16.4081		98.4626
16.1136	-16.8955		95.935
16.8812	-17.7664		93.9891
17.1087	-18.8349		92.4263
12.7215	-10.1616		103.786
12.6874	-11.4062		104.277
12.6186	-12.8182		103.909
41.6751	-141.935		12.3027
36.7445	-145.015		16.0401
42.5637	-147.439		11.3689
45.9713	-140.187		8.93277
40.506	-135.916		14.1226
39.5174	-125.516		16.0851
43.9463	-123.576		12.0277
39.1432	-115.441		17.0859
34.7537	-125.285		19.9511
42.3046	-97.2717		25.3936
46.6866	-94.2268		20.6342
37.5098	-99.4637		29.7976
41.1198	-101.354		20.8099
39.8183	-106.617		18.9051
35.1834	-109.538		22.6478
44.4035	-107.253		13.9586
43.09	-65.7146		70.5835
46.2933	-69.5448		65.744
39.1841	-61.9858		74.8792
49.2242	-73.5069		59.7733
50.4596	-72.0454		54.9765
51.0709	-74.6285		50.302
36.0562	-59.138		77.351
37.1588	-56.0054		77.4255
33.6836	-57.1039		78.719
34.2483	-61.9047		77.7406
31.7105	-55.9267		79.3079
30.6428	-57.8371		79.312
50.7326	-93.9413		14.3074
52.6542	-89.2265		18.4584
49.3637	-99.5316		11.0644
54.9938	-89.3785		8.67822
55.2531	-83.8422		24.23
58.8299	-81.2701		15.7712
57.3813	-80.1755		28.7443
58.9125	-76.1791		32.7353
62.647	-74.1497		24.6212
48.098	-120.101		7.66077
48.8755	-130.766		6.436
51.8244	-118.178		3.55315
47.8317	-110.37		8.28673
49.886	-138.413		5.50156
50.951	-144.21		4.66544
53.4917	-136.767		1.79769
48.4973	-104.767		9.30569
75.2791	-27.1361		31.5774
74.6886	-32.7902		31.4445
75.7307	-21.1328		31.8131
65.1637	-72.4367		16.8229
63.3944	-75.3355		13.2853
66.7182	-69.51		9.64763
72.9274	18.3361		28.7425
76.9566	15.0827		18.647
70.2137	-57.1707		29.0931
72.4415	-54.2598		21.3555
73.844	-38.7835		31.2577
75.9455	-37.9519		23.8879
75.9884	-13.5682		32.2942
78.3436	-15.2746		24.2509
77.3782	-38.2297		16.2762
78.3068	-35.5575		9.92245
62.836	-85.2344		-6.45217
61.791	-90.8723		-8.19811
64.7348	-84.3399		-10.877
63.7408	-80.4874		-4.5208
60.9163	-86.0203		-1.54719
61.2758	-96.7215		-9.13206
64.9361	-75.9659		-1.9412
63.3772	-77.8639		3.71067
66.2561	-75.1733		-7.4439
66.2319	-72.0159		0.508512
80.0669	-3.08945		13.8739
79.8346	4.68006		11.1472
79.8797	-10.8549		16.0078
79.4762	12.5068		7.73041
79.091	19.9691		4.70037
78.7433	27.5117		1.0706
80.3366	28.7861		-9.46076
78.729	36.6795		-2.93332
73.6149	-52.1911		12.1822
74.6168	-55.1012		3.84408
79.682	-17.3714		17.2005
80.6401	-18.702		10.7632
55.5784	-116.272		-1.15439
56.1089	-127.236		-1.74921
61.33	-79.2836		9.58196
59.5171	-82.9808		6.08338
56.8051	-135.037		-2.40639
57.743	-140.857		-3.21454
64.0015	-112.103		-19.1938
64.3056	-121.484		-20.2053
65.9902	-83.5969		-15.5141
66.7346	-81.759		-20.5
66.5931	-78.7924		-14.4196
67.3961	-73.9967		-12.9411
64.5667	-128.475		-21.5126
64.9018	-133.834		-23.3286
74.2041	-54.9904		-3.74493
78.836	-34.4917		5.02446
79.6368	-33.1477		1.47363
78.1279	-38.6428		3.32367
81.2601	-19.2055		6.50931
65.0951	-90.5831		-28.7411
63.2165	-88.1857		-35.3756
65.6153	-84.6174		-27.6011
66.523	-78.7183		-26.8948
65.7373	-72.7818		-32.4319
70.0732	-62.1272		-22.168
77.8613	-45.0339		-12.3626
78.9248	-42.7154		-19.0306
59.4377	-118.831		-46.7221
59.3141	-126.587		-48.3471
56.1611	-116.558		-53.1293
59.5654	-110.826		-45.113
75.1642	-41.7401		-27.9093
77.8544	-38.8779		-25.6184
79.6319	-37.2491		-24.713
31.5984	-146.44		18.8158
30.5827	-138.744		21.3598
26.356	-148.987		21.9296
32.6334	-151.51		17.5473
29.5928	-111.436		27.6868
23.8157	-112.411		31.8131
29.0221	-117.248		25.6404
30.7712	-106.514		30.053
35.4805	-94.4782		46.1444
33.7152	-98.0248		40.2063
36.9588	-91.3917		51.1342
32.0289	-102.084		34.3753
26.1385	-103.869		38.6597
29.4528	-125.391		24.1666
24.2502	-127.346		27.8017
32.0536	-64.8249		78.3637
30.1406	-61.5401		79.2663
38.0244	-87.9932		54.2415
29.1202	-59.6942		79.7993
26.8204	-61.6305		80.9401
28.1899	-58.2701		80.1319
27.338	-56.6742		80.1992
25.4095	-58.4095		81.568
27.3606	-78.7653		78.471
27.9649	-81.4086		77.891
28.5514	-85.7841		76.44
19.7685	-51.5557		85.7008
16.4749	-51.7653		88.3345
19.6566	-50.9135		84.6221
23.5131	-54.5489		81.2458
19.7692	-51.1242		84.2061
16.0402	-50.6032		86.9816
19.7822	-51.5947		83.841
19.8575	-53.0134		83.1443
16.097	-51.2818		85.923
19.4721	-56.3647		82.4583
18.6932	-60.2676		82.1042
15.8554	-56.0394		84.1532
18.6764	-112.976		34.975
19.564	-108.829		37.5873
18.2	-119.618		33.0442
21.196	-148.34		24.3851
20.3312	-139.509		26.4201
16.1929	-148.138		26.3078
22.4762	-153.26		22.0693
19.6652	-129.133		29.7043
10.4505	-105.645		43.9196
14.8092	-106.074		44.6476
10.3265	-103.404		51.6791
12.362	-147.321		25.9172
13.1368	-153.818		24.1471
10.5806	-101.612		60.1049
12.615	-50.0438		89.239
12.5628	-50.2474		88.5712
12.4824	-50.7961		87.8639
12.6443	-52.2512		86.7339
12.4338	-55.6373		85.5488
11.9894	-59.7608		84.7422
72.9046	46.7915		14.9991
76.2411	44.548		3.45955
73.0865	53.32		9.37594
68.9049	50.3492		25.5772
80.9179	27.365		-19.3933
75.3125	-19.2661		-49.6856
72.405	-20.9039		-54.7267
53.3615	-95.3357		-55.526
54.0352	-84.9899		-54.5265
56.396	-98.3786		-50.334
52.9617	-105.603		-56.754
50.406	-93.059		-60.0926
52.9266	-114.326		-58.239
53.287	-122.655		-59.4587
49.6033	-112.738		-62.7245
60.778	-82.7464		-42.3178
60.0043	-92.4209		-43.051
57.9843	-78.5218		-48.2962
62.1685	-73.923		-40.9034
22.8809	111.075		21.048
29.5666	108.061		20.9061
22.8501	116.222		5.79794
15.8002	113.426		21.2316
22.3566	102.002		-79.2409
23.0246	110.203		-63.3774
29.4679	100.008		-77.276
21.6014	91.0407		-92.3208
14.9278	103.388		-80.691
21.1519	78.8133		-101.713
28.0183	77.2797		-99.6759
20.8451	65.3522		-108.864
14.1993	79.603		-103.326
23.1276	115.712		-46.396
30.3315	113.247		-44.708
15.6417	117.439		-47.4809
23.066	118.528		-28.5775
8.0813	122.399		-11.6641
0.119901	122.513		-11.8438
8.06046	119.843		5.57864
15.6799	121.172		-11.3633
7.93347	121.859		-29.8414
20.5293	52.3378		-113.756
27.1282	50.8636		-111.609
20.2912	38.9147		-116.942
14.0357	53.029		-115.306
19.7577	24.8767		-118.691
26.1766	23.7805		-116.438
19.2689	11.0237		-118.793
13.3165	25.7637		-120.332
17.0615	-27.5916		-107.745
23.0432	-28.2037		-105.593
16.8751	-39.4007		-100.315
11.5421	-27.3181		-108.978
17.9037	-14.9257		-113.657
6.16348	-0.859172		-120.211
-0.141205	-0.576566		-120.534
6.39912	12.2128		-121.61
12.4799	-1.36513		-118.972
5.76285	-13.6619		-116.699
14.3246	-82.9967		-84.9301
14.8111	-73.5263		-85.6061
22.9991	-85.3597		-82.6569
17.1573	-93.5775		-83.952
9.33055	-82.7199		-85.6313
4.40983	-101.262		-85.1606
9.21791	-101.755		-84.9472
4.77313	-110.897		-84.9065
-0.369792	-101.468		-85.5087
4.44882	-91.623		-85.4939
17.0823	-48.8052		-94.1804
24.175	-48.0597		-93.2127
16.7349	-57.3948		-89.4703
11.3273	-48.0615		-95.2764
15.8376	-66.6888		-86.0273
24.0632	-65.7946		-85.4427
10.1039	-62.8013		-88.4056
4.53399	-63.3092		-88.8591
5.00421	-55.2109		-91.8004
4.32832	-72.8541		-86.7657
-0.889721	-64.2865		-88.5247
47.4694	95.9665		18.386
53.1976	91.7376		16.7925
48.5286	101.044		4.47446
41.8075	99.9918		19.631
46.8768	70.451		-89.7659
52.3076	67.3384		-85.5214
46.6361	58.6276		-96.4993
41.1492	72.7239		-93.4584
47.4657	80.8175		-80.5258
48.0725	90.1726		-68.5205
41.9522	94.5377		-71.8785
48.5496	97.2751		-54.4605
53.5953	85.6925		-64.9142
48.9992	101.334		-39.7741
54.7761	95.6221		-37.9904
42.8983	106.366		-41.5558
49.533	103.02		-24.9662
49.0703	103.039		-10.079
43.1973	107.064		-9.99252
54.8681	97.3175		-10.1108
46.1573	46.5867		-101.225
45.7409	33.9925		-104.262
40.3721	48.5738		-105.093
51.5966	44.4252		-96.9115
44.738	21.386		-106.115
50.1251	19.9718		-101.728
43.8196	8.37408		-106.081
39.0749	22.5031		-109.961
42.4494	-4.73115		-104.531
41.1595	-17.7325		-101.096
37.21	-4.13124		-108.136
47.3477	-5.64816		-100.297
40.7631	-29.9789		-95.4616
45.8793	-29.4617		-91.8756
40.9275	-40.3323		-89.4033
35.0433	-29.6645		-99.1583
40.9482	-49.3924		-84.0436
40.536	-58.7901		-79.3597
35.7012	-49.2039		-87.7955
45.0528	-50.076		-79.5134
38.3646	-87.6698		-74.429
37.6258	-97.4352		-75.4437
33.4335	-86.9661		-77.974
39.4142	-77.9862		-74.3738
42.4111	-89.0714		-70.043
27.2722	-104.677		-81.0855
27.3987	-113.31		-81.3928
22.2062	-103.662		-82.6841
27.5959	-95.6046		-80.8877
32.4747	-105.642		-78.9746
40.1111	-68.5103		-75.9358
44.0707	-69.2903		-71.2928
35.019	-67.9364		-79.5924
67.6198	69.5303		-51.4443
68.6817	73.8544		-40.085
71.5858	62.714		-45.5737
66.6645	63.1494		-61.8806
63.3056	75.4287		-56.6792
69.2476	75.7068		-28.7613
73.0701	68.2418		-23.5928
64.8982	82.9506		-32.863
69.3272	76.6934		-17.54
68.2468	77.6831		-6.67467
71.0551	70.3696		-1.8806
64.5359	84.6693		-8.96699
56.3598	42.2031		-92.4184
56.861	53.25		-87.5857
60.5717	39.443		-87.6865
55.7659	30.4152		-95.5415
57.0887	64.011		-81.0146
57.8479	73.2217		-72.2182
61.5939	60.0903		-76.0609
52.1416	-5.98122		-95.5615
53.7688	6.31177		-96.947
56.7595	-6.85427		-90.0026
50.6392	-18.4163		-92.4599
54.9774	18.2955		-96.9862
59.4969	16.8375		-91.8545
49.8228	-29.4309		-87.3641
53.8207	-28.9998		-82.2843
49.4384	-40.0959		-80.7358
48.8286	-49.623		-75.1588
52.0451	-47.7112		-71.6246
47.9246	-70.1519		-65.712
52.0755	-72.6975		-59.2463
46.9797	-80.2595		-64.9427
77.6799	35.1329		-46.9492
76.7887	29.1988		-54.4575
75.4766	40.4993		-52.6824
58.0365	85.0009		16.2655
59.0448	89.2335		3.30942
78.5182	45.3988		-7.2956
77.7298	53.2608		-12.4035
67.451	-7.32371		-74.2138
64.2041	-7.38464		-79.4478
68.778	2.10424		-75.6724
70.2954	-7.50789		-68.7531
65.6279	-17.072		-71.5244
69.3602	11.6532		-76.414
66.403	13.4501		-81.8623
70.0091	20.5919		-74.9921
72.2253	9.57485		-70.3118
70.8201	29.7524		-71.6486
67.769	33.3035		-77.335
71.7592	38.0277		-66.1007
73.5779	25.8419		-65.6316
60.454	-41.6139		-60.8815
57.7552	-43.8711		-64.4666
61.893	-34.0222		-64.6377
63.0675	-39.3707		-57.0398
59.1844	-49.4929		-57.3792
69.5784	-22.58		-59.4543
67.6603	-29.7388		-56.4242
66.5558	-24.3247		-63.8499
71.3645	-15.2613		-61.7306
55.3363	-75.3355		-53.6716
56.7291	-66.0803		-53.6807
79.9967	-37.4515		-4.29686
80.54	-33.6698		-2.21435
78.5254	-40.3951		-2.09074
80.4263	-31.9242		-0.65196
83.3521	-7.99795		-2.39807
83.6939	-2.77207		-4.64807
94.3382	5.72944		-38.4703
94.3195	11.1257		-36.0385
94.9813	5.40063		-37.6881
85.4977	-36.4118		-24.4238
84.7149	-38.4429		-21.1325
93.5383	15.5322		-32.5428
92.6803	15.7497		-32.9157
92.5248	18.9185		-28.6759
94.4494	14.894		-31.9767
87.5399	9.48047		-11.1884
86.2059	9.45384		-11.8444
91.472	20.4531		-24.5564
92.431	19.7686		-23.8003
90.178	-13.9708		-35.7276
87.4774	-36.6582		-16.7149
86.5621	-31.2271		-14.7162
85.8664	-38.8653		-17.2583
83.4967	1.47099		-6.21571
88.714	16.9951		-19.0796
86.9779	13.9678		-16.3984
87.6869	16.1099		-20.6367
84.8647	9.69208		-13.2975
83.9591	10.1001		-14.8953
92.0368	15.6375		-33.1512
83.2089	9.78968		-16.3363
84.3387	11.7284		-19.0099
85.7504	13.5638		-22.6201
83.6894	11.3883		-23.7009
89.6231	-27.7501		-27.2667
89.3867	-24.5419		-20.1229
84.3578	-40.4983		-17.9312
85.8511	-30.2725		-12.4691
86.5994	-27.8421		-12.5913
87.295	-25.3924		-13.4354
87.6927	-23.9263		-14.3996
95.1896	5.14418		-37.2429
95.4393	10.2679		-35.0028
90.9163	17.874		-16.6464
91.13	17.2646		-16.3672
92.0826	19.3859		-19.6467
91.2368	17.0233		-16.2121
92.4007	18.2286		-19.141
91.3979	16.2094		-16.2348
94.8022	14.4603		-31.7038
93.9435	17.5265		-27.7621
94.9442	13.9753		-31.5578
92.909	19.1978		-23.4598
93.1619	18.6162		-23.3322
93.2467	18.0417		-23.0491
94.1566	16.5168		-27.3841
94.9181	13.6319		-31.2554
94.6484	3.41015		-36.7665
91.3066	14.8777		-16.6663
89.6419	10.1628		-14.1098
93.3641	13.828		-24.805
94.3298	0.85451		-31.6817
94.3326	2.77063		-31.3383
94.1707	4.82696		-30.7982
93.9346	6.32239		-29.9127
93.5737	7.09321		-28.4933
92.6854	8.00059		-25.9101
85.6724	-20.1028		-11.7391
86.8616	-21.804		-13.4956
88.0398	3.6288		-11.0682
84.6722	-11.9832		-9.27051
87.7846	-23.1647		-14.7849
33.8719	26.2078		73.8967
33.8439	91.7182		44.8552
35.0653	98.1323		33.6361
7.5331	100.198		47.7923
8.01367	107.887		35.2835
-0.247543	101.166		47.9755
35.746	104.516		20.4175
36.2768	108.951		5.80749
7.92457	114.295		21.4755
-0.0666105	114.174		21.4276
22.9166	118.884		-10.9803
29.9543	115.151		-10.5543
36.6601	111.37		-10.1656
37.0146	111.962		-26.5242
63.5021	53.4755		35.0027
72.4685	62.8804		3.64818
74.7237	61.2657		-7.24516
59.8803	91.3542		-10.1194
60.4387	91.0339		-22.9991
7.8019	118.741		-48.1062
7.87115	112.452		-65.4019
0.0548472	118.984		-48.2315
36.6898	110.21		-42.8603
36.2912	105.573		-59.5288
75.715	60.6208		-17.9636
75.6724	58.8127		-28.769
59.8857	89.7722		-35.8885
59.2679	86.9009		-48.5504
74.7767	55.9711		-39.4713
73.8091	51.4515		-49.7198
72.6862	45.7806		-58.6604
69.4292	50.8444		-64.7479
46.616	-91.2551		-65.0566
45.5863	-101.408		-66.4227
45.6002	-110.657		-67.6227
45.4505	-119.183		-68.9362
41.2104	-108.588		-72.0845
7.5438	103.966		-81.3469
7.28093	92.8348		-94.6962
0.155988	103.868		-81.6904
7.19063	80.1623		-104.277
7.21305	66.7542		-111.223
0.0204712	80.3817		-104.606
7.14332	53.4108		-116.211
6.9525	40.2218		-119.426
0.0157056	53.5279		-116.454
6.70399	26.4378		-121.259
-0.10503	26.5197		-121.604
18.6689	-2.08359		-117.219
24.8426	-3.23235		-114.82
5.6986	-26.7564		-109.773
5.59608	-39.225		-101.63
0.0541597	-26.7212		-109.924
5.48548	-47.9456		-95.7022
-0.687069	-47.7707		-96.0991
4.51654	-82.4329		-85.9365
-0.343643	-82.2653		-85.8614
34.6306	75.113		-96.9442
35.151	86.9692		-87.5373
34.2651	62.4481		-103.89
35.7878	97.5028		-74.9972
33.8958	49.1878		-108.625
33.3239	36.0883		-111.812
32.5125	22.3097		-113.493
31.8372	8.20891		-113.442
31.3259	-3.15114		-111.665
30.2428	-16.39		-108.148
29.2152	-28.758		-102.688
29.2978	-39.5417		-96.5397
29.9571	-48.8184		-90.7691
30.385	-57.5345		-86.1845
29.6877	-66.8126		-82.9734
28.9273	-76.6516		-81.133
28.3137	-86.0977		-80.6691
37.524	-106.667		-76.0847
37.3857	-115.674		-76.4663
58.5185	81.2892		-60.9973
65.6715	56.0696		-70.4388
65.0546	46.5122		-77.5365
64.3296	36.7886		-82.7038
63.726	26.1924		-85.8274
63.2114	15.2597		-86.8904
62.339	3.8547		-86.3078
60.707	-7.26115		-84.661
58.8597	-18.0437		-81.8081
57.3904	-28.1248		-77.7209
60.7711	-27.4919		-72.716
56.1904	-37.8475		-72.5899
55.0676	-45.8542		-68.1002
58.1632	-58.0347		-54.2797
60.3581	-56.2678		-50.9003
75.8599	22.7945		-59.9793
75.1451	15.3253		-63.2151
77.8788	19.0708		-53.8893
72.816	-7.46006		-63.7024
73.8594	0.305785		-64.5969
63.6021	-25.8138		-68.477
74.5915	8.02463		-64.7211
65.9427	-36.9375		-53.1997
64.4527	-44.1283		-50.1366
20.2586	-105.075		42.4328
67.806	-68.1666		3.01006
58.0698	-87.4117		3.57365
13.3538	-42.0997		95.2417
16.4734	-43.1052		93.3219
19.5465	-44.8085		90.5149
6.67405	-53.8884		94.3701
6.95618	-55.0487		94.3844
7.17413	-56.2365		94.26
23.4902	-64.2666		82.992
22.8358	-62.2465		83.5665
22.3019	-60.7783		84.0233
17.6987	-39.0782		92.7192
37.6356	-52.4014		77.4702
28.4258	-31.1081		82.8295
29.3277	-36.1552		82.9907
30.3331	-41.1832		82.7164
59.2249	-37.7478		60.4908
19.3906	21.6612		72.5808
79.9079	15.3025		-47.3729
82.7063	13.1804		-27.9955
83.4794	11.2819		-25.6225
77.2523	-43.1746		1.61011
26.0497	11.2104		70.8331
50.167	42.4822		64.8225
7.95522	-23.8354		95.6848
45.4395	21.489		65.6054
12.2663	-22.3462		93.4027
83.4077	11.1158		-24.5179
59.6235	-101.869		-44.1213
64.5638	-65.7403		-38.6936
63.4044	-59.0605		-43.7913
63.1071	-53.0425		-47.4692
22.8494	-19.4958		86.0478
13.0946	-51.7329		90.7934
25.3149	-54.5536		80.2928
6.09133	-47.4732		92.211
-73.6827	-45.4914		14.1692
-73.4296	-40.6609		14.9842
-75.6092	-41.6791		8.83939
-72.8579	-50.21		13.028
-71.2278	-46.7088		21.8278
-61.0578	-114.655		-7.57944
-61.1807	-104.55		-6.82497
-62.8992	-113.152		-11.6541
-61.2543	-124.744		-8.97962
-58.6018	-116.116		-3.59621
-61.6544	-131.909		-10.2763
-59.2693	-133.912		-5.73361
-63.4133	-129.971		-14.8947
-62.0159	-137.511		-11.5303
-55.9416	-100.086		2.70253
-59.0602	-98.3702		-1.7023
-55.542	-107.601		1.68234
-52.5505	-102.25		7.54322
-56.8365	-93.9101		4.42415
-64.6605	-97.6143		-14.1737
-63.355	-97.2423		-9.05472
-64.7809	-92.6117		-13.4294
-65.5693	-95.3092		-19.8557
-64.4211	-103.688		-14.9861
-66.4569	-66.2875		24.633
-68.5499	-65.3718		17.0676
-65.4942	-69.6842		22.483
-64.4426	-65.6838		32.4671
-67.643	-62.2365		26.5526
-71.9927	31.9693		24.0128
-75.7893	30.2557		12.2024
-71.6918	24.7172		27.1235
-66.7239	33.908		35.0132
-72.7002	39.5408		19.4009
-77.3774	41.5918		-28.7946
-78.9787	35.0623		-23.3323
-78.6827	43.715		-17.7791
-76.483	49.218		-33.303
-77.2481	39.7858		-37.7205
-6.33957	-113.687		37.4228
-6.30672	-109.626		40.0089
-10.3451	-113.5		36.508
-7.62931	-120.536		35.6072
-3.25586	-113.698		37.925
-9.52203	-131.108		32.4358
-10.7286	-144.767		30.3404
-5.83421	-131.224		33.5685
-13.4823	-130.294		31.041
-3.44981	-151.37		29.652
-4.04869	-155.287		27.64
-3.09566	-146.121		31.7743
-7.32284	-151.12		29.1794
-68.5727	-54.3147		-31.1145
-69.0118	-46.6015		-35.43
-65.5994	-60.5327		-33.5003
-68.4601	-60.7704		-25.7804
-72.0089	-47.7855		-27.9109
-70.2339	-40.8784		-37.8262
-73.5526	-36.2204		-34.6258
-70.1917	-36.3377		-40.867
-65.4549	-46.9029		-41.9649
-65.0763	-124.514		-31.5907
-65.0637	-126.621		-24.982
-63.1806	-121.087		-38.4852
-64.6991	-130.919		-33.9651
-2.5062	-131.458		34.1059
-1.50382	-120.852		37.0358
-68.5602	-48.5715		30.1893
-68.2456	-53.9144		29.4062
-65.6753	-49.7854		37.6544
-69.3744	-42.7676		30.3372
-69.4754	-63.8831		9.28169
-70.8422	-59.3013		10.6179
-70.0229	-63.4358		1.22599
-68.0129	-68.4101		7.57302
-13.308	-85.7437		87.817
-13.661	-82.2402		88.9359
-17.8893	-85.9492		85.9925
-13.3386	-89.9341		85.4926
-9.87017	-87.4953		89.0962
-22.1265	-84.4233		83.5777
-22.004	-79.9445		84.5006
-26.3668	-82.1942		80.1751
-21.8621	-88.3093		81.2531
-7.05631	-78.1655		90.3231
-6.84901	-83.0761		90.464
-7.12095	-73.5722		89.6255
-10.2	-77.7169		89.9526
-13.3863	-93.7498		82.6888
-10.107	-95.5578		84.2756
-17.298	-92.7493		80.9078
-12.9088	-100.619		78.5272
-13.2084	-103.761		74.0362
-12.839	-104.839		68.3488
-8.8144	-104.623		74.9257
-16.9675	1.66517		80.5511
-14.4128	3.80572		82.3731
-16.5602	5.70783		77.5886
-19.9298	0.473371		78.8936
-17.7518	-2.46427		83.4929
-45.0179	-25.8832		76.3108
-45.8399	-29.4278		75.439
-40.4875	-24.3853		78.9783
-44.5418	-23.0608		76.1427
-49.8186	-29.577		71.2013
-54.1996	-19.3528		65.9371
-54.9991	-24.318		65.3614
-48.9997	-16.5833		72.6521
-53.0873	-13.1257		65.9841
-60.9384	-16.5975		56.9943
-67.9853	2.13243		42.8694
-64.8588	3.79494		47.3264
-66.9148	9.59896		41.9492
-70.5295	1.10682		37.7339
-46.4702	-32.6596		74.2402
-41.4825	-31.3418		78.2097
-52.1899	-36.4382		68.1283
-47.1671	-37.2993		73.1882
-2.81804	2.93413		99.3259
-4.59734	2.27315		98.7874
-2.67849	-1.62671		103.604
-2.83884	7.52107		94.3327
-30.5447	65.6093		68.9905
-31.6865	72.3044		65.066
-35.9711	64.5973		66.5374
-29.5128	58.8444		73.918
-25.4646	66.4421		71.0008
-3.78868	-109.11		62.846
-4.60569	-107.735		69.6957
-7.36929	-108.928		61.9684
-2.75883	-104.403		53.3544
-62.6871	-50.2121		44.5998
-63.4111	-43.7287		44.9167
-62.4674	-57.3199		44.8271
-60.3744	-50.2806		51.7511
-6.37408	-96.1502		84.8027
-5.43744	-103.686		80.4706
-6.47812	-92.8814		87.4214
-5.1483	-105.63		75.3846
-39.9123	-82.4927		59.9521
-39.9406	-79.9739		63.9093
-44.8778	-80.9107		56.0578
-39.3021	-85.675		56.6704
-34.9175	-83.3486		63.781
-46.528	-89.6201		35.2898
-41.2557	-92.3229		39.866
-48.314	-85.6629		39.9058
-51.3954	-86.6188		30.7469
-44.4731	-93.9062		30.5292
-1.33738	-106.375		45.4287
-0.125627	-109.405		40.5661
-4.23076	-106.439		44.9683
-7.64038	-6.522		104.665
-5.00854	-5.91473		106.342
-7.01215	-3.18479		101.214
-10.5677	-7.56642		101.863
-8.11791	-9.09037		107.474
-29.0537	-17.7593		82.878
-25.7748	-15.1867		84.0434
-27.7441	-14.3278		82.5731
-31.494	-19.2804		82.5713
-30.21	-50.4649		79.992
-28.3939	-50.7467		80.3475
-28.9709	-49.7107		80.3384
-14.5709	-20.6381		94.9105
-16.6174	-20.933		92.8517
-13.7716	-21.5917		94.374
-16.3527	-19.1526		95.1572
-13.8112	-24.8342		92.4671
-11.6728	-24.3494		94.1127
-13.7213	-23.8927		92.7435
-16.4836	-25.0749		90.4703
-14.2643	-26.2563		92.1838
-2.50802	-22.7677		102.192
-4.4555	-22.461		101.369
-2.65488	-23.664		100.637
-2.56121	-21.8401		104.376
-19.4391	-24.5985		88.5256
-19.8922	-26.0516		88.2761
-19.0685	-23.5861		88.9838
-22.1455	-23.2041		86.9285
-8.61149	-15.5067		110.689
-8.69528	-14.4207		110.917
-11.6183	-15.0028		107.013
-8.54601	-16.6474		109.768
-5.89204	-16.0646		112.961
-26.8522	-64.812		81.907
-28.2067	-68.755		81.0524
-23.3121	-66.9039		84.1751
-25.474	-61.4768		83.0199
-29.7204	-62.3506		80.0383
-29.0551	-44.4981		83.2495
-30.7557	-44.9657		82.0849
-26.9931	-43.7992		84.8523
-28.6023	-40.7595		84.5929
-3.04848	-27.3831		98.0998
-2.80347	-25.7747		98.7774
-5.13723	-26.9502		97.6387
-3.30475	-29.3031		97.704
-6.79597	1.12788		97.2029
-6.83268	5.24655		92.741
-9.55425	-0.525796		94.9247
-21.5604	-15.0289		90.6754
-21.9204	-14.831		89.4459
-21.9313	-15.3297		90.2305
-20.7264	-14.5396		92.6212
-20.4639	-13.7058		92.7361
-6.40021	-23.6967		98.2266
-4.71484	-24.1525		99.0135
-6.38496	-22.8537		98.9318
-8.03859	-23.6797		97.0202
-6.37001	-25.0853		97.5725
-6.17699	-22.1562		100.137
-6.08609	-21.3724		101.948
-19.6457	-13.7381		94.7891
-20.2706	-14.6706		93.9431
-19.251	-12.8837		95.1266
-21.7837	-17.4249		89.5121
-20.7727	-20.0747		89.125
-21.0802	-15.885		91.8987
-4.00128	-35.8417		98.1186
-3.84892	-33.4948		97.7587
-6.7878	-35.2445		97.7402
-4.29521	-37.7065		98.4495
-25.5475	-28.1143		85.2591
-24.9091	-24.4604		85.2691
-27.4534	-28.2228		84.3747
-26.4833	-32.0412		85.4567
-23.3578	-28.125		86.4976
-11.7391	-64.2627		90.0136
-15.415	-63.5684		88.9503
-12.0684	-66.7724		89.2273
-8.18363	-64.9741		90.5302
-11.577	-62.3124		90.9154
-24.8152	-46.4333		85.33
-24.7992	-44.5966		86.4218
-26.9415	-47.6294		82.2703
-25.0256	-47.1389		84.4423
-18.9142	-12.8326		94.9629
-16.9545	-12.3766		97.621
-19.0365	-12.8388		93.417
-18.8882	-62.621		87.433
-18.4118	-60.7302		88.2644
-21.8705	-61.4044		85.699
-19.2216	-65.16		86.7203
-5.27675	-65.4159		90.7203
-4.96753	-63.6439		91.592
-5.61637	-67.4692		90.149
-58.1388	27.8234		56.1999
-58.8314	28.8963		54.4174
-59.7349	22.1718		52.0905
-57.3352	28.1372		58.2943
-40.2201	51.2208		70.0721
-40.9614	56.6529		66.586
-45.9185	50.0558		65.664
-39.6292	47.2508		73.2265
-35.0911	52.9835		74.1965
-51.7173	47.6617		60.3374
-52.3672	52.0165		55.9905
-56.6036	42.3438		53.1588
-51.1013	43.4089		63.5759
-40.0218	41.4909		75.9177
-39.7594	43.5585		75.4739
-40.3649	39.3103		75.8875
-35.7233	42.9149		81.0839
-60.0518	30.0849		51.3857
-63.009	24.2261		45.7113
-55.7331	38.8897		60.5039
-60.8328	32.9107		48.5287
-23.6183	33.3954		81.2949
-20.1634	32.06		81.3611
-23.1275	35.1072		82.4783
-27.5714	33.9577		80.5453
-24.2139	31.2652		79.5025
-6.79103	14.8377		83.5763
-6.83497	12.5219		85.4333
-4.41079	16.3387		85.112
-6.81136	16.6811		82.5996
-9.34785	13.0256		81.6847
-31.0019	-4.21195		75.9161
-25.9892	-2.37144		77.2968
-29.4998	-0.184811		74.6329
-36.319	-5.4598		75.0836
-32.5612	-8.54668		78.0759
-55.8202	8.75297		57.4732
-53.1502	5.7263		61.5056
-53.2991	10.395		59.2632
-56.7088	12.0919		55.1165
-58.0955	5.47914		54.5885
-6.75487	9.26694		88.599
-4.47594	10.7011		89.853
-9.32106	7.2453		86.9816
-40.7787	37.4482		75.5912
-40.7016	35.4739		75.2732
-35.9666	38.9585		80.274
-45.8021	36.3713		71.8208
-50.2842	34.4905		67.9956
-54.0361	32.5293		64.5543
-49.659	32.4387		68.4138
-52.8317	15.9006		58.3392
-54.6543	15.925		56.7552
-52.5349	14.1161		59.2339
-50.9671	16.0296		60.0607
-53.3577	19.7978		59.577
-42.1436	21.3717		69.6179
-40.4608	21.9176		70.6197
-43.6111	20.3395		68.1099
-38.5201	22.7245		71.61
-36.5043	23.3037		72.3108
-38.742	23.599		72.0403
-40.8195	22.7975		70.9808
-36.3655	24.1266		72.7691
-33.817	23.5782		72.7006
-30.9595	23.4154		72.6736
-33.5288	24.3493		73.1266
-30.4369	24.0703		73.0391
-28.3049	22.7795		72.2608
-25.8818	21.8746		71.5769
-23.5447	20.6388		70.6661
-21.7253	19.4227		69.6748
-22.4141	21.3158		70.945
-24.8024	22.4572		71.834
-20.6626	19.975		69.9732
-20.6933	18.37		69.0141
-21.2192	21.7859		71.3056
-23.7833	23.1867		72.3531
-33.2464	25.3131		73.6863
-30.0293	25.1446		73.5765
-46.7712	15.7813		64.083
-45.7438	15.0731		64.796
-31.9013	34.0522		79.5315
-31.9309	31.9741		78.1335
-31.8467	36.2205		80.7622
-36.328	33.7597		77.7677
-46.2594	25.864		69.089
-45.2741	25.0004		70.0571
-43.7757	28.3963		72.2927
-47.7298	28.2419		68.932
-36.5633	7.77114		70.2027
-30.6198	8.11371		71.5424
-41.4616	8.868		68.6583
-37.0767	6.0679		70.2614
-25.6613	9.2391		71.4043
-26.0249	7.7894		71.8616
-22.1325	10.565		70.9622
-18.6591	13.7352		70.0603
-19.538	12.7846		70.4102
-18.2782	14.5604		69.7893
-35.6943	11.0136		70.3754
-30.2438	11.1339		71.1795
-40.1564	12.0327		69.0934
-21.3232	13.8571		69.2925
-20.6128	14.3633		68.9931
-22.7198	13.0007		69.7399
-20.0882	14.821		68.8806
-19.604	15.395		68.8332
-15.0407	21.4086		74.1143
-13.7426	23.1771		76.4149
-16.6525	23.4076		74.6401
-16.6234	19.7218		71.6486
-18.0403	15.9846		69.7622
-26.9273	24.4879		73.1568
-17.3947	19.0955		70.6944
-18.5155	20.6032		71.075
-16.9223	17.7393		70.5943
-35.5901	12.2414		70.4436
-30.2102	12.3091		71.0758
-21.5022	14.7122		68.696
-22.7693	14.1205		69.1543
-20.7914	14.9241		68.5528
-20.4511	15.2421		68.3833
-44.6386	19.1051		66.5982
-3.67661	31.1998		84.9391
-4.21511	34.4244		85.8456
-6.11937	30.8189		84.5431
-3.25538	28.2844		84.1199
-20.599	5.71309		74.2691
-23.4545	4.41842		73.8186
-21.242	3.04334		75.7484
-18.4747	6.85702		74.7375
-20.2596	7.51534		73.1871
-16.2236	8.12523		75.8461
-13.9058	9.67495		77.4332
-16.3715	13.1403		72.1924
-16.576	14.6769		71.2198
-14.5422	13.5404		73.8048
-10.39	20.0571		77.6345
-9.57242	20.8591		78.7192
-11.3777	22.0988		77.4949
-20.5567	11.7221		70.6749
-20.2607	10.5848		71.4464
-20.0319	9.09614		72.2811
-22.574	7.82077		72.1487
-21.1629	-49.1199		83.8896
-18.0971	-48.5081		86.2707
-23.9551	-49.224		81.6984
-21.0661	-49.0647		83.6704
-25.5405	-49.3363		80.6225
-25.2659	-49.2423		80.5877
-4.56831	-41.2091		98.452
-4.5415	-42.5848		98.0899
-4.52186	-39.869		98.6227
-7.69126	-40.7333		97.8619
-10.2535	-43.7295		95.8606
-12.5624	-44.1701		94.6628
-9.93535	-45.1716		94.8171
-7.66831	-43.765		96.6923
-10.2707	-42.2946		96.5961
-14.9381	-44.4657		93.2676
-17.7853	-45.2745		91.0821
-14.7151	-45.8369		91.8684
-15.0285	-43.1467		94.063
-10.1667	-40.7883		97.1218
-10.0871	-39.4776		97.4084
-12.564	-41.3213		96.0289
-14.2118	-39.6172		95.4881
-14.8574	-40.6671		95.0417
-11.7636	-38.9365		96.7852
-13.7885	-38.4796		95.6845
-20.9841	-47.1031		87.1487
-21.0014	-45.6733		88.7999
-9.28123	-46.551		93.3453
-12.1771	-46.7023		92.0345
-8.89476	-47.2904		92.433
-6.67915	-46.4434		94.401
-15.0325	-47.135		90.2352
-14.9971	-47.7825		89.1463
-26.3247	-48.2824		82.1394
-27.475	-49.4697		80.6267
-21.4222	-50.1587		84.405
-21.5119	-50.4124		84.7074
-18.2518	-50.0006		87.1446
-21.3528	-50.0409		84.1711
-22.1376	-51.7458		85.1624
-19.4255	-52.4678		88.1324
-21.8685	-51.2339		85.111
-16.5554	-52.7613		90.6266
-17.0087	-53.6536		90.5636
-13.6574	-53.2009		92.4834
-16.2308	-51.8759		90.4089
-9.50529	-50.9973		93.4193
-6.55555	-51.1306		94.2687
-9.08661	-49.7591		92.9782
-12.7662	-50.9077		92.0083
-10.0045	-52.2721		93.8084
-4.46386	-54.4347		95.1874
-4.31678	-53.0487		95.0963
-7.08	-53.9955		94.8416
-4.55981	-55.7042		95.2049
-25.8292	-50.7492		79.9374
-25.7015	-50.1691		80.5324
-24.1361	-50.759		81.2837
-25.8203	-52.1716		79.2694
-3.61835	-49.7116		90.9302
-3.6474	-49.0747		92.1742
-3.76499	-51.1223		89.4969
-5.86749	-49.7685		90.5368
-4.56674	-56.9374		94.9934
-7.30448	-56.442		94.6915
-4.58729	-58.0389		94.8082
-4.72216	-61.7913		92.7203
-4.63832	-60.1002		93.6957
-7.67855	-60.9657		92.5542
-9.76239	-38.4678		97.517
-7.43548	-38.2416		98.1146
-9.06824	-37.0892		97.5894
-4.128	-51.4368		94.7415
-3.83263	-50.0435		94.265
-3.71493	-49.4279		93.9158
-3.75221	-49.0796		93.5181
-6.11188	-49.1943		93.4378
-8.90836	-49.1946		92.6356
-8.80755	-48.9898		92.3502
-12.0423	-49.302		91.2678
-3.76183	-48.9511		93.0123
-5.98802	-48.8793		92.643
-15.1141	-49.5769		89.4562
-15.3937	-49.993		89.7365
-15.0276	-49.4109		89.1526
-17.7691	-56.4717		90.1154
-17.9968	-57.5296		89.6048
-14.8702	-57.0952		91.794
-17.5464	-55.5139		90.3929
-11.2656	-57.7272		93.2617
-11.4273	-58.9183		92.6859
-7.43958	-58.5676		94.1372
-11.0557	-56.8107		93.6044
-4.6091	-59.132		94.3793
-14.9239	-47.9524		88.5063
-14.8002	-47.8647		88.0129
-11.8331	-47.536		90.319
-25.6531	-49.9444		81.1604
-24.1316	-50.2313		82.4748
-8.69972	-49.891		89.7489
-8.59387	-49.1595		90.9315
-8.81155	-51.3142		88.498
-11.7509	-49.9805		88.6367
-8.7241	-48.8307		91.8778
-11.7766	-49.0828		90.4557
-11.4376	-60.228		91.8485
-15.1769	-59.674		90.5529
-17.2677	-54.5728		90.5478
-14.3725	-55.1362		92.4038
-18.1823	-59.1034		88.9791
-20.9176	-57.981		87.079
-14.518	-47.5309		87.7141
-17.3654	-48.0336		85.9525
-13.9562	-46.2657		87.1512
-11.7152	-47.0442		89.0808
-8.80182	-46.7709		90.185
-8.66539	-47.2193		91.0079
-9.16289	-45.4939		88.9759
-6.33762	-46.5205		90.6856
-13.4299	-43.2026		86.2849
-15.7937	-43.6486		85.1132
-13.3205	-39.5757		85.6716
-11.1948	-42.7842		87.1702
-25.6683	-55.4955		78.7545
-23.9169	-55.5875		80.1754
-25.36	-59.407		78.603
-3.68093	-54.6959		88.0914
-4.09852	-58.8159		87.0533
-5.9529	-54.6149		87.7765
-9.0241	-42.4516		87.8123
-8.65547	-38.7676		87.2195
-6.72005	-42.154		88.2892
-8.79969	-54.533		87.1935
-9.09641	-58.7274		86.1284
-11.9503	-54.5481		86.2687
-28.6472	-50.4488		74.9119
-28.8977	-50.655		74.3648
-12.2989	14.7465		76.1399
-11.8072	13.19		77.8933
-80.2457	-9.03469		-42.8444
-81.6572	-9.46041		-41.1065
-80.6467	-4.37044		-42.9218
-77.7656	-8.0589		-46.2486
-79.3753	-13.3935		-42.0196
-79.6654	10.4184		-5.8385
-79.131	12.3996		-1.02527
-79.9812	12.9346		-10.1253
-80.055	14.8423		-15.3352
-80.7418	14.3692		-22.296
-80.6103	9.93992		-16.3767
-79.6989	20.3196		-16.6063
-76.2193	-32.9503		-32.2707
-77.0536	-29.4097		-34.3044
-75.6334	-36.7977		-29.3579
-78.5818	-30.6447		-30.695
-77.4951	-26.0342		-36.7325
-79.9547	-24.7915		-34.8013
-77.8273	-21.8452		-39.0046
-74.4041	-27.7628		-39.8035
-83.1491	-9.39792		-40.2153
-83.5104	-4.42525		-40.479
-82.3519	-13.4212		-39.2271
-84.6582	-8.88987		-39.8685
-84.8877	-25.8004		-31.4029
-85.9408	-26.8937		-30.276
-83.4764	-24.2012		-32.8964
-86.7901	-27.3191		-29.0923
-87.5182	-23.9155		-31.548
-85.996	-31.2366		-26.3017
-87.5427	-27.702		-27.8437
-90.701	-18.0788		-29.7188
-90.8755	-13.2249		-33.4222
-90.6799	-17.4782		-28.9346
-81.2134	-40.2445		-18.0621
-81.6013	-38.0335		-20.9849
-80.3612	-39.0986		-20.1275
-80.7588	-41.0444		-16.1881
-81.7408	-40.4082		-17.3634
-83.4777	-30.9646		-5.50863
-83.2243	-31.4895		-5.47469
-82.6681	-32.7322		-5.70657
-90.6198	-17.1097		-28.5479
-90.3183	-17.4194		-27.4059
-91.8963	-2.11376		-33.1618
-92.4964	-1.58798		-34.6738
-91.9784	-3.46643		-31.4738
-92.6898	8.01411		-30.8357
-93.0047	9.37401		-30.949
-93.1246	11.5117		-29.9207
-92.7116	13.6601		-26.835
-93.2919	12.0232		-30.3061
-92.5705	11.3312		-27.6899
-83.827	-4.64664		-7.30081
-84.4512	0.0586611		-7.81552
-83.0469	-8.44212		-6.9518
-83.2667	-3.86939		-5.99005
-79.8587	-19.7863		-0.81117
-80.0455	-15.5273		-0.309882
-80.1183	-26.1607		1.45937
-79.0371	-20.1166		1.96307
-83.8659	-19.7716		-8.14137
-82.8921	-13.4794		-9.94405
-83.9363	-21.53		-8.50013
-80.6203	9.67715		-16.3601
-80.6522	9.67797		-16.1535
-80.9932	10.693		-19.8398
-88.7154	17.0082		-16.8905
-89.6364	18.6738		-20.0181
-89.4944	16.3062		-15.98
-87.2328	13.89		-14.0557
-87.8581	17.39		-18.0641
-89.203	19.2212		-25.1087
-88.3748	19.047		-22.0707
-88.4315	18.1747		-26.4545
-89.7258	17.9341		-28.76
-89.4981	19.3676		-24.6196
-89.8299	3.62506		-39.379
-90.8748	3.88566		-38.8663
-90.6791	9.66316		-36.489
-89.0902	3.18624		-39.5388
-85.1043	3.42133		-8.63063
-85.4863	2.15607		-9.2539
-92.7404	3.05759		-36.2808
-93.602	8.22889		-34.0467
-92.739	2.95776		-36.6546
-92.6349	0.202265		-36.4063
-92.1533	14.5881		-22.8684
-91.1408	14.0391		-18.8979
-92.2114	15.6289		-22.2564
