1810
-3.80765	-148.675		27.8068
-3.86681	-153.962		26.6952
-3.50243	-140.939		30.716
-7.20195	-148.414		27.536
-67.0251	-53.3572		-33.8436
-68.116	-45.3639		-38.0407
-63.8014	-59.8228		-35.5544
-66.0497	-60.2514		-28.3346
-69.9411	-46.9773		-31.778
-69.297	-39.3929		-41.2623
-72.6006	-34.2509		-38.4251
-70.1831	-34.6514		-43.5383
-65.2855	-45.6123		-44.2799
-60.1823	-125.016		-31.2498
-60.5442	-128.074		-24.9684
-58.8604	-122.832		-38.1141
-60.3428	-132.197		-33.5382
-3.18828	-129.385		35.6414
-2.19551	-119.977		42.1485
-70.3892	-50.2115		25.2568
-68.8991	-56.0866		23.847
-68.75	-51.4416		32.2171
-71.5362	-44.1431		25.6762
-65.746	-65.5608		5.92914
-67.6895	-61.3004		6.84459
-66.0943	-64.711		-1.54229
-63.6578	-69.5231		4.18854
-12.3611	-91.4835		92.3713
-12.2296	-87.1148		93.4106
-16.3138	-90.9224		90.0377
-12.5003	-95.724		90.364
-8.55144	-92.0316		93.9095
-20.3493	-89.8232		87.0872
-20.5087	-85.3054		88.1001
-24.6514	-88.3995		83.095
-19.9812	-94.5066		85.1956
-5.07665	-83.3256		96.0103
-5.18826	-87.9556		96.094
-4.59452	-78.535		95.6012
-8.4258	-82.9837		95.1301
-12.5232	-98.4469		87.382
-8.90772	-98.7881		88.8608
-16.1111	-98.1067		85.1587
-12.4587	-100.862		82.8217
-12.4627	-102.508		75.2003
-12.3444	-102.5		69.5949
-8.48684	-103.078		76.1218
-16.8937	0.752426		81.1964
-14.1167	2.98861		82.4829
-16.3956	4.82698		78.5069
-19.5988	-0.711524		79.5702
-17.2736	-3.32397		83.8882
-50.068	-26.9141		73.7636
-51.0109	-31.8473		72.8925
-44.2003	-25.654		77.5063
-49.2698	-22.0018		74.031
-55.5442	-27.8862		68.8942
-59.6281	-18.0149		63.6264
-60.3898	-23.2601		62.8917
-54.3794	-17.6013		69.3326
-58.5455	-12.2262		63.9874
-64.4573	-17.5208		55.8313
-67.6535	2.01836		43.1585
-65.518	3.58701		47.2983
-66.2005	9.25845		42.5724
-69.4703	1.25842		38.1744
-51.5682	-37.0021		71.4725
-45.9308	-35.769		76.2337
-56.7368	-38.3052		65.5324
-51.5772	-42.4109		70.3521
-3.06238	1.77939		97.0028
-4.88301	1.21576		96.4867
-3.5862	-3.28511		101.36
-2.68471	6.91729		92.2378
-25.8068	70.5393		68.518
-27.3209	75.7439		64.3107
-31.0681	69.006		66.1123
-24.3589	62.3223		72.644
-20.9517	71.3511		70.3197
-4.03719	-103.772		64.6124
-4.71927	-103.501		71.0941
-7.33476	-103.472		64.0808
-3.2407	-104.279		58.637
-66.619	-51.9669		39.8216
-67.5198	-45.3541		40.6864
-64.747	-58.4472		39.3861
-63.6651	-51.9358		47.9303
-5.46911	-99.4186		89.3406
-5.40124	-102.219		81.9015
-5.35177	-96.4597		92.7652
-4.94475	-103.417		76.6343
-38.2015	-87.8837		60.0906
-38.9842	-85.1633		63.9855
-43.1782	-84.5963		54.8509
-36.7261	-89.8896		57.2556
-33.5421	-90.7415		66.5108
-39.8002	-91.4229		35.4057
-35.3145	-93.6375		41.1693
-43.2328	-88.3347		39.2392
-44.0158	-89.0755		29.6357
-36.551	-94.7508		31.3404
-2.53763	-105.578		52.2146
-2.14632	-108.284		48.056
-5.16256	-105.533		51.5722
-8.38202	-8.86363		102.636
-6.04302	-8.1439		104.167
-7.72532	-4.5741		99.3529
-10.9935	-10.1105		100.088
-8.82158	-12.234		105.297
-26.463	-21.2627		83.5511
-22.7902	-18.3262		85.2245
-24.6163	-16.1738		83.5368
-30.9859	-23.3035		82.1607
-32.6244	-57.8515		78.7728
-30.5062	-58.0871		78.8615
-31.3321	-57.0727		79.0389
-13.7564	-29.3554		94.2809
-15.5459	-29.0943		92.7194
-13.0898	-30.1627		93.8552
-15.117	-27.7069		94.3491
-13.4136	-33.7471		92.7474
-11.5079	-33.6295		94.0478
-13.2079	-32.7039		92.8782
-15.8536	-33.3036		91.0263
-13.8992	-35.2361		92.6476
-3.21422	-30.2456		100.505
-4.99115	-30.1062		99.7401
-3.36023	-31.4414		99.2421
-3.1812	-29.0447		102.038
-18.5851	-31.9902		89.1212
-19.223	-33.6318		88.9903
-18.0986	-30.7357		89.3035
-21.1317	-29.896		87.5545
-8.91177	-20.8444		107.028
-9.14491	-19.3071		107.664
-11.6636	-20.8417		103.99
-8.67211	-22.7119		106.023
-6.42633	-21.0373		108.948
-27.1889	-70.3652		82.072
-28.0417	-73.8333		81.8145
-23.2128	-71.4584		85.3774
-25.8246	-67.2149		82.8575
-30.3363	-68.1829		79.7866
-30.7309	-51.564		82.5993
-33.0254	-52.326		81.2038
-28.2897	-50.903		84.4994
-29.8006	-47.601		84.9129
-3.57067	-36.4182		97.9467
-3.56649	-34.3171		98.2325
-5.43382	-35.9445		97.2668
-3.41174	-38.5849		97.5599
-6.93585	0.32521		95.3996
-6.84501	4.87307		90.9324
-9.57565	-1.5866		93.485
-19.4001	-20.5904		90.7507
-19.6941	-19.8268		89.6772
-19.6243	-21.8198		90.046
-18.8282	-20.2492		92.6175
-18.6504	-19.2505		92.6082
-6.73332	-32.4194		97.3872
-5.29387	-32.5564		98.1221
-6.68185	-31.1074		97.7466
-8.21657	-32.7403		96.3219
-6.68399	-33.9655		96.9637
-6.46975	-30.1063		98.707
-6.37181	-29.0456		100.127
-18.1433	-19.6361		94.5476
-18.467	-21.2338		93.6813
-17.8857	-18.7219		94.7625
-19.6463	-24.5015		89.336
-19.0824	-27.2109		89.2467
-18.9199	-23.6717		91.2649
-2.44991	-47.0575		97.8923
-2.63256	-44.2047		97.8489
-5.23966	-46.1632		97.7128
-2.47545	-49.234		98.2622
-25.7881	-35.0244		85.7647
-24.0292	-30.6068		85.6041
-28.15	-34.4628		84.5209
-27.5604	-38.9732		85.7867
-23.2442	-35.372		87.1222
-10.5206	-67.6025		92.5233
-14.3964	-67.3565		91.193
-11.302	-69.8768		92.3649
-6.27959	-68.0375		94.0165
-9.631	-65.9155		92.8012
-25.903	-53.8853		84.5517
-25.542	-52.1653		85.7125
-28.9384	-54.958		81.231
-26.4822	-54.8675		83.1588
-17.6538	-18.042		94.6166
-16.3419	-17.0956		96.7829
-17.6948	-16.9965		93.3119
-17.9727	-67.0744		89.2444
-17.1734	-65.3895		89.6439
-21.2107	-66.1355		86.7344
-18.7094	-69.155		88.6368
-2.78892	-68.4546		94.8035
-2.288	-66.663		94.8934
-3.14374	-70.5806		94.6097
-58.5931	29.4935		56.8394
-59.0649	30.9122		55.1673
-60.5678	22.7848		52.6237
-57.8976	27.6676		58.3451
-35.2703	55.5668		70.039
-35.837	61.1004		66.6066
-41.7747	52.7338		65.6093
-35.6016	48.7845		72.3341
-29.9565	55.7212		73.05
-48.8495	49.3236		60.055
-49.7714	54.9673		55.7642
-55.153	45.6425		53.5251
-48.5606	44.6613		63.493
-37.5056	40.3718		74.4853
-36.7148	43.1523		74.0363
-38.3653	37.2526		74.6654
-32.7937	41.5456		77.7782
-59.5688	32.5832		52.5302
-63.0565	25.8449		46.5057
-54.7346	37.6288		59.8066
-59.98	35.7061		49.6619
-23.389	30.7338		78.0727
-19.8268	29.7365		78.2919
-22.961	32.2566		78.6833
-26.8666	31.3971		77.696
-23.8295	29.1407		77.2302
-6.72672	14.5516		82.4532
-6.70011	12.1833		84.0899
-4.43118	15.6053		83.6525
-6.71867	15.9657		81.5214
-8.95557	12.3118		80.9739
-31.1354	-5.11094		76.757
-25.2913	-3.58629		78.1699
-29.6768	-1.15806		75.6064
-38.4765	-6.08661		75.0191
-32.8389	-9.65457		78.1239
-58.6185	6.89126		56.0842
-56.8196	3.88376		59.5608
-56.4612	8.60493		57.8886
-59.1441	11.0637		54.2668
-60.5509	5.42045		54.2945
-6.71919	8.96713		86.9482
-4.33382	10.4393		87.8452
-8.99431	6.93911		85.8199
-39.1036	34.8091		74.6486
-39.2786	32.7888		74.6473
-34.0611	36.0892		77.551
-44.4991	33.9168		71.6873
-49.112	34.258		68.8283
-53.6401	30.6592		64.506
-48.693	31.7996		69.425
-55.4695	15.3877		58.6317
-57.0419	15.4113		56.9318
-55.2398	12.5236		58.3093
-53.8643	15.5093		60.2172
-55.0884	18.9701		60.2774
-44.418	21.0308		69.9046
-42.4274	22.0984		71.5564
-46.1003	19.3545		67.9114
-40.3967	22.8202		72.5633
-37.7918	23.549		73.4169
-40.3342	23.5982		72.9499
-42.7693	22.5704		71.7097
-37.4769	24.3823		73.8278
-34.9213	24.3276		73.7609
-31.8808	24.0019		73.8159
-34.3703	24.6624		74.1925
-31.2487	24.6774		74.0989
-29.0796	23.6932		73.4437
-26.5117	22.5788		73
-24.2014	21.2102		72.1859
-22.5079	19.8204		71.2415
-22.9181	21.7127		72.3471
-25.3258	23.0896		73.1857
-21.2504	20.1213		71.3969
-21.3073	18.0764		70.6378
-21.5972	22.0385		72.5951
-24.194	23.741		73.5169
-33.9457	25.5302		74.6169
-30.6233	25.431		74.4711
-49.9967	15.2326		63.1547
-49.0743	14.3034		63.9133
-30.4155	31.4332		77.3431
-30.8313	29.8671		76.6441
-30.2856	33.2437		77.9101
-34.6694	31.1083		76.3893
-46.9548	25.4071		70.2317
-46.1564	23.8803		70.4609
-43.9929	26.1003		72.2283
-47.5799	27.3996		70.1223
-39.5664	7.60779		71.3139
-32.7055	8.20055		72.7299
-45.0954	8.44121		68.3929
-40.1045	6.3546		71.0828
-27.0561	9.10358		72.8098
-27.1925	7.36161		73.1937
-22.9956	10.2108		72.3814
-18.8877	13.3744		71.5328
-19.7566	12.3019		71.8785
-18.4306	14.2014		71.3756
-38.7532	10.9381		71.2606
-32.6412	10.851		72.699
-43.9667	11.827		68.7772
-22.2111	13.69		70.8206
-21.327	14.2048		70.5027
-24.0207	12.9854		71.3832
-20.6459	14.6201		70.3902
-20.0744	15.1212		70.3565
-14.734	20.8903		74.3079
-13.5638	22.856		75.547
-16.1281	22.7007		74.5374
-16.2228	18.8974		72.8248
-18.1078	15.5902		71.2906
-27.2884	24.9337		74.0143
-17.1646	18.3087		72.1087
-18.4035	20.2928		72.1557
-16.653	16.9216		72.1093
-38.7199	12.4096		71.2694
-32.5862	12.2017		72.6033
-22.4521	14.6156		70.2448
-24.0296	13.8942		70.9643
-21.5601	14.833		70.0584
-21.0977	15.1453		69.9021
-47.3337	18.0797		66.0662
-2.76811	29.5645		81.3204
-2.79036	32.3325		81.8521
-5.28899	29.1656		80.9224
-2.54707	26.6325		81.3159
-20.6835	4.46031		75.5473
-23.881	3.2099		75.1278
-21.3783	1.88257		76.7924
-18.384	5.84605		75.9856
-20.2122	6.51962		74.5448
-15.9137	7.41678		76.8008
-13.5374	9.14213		77.9838
-15.9827	12.4599		73.7208
-16.256	14.0761		72.8261
-14.1415	12.9354		74.9805
-10.3041	19.2487		77.2417
-9.53093	20.202		77.9574
-11.2935	21.5919		76.709
-20.8693	11.2842		72.0892
-20.3091	9.90649		72.9087
-19.9927	8.33727		73.6802
-22.9659	6.88957		73.6184
-21.8727	-56.5141		83.6657
-17.7037	-55.974		86.6901
-25.5774	-56.5877		80.8215
-21.7849	-56.4139		83.4157
-27.4737	-56.8292		79.4593
-27.0692	-56.6083		79.6697
-2.57024	-52.5535		97.9023
-2.47328	-53.4983		97.4866
-2.56314	-51.3562		98.1573
-5.64809	-51.7836		97.5856
-8.23799	-53.3693		95.8116
-11.3354	-53.0254		94.7417
-8.08437	-53.8944		95.0721
-5.50869	-53.5743		96.5774
-8.27998	-52.5737		96.4483
-14.422	-53.2795		93.0117
-17.5052	-54.1839		90.5185
-14.2512	-54.0934		92.0685
-14.5049	-52.3874		93.6579
-8.26056	-51.4161		97.0258
-8.36714	-50.0355		97.108
-11.3399	-51.001		95.6553
-13.562	-49.1526		95.089
-14.3243	-50.1213		94.5344
-10.4088	-49.039		96.5784
-13.1819	-47.9961		95.2425
-21.1757	-55.1948		86.7992
-20.9729	-54.3256		88.2491
-7.53762	-54.3882		94.171
-10.9187	-54.351		92.8117
-7.0452	-54.6641		93.4513
-4.63179	-54.546		94.9917
-14.4329	-54.8118		90.7402
-14.3024	-55.2347		89.6947
-28.2264	-55.5337		80.8094
-29.5852	-56.7091		79.1292
-22.1058	-57.3518		84.2
-22.1279	-57.4597		84.316
-17.7476	-56.7817		87.4168
-22.0576	-57.2965		83.9428
-22.5068	-58.3496		84.8323
-18.3654	-57.8946		88.4303
-22.3546	-58.028		84.75
-14.9957	-57.8426		91.0414
-15.5888	-58.5355		91.1162
-11.4643	-57.8894		92.897
-14.8316	-57.3543		90.8793
-6.98186	-56.4268		94.0293
-3.83898	-56.2708		94.9274
-6.93392	-55.9608		93.7361
-10.9252	-56.6024		92.5334
-7.12477	-57.0109		94.2354
-1.63596	-57.7132		95.7086
-1.48449	-56.8852		95.3691
-4.00848	-57.6923		95.3248
-1.66934	-58.8621		95.5602
-27.7142	-58.1497		78.8392
-27.5934	-57.6285		79.4178
-25.6715	-58.0004		80.5042
-27.5686	-59.353		78.3292
-1.16962	-56.2797		92.0745
-1.19831	-55.5697		92.7594
-1.26197	-57.4702		91.2198
-3.67212	-56.2793		91.2222
-1.66772	-59.8745		95.6022
-4.18728	-59.792		95.3282
-1.76792	-60.9251		95.4513
-2.04165	-65.016		94.879
-1.95165	-63.4122		94.8226
-4.90961	-64.5613		94.1501
-8.11732	-49.2411		97.3127
-5.68589	-49.3559		97.7637
-7.38548	-47.9657		97.4945
-1.40603	-56.1982		95.1193
-1.29455	-55.7746		94.8683
-1.24349	-55.5743		94.633
-1.30832	-55.4562		94.2977
-3.77511	-55.6105		94.4332
-6.90613	-55.7181		93.4539
-6.87084	-55.6327		93.3255
-10.565	-55.9211		92.0903
-1.34113	-55.4296		93.671
-3.74074	-55.4888		93.4346
-14.2682	-56.2448		89.984
-14.3888	-56.4205		90.2694
-14.1607	-56.212		89.7339
-16.2436	-61.2371		90.9551
-16.5296	-62.3616		90.7228
-12.7627	-61.7097		92.8963
-16.0088	-60.2839		91.1567
-8.22537	-61.6664		94.1868
-8.53783	-63.0322		93.7969
-4.37921	-61.7144		95.0552
-7.94782	-60.6488		94.605
-1.86119	-62.2179		95.2018
-14.0742	-55.3575		89.0631
-13.9524	-55.2639		88.6162
-10.4299	-54.8745		91.0653
-27.6472	-57.327		79.6887
-25.741	-57.5597		81.542
-6.72611	-56.4335		90.597
-6.70475	-55.8338		91.7168
-6.89434	-57.5555		89.5887
-10.3114	-56.6716		89.4069
-6.74479	-55.5853		92.7502
-10.3458	-55.8529		91.2749
-8.82104	-64.3916		93.3933
-13.2227	-64.2442		91.9565
-15.7927	-59.3193		91.1195
-12.0492	-59.7859		92.9404
-16.8692	-63.8212		90.3766
-20.1423	-62.9885		87.9822
-13.7242	-54.9589		88.2861
-17.0263	-55.5108		86.275
-13.3588	-54.0772		87.8245
-10.4356	-54.3954		89.7755
-7.0494	-54.1368		90.9817
-6.80288	-54.5445		91.8339
-7.69754	-53.2713		89.9558
-4.35826	-54.0135		91.411
-13.0282	-51.6642		87.0786
-15.7316	-52.0414		85.7434
-12.8517	-48.3166		86.298
-10.4548	-51.3146		88.0943
-27.0514	-62.2725		77.918
-24.9921	-62.0273		79.6896
-25.8571	-65.4423		79.0849
-1.14185	-59.3423		90.4494
-1.58381	-62.88		90.0771
-3.64043	-59.3456		90.0362
-7.85181	-51.072		88.8443
-7.64102	-47.8628		88.0158
-5.23065	-50.8848		89.4069
-6.76121	-59.5282		89.4807
-7.01754	-63.0246		88.7136
-10.3122	-59.8037		88.1816
-30.4541	-57.4696		74.0348
-30.4552	-57.418		73.8939
-11.8321	13.9663		76.6877
-11.3919	12.5291		78.0096
-80.2645	-8.88651		-43.8471
-81.7594	-9.44689		-42.0784
-80.7992	-4.46578		-43.6227
-78.437	-8.16459		-47.2478
-79.6105	-13.022		-43.3302
-79.1367	8.96585		-5.51779
-77.982	11.0919		-0.551222
-79.5514	11.8039		-9.7664
-79.7105	13.9517		-15.3609
-80.3597	13.2635		-22.5013
-80.175	8.91338		-16.9108
-80.0737	20.1787		-17.5513
-75.236	-31.27		-35.9587
-76.3763	-27.6803		-37.3132
-74.2684	-35.491		-33.7386
-77.6185	-29.2867		-33.9552
-76.8639	-25.0742		-38.9571
-78.9015	-24.3315		-37.084
-77.7155	-21.3799		-40.852
-74.5989	-26.359		-42.1778
-83.2225	-9.46985		-41.126
-83.5003	-4.55566		-41.1467
-82.7072	-13.5178		-40.4111
-84.7235	-9.06165		-40.6643
-83.5318	-25.8192		-33.9241
-84.5948	-26.6753		-32.9367
-82.2017	-24.0667		-35.4171
-85.3368	-27.6138		-31.8563
-86.3928	-23.7365		-33.7821
-84.7814	-30.4729		-29.6972
-86.0741	-28.081		-30.6594
-89.7487	-18.3559		-31.5967
-91.0034	-13.7428		-34.5476
-89.746	-17.7722		-30.8102
-79.1825	-40.077		-21.8446
-80.2259	-36.7301		-25.4476
-78.9949	-37.5285		-24.5741
-78.7538	-40.7958		-19.8813
-79.6819	-40.2849		-21.3365
-81.7824	-32.0934		-9.53308
-81.503	-32.649		-9.52763
-80.8263	-34.0976		-9.88562
-89.6884	-17.4136		-30.4148
-89.2144	-17.9599		-29.5002
-92.4869	-2.32518		-33.8853
-92.5648	-1.6397		-35.4383
-92.3683	-3.66208		-32.2626
-92.6072	7.971		-31.2636
-92.8504	9.29192		-31.3516
-92.9122	11.3643		-30.29
-92.3736	12.4724		-26.9744
-93.0942	11.831		-30.679
-92.1545	10.1407		-27.9141
-82.6268	-10.5767		-8.39914
-83.7739	-5.30252		-9.04098
-82.1582	-13.8918		-8.01209
-82.0515	-9.83577		-6.95381
-78.9206	-24.7605		-2.65024
-79.2657	-20.2102		-1.97909
-78.462	-28.8719		-3.21622
-78.0092	-25.3168		0.10553
-82.3564	-20.0645		-11.1084
-82.3014	-18.1405		-11.157
-82.7435	-22.1425		-11.6954
-80.1817	8.36792		-16.9329
-80.209	8.40345		-16.7492
-80.6259	9.36989		-20.235
-88.8884	16.9939		-16.9339
-89.3366	17.4191		-20.0703
-89.6276	16.3158		-15.9855
-86.9006	12.6975		-14.0943
-88.0623	17.4007		-18.0927
-88.9645	18.0983		-25.1062
-88.1145	17.8475		-22.1047
-88.189	17.0537		-26.5097
-89.4925	16.7651		-28.8767
-89.2432	18.2358		-24.6386
-90.2922	3.62174		-39.8258
-91.3576	3.89458		-39.294
-90.568	9.72099		-36.9152
-89.5036	3.16137		-40.018
-84.5526	-0.648718		-9.47133
-84.9569	-2.0905		-10.0752
-93.1267	3.10169		-36.8215
-93.4932	8.22191		-34.4726
-93.1697	3.02177		-37.1899
-92.8231	0.208425		-36.9994
-91.7751	13.2902		-23.0001
-90.8776	13.0098		-18.8973
-91.8702	14.2868		-22.3568
-91.562	11.9122		-23.766
-86.106	-0.178943		-12.1605
-86.8556	2.70251		-12.7848
-85.5881	-1.90738		-11.5933
-92.6494	3.76043		-34.0667
-92.7712	1.73097		-35.965
-84.7244	-6.26189		-13.5923
-84.8427	-5.40128		-12.4448
-85.1343	-5.52891		-14.3955
-89.2679	-6.02478		-27.444
-91.4403	-2.37517		-29.4508
-89.1823	-7.11239		-27.6405
-89.0102	-5.56004		-26.8218
-79.6195	-16.2723		-1.62861
-78.8614	-16.2512		0.862172
-79.9512	-12.3565		-1.93206
-83.7247	0.731896		-39.6196
-84.7204	3.30403		-38.6947
-83.5834	5.4181		-37.5083
-82.5682	0.121557		-40.7321
-87.0776	8.44243		-35.9974
-87.2486	4.25879		-38.9057
-89.3583	13.1686		-34.0086
-86.5833	11.2637		-32.559
-88.4116	2.10475		-39.9832
-87.2274	-3.52244		-40.8203
-86.8501	-8.60782		-40.4858
-80.6663	-23.7384		-36.3125
-81.4901	-20.5541		-37.8236
-80.0531	-26.1505		-34.5904
-82.1309	-17.183		-39.2649
-80.4596	-17.1953		-40.4003
-88.6471	-17.918		-28.4772
-79.4418	-28.5403		-33.0631
-78.4139	-31.5963		-31.3483
-78.6776	-40.4932		-17.3034
-78.1634	-40.7576		-17.0933
-77.6026	-40.9747		-16.6922
-77.2131	-40.721		-21.6332
-89.3985	-7.85747		-28.1214
-91.4857	-5.56453		-30.3845
-81.4368	-9.29624		-5.76863
-80.753	-8.59757		-4.52975
-80.5793	-20.5944		-5.57472
-80.9402	-20.8317		-6.16632
-83.5108	-25.5661		-11.7702
-83.6058	-24.489		-12.4898
-84.4579	-27.7023		-13.3371
-82.0516	-16.0983		-7.96378
-82.4257	-16.4553		-10.0525
-86.2191	13.0304		-29.279
-85.2295	13.6117		-25.9021
-83.903	9.34546		-32.203
-83.0164	7.79412		-34.0874
-82.3612	9.88882		-29.7214
-82.6234	7.53681		-35.1419
-91.5791	3.78182		-28.7634
-91.452	2.30513		-28.4713
-85.3163	-5.13884		-15.4113
-86.1007	-4.45558		-18.1247
-88.9404	-4.74683		-26.3025
-88.3513	-4.65795		-24.8894
-90.6635	-1.09053		-27.439
-5.32562	86.5457		63.1558
-6.07895	93.9205		55.5422
-12.3358	85.7273		62.7881
-5.10515	79.397		68.4246
-4.07861	70.4723		72.3029
-10.5373	70.3467		71.877
-3.67582	62.9477		76.0444
-24.7815	56.2481		75.5511
-19.6075	56.5738		77.0681
-25.5857	51.085		77.9957
-3.16287	-27.8514		103.876
-5.06293	-27.828		102.817
-3.44728	-26.594		105.529
-4.12138	-17.6587		110.687
-4.1377	-19.4552		110.699
-4.22843	-15.7512		110.466
-6.58756	-17.7563		109.657
-4.04358	-21.1474		110.027
-3.95467	-22.945		109.09
-3.54237	-32.8569		98.6289
-2.933	-41.5686		97.7518
-5.30899	-41.0606		97.5476
-3.76934	-24.7776		107.451
-5.95699	-24.8755		106.143
-4.233	-13.6805		109.445
-4.14235	-11.265		107.805
-6.53532	-14.0814		108.609
-4.63841	44.9936		81.8906
-4.70026	49.7414		80.7842
-10.784	45.4652		81.0241
-4.54846	41.0674		82.2577
-2.46175	16.4432		84.1756
-2.44305	18.088		83.2239
-2.43879	14.4252		85.6523
-2.59649	20.0904		82.4068
-2.65277	22.1329		81.722
-4.47305	19.1312		81.9134
-1.74349	-53.8573		91.5963
-1.32013	-54.5448		92.7855
-2.12554	-52.9441		90.7369
-1.34473	-54.8784		93.6935
-1.45241	-54.8782		94.6897
-3.74579	-54.8222		93.4592
-2.38643	-54.0107		97.0823
-2.24612	-54.3983		96.3749
-1.89494	-54.7766		95.8904
-2.65238	-50.3459		98.3001
-2.31208	-50.7295		89.7255
-2.28846	-47.5341		88.6801
-17.8316	84.7119		62.1627
-19.5631	91.3885		54.7653
-23.3586	82.8321		61.0984
-17.0681	77.9555		67.2339
-16.7344	47.183		80.0671
-15.5447	49.9469		80.1647
-21.7455	47.7919		79.876
-17.5743	42.7212		80.3928
-19.208	39.1562		80.5487
-21.4792	36.0945		79.7839
-24.3372	40.3953		79.8345
-22.5077	33.9436		79.2374
-26.3554	34.8694		78.8357
-18.0047	32.7123		79.6678
-26.3118	25.6601		74.4489
-29.8761	25.9583		74.9369
-22.9198	24.4133		73.9713
-25.4936	26.2237		75.2449
-28.1674	24.274		73.6934
-24.5174	27.2167		76.101
-21.3244	26.7799		75.7036
-28.1107	28.0428		76.1512
-43.949	87.7432		37.8414
-42.2286	82.0261		46.1175
-38.3651	91.2844		40.3495
-45.67	92.0527		28.6865
-28.4124	81.3845		59.2171
-34.0628	79.7586		56.2613
-30.5192	87.4754		52.4334
-26.3284	48.2162		78.7972
-30.7279	47.0393		77.6432
-26.9424	44.5653		79.321
-30.2377	35.2737		78.434
-29.4505	37.9282		78.8871
-28.0547	41.3999		79.25
-31.6449	28.2881		75.9868
-35.9449	27.8913		75.2797
-32.7185	27.1686		75.4305
-40.5606	76.9708		52.2329
-38.7607	71.5289		58.1066
-46.9611	74.0497		47.2411
-36.2871	45.5274		73.3717
-41.7865	44.8795		69.9792
-40.55	24.9894		73.4783
-43.5327	23.8782		72.0137
-37.1634	25.8974		74.5171
-40.306	25.9545		73.8192
-39.7369	30.7388		74.4347
-44.4338	30.1529		72.1921
-39.8399	28.7972		74.2435
-40.0953	27.0854		73.9949
-37.171	66.7045		62.4691
-44.232	63.4882		57.3773
-53.07	71.5513		40.8
-58.9756	69.6199		31.6995
-51.7286	66.2028		46.6658
-44.645	21.5843		70.2677
-46.5182	19.9558		68.0788
-45.7745	22.9314		70.3411
-47.524	21.0374		68.3423
-45.0892	22.2205		70.4137
-48.1589	29.678		69.8562
-51.6797	26.5227		66.3325
-16.672	28.4084		77.8098
-15.5939	29.2699		78.8931
-17.5111	27.0999		76.7689
-14.4196	26.489		77.3086
-14.1057	30.5803		79.8088
-12.1492	28.7081		79.2096
-18.3838	24.9134		75.1562
-19.425	23.416		74.0696
-3.9035	37.0752		82.0576
-65.981	-65.447		-8.89164
-65.8494	-65.7109		-15.0444
-67.957	-60.2348		-7.354
-78.8792	21.9768		-36.9783
-80.1285	16.2093		-31.8574
-79.1388	24.2955		-28.7942
-77.7019	27.56		-41.6125
-78.9023	19.0747		-42.9007
-76.045	-7.62405		-53.1146
-76.9015	-2.13697		-52.8853
-73.7796	-7.71004		-58.6302
-75.0779	-13.6322		-51.7501
-77.4949	4.17613		-52.4716
-79.4779	1.7399		-46.0046
-77.9761	9.55129		-50.3882
-75.481	5.94552		-58.7847
-71.175	-29.4233		-46.327
-71.9619	-25.2965		-47.67
-67.8305	-33.0655		-50.1514
-4.67321	55.91		78.9014
-9.63951	55.9356		78.6056
-14.9834	56.3181		77.9062
-15.4526	63.4311		74.6853
-19.8081	-100.033		59.1601
-15.0352	-102.008		61.0033
-25.6806	-97.7038		52.959
-18.2042	-102		51.2546
-45.8548	-85.6584		42.6157
-47.2128	-83.1604		45.948
-50.6176	-82.5135		36.2687
-40.1682	-88.8239		48.4016
-50.9238	60.3735		51.2269
-56.8357	57.0386		44.2368
-15.9795	71.9387		71.4146
-64.5325	67.3918		22.0863
-63.3908	60.9124		28.5199
-69.3228	64.8521		12.4553
-21.2528	99.1742		44.0693
-14.718	100.805		44.5538
-21.9953	105.69		33.2308
-27.2578	96.9387		43.4281
-60.7055	40.8707		45.1761
-61.4872	47.5733		40.3869
-48.9545	19.1797		66.0734
-57.0341	26.2414		59.6826
-55.7359	24.6633		61.2212
-58.1276	20.6909		56.7638
-54.3419	23.3321		62.6077
-1.95615	-112.264		44.9695
-59.4961	-72.5182		34.6452
-57.2473	-76.2633		32.1528
-54.1895	-76.5222		43.4959
-61.0033	-68.6933		38.0263
-6.98099	-46.0361		97.4617
-6.82752	-43.5658		97.2382
-9.02615	-46.1358		96.7998
-24.944	-50.0021		87.0237
-22.4018	-48.9603		89.1752
-24.5799	-45.8564		88.1245
-11.1206	-41.5956		95.3946
-10.5317	-39.4204		95.4406
-14.1309	-41.7198		93.9176
-11.5332	-43.9895		95.7747
-8.5576	-41.1143		96.3608
-35.0064	-52.7165		80.2155
-34.5147	-48.6917		81.6625
-37.1771	-53.5512		78.7326
-34.6602	-56.2357		78.9717
-62.0068	15.5424		49.7768
-63.3096	16.1421		47.1607
-62.8456	9.8437		49.382
-60.5231	15.3945		52.2908
-64.7074	17.2715		43.5753
-66.7955	17.5924		38.2581
-52.2366	15.7313		61.7307
-52.4357	14.2065		60.9887
-58.9379	15.0616		54.4934
-81.4197	8.23232		-37.1522
-81.4511	10.7171		-33.0932
-80.1159	11.0964		-41.2886
-81.4379	5.22096		-40.4363
-78.5982	-17.4901		-42.3588
-76.5073	-17.8843		-45.5571
-70.4225	-52.1292		-17.6348
-71.683	-47.6757		-24.8384
-68.0591	-57.9414		-19.6743
-70.0912	-54.1993		-11.7116
-72.619	-47.7884		-15.6613
-81.1879	0.479101		-42.4555
-77.146	-25.967		3.17354
-76.1776	-26.8317		7.55145
-77.5386	-21.2971		3.67119
-76.6354	-30.5617		2.52789
-71.8188	0.324183		30.373
-74.1463	-1.07225		21.297
-72.4125	-6.6241		30.9803
-70.8031	7.50276		29.4823
-54.8961	9.92987		59.1019
-53.6151	8.19402		61.068
-53.4607	11.2853		60.1704
-52.2649	12.3256		61.1295
-51.2762	11.5196		62.2974
-75.0809	-26.899		13.7127
-75.4371	-21.5333		14.4222
-74.7021	-32.1739		12.9422
-73.9191	-27.0403		21.0851
-23.4577	-11.6455		82.8121
-20.4711	-9.64109		84.3848
-22.5584	-6.76381		81.1521
-27.6611	-13.1994		81.1725
-34.4053	-14.587		79.1192
-35.8002	-19.6899		79.9896
-41.9665	-15.8704		76.7662
-17.6223	-7.89057		86.4385
-18.0767	-11.7641		88.4045
-14.9957	-5.68902		88.8813
-20.8469	-18.0661		88.0168
-19.4102	-16.3601		88.8851
-17.2305	-22.2929		95.9611
-17.9287	-22.703		94.4248
-16.9439	-24.0753		95.2882
-16.1035	-21.7459		97.8639
-18.4713	-23.1808		92.8879
-18.0402	-25.3255		92.294
-39.6762	-34.9846		79.7233
-38.7137	-29.956		80.2508
-40.8678	-40.0741		78.8842
-34.7645	-34.6541		82.0366
-37.0483	-24.5367		80.3403
-6.79324	-36.0391		96.8093
-8.21975	-36.3641		96.1358
-6.86724	-38.4544		96.9215
-59.9233	-50.764		55.8903
-58.2056	-57.3573		55.6104
-55.5854	-49.6138		63.4173
-61.0591	-44.7396		56.6229
-28.8412	-43.0975		85.5694
-31.291	-43.7368		84.3856
-26.4901	-42.4627		86.7239
-41.3119	-45.4178		78.0247
-37.0787	-44.4873		80.6654
-46.0759	-46.6649		74.459
-41.0446	-50.6809		77.5125
-6.9792	-40.6721		96.8267
-55.6911	-63.7274		55.0031
-52.259	-68.8769		56.5606
-52.1343	-60.8101		62.8231
-58.8055	-65.1842		47.3515
-61.1641	-28.3687		61.3456
-65.4991	-28.514		53.151
-61.5406	-33.6769		59.739
-28.6199	-93.3313		73.3363
-23.5418	-95.7569		78.739
-29.1943	-90.444		75.9004
-39.1898	-81.5731		67.511
-34.3636	-84.1339		72.5948
-38.3661	-77.2253		70.6974
-43.5262	-77.9745		63.6522
-57.2071	-6.61934		63.7094
-51.8065	-6.94194		68.6838
-55.2264	-1.51364		63.6933
-48.9612	10.0295		64.8612
-49.8089	8.25522		64.6696
-53.5716	1.69351		63.8703
-51.8403	4.12129		64.3929
-48.7491	0.85209		67.9839
-47.1794	13.1027		65.9287
-5.28705	-92.5051		94.8829
-48.1853	-58.5376		69.0339
-44.3122	-56.4971		73.4319
-49.7222	-53.7109		69.4185
-46.0458	-62.7948		69.2656
-37.1111	-73.1198		73.3557
-33.1023	-75.913		77.1251
-35.0355	-69.2462		76.2002
-40.3974	-69.8781		71.4155
-45.9171	-6.60072		72.1158
-44.3026	-2.48563		71.5694
-47.6061	-11.6377		72.9136
-51.0466	-48.1724		69.4236
-48.477	-16.9397		73.665
-12.1774	-82.3311		93.289
-16.1478	-81.5383		91.2025
-12.1358	-77.4887		93.0404
-20.4206	-80.6901		88.2908
-19.9313	-76.0663		88.5078
-24.6432	-79.82		85.0126
-42.8521	0.447144		71.1954
-35.5132	0.663584		73.5881
-41.6714	2.67579		71.1488
-50.7196	6.26648		64.4755
-46.6125	4.89836		68.1745
-40.8917	4.56142		71.0357
-33.6674	4.68603		73.1028
-12.2455	-3.6022		91.4708
-11.755	0.797914		87.7381
-13.0267	-7.93938		94.3305
-14.1928	-16.0213		100.182
-14.4135	-17.1727		100.453
-11.7315	-15.2028		103.706
-14.0388	-14.3859		98.9467
-11.231	10.5872		79.384
-11.2706	8.22722		81.3006
-22.0367	-2.3688		78.9357
-2.44607	11.1977		88.3057
-62.9184	4.06844		51.6009
-11.4799	4.87113		84.2812
-62.2642	-64.6366		39.4446
-65.9665	-61.9247		30.3128
-68.2434	-15.8515		47.4552
-70.4766	-14.5996		39.2626
-68.4718	-22.4026		46.0634
-68.1329	-39.5036		41.8419
-70.1817	-39.0214		33.8244
-65.3336	-39.5005		49.943
-68.4182	-33.8122		43.3054
-68.5268	-28.0654		44.7633
-70.6262	-27.6353		36.4355
-19.5561	-97.3758		82.5934
-11.8084	-73.3508		92.6756
-15.7245	-72.6986		90.7984
-7.71546	-73.8393		94.0925
-19.5264	-72.0713		88.0441
-27.3807	13.179		71.9765
-28.9002	1.60118		74.6732
-28.2153	3.83851		74.007
-27.6828	5.61179		73.5177
-3.8122	-73.9327		94.6538
-6.1092	23.3704		80.1901
-6.00364	20.7755		80.5616
-4.56618	24.0094		80.7963
-6.66521	25.695		80.2651
-7.62411	22.7658		79.3515
-19.5406	15.951		70.4353
-19.5073	16.8935		70.5792
-16.4642	15.5589		72.3045
-8.69965	21.4547		78.6337
-9.40007	23.7248		78.5653
-2.54646	24.227		81.3013
-6.7379	-27.6884		101.635
-7.35798	-26.4736		102.897
-9.1542	-17.772		107.725
-12.1306	-17.857		105.154
-9.1971	-16.2106		107.285
-17.8275	-29.3398		89.9631
-15.3468	-31.0825		91.5
-17.3687	-28.4985		91.0908
-9.04695	-14.6207		106.902
-6.53581	17.7771		80.8447
-7.42548	28.5215		80.3865
-9.26895	27.7708		79.6771
-19.9556	18.1346		70.9056
-10.6971	26.5269		78.7987
-11.7083	25.049		77.8961
-12.4982	23.8243		76.8604
-20.6905	-35.9654		88.5695
-22.2319	-39.0349		88.5006
-17.7057	-36.8239		90.6365
-23.9116	-42.3368		88.1582
-20.77	-42.1042		90.0787
-26.2696	-56.2402		79.9749
-24.0934	-56.2786		81.5253
-26.0643	-55.1585		79.6471
-26.6481	-55.2967		82.5358
-23.8373	-54.4155		85.9093
-25.4499	-52.3687		79.2612
-24.4619	-49.0648		79.1964
-21.9368	-52.3861		81.8115
-14.9783	-37.1717		92.3329
-16.0847	-39.6731		92.456
-12.3759	-37.1991		93.8794
-17.573	-41.9949		91.9918
-18.7339	-44.4569		91.7569
-21.0346	-56.1003		83.647
-19.4503	-54.897		84.2706
-18.6524	-52.3132		83.9408
-18.4835	-48.6398		83.1548
-10.1069	-36.9543		95.2261
-9.8148	-35.038		95.2927
-12.4832	-46.3969		95.5076
-16.4337	-46.5546		93.4663
-18.048	-14.646		90.4506
-15.94	-13.195		93.5183
-3.93174	-7.64977		104.919
-13.5483	-11.6482		97.1305
-8.09227	-24.6416		104.554
-10.4285	-24.6203		102.023
-12.9369	-24.9468		99.3306
-15.0998	-25.3172		96.6935
-13.7568	-23.0184		100.053
-16.2158	-25.8191		94.8691
-16.7738	-26.7612		93.2283
-17.1443	-27.6167		92.0176
-14.4154	-18.262		100.843
-14.283	-19.6396		100.919
-14.1563	-21.3168		100.687
-37.6048	-142.141		12.66
-36.0691	-133.83		13.4586
-41.5552	-140.656		9.42193
-38.7667	-148.197		12.1178
-33.2286	-143.464		15.7309
-34.3797	-122.364		14.956
-30.167	-123.589		18.952
-33.1248	-112.328		16.8809
-38.358	-121.011		10.9518
-34.2197	-98.4371		27.5308
-33.6799	-103.078		21.4217
-30.2861	-99.9507		32.6054
-38.1524	-96.7638		22.1776
-32.8404	-108.103		20.0451
-37.2463	-105.245		13.9381
-28.5851	-109.24		25.0713
-43.6804	-66.5665		69.6989
-40.4237	-63.5428		73.7582
-46.2785	-69.8854		64.8139
-48.4301	-73.5747		59.2043
-48.9051	-77.7359		54.9566
-48.7108	-80.6447		49.6673
-37.7657	-61.5151		76.1126
-35.656	-64.0775		76.7124
-35.3412	-59.7066		77.6511
-39.0149	-58.5305		76.4897
-33.959	-58.6712		78.3022
-32.7689	-60.2908		78.3824
-42.0382	-94.6529		17.3625
-46.1823	-92.4715		11.7538
-40.8682	-98.9002		14.796
-44.1931	-90.89		20.2501
-47.4467	-87.106		23.5001
-51.3041	-83.2555		26.4184
-50.858	-84.9505		16.7467
-54.8175	-79.513		29.3368
-57.3865	-77.5473		21.8536
-42.1829	-119.46		6.8807
-43.591	-130.921		6.72351
-41.0649	-109.538		7.94336
-45.8037	-118.258		2.92338
-45.0892	-139.214		6.2234
-48.478	-137.794		2.72233
-46.6046	-145.418		5.56151
-41.27	-102.746		9.03098
-72.6006	-27.5029		28.7119
-72.7265	-21.3057		29.603
-72.4571	-33.0249		27.5445
-59.0381	-76.1298		15.4742
-60.4132	-74.5718		8.89897
-56.3846	-79.4608		12.8486
-70.229	16.2771		29.4918
-73.6148	14.1246		18.5637
-67.9685	-60.0302		21.7166
-68.9863	-58.3183		14.312
-72.0581	-38.8304		26.7652
-73.2253	-37.7077		19.3291
-72.5272	-13.9557		30.8654
-74.3095	-14.6027		22.2503
-74.18	-37.2367		12.1515
-75.0635	-36.1479		5.81651
-55.7085	-88.7832		-4.51231
-53.0961	-89.59		0.469494
-56.6915	-84.494		-3.17983
-57.8966	-88.2168		-9.27985
-55.0219	-93.6561		-5.53293
-54.5642	-99.1677		-6.03919
-58.0366	-80.4614		-1.23117
-59.6779	-76.7525		0.614124
-59.8004	-79.59		-6.68109
-56.0812	-81.555		4.16295
-75.8121	-2.72506		12.6232
-76.0506	-9.36473		14.3181
-75.7124	4.23001		10.4535
-76.2358	12.8313		7.69963
-76.197	21.8559		4.68946
-77.5424	30.591		-0.944442
-78.032	37.9802		-4.40484
-79.2117	28.7853		-10.9563
-69.3994	-56.9043		7.4835
-69.7606	-55.7443		0.120627
-75.7072	-15.4739		14.7506
-76.9524	-16.2671		8.3146
-49.3998	-117.004		-1.1851
-50.4225	-128.22		-0.913148
-53.7709	-83.0567		10.3012
-51.5525	-86.794		7.86725
-51.7776	-136.655		-1.40974
-53.287	-142.688		-2.5919
-58.8355	-113.067		-17.6299
-59.6972	-123.877		-18.9156
-59.6258	-87.5779		-13.9878
-60.4137	-83.0037		-13.152
-60.8435	-85.7619		-18.9025
-61.4792	-78.4694		-12.0236
-60.1314	-129.504		-19.7921
-60.6938	-136.06		-21.6976
-69.8108	-55.3049		-6.28886
-75.8864	-34.8979		1.57373
-75.176	-38.8533		-0.14976
-76.8746	-33.1406		-1.47515
-77.8983	-16.6308		4.05869
-60.1698	-92.8246		-28.0063
-60.8368	-86.5697		-27.0238
-59.1308	-88.5223		-34.6695
-61.8908	-80.6798		-26.1636
-61.6575	-74.2148		-32.0621
-66.1093	-63.7936		-22.761
-74.0486	-45.0548		-14.991
-75.1629	-42.391		-21.2587
-56.4214	-119.944		-45.6157
-56.2589	-111.962		-44.224
-53.3076	-117.132		-52.422
-57.0815	-126.319		-47.5651
-72.9212	-42.1392		-29.6929
-75.5309	-37.8694		-28.4409
-77.2752	-36.2532		-27.5705
-78.1901	-35.5681		-27.3538
-28.7125	-144.586		18.5763
-29.875	-150.518		17.5863
-24.1611	-145.575		21.0206
-27.5675	-136.255		19.7202
-23.6588	-109.863		30.5538
-24.9373	-105.212		32.6056
-24.1136	-115.21		26.9847
-18.6111	-110.481		35.7087
-30.7139	-95.4576		46.8468
-33.2083	-93.4541		50.9401
-27.8243	-98.2844		42.6551
-26.4799	-101.529		35.8168
-21.5993	-102.959		41.2829
-25.5975	-124.48		23.1043
-20.9487	-125.776		26.8145
-33.2356	-66.2868		77.965
-31.979	-63.6626		78.8959
-35.114	-91.7124		54.3259
-30.8729	-62.0515		79.1139
-30.1171	-60.5127		79.1818
-28.3809	-63.5871		80.7432
-29.3439	-59.2969		79.4598
-27.2404	-60.6843		81.2112
-28.9431	-78.0545		80.7973
-29.3794	-82.4732		79.8216
-29.5074	-86.7271		77.9027
-21.9501	-57.6889		84.7871
-17.9711	-57.1898		88.0331
-21.8502	-57.3376		83.718
-17.6034	-56.8268		86.7258
-21.9764	-57.4885		83.3192
-25.674	-57.3503		80.9906
-22.0231	-57.8486		82.9812
-22.0522	-59.0691		82.4283
-17.8619	-57.4419		85.5514
-21.563	-61.52		82.0677
-17.694	-60.708		84.347
-20.5845	-64.9729		82.8267
-13.7764	-111.081		39.9053
-13.9458	-118.507		36.6073
-14.8753	-107.056		42.3285
-19.4682	-146.687		23.4515
-20.567	-152.298		22.0891
-15.0167	-147.461		25.0897
-18.3782	-138.589		25.5031
-16.4711	-126.915		30.031
-7.98972	-105.379		50.7777
-9.27873	-103.713		57.0207
-11.4014	-105.099		49.1792
-10.9375	-148.052		26.5461
-11.7969	-153.428		25.1086
-11.0219	-102.888		63.2727
-13.9685	-56.2916		89.2957
-13.8331	-56.505		88.5929
-13.768	-57.0072		87.8848
-14.0562	-58.0652		87.0276
-13.9115	-60.1985		86.4709
-13.732	-63.8217		86.2471
-72.9475	49.2342		12.0045
-67.8923	51.3283		23.9945
-73.1927	55.6997		7.59764
-76.1133	46.6844		2.00014
-79.1649	26.4608		-19.6988
-73.5464	-19.5681		-50.3957
-70.6446	-21.557		-54.7683
-50.4543	-94.8354		-54.8083
-47.4505	-92.5086		-59.5752
-50.2113	-106.18		-56.318
-53.2795	-97.9844		-49.4659
-51.1573	-84.7052		-53.7881
-50.4267	-114.805		-57.5287
-47.3382	-113.047		-62.1033
-51.1832	-122.405		-59.0872
-57.2086	-82.8924		-41.7311
-58.6682	-74.4685		-40.4466
-54.8037	-78.3574		-47.8529
-56.4409	-92.3997		-42.1575
-22.1291	111.363		20.6745
-15.2755	113.549		20.6264
-21.7137	115.195		6.50318
-28.7652	108.564		20.4732
-22.1484	101.353		-78.3941
-14.6649	102.522		-79.7221
-21.379	90.2243		-91.2649
-29.2482	99.5267		-76.5798
-22.6432	109.886		-62.4966
-21.0604	78.419		-100.59
-14.0981	78.9464		-102.116
-20.8878	65.014		-107.479
-27.7597	76.7305		-98.6362
-22.448	115.152		-44.8418
-22.3048	117.463		-27.2827
-15.0284	116.917		-45.8938
-29.5515	112.686		-43.2137
-7.1352	120.912		-10.7889
-7.23325	120.559		-28.5073
-14.7243	119.68		-10.4828
-7.02601	118.545		6.27404
-20.6588	51.8655		-112.215
-14.175	52.5144		-113.497
-20.2553	38.4069		-115.354
-26.8947	50.7391		-110.306
-19.8742	25.1976		-117.575
-13.5817	26.2195		-119.159
-19.2014	11.5266		-117.555
-26.1524	24.0685		-115.286
-17.2345	-26.5565		-106.852
-17.6746	-15.0576		-111.15
-11.8385	-26.1902		-108.456
-16.5807	-38.595		-99.1612
-22.8514	-27.5902		-104.094
-6.02019	-1.08449		-117.484
-5.90075	-14.2315		-113.767
-12.2386	-1.3609		-116.588
-6.43463	12.6292		-120.023
-14.4028	-85.0558		-82.2578
-9.38412	-84.6015		-83.003
-14.1792	-94.4489		-81.9213
-19.6094	-85.8417		-80.9535
-14.7524	-75.5892		-83.1748
-14.3012	-103.939		-82.7458
-9.47287	-103.53		-83.2456
-14.355	-113.387		-82.5462
-19.3218	-104.345		-81.9608
-16.6213	-47.7229		-93.2361
-10.9565	-47.2515		-94.2308
-16.1743	-55.9165		-88.854
-21.8569	-48.3061		-91.7032
-15.3428	-65.3372		-85.3744
-10.1154	-64.5259		-86.3402
-20.8864	-66.4585		-83.688
-4.85323	-64.2158		-86.7805
-4.5602	-74.6517		-84.4614
-5.13468	-54.9781		-90.3009
-46.8251	96.7316		17.4121
-40.993	101.134		18.9381
-47.3306	99.478		4.98936
-52.5741	91.5226		15.8751
-46.7381	70.4939		-88.946
-47.1221	81.9925		-80.0877
-40.9138	72.9437		-92.7154
-46.299	57.8648		-95.4259
-52.1189	67.3647		-84.697
-47.3809	91.4217		-68.2459
-52.8227	87.152		-64.7048
-47.7635	97.5712		-53.9554
-41.7853	94.8159		-71.4692
-48.0923	100.932		-38.6157
-48.6021	101.643		-24.1641
-42.3327	105.562		-40.1711
-53.8128	95.3477		-36.8612
-48.1521	101.609		-9.46725
-53.8622	95.8454		-9.5714
-42.1772	106.621		-9.32832
-45.7637	45.8231		-100.227
-51.1451	43.6861		-96.0622
-39.9238	47.6771		-104.091
-45.0552	33.2079		-103.39
-44.2735	20.6702		-105.199
-38.7209	21.7795		-108.963
-43.371	8.34386		-105.806
-49.5473	19.2708		-100.933
-41.7898	-4.31631		-103.467
-46.5318	-5.06063		-99.3497
-36.5894	-4.10493		-106.977
-40.2531	-17.7416		-99.0355
-39.6584	-30.1443		-93.8885
-34.4151	-29.514		-97.755
-39.146	-39.7679		-89.1514
-44.2408	-30.2038		-89.6213
-38.1416	-50.1086		-82.637
-42.6627	-50.328		-78.4908
-32.979	-49.8469		-86.1864
-37.3023	-59.4809		-77.8273
-34.9734	-87.757		-73.1576
-39.455	-88.7661		-69.27
-35.9266	-78.2353		-73.0655
-30.0119	-87.2878		-76.4672
-34.0725	-97.6238		-74.0336
-24.1424	-105.529		-80.2978
-29.1308	-106.651		-78.1529
-24.2601	-95.9815		-79.2084
-24.1709	-114.728		-80.2768
-36.5834	-68.963		-74.5811
-31.7638	-68.2881		-78.2123
-41.1687	-69.3537		-70.2018
-66.5207	70.8652		-51.3255
-62.2895	76.7887		-56.5606
-65.8513	64.3827		-61.6
-70.3615	63.7973		-45.3513
-67.0373	73.0909		-39.041
-67.7024	74.512		-27.9678
-67.9733	75.4349		-16.8596
-63.5546	81.7629		-31.9577
-71.3944	66.784		-22.8763
-66.9999	76.1613		-6.14784
-63.3433	83.026		-8.44235
-70.0663	69.2903		-1.73075
-55.8472	41.4254		-91.5621
-55.1292	29.5871		-94.752
-60.1228	38.6953		-86.8412
-56.4433	52.5371		-86.6535
-56.7572	63.6108		-80.1372
-61.1031	59.6542		-75.3298
-57.1829	73.8847		-71.79
-51.3402	-5.72174		-94.8352
-49.2978	-18.1677		-90.7782
-55.8081	-6.56161		-89.3911
-53.2547	6.34459		-96.6581
-54.2714	17.5885		-96.2878
-58.7178	16.3088		-91.3617
-48.2412	-29.6035		-85.6475
-48.1291	-39.04		-81.2257
-52.2229	-29.5587		-80.7397
-46.69	-49.716		-74.3649
-50.5966	-47.7546		-70.8062
-45.7322	-70.0471		-64.7495
-44.6809	-80.0278		-63.9378
-49.5746	-72.5934		-58.4698
-76.0534	34.7255		-46.447
-74.1818	40.2268		-52.0569
-75.4648	28.8957		-54.0872
-57.636	85.5145		15.2393
-58.0579	88.1154		3.55068
-77.2604	44.9237		-7.57649
-75.9114	51.6694		-11.9129
-66.2863	-7.28206		-74.2347
-64.2151	-17.2609		-70.7902
-69.1742	-7.61084		-68.8975
-67.7705	1.96827		-75.5631
-63.1672	-7.38396		-79.1456
-68.5125	11.1744		-75.9811
-71.2991	9.10699		-70.0669
-69.3205	20.1702		-74.5364
-65.6312	13.0083		-81.3797
-70.13	29.3381		-71.1664
-72.7829	25.6107		-65.3925
-71.0485	37.9021		-65.6039
-67.2389	32.7612		-76.7513
-59.1807	-41.4275		-60.8526
-57.1897	-49.9071		-56.6658
-61.8606	-39.2673		-57.1366
-61.0549	-33.1025		-64.9434
-56.3987	-43.8407		-64.1605
-67.7562	-23.5086		-58.5339
-69.8742	-15.6153		-61.8802
-65.0106	-25.1268		-62.4638
-66.6707	-29.4673		-57.0573
-52.4965	-75.2519		-53.0358
-54.0235	-66.2426		-53.0525
-77.0056	-37.6261		-7.31805
-75.2622	-40.8821		-5.52753
-77.8009	-33.8152		-5.11114
-77.7812	-31.8069		-3.49458
-79.9322	-7.38717		-3.12872
-80.6458	-2.64903		-4.89094
-92.3208	3.84789		-38.5981
-92.9617	3.46548		-37.8959
-92.3685	9.69445		-36.0623
-83.4937	-33.9529		-27.1159
-82.2934	-36.8088		-24.02
-82.3313	-33.7634		-27.9578
-91.835	14.3061		-32.409
-92.7011	13.5961		-31.8593
-90.9946	16.5076		-28.0187
-90.9311	14.6639		-32.8888
-85.1419	8.38544		-11.7106
-83.8042	8.54473		-12.5471
-90.1862	17.842		-23.6759
-91.1112	17.1192		-22.9431
-87.5717	-19.3469		-35.9357
-84.6097	-36.0625		-19.4581
-82.6388	-38.5245		-20.1593
-84.1983	-35.9928		-16.7504
-80.9998	0.0802053		-6.577
-87.388	17.3602		-19.1845
-84.938	12.9421		-16.7447
-86.3448	16.4954		-20.7882
-82.5512	8.86401		-13.9647
-81.6425	9.21648		-15.569
-90.2964	14.5201		-33.1031
-80.9407	8.89835		-16.9743
-82.1812	10.6992		-19.4861
-84.2473	13.9067		-22.6787
-82.2901	11.8502		-24.0124
-86.9553	-27.7031		-29.1751
-87.5496	-28.3957		-21.9452
-81.0341	-39.6745		-20.7953
-83.7744	-34.9776		-14.544
-84.8383	-31.9104		-14.3258
-85.5787	-29.3265		-15.2297
-85.9485	-27.7847		-16.0523
-91.8905	-8.88544		-36.917
-92.5065	-3.11933		-38.2252
-93.1707	3.16549		-37.4788
-93.4893	8.76173		-35.0163
-90.1273	15.7142		-15.5215
-91.028	16.4854		-18.5188
-90.3354	15.0723		-15.2449
-90.3297	14.471		-15.1185
-91.2614	15.3023		-18.0655
-90.1878	13.3929		-15.2921
-93.1035	13.0437		-31.4997
-93.2322	12.5407		-31.3623
-92.4136	15.0319		-27.1197
-91.7197	16.3257		-22.4491
-91.9311	15.7207		-22.3405
-91.9511	15.1202		-22.1021
-92.5534	13.9832		-26.7767
-93.1962	12.1417		-31.0454
-92.6581	-1.28419		-36.5159
-89.9409	12.0333		-15.8802
-87.3749	4.45349		-13.7172
-91.3763	10.4124		-24.42
-92.1215	-4.52149		-31.5015
-92.1613	-2.57453		-31.1602
-92.0908	-0.600134		-30.568
-91.8528	0.857937		-29.5926
-91.2687	1.06527		-28.1389
-83.8488	-24.0546		-13.6694
-85.1259	-25.6377		-15.4046
-85.0683	-3.29307		-11.079
-82.4016	-16.4728		-11.2358
-86.0176	-27.0246		-16.514
-33.5605	26.2932		74.9838
-32.7176	94.4851		42.1209
-34.1156	99.9374		32.0189
-7.08145	101.948		44.9425
-7.58777	109.522		33.056
-34.9414	105.257		19.7554
-35.0708	108.701		6.22414
-7.76592	114.995		20.5325
-21.8995	117.649		-10.0718
-28.9756	114.755		-9.65365
-35.6385	111.129		-9.50699
-36.1026	111.205		-25.4011
-62.3949	54.279		34.8195
-71.9795	62.4949		3.09632
-73.4883	60.2795		-6.72836
-58.7833	89.8351		-9.57784
-59.2794	89.6587		-22.2645
-7.25893	117.947		-46.3715
-7.36799	112.192		-64.3686
-36.0274	109.672		-41.5177
-36.0229	104.99		-58.6665
-73.9571	59.0831		-17.4017
-73.8744	57.6167		-28.2089
-58.7457	89.1374		-34.9551
-58.1716	86.9144		-47.9147
-73.096	55.1547		-38.964
-72.5507	52.34		-49.1865
-71.8314	46.1784		-58.1065
-68.9037	51.3335		-64.2856
-43.7816	-90.6777		-64.5452
-43.1173	-101.759		-66.3524
-43.1733	-111.183		-67.0331
-38.4943	-109.152		-71.6582
-43.5373	-119.553		-68.1621
-7.10384	103.272		-80.2791
-6.86077	91.7191		-93.4746
-6.99369	79.0706		-102.957
-7.19796	65.842		-109.549
-7.23977	52.85		-114.28
-7.17103	39.8451		-117.285
-6.9501	26.792		-120.362
-18.3606	-1.93596		-114.868
-24.477	-2.79221		-112.637
-5.93413	-26.0259		-109.3
-5.3981	-38.6919		-100.279
-5.29757	-47.3485		-94.5048
-4.48671	-84.096		-83.3939
-4.41187	-93.3146		-82.8991
-4.35696	-103.596		-83.1992
-4.71508	-112.735		-83.3899
-34.3614	74.7487		-95.9501
-33.9861	62.1432		-102.798
-35.0125	86.9213		-86.8315
-35.6253	97.5985		-74.4844
-33.438	49.3439		-107.477
-32.9383	36.1785		-110.603
-32.517	23.0161		-112.404
-31.7914	9.94618		-112.844
-30.6253	-3.6226		-109.726
-29.5682	-16.6714		-106.03
-28.7718	-28.4557		-101.508
-27.8422	-39.1695		-95.7667
-27.4398	-49.1003		-89.3993
-27.1757	-58.0485		-84.7124
-26.3892	-67.3662		-81.3721
-25.6393	-77.1109		-79.5068
-24.9696	-86.5055		-79.0117
-33.941	-107.913		-75.2053
-34.2084	-116.674		-75.639
-57.5934	82.2702		-60.7993
-65.1765	56.0122		-69.8421
-64.5535	45.936		-76.8189
-63.815	36.0506		-81.9565
-63.0685	25.473		-85.2004
-62.352	14.8374		-86.5449
-61.4504	3.91826		-86.1108
-59.6383	-7.15805		-84.2614
-57.4272	-18.4315		-80.1954
-55.7021	-28.7871		-76.0892
-55.017	-36.7293		-72.8765
-58.9429	-28.1131		-71.1106
-53.6174	-45.843		-67.6109
-55.6874	-58.1735		-53.6241
-57.8452	-56.6857		-50.3307
-74.7155	22.5225		-59.8153
-76.6445	18.8355		-53.9023
-74.136	14.9372		-63.1482
-71.499	-7.72126		-63.9842
-72.7306	-0.0832729		-64.6379
-62.0127	-26.8493		-66.8173
-73.4646	7.63202		-64.6624
-64.8215	-36.6242		-53.7214
-62.9199	-44.092		-50.5077
-16.1802	-104.268		46.3027
-61.7088	-73.072		2.52937
-49.8632	-90.7501		6.11403
-14.539	-51.1492		94.0084
-17.899	-52.0795		91.6775
-20.8005	-53.5372		89.0605
-7.27683	-57.7322		94.375
-7.44296	-58.745		94.4975
-7.65121	-59.7093		94.5991
-25.0953	-65.3769		83.3492
-24.2847	-63.6112		84.061
-23.7523	-61.9232		84.4743
-19.7118	-47.6471		91.2003
-40.399	-54.8177		76.7071
-30.9777	-34.4039		83.4441
-32.5241	-39.6045		83.5707
-33.8135	-43.8513		82.7746
-61.6038	-38.923		57.9286
-20.1631	22.4575		73.0406
-78.3534	14.6653		-47.4464
-80.9671	12.6677		-28.1655
-81.7621	11.027		-25.7484
-73.9928	-43.6036		-2.24425
-27.3983	11.8012		72.3212
-48.6756	41.78		65.411
-50.0944	15.9202		63.1935
-9.79248	-33.2984		95.1522
-47.9203	18.4744		66.0368
-12.881	-31.3268		93.3693
-81.8738	11.3524		-24.7969
-56.1446	-102.821		-43.4287
-61.1671	-66.1821		-38.6034
-60.4791	-59.5009		-43.4897
-60.6633	-53.6054		-47.2873
-23.1507	-26.6816		85.89
-30.5099	-56.8445		79.0094
-14.4841	-56.8094		90.6544
-27.5692	-57.3752		79.7374
-6.79565	-54.785		92.6619
14.2488	-103.647		-82.5614
14.483	-112.544		-82.7603
-78.6291	-35.5793		-26.9822
-79.5049	-33.9814		-28.3851
81.8417	-22.9505		-6.65453
-81.3618	-21.0607		-7.02293
82.2917	-29.9881		-31.2896
-81.2243	-33.3993		-28.5594
90.0962	2.55396		-20.9846
-87.9159	-0.436036		-20.1975
-87.9318	-1.67045		-21.2353
84.8901	-11.5145		-17.8212
84.416	-13.8981		-18.1609
87.3413	-7.7108		-20.9225
-82.3855	-16.2447		-17.8173
-82.766	-16.8199		-18.736
83.8219	-16.557		-17.6953
-83.684	-18.7015		-20.0889
89.0678	-3.86098		-22.3806
-87.5625	-4.19628		-22.3556
28.699	21.0476		72.123
24.6094	18.4174		71.0317
22.4657	15.601		70.0585
22.785	14.3668		69.8168
23.5265	13.5839		69.9648
46.5879	16.7818		66.3531
46.7239	18.3435		66.5314
45.0375	20.2463		68.4943
42.4188	21.905		70.6105
38.5414	23.282		72.022
33.8846	23.1419		72.5174
31.8204	19.1881		72.4873
34.5106	14.9397		72.007
37.4593	15.0701		71.617
39.5129	17.0758		71.3238
39.6765	19.8711		71.5676
37.4925	21.6203		72.0851
34.536	21.3322		72.5662
36.0393	18.2766		72.2082
32.1746	16.6553		72.2134
42.9458	16.9114		69.4033
28.0419	15.5504		71.4056
26.9655	17.9426		71.4983
31.9501	13.1046		71.7572
43.2622	19.5663		69.625
38.4991	13.4129		71.0709
26.521	19.2602		71.5975
25.6894	18.2744		71.2221
27.9383	19.3835		71.8611
26.1545	19.7947		71.5712
35.883	13.6672		71.6551
38.1693	14.0165		71.2588
35.9553	14.6772		71.8455
33.4737	13.9099		71.8837
35.6882	12.872		71.5374
41.3846	20.5051		70.8904
42.4397	20.7446		70.3843
40.5561	21.1061		71.3284
41.3766	19.6117		70.794
39.6191	21.9273		71.6834
40.5358	22.6704		71.5274
38.0215	22.5765		72.0596
38.8516	21.328		71.6908
36.1977	22.6827		72.3711
36.3438	23.4388		72.3305
34.0692	22.2836		72.5465
35.9956	21.7225		72.4318
32.1723	21.3964		72.5159
31.3674	22.2518		72.4598
30.5767	20.194		72.3619
32.9197	20.5118		72.6095
37.9891	16.7541		71.3851
38.1434	18.0174		71.4392
36.9305	16.6518		71.5568
38.9384	15.8354		71.3251
33.874	19.9271		72.4545
33.7538	18.9739		72.244
35.0756	20.2103		72.5242
35.7434	15.9407		71.9414
35.2362	16.2422		72.0048
38.5813	18.8903		71.466
38.0051	19.7818		71.7479
39.7813	18.4053		71.4134
37.9518	20.4715		71.9273
36.7568	20.8199		72.2874
35.9899	20.8287		72.4243
22.6928	16.4442		70.2952
22.5062	14.9463		69.8932
23.2097	13.9272		69.8933
45.4373	15.6014		67.3939
46.9261	17.5859		66.146
46.2424	19.2104		67.3209
43.8398	21.1376		69.6442
34.0082	16.3894		72.0927
33.8432	17.2847		72.3463
32.7981	15.8468		72.0248
33.1648	17.9805		72.4713
31.784	17.7834		72.291
43.4151	20.8061		69.7614
44.1942	20.0561		69.101
29.5977	17.3241		71.9176
27.288	16.779		71.3931
30.195	16.0517		71.7983
29.4145	18.4246		72.053
31.3667	14.8603		71.8511
29.4997	14.3075		71.5667
27.0551	13.4395		71.0092
24.53	15.7962		70.5855
25.1681	14.9503		70.6083
24.1924	16.554		70.6461
44.2941	15.7859		68.326
44.9175	17.0063		67.9739
42.6115	15.5591		69.4778
43.6771	14.3676		68.841
45.1014	19.4336		68.2337
45.1917	18.8105		68.0488
40.527	15.098		70.4892
41.0785	16.8734		70.5249
26.0685	14.139		70.741
29.4089	19.3367		72.1542
23.9792	17.0524		70.7078
45.1658	18.0261		67.917
43.1688	18.2575		69.4735
41.3332	18.3201		70.6252
41.2978	13.8894		69.9293
42.5677	14.615		69.3822
43.6566	14.8914		68.7907
-27.5831	21.1816		72.9186
-24.5187	19.7069		71.5151
-22.3028	16.9232		70.2401
-22.5734	16.1154		69.9261
-23.2395	15.276		70.1409
-43.2543	14.5749		69.0534
-45.9174	16.6112		66.5388
-45.9246	17.7501		66.7354
-44.1205	19.5709		69.0877
-41.3371	21.0309		71.3877
-37.2618	22.6187		73.0352
-32.4799	23.0452		73.3763
-30.6145	19.6717		73.2629
-33.7434	15.7164		72.5683
-36.6624	15.5665		72.2554
-38.5796	17.2981		71.9596
-38.626	19.7968		72.2604
-36.1927	21.4967		73.0588
-33.3379	21.5572		73.3935
-34.9355	18.4631		73.1093
-31.2881	17.4488		72.8663
-42.2808	16.9584		69.7833
-27.4451	16.7182		71.8879
-26.4566	19.1573		71.9055
-40.7737	14.3323		70.4164
-31.3387	14.1934		72.408
-42.3514	19.2999		70.1627
-37.7541	14.1845		71.5873
-25.8894	20.1215		72.0891
-25.6837	20.743		72.1148
-27.219	20.2968		72.4734
-25.3521	19.5619		71.656
-35.3285	14.7165		72.1383
-35.0647	13.9166		72.0524
-32.7819	15.0047		72.4373
-35.3077	15.4695		72.3639
-37.4356	14.8245		71.7761
-40.3243	20.0911		71.675
-40.3846	19.5021		71.4236
-39.5599	20.7286		72.1356
-41.529	20.2092		71.0861
-38.3674	21.312		72.6137
-37.664	20.9536		72.6972
-36.6884	21.9105		73.1086
-39.4289	21.9626		72.3995
-34.7253	22.3533		73.4262
-34.7613	21.707		73.3157
-32.7628	22.2047		73.39
-34.794	22.8026		73.414
-30.9289	21.6174		73.3237
-31.8488	20.751		73.4158
-29.4405	20.4376		73.2188
-30.1653	22.4491		73.2466
-37.1603	16.9946		72.4623
