1834
38.2087	80.832		58.1007
28.139	50.7877		82.9497
28.5384	49.3209		83.5998
33.4785	50.7709		79.941
29.2223	42.021		82.8751
29.1997	43.7259		83.4608
28.6497	46.9381		83.8651
32.7375	31.7823		76.8158
33.2057	29.7515		75.4948
37.6567	31.2697		75.5881
44.308	78.1893		54.127
50.4239	75.1924		49.0108
44.3326	73.1831		59.2147
40.4699	49.3442		74.978
46.4271	47.1392		70.7118
40.7933	27.2578		72.9186
41.1756	28.5869		73.4953
37.4808	28.0639		74.0409
43.5957	25.8623		71.4175
40.8231	36.3547		74.7526
42.7336	32.7123		74.5411
44.9436	34.6916		72.3207
41.8117	30.3329		74.0046
43.2374	67.9348		63.1748
49.6147	65.0578		58.4694
55.9871	72.5854		42.2485
55.6322	67.453		47.7432
61.1427	70.2694		34.5242
44.058	23.003		69.3299
45.7832	21.8307		67.4912
45.8035	24.6504		69.5702
47.639	23.3084		67.5829
44.7014	23.7224		69.5316
51.4713	31.6403		69.5683
54.4257	28.6765		65.8667
17.5549	31.689		80.9463
15.2151	28.9221		79.4328
17.847	29.6299		78.8613
16.6812	33.4494		82.7633
12.541	36.1012		84.2192
11.1363	32.3981		82.6928
18.4835	26.7157		76.0322
19.0351	24.5056		74.1549
6.63176	39.3492		86.5143
2.60613	39.7879		86.1693
64.9516	-64.536		-7.20696
68.3407	-60.5579		-5.45933
64.234	-64.1692		-13.8781
81.7876	22.2373		-37.5617
80.8854	18.6816		-43.1577
80.6513	27.8692		-42.5023
82.2948	24.5776		-29.2004
83.02	16.4982		-32.2012
77.0227	-7.69825		-52.2617
76.0817	-13.8721		-50.7472
74.7807	-7.84152		-57.9287
77.7128	-1.75896		-52.5118
78.0983	4.60517		-52.2329
76.443	6.29899		-58.757
78.8182	10.0266		-50.5025
80.1344	2.39312		-45.915
71.3424	-31.4864		-44.7989
68.2281	-34.9156		-48.699
73.0907	-25.7795		-47.1725
8.76235	56.1423		82.3377
1.81568	54.9141		83.1054
14.1685	57.5762		82.0985
19.2351	58.2096		81.0714
20.3004	65.4877		77.3427
19.7396	-104.973		56.3176
17.7932	-107.133		49.5017
26.1856	-102.429		51.5662
13.9433	-106.935		59.4789
46.402	-86.3875		46.4109
39.9015	-91.6115		51.4032
51.4054	-82.1536		41.275
46.684	-83.651		50.3574
55.689	61.6889		52.3745
61.0342	58.1986		45.236
20.8447	72.4112		73.3412
65.8341	67.8159		24.915
69.6458	65.7759		14.6896
65.498	61.1962		30.5044
21.7452	99.9706		47.3883
28.0288	97.7839		46.7727
21.6967	107.653		35.6778
14.8145	101.498		47.8917
64.1314	40.2226		45.2374
65.0823	47.3558		40.9857
48.5718	21.7045		65.7442
59.1189	28.3209		60.2983
59.8233	23.5732		56.9461
57.5784	27.0468		61.564
56.0662	25.8723		62.5694
3.04261	-117.92		39.6909
0.475279	-117.967		39.7428
56.8535	-71.8175		42.1038
57.6005	-67.7429		44.5194
51.9651	-75.3436		49.212
56.2805	-75.8475		38.3606
5.08472	-41.5181		97.3581
6.92832	-42.0991		96.8582
4.19787	-38.9355		96.8343
22.5418	-50.6765		86.4109
22.1091	-46.7901		86.4168
20.1726	-48.7943		88.7778
8.02738	-38.0516		95.2357
5.32288	-36.9892		95.9991
8.76826	-40.3697		95.4929
10.8338	-38.8831		93.7929
7.04199	-35.7047		94.7106
31.4613	-53.652		81.793
31.0973	-57.0127		80.8795
33.4835	-54.4357		80.4693
31.0857	-50.0036		82.7312
64.5665	17.5552		49.5503
62.2377	18.3896		52.4272
64.9146	11.4721		49.044
66.5995	17.3959		46.5397
68.6606	17.5811		42.982
71.0405	17.0869		37.7881
52.3436	18.6371		61.3842
52.226	16.7272		60.8465
60.1954	18.7033		54.7784
83.6413	8.40865		-37.4465
82.7867	5.1935		-40.6277
82.1177	10.7793		-41.6449
84.1055	10.9352		-33.4013
79.4988	-17.8186		-41.2695
77.5066	-18.3966		-44.4584
69.9256	-52.0787		-16.2017
72.9385	-48.6028		-13.9388
70.4729	-54.9345		-9.85816
66.2245	-56.4198		-18.7778
70.0879	-48.2208		-22.2392
82.136	0.995845		-42.1732
76.7797	-28.0382		6.20255
75.9912	-32.2105		5.66004
77.5125	-23.6107		6.46364
75.576	-28.9436		10.6205
73.839	-1.04325		30.5112
74.2541	7.38363		29.435
73.1104	-8.81713		31.6128
76.0913	-2.35137		21.8547
54.6575	12.8567		58.8689
52.9958	14.098		60.0726
52.8005	9.93358		60.9298
51.5709	14.9499		61.1157
50.0831	13.3111		62.3865
74.1621	-29.4162		16.9378
72.6482	-29.6116		23.7628
73.5173	-34.339		16.2272
75.0283	-24.1461		16.8982
24.0888	-12.4853		79.9819
27.608	-14.2068		78.5952
22.883	-7.72436		78.9844
20.8707	-10.2662		81.612
33.5873	-15.439		76.6202
40.1371	-16.0454		74.3743
34.6365	-20.6739		77.3799
17.0361	-7.69182		83.9699
14.4244	-5.2677		87.1057
17.4215	-11.5077		85.6123
19.8505	-18.5696		84.0281
18.5417	-16.5602		85.5465
15.9466	-21.6398		93.9966
14.6476	-20.8763		96.4665
15.607	-23.6102		93.3195
16.6619	-22.4081		92.1643
16.7796	-22.8792		90.504
16.7066	-25.2504		89.9554
36.9514	-36.1587		78.5366
32.3683	-35.6623		80.7784
37.1453	-41.5037		78.8487
36.4634	-31.1528		78.262
35.4696	-25.8282		77.8941
2.3148	-32.8221		96.2139
2.64313	-34.7157		96.1755
3.76841	-33.1524		95.5046
55.2362	-50.7199		59.4533
56.5102	-45.0452		59.5066
50.9726	-49.6938		65.7751
53.5804	-56.4444		59.6352
25.7991	-44.498		83.7069
23.6055	-43.6052		84.5983
27.9386	-45.2742		82.6743
37.1082	-46.7131		78.9249
36.7793	-51.5849		78.8238
41.5391	-47.7281		75.5659
33.2998	-46.0709		81.4863
3.53795	-36.5114		96.4593
51.6018	-62.3689		59.7357
54.8879	-63.4263		53.3865
47.7581	-60.4454		66.2072
48.308	-67.7797		61.5251
58.8521	-28.6644		60.0773
58.2144	-34.3343		59.9259
62.8191	-28.6473		53.5357
24.7078	-98.6736		70.9558
25.6952	-95.2404		73.2678
20.5598	-100.414		74.5072
35.7938	-82.9597		68.5423
40.0934	-78.2837		66.0623
34.9276	-78.5377		71.9558
30.9726	-87.2497		71.8851
56.9307	-5.2456		61.7984
54.9976	-0.384783		62.2872
51.1436	-5.7746		66.7439
47.4784	11.0517		64.7744
48.5225	9.15744		64.4331
53.2563	2.89632		62.7563
48.1944	1.36258		66.7888
51.2959	5.3212		63.5285
45.5609	14.2028		65.6734
2.06448	-93.4996		92.9425
-0.897227	-93.9241		92.9921
43.888	-58.6868		71.342
41.9647	-62.8945		71.8679
45.1617	-54.0254		71.2777
39.7028	-57.2031		75.6078
33.8387	-74.5104		74.7372
36.8002	-70.7811		73.5401
31.9011	-70.6076		77.5173
30.0134	-77.7458		76.9974
44.4518	-6.23461		70.4544
45.8245	-10.9217		70.8418
42.9355	-2.29488		70.2056
46.3611	-48.8994		71.0772
47.0494	-15.9892		70.9386
8.51689	-83.8166		92.8534
8.83992	-79.2638		92.8224
13.1619	-85.0201		88.3269
17.1941	-84.3635		85.7168
21.8324	-82.5553		82.9277
16.9072	-79.5983		86.339
41.7125	0.492404		69.9834
40.4804	2.67907		69.9634
34.1972	0.231514		72.1754
49.8596	7.26652		63.973
45.5473	5.4569		67.2111
39.4383	4.51524		69.975
31.9826	4.17543		71.8451
8.61782	-1.2886		89.911
8.98451	-5.30768		92.818
8.34913	2.97564		86.7488
12.6286	-14.8433		99.2923
9.49942	-11.6325		98.2162
7.26686	-12.0383		103.365
12.8236	-16.0247		99.6949
8.32613	12.3142		79.4221
8.10096	10.1403		81.1279
21.1936	-3.23178		77.9109
-0.524216	12.9346		89.0988
-1.96228	13.146		89.2266
64.1787	5.39003		50.9898
8.09441	6.94118		83.743
58.4853	-63.3562		46.2027
62.5555	-61.6104		37.1703
67.2577	-15.3826		47.118
66.8008	-22.3758		46.4944
70.085	-15.3773		39.5421
64.4987	-40.2737		45.6109
65.4208	-34.552		45.7266
61.3828	-39.9485		52.7757
67.0882	-40.4425		38.3697
66.229	-28.5098		45.9799
68.7975	-29.0012		38.4848
16.8202	-101.513		77.8163
9.01771	-75.0103		92.889
5.79744	-75.23		93.8814
13.1869	-76.0379		88.8181
16.6786	-75.5494		86.9582
26.2623	12.3791		71.1918
26.9659	0.873597		73.6111
26.0376	3.20645		73.0947
25.2198	4.99828		72.6848
2.96213	-75.5281		94.3528
0.152165	-75.511		94.4227
2.93429	26.3636		82.2582
4.41999	25.5122		81.2432
4.0059	28.9466		82.6632
1.69237	26.7474		82.8417
2.96074	23.445		81.9975
17.5389	15.1527		70.6466
17.3225	16.2702		70.782
15.5633	15.1454		72.3601
5.76642	24.1906		79.9033
6.6101	26.9596		80.3495
0.386945	27.1352		83.2189
-1.53937	27.2906		83.3433
2.27894	-25.0873		101.049
2.88089	-23.7559		102.637
4.69105	-14.4727		108.013
4.73873	-12.8434		107.471
7.3092	-14.8157		104.524
16.0949	-29.5565		87.7989
15.761	-28.5036		88.9099
13.939	-31.0984		89.2465
4.51563	-11.1851		106.779
3.61111	20.1299		81.9489
6.32021	31.393		83.4611
6.61136	31.2534		82.7017
17.739	17.8457		71.0217
8.13272	30.0324		81.3931
9.04384	28.5985		79.7499
13.481	25.7942		78.1708
18.5106	-35.599		86.5925
15.9587	-35.9853		88.3825
19.9719	-38.9475		86.8844
21.2283	-42.7156		87.1174
18.4541	-41.8294		88.9156
23.111	-56.7658		81.7264
22.9721	-55.7394		81.145
21.2204	-56.5706		83.0724
23.0016	-55.527		84.3813
21.2159	-54.5259		86.5759
22.7082	-52.8182		80.1754
19.7837	-52.4317		82.3367
22.3229	-49.1538		79.3715
13.5315	-36.1124		90.1839
9.14686	-34.5033		93.2256
14.4473	-38.4321		90.497
15.7833	-41.1699		90.5567
16.6005	-43.8118		90.7157
18.2767	-56.3848		84.1862
17.1616	-54.9664		84.1347
16.6168	-52.0319		83.1191
17.1678	-48.2015		82.9642
6.48153	-33.605		94.5907
5.72927	-31.9468		94.4132
9.91252	-42.9827		95.5632
14.5534	-45.5719		92.525
17.0374	-14.181		87.7791
14.7559	-12.4556		91.7936
-0.0713953	-4.64739		104.577
-1.9414	-4.39122		104.718
9.18822	-8.8102		95.9002
3.68039	-21.6269		104.885
5.79934	-22.034		101.762
8.32063	-22.7346		98.6083
9.083	-20.8285		99.5019
13.765	-24.6759		95.0233
15.032	-25.456		92.7805
15.5036	-26.5529		91.1276
15.675	-27.5022		89.8922
12.8652	-17.2111		100.074
12.7005	-18.5753		100.281
9.30351	-18.7942		100.143
37.819	-145.012		13.7708
32.8865	-146.399		16.7319
39.4209	-151.218		12.6694
42.2926	-143.561		10.6988
36.1732	-136.603		15.2367
35.1233	-125.329		17.3958
39.487	-123.662		13.8501
34.7723	-115.89		19.6481
30.6148	-127.194		21.004
37.0294	-98.9564		27.2961
41.6747	-96.0698		22.6748
31.9819	-101.664		31.5903
35.9209	-103.686		23.4228
34.7672	-109.413		21.0314
30.3468	-111.784		25.6419
39.4976	-107.155		16.9648
39.7665	-66.9451		72.4041
42.2279	-69.6408		68.5169
36.7149	-64.2874		75.9194
44.7896	-73.0804		63.2373
46.0913	-76.7912		58.5639
46.7315	-80.1842		54.3666
34.0833	-62.1661		78.2497
35.3322	-59.1714		78.2617
32.0241	-60.4995		79.6264
32.2707	-64.6587		78.66
30.3864	-59.4304		80.4573
29.1138	-61.1294		80.4251
45.5509	-93.3202		18.223
50.1898	-90.6544		21.6275
44.2241	-98.3136		14.925
48.797	-90.8645		13.0348
52.3386	-86.5871		26.1292
55.1793	-84.3402		19.4687
54.0565	-82.8067		30.3928
55.3334	-79.3011		34.7022
58.3457	-77.3499		26.8091
43.4392	-121.889		10.0344
44.281	-133.654		8.16282
47.1163	-120.571		6.07861
43.5707	-112.132		11.6959
46.1654	-142.278		7.30838
47.7828	-148.059		6.58369
49.7549	-140.572		3.86689
43.328	-104.77		12.682
70.8682	-29.3132		31.1844
70.1566	-34.9581		30.8484
71.6782	-23.2159		31.3894
60.4461	-75.6771		19.6065
58.9915	-79.0304		16.3962
61.8567	-74.468		12.2143
74.2063	16.3193		29.1861
77.3036	14.2432		18.3554
65.325	-60.2563		28.7106
67.2521	-59.2639		19.9081
69.2513	-40.4838		30.8715
71.1334	-40.1425		23.0083
72.3627	-15.9951		32.0437
74.3146	-17.3381		24.0133
72.6624	-39.1788		15.8554
74.0052	-37.7439		9.38219
56.4039	-87.4853		-3.05465
56.1596	-92.6331		-4.44882
58.3277	-87.0152		-7.94702
56.8213	-82.9238		-1.32135
54.1709	-88.2004		1.96494
56.0097	-98.3415		-5.33864
57.5254	-78.6513		1.11528
56.5158	-80.2081		6.88834
59.1713	-77.9987		-4.69766
59.9167	-75.804		3.10026
77.9837	-3.3493		13.3312
78.8835	4.67246		10.6808
76.8886	-11.3577		15.6545
79.655	13.1028		7.62827
80.2135	21.0292		4.99936
80.6582	29.0772		1.69734
82.0037	28.1459		-9.14732
77.5308	38.3737		-2.57014
68.4359	-57.6427		11.4151
69.5357	-56.4155		3.37264
75.8761	-18.1582		16.8127
77.1857	-18.8532		10.6038
50.7616	-119.058		1.84129
52.0857	-130.819		0.901603
56.8459	-82.5509		13.1658
52.7217	-85.0825		10.0069
53.5879	-138.474		0.250498
55.6699	-144.024		-0.792731
62.0679	-113.807		-14.0744
62.6586	-123.672		-15.6077
59.8719	-86.4294		-12.8521
60.9495	-84.731		-18.0118
60.2301	-81.6975		-11.7958
60.8255	-77.0546		-10.3912
63.5951	-130.495		-16.3571
64.4177	-136.104		-17.7439
70.1825	-55.9838		-4.00614
75.2245	-36.4514		4.86155
76.4879	-34.7633		1.50052
74.5086	-40.331		3.30187
78.1755	-18.9677		6.49197
61.1579	-92.9098		-26.1824
60.8235	-88.315		-32.6603
61.0246	-86.2921		-25.37
61.4958	-80.0197		-24.386
61.1083	-73.6376		-30.5186
64.5378	-62.7941		-20.623
74.4813	-46.1547		-12.8071
75.7578	-43.322		-19.3674
58.9894	-120.446		-41.545
59.2865	-128.553		-43.5868
56.1005	-118.216		-49.7621
58.7396	-112.07		-39.711
71.8565	-43.3905		-27.0583
74.7563	-40.0777		-25.4086
76.4143	-38.3616		-24.7335
27.9161	-147.749		19.6099
26.8007	-139.663		21.6786
23.0271	-148.936		22.1956
29.9295	-153.848		18.2157
24.8971	-114.171		29.9389
18.6031	-115.506		33.38
24.3248	-119.453		27.6232
24.9709	-108.891		32.0835
32.0135	-99.7113		47.3359
30.6099	-102.325		41.4941
33.3618	-97.5366		51.9106
25.8391	-104.772		36.1393
20.0955	-107.102		39.9232
25.3748	-128.632		24.5013
20.1804	-130.145		27.7065
30.2018	-67.3959		79.3731
28.6405	-64.6311		80.3617
34.093	-95.8533		55.7543
27.7148	-62.8916		80.9289
25.316	-64.8445		82.321
26.7432	-61.3843		81.4498
25.9637	-60.183		81.6969
24.1013	-61.3147		82.8995
26.0922	-80.6485		79.7108
26.3487	-85.5589		77.9348
26.3179	-90.6701		75.6905
19.2222	-58.2075		85.7293
16.6537	-58.0875		88.2024
18.8944	-57.6685		84.6313
22.5276	-57.7466		82.832
18.9208	-57.8824		84.2427
16.0233	-57.2591		86.6604
18.9089	-58.4077		83.8963
19.7348	-59.594		83.4599
15.9198	-57.991		85.6959
19.5451	-62.5517		82.7533
19.0829	-66.3863		82.416
15.8489	-62.0432		84.2204
13.2275	-116.343		36.5094
13.6947	-111.946		39.5438
13.8321	-122.135		34.0446
18.0081	-150.161		24.4182
16.8167	-142.318		26.8419
13.1278	-151.117		26.2875
19.3013	-155.579		22.6502
15.191	-131.78		30.3964
8.37399	-109.606		46.472
12.2293	-109.447		45.1379
7.58468	-107.284		53.3718
12.4476	-153.817		26.3764
9.82093	-156.905		25.8389
8.45432	-106.106		61.4322
13.0481	-56.6706		88.6836
12.9198	-56.9074		88.0094
12.8614	-57.535		87.3514
13.0156	-58.7647		86.4484
12.9765	-61.4742		85.6566
12.7051	-65.6201		84.9839
73.395	48.7546		15.5685
75.8393	47.2567		4.13967
73.2698	56.4404		9.86082
69.348	51.0663		25.8072
82.4463	26.9076		-19.2033
74.5246	-19.9587		-49.419
71.7629	-21.7587		-54.3223
53.035	-96.2518		-52.2159
53.5978	-86.0002		-51.1219
55.7373	-99.1008		-45.9161
53.5941	-106.623		-54.992
49.7558	-93.8184		-58.4038
54.0928	-115.423		-56.5681
54.647	-123.776		-57.8629
50.0131	-113.774		-60.1754
58.8678	-82.8651		-39.4484
58.6187	-92.831		-38.7953
56.528	-78.6534		-45.5448
59.7124	-74.8396		-39.2256
21.7088	114.291		21.7659
28.601	111.495		21.5924
22.0669	118.492		6.46762
14.4905	116.237		21.9752
23.0714	102.675		-78.6461
24.1149	111.461		-62.4553
30.4989	100.605		-76.4161
21.7669	92.0054		-92.5817
15.6869	104.017		-80.4297
22.4952	79.117		-102.311
28.5382	78.0643		-100.177
21.7675	66.0472		-109.572
15.0786	80.131		-103.969
24.0895	117.332		-45.8842
31.2451	114.86		-44.3034
17.0152	118.886		-46.9202
23.6043	119.352		-28.4011
9.78135	122.992		-11.0636
1.74703	123.411		-11.221
9.90419	120.603		6.47916
15.4873	122.024		-10.9169
8.48135	122.868		-29.6901
21.4152	52.847		-114.466
27.9602	51.5572		-112.408
19.7524	39.5466		-117.747
14.5463	53.5682		-115.955
21.2394	24.7198		-119.57
27.6642	23.7147		-117.29
20.7478	10.6931		-119.65
14.9198	25.6317		-121.223
18.5361	-28.1598		-108.509
23.6192	-28.4654		-106.223
17.5381	-39.5984		-101.016
12.9322	-28.0547		-109.7
19.3988	-15.4637		-114.48
7.26329	-0.782829		-119.139
0.874166	-0.692779		-119.631
7.41036	12.5724		-121.527
13.9195	-1.85063		-119.827
6.34504	-13.6671		-115.212
15.5402	-86.8701		-83.4365
15.8928	-77.0449		-84.0351
20.8465	-87.602		-82.0651
15.6036	-96.618		-83.2134
10.0617	-85.511		-83.2657
6.27241	-105.944		-83.8469
11.7481	-106.441		-83.4097
5.51147	-115.368		-83.8689
0.750007	-105.65		-84.1967
5.01751	-94.4278		-83.1828
17.7045	-48.8597		-94.7287
22.9185	-49.3927		-93.123
17.2368	-57.1753		-90.0905
11.4781	-47.4518		-95.0585
16.3377	-66.5688		-86.3759
22.0177	-67.6856		-84.6618
10.7505	-65.0532		-86.7496
5.43914	-64.7845		-87.2148
5.67075	-55.3681		-90.9062
5.17555	-75.424		-84.7902
0.101864	-64.9934		-87.2722
47.1872	99.4109		18.7218
52.9636	93.9198		17.4556
48.1634	102.897		5.0249
41.2815	104.007		20.0827
47.1638	71.5585		-89.7365
52.5687	68.4294		-85.5118
46.794	59.3476		-96.7044
41.3106	74.1289		-93.7049
48.0834	82.1144		-79.7799
48.9018	91.4682		-67.387
43.1959	95.0943		-70.6931
49.4449	98.6199		-53.8339
54.4584	87.0507		-63.7401
48.8804	102.428		-39.7434
55.3298	96.2785		-38.0478
43.3377	107.313		-41.2441
50.1819	103.636		-24.8278
49.3853	104.177		-9.72225
43.4205	109.08		-9.61137
55.044	98.5273		-9.78889
46.623	46.7545		-101.624
47.1475	33.1055		-105.056
41.5605	47.9934		-105.821
51.7516	44.768		-97.2289
45.8287	20.348		-106.904
50.7358	19.1378		-102.515
44.3604	7.60607		-106.959
40.4862	21.3322		-110.761
42.8836	-4.87624		-105.415
41.1633	-17.6721		-101.801
37.8112	-4.7584		-109.184
47.3641	-5.42493		-101.137
40.436	-30.3658		-95.7431
45.1474	-30.0413		-91.8425
39.8694	-41.2437		-89.1727
34.983	-29.7788		-99.7699
39.2129	-50.7604		-83.4142
38.7128	-60.5009		-78.581
34.0233	-50.6136		-87.2049
43.9728	-51.0855		-79.1408
36.8711	-89.577		-74.0454
35.6434	-99.3879		-74.8044
31.9214	-89.2597		-77.5242
37.5227	-79.716		-73.9063
41.3834	-90.4184		-69.842
25.0647	-106.897		-80.2512
25.1985	-115.657		-80.521
19.8789	-106.343		-81.8218
25.8779	-98.0451		-80.43
30.1712	-107.678		-78.1862
38.0746	-70.2185		-75.3574
42.7068	-70.5622		-70.8571
33.1571	-69.5615		-79.1322
67.8965	70.5964		-50.6078
68.8286	73.7283		-40.1229
70.7868	63.6469		-45.6442
67.1901	64.6681		-61.0778
64.0608	76.6721		-55.5166
69.6231	76.0702		-28.5781
72.9843	68.6396		-23.3496
65.3	83.3969		-32.757
69.3202	77.8342		-17.1795
68.4406	78.9476		-6.25962
70.9444	71.8082		-1.4619
64.7615	85.8099		-8.51547
56.4351	42.5966		-92.6209
57.0357	54.0676		-87.6209
60.7615	40.0638		-87.618
56.8212	29.6301		-96.0825
57.4763	65.1697		-80.8695
58.4021	74.3767		-71.4035
61.9662	61.2738		-75.8688
52.1124	-6.08771		-96.0841
53.9429	5.9747		-97.504
56.4327	-6.78083		-90.4845
50.4823	-18.2215		-92.8324
55.4605	17.7046		-97.6537
59.6635	16.5346		-92.4532
49.3188	-29.3602		-87.6033
53.5277	-29.2984		-82.3655
48.8173	-40.5012		-80.6771
48.0351	-50.375		-74.7869
51.7012	-48.7311		-70.7206
47.3963	-71.1558		-65.121
51.7428	-73.8439		-58.4668
46.8438	-81.4839		-64.2633
76.2029	35.4172		-46.9627
76.5869	29.5233		-54.4709
74.4957	41.0272		-52.8114
58.1943	87.7916		16.8609
59.0995	91.2469		3.68372
77.5086	46.108		-6.76831
76.5684	54.1752		-12.0769
67.4552	-7.37532		-74.0952
64.1126	-7.5029		-79.4616
68.6871	2.26014		-75.7082
70.1889	-7.62175		-68.4725
65.5777	-17.2882		-71.1981
69.3193	11.7876		-76.48
66.4615	13.4779		-82.0043
70.2043	20.7949		-75.0389
72.4726	9.7715		-70.1852
71.1468	30.0337		-71.6476
68.4049	33.3412		-77.4567
71.7067	39.1162		-65.9296
73.4964	26.2917		-65.6743
59.9746	-42.8848		-59.9364
57.3323	-45.1828		-63.4935
61.6175	-35.059		-63.7882
62.5897	-40.6215		-56.0757
58.3871	-50.663		-56.2418
69.0849	-23.4893		-59.0345
67.1587	-30.8681		-55.7454
66.4636	-24.9538		-63.1305
71.0744	-15.8246		-61.3593
54.793	-76.332		-50.9571
55.9613	-67.1668		-52.7157
76.7439	-38.9499		-4.38927
77.4121	-35.3808		-2.2954
74.9395	-41.9194		-2.0955
77.4731	-33.5359		-0.686612
81.9724	-7.32269		-2.17546
83.0286	-2.1082		-4.20463
93.7769	3.86676		-38.186
93.9445	9.62736		-36.0295
94.3891	3.46223		-37.4843
81.6217	-35.3972		-24.7239
80.4715	-38.4772		-21.282
94.2059	13.6291		-32.6611
93.2645	13.934		-33.1553
93.8743	16.7634		-28.4893
95.0743	12.9621		-32.0951
88.3167	9.06793		-11.0162
86.9862	9.05764		-11.6935
93.2787	18.11		-24.0165
94.1864	17.3971		-23.2703
88.519	-19.1535		-35.0289
84.2499	-37.2756		-17.2805
83.994	-37.4963		-14.6638
82.2053	-39.1539		-17.7602
83.5436	0.612788		-6.01309
89.8863	16.3545		-19.4249
88.1417	13.4555		-16.4363
88.7824	15.4745		-21.0321
85.6738	9.34343		-13.1354
84.804	9.78374		-14.7394
92.6248	13.784		-33.3755
84.0753	9.53512		-16.1454
85.3465	11.261		-19.0906
86.7064	12.9707		-23.0336
84.5144	10.7995		-24.1199
87.7058	-27.7346		-26.8242
87.8867	-30.2168		-20.2755
80.61	-40.3771		-18.2347
83.3353	-36.6408		-12.3407
84.5911	-33.7185		-12.3656
85.6935	-31.3486		-13.2919
86.2571	-29.7619		-14.2426
94.603	3.15639		-37.1228
94.9178	8.76223		-34.9167
92.6465	14.7082		-15.7234
92.8062	14.0738		-15.439
93.887	16.3836		-18.8355
92.7695	13.4762		-15.3002
94.0678	15.2246		-18.3572
92.5794	12.3998		-15.4567
95.4408	12.417		-31.7298
95.2263	15.3027		-27.5618
95.5465	11.9103		-31.5848
94.7305	16.6848		-22.7868
94.9412	16.0845		-22.6639
94.9376	15.4903		-22.3923
95.352	14.2451		-27.1849
95.4963	11.5299		-31.2632
93.9636	-1.28914		-36.1238
92.2792	11.0344		-16.0108
89.7246	3.82138		-13.3008
94.1515	10.7695		-24.6744
93.4371	-4.68706		-31.0766
93.4376	-2.81777		-30.7573
93.4718	-1.02109		-30.2019
93.5563	0.202447		-29.4044
93.3578	1.29191		-28.2038
92.7454	2.09002		-25.6536
84.2516	-26.1983		-11.7934
85.3664	-27.758		-13.5702
87.5982	-2.79415		-10.17
83.2743	-17.9976		-9.92256
86.3885	-29.0426		-14.7398
33.5474	28.332		74.6339
33.7863	95.3685		45.4265
34.5699	101.963		34.078
10.0774	101.373		47.4459
9.6703	109.379		35.9402
1.76532	101.769		47.7909
35.0002	108.181		20.8853
35.8784	111.983		6.24242
9.63755	115.99		22.0698
1.60824	116.327		22.1277
22.8384	119.987		-10.4667
30.0339	117.147		-10.0267
36.8786	113.479		-9.83848
37.3587	113.251		-26.3547
65.842	54.6074		36.2712
72.6861	63.9396		4.13515
74.3998	62.9243		-6.78757
59.9427	92.6585		-9.78786
61.1469	91.4679		-22.8509
7.212	120.215		-48.4163
8.20914	113.54		-65.9207
-0.774554	120.609		-48.5946
37.608	111.604		-42.5459
37.6509	106.42		-58.5659
75.0629	61.4615		-17.6861
75.5622	59.0567		-28.6845
60.626	90.1193		-35.9458
59.958	87.8251		-47.9272
74.4662	56.3681		-39.6097
72.9483	52.4383		-49.8621
72.807	47.1964		-58.2594
69.6416	52.2105		-64.4752
45.7938	-92.2038		-64.7868
44.9835	-102.051		-65.6771
45.7283	-111.783		-65.559
45.9556	-120.482		-66.8043
40.0484	-109.681		-71.5344
8.62724	104.078		-81.9787
8.55087	92.3816		-95.596
0.646553	104.71		-82.1112
8.27076	80.2356		-105.338
8.80966	66.7105		-111.989
0.867142	80.2381		-105.619
9.32486	53.202		-117.328
9.26617	39.804		-120.77
0.686605	54.1256		-117.344
7.15258	27.0947		-122.034
0.202518	27.194		-122.407
20.1425	-2.54128		-118.092
26.3367	-3.49332		-115.695
5.14838	-26.5191		-110.311
5.76303	-38.7401		-101.43
-1.16112	-26.6077		-110.761
5.75849	-47.5782		-95.3358
0.0462054	-47.8047		-95.2982
5.10763	-85.0445		-83.6838
0.126198	-84.8475		-83.8208
34.8261	76.4549		-97.2558
35.7387	88.0508		-87.4462
35.1053	62.9666		-104.469
36.9631	98.0864		-73.9084
34.9928	49.8393		-109.452
33.8921	36.7887		-112.672
34.1276	22.6755		-114.32
33.4589	8.8395		-114.323
31.8939	-4.03818		-112.655
30.7415	-16.8118		-109.045
29.5756	-29.2164		-103.359
28.7683	-40.5835		-96.6362
28.3157	-50.0345		-90.5979
28.2254	-59.013		-85.5858
27.6494	-68.5136		-82.1535
26.9762	-78.6501		-80.5188
26.6545	-88.482		-80.21
35.2114	-108.495		-75.3868
36.016	-117.471		-75.1624
59.3722	82.3293		-59.8284
65.9972	57.2822		-70.2044
65.2198	47.4699		-77.4297
64.3668	37.4027		-82.6565
64.2253	25.9083		-86.1333
63.0779	15.1772		-87.4315
62.0259	3.96736		-86.8148
60.5533	-7.4442		-84.9099
58.6696	-18.264		-81.8234
56.9852	-28.3371		-77.6776
60.4432	-27.8159		-72.5589
55.7922	-38.3809		-72.2414
54.6711	-47.0861		-67.2474
57.1477	-58.7748		-53.3462
59.2522	-57.1981		-49.8636
75.6691	23.1368		-60.0247
75.1057	15.6757		-63.1617
78.0557	19.2632		-53.8537
72.5341	-7.661		-63.3645
73.7835	0.334846		-64.4775
63.4743	-26.5438		-67.9153
74.7348	8.35774		-64.5744
65.2392	-38.24		-52.4064
63.4701	-45.3177		-49.2385
14.6537	-108.812		43.734
62.7827	-73.1456		5.27124
51.5883	-89.3291		7.51501
13.3343	-50.1791		93.3257
16.1712	-51.3452		91.1987
19.0464	-53.0774		88.7434
7.58192	-57.6836		96.9082
7.89914	-58.7239		96.9751
8.22051	-59.82		97.2453
21.618	-66.9619		84.3143
21.2114	-65.1918		84.6623
20.9353	-63.3814		85.2126
17.4879	-47.0322		90.5297
36.3056	-55.6408		78.4851
28.8442	-35.1643		82.0602
29.8633	-40.4373		82.7477
30.623	-45.5179		83.1197
57.5787	-39.6252		59.5163
19.3204	23.0594		72.9148
80.2045	15.1248		-47.7004
83.682	12.6714		-28.4282
84.289	10.6935		-26.0202
73.3305	-44.8345		1.4372
25.7854	11.1152		71.5163
52.0618	44.0784		65.8676
5.5415	-30.5779		94.3064
47.0963	20.5632		65.7055
9.50195	-29.5287		92.1724
84.1678	10.5013		-24.9507
58.73	-102.624		-39.2982
62.2937	-65.9937		-36.8828
62.2908	-60.0661		-42.0544
61.8643	-53.9612		-46.3982
21.4591	-26.9101		82.7414
13.757	-57.7625		90.5739
24.173	-57.884		81.7742
5.97929	-52.6145		94.0812
-70.0697	-48.1496		14.2828
-71.5513	-43.3623		15.2564
-71.0712	-46.4046		7.10081
-68.8557	-52.8896		13.1881
-69.1637	-49.7627		22.4163
-56.2291	-120.149		-9.43977
-55.6943	-109.895		-8.85582
-58.2795	-118.823		-13.6066
-57.3016	-130.417		-9.46246
-53.5742	-121.394		-5.17954
-57.9577	-137.613		-10.1908
-55.8443	-139.625		-5.84251
-60.2414	-135.963		-14.8681
-59.2782	-143.292		-11.3158
-49.9452	-103.578		4.39634
-53.3858	-102.26		-0.432388
-49.5586	-112.383		0.00109525
-45.8153	-106.318		5.81185
-50.5121	-97.525		5.68659
-59.7809	-99.4634		-13.3918
-58.2362	-100.43		-9.12523
-59.9841	-94.1288		-12.8953
-60.7306	-98.0159		-18.4626
-59.2918	-107.986		-17.3626
-62.1964	-67.5859		25.964
-63.2412	-66.6963		18.3111
-60.2515	-71.7478		23.5015
-60.455	-68.4796		34.1335
-64.0043	-63.6774		27.2954
-71.3085	30.7763		23.8586
-74.511	29.3929		12.1985
-70.8938	23.1946		26.6805
-67.0348	33.5191		34.985
-71.7946	39.009		19.3785
-77.2137	41.6629		-28.6491
-78.3283	34.2377		-23.8464
-77.4478	43.425		-18.0887
-75.6425	48.7695		-33.7499
-76.7396	38.6241		-38.2487
-7.3093	-117.788		38.0804
-8.14085	-112.713		40.6289
-10.5486	-117.427		36.7609
-6.98228	-124.896		36.6222
-4.78466	-117.875		38.8956
-8.40032	-135.403		31.9807
-9.29315	-146.745		28.3574
-5.11159	-135.57		33.138
-11.8229	-134.604		30.5165
-2.43378	-154.67		27.7188
-2.79061	-159.423		26.3234
-2.18824	-147.291		29.9901
-6.14186	-154.387		27.1488
-67.6801	-54.0901		-31.6594
-68.8522	-46.523		-35.9542
-64.3326	-60.081		-33.3805
-66.3905	-60.4041		-25.663
-70.5314	-48.1025		-29.3562
-70.0493	-41.0532		-39.181
-73.4662	-36.4112		-36.0711
-71.2013	-36.3149		-41.7113
-66.1583	-46.8414		-42.4934
-60.5093	-128.677		-30.8569
-61.2486	-131.828		-24.5251
-58.6996	-125.705		-37.6218
-60.2795	-134.855		-33.0463
-2.07891	-135.839		33.7708
-1.54547	-124.736		38.3548
-67.8511	-51.1239		31.2523
-65.8933	-55.7674		31.2365
-66.0296	-51.3177		39.137
-69.3653	-45.3604		31.1494
-64.2863	-65.3363		10.4096
-65.8358	-61.1875		11.6914
-64.9873	-64.6866		2.22892
-62.611	-69.3941		8.49928
-10.6273	-93.9958		90.2367
-10.292	-89.3359		92.0347
-14.3461	-93.6751		88.1994
-10.6813	-98.1777		87.7463
-6.97341	-94.1935		91.7724
-18.2602	-92.7127		85.713
-18.4097	-87.721		87.4801
-22.5509	-91.209		82.4893
-17.6911	-97.5958		83.1366
-3.39043	-85.0297		94.7095
-3.59376	-89.7494		94.0928
-3.21964	-80.3476		94.5229
-6.559	-84.674		93.8312
-10.3804	-101.325		84.5368
-6.80165	-101.435		85.4862
-13.7121	-101.179		82.3449
-10.1106	-103.343		80.2303
-9.32802	-105.708		74.0614
-11.4461	-105.449		68.2097
-5.77657	-106.076		74.8282
-17.2852	1.78141		80.3795
-14.73	4.24345		82.1524
-16.8006	5.75071		78.094
-20.0843	0.22897		78.7045
-17.9869	-1.98818		82.4696
-46.1461	-26.1618		75.138
-47.1058	-31.2984		74.7154
-40.9363	-24.6884		77.9721
-45.5109	-21.025		75.0812
-51.8375	-27.3293		70.6472
-56.2948	-16.5983		65.5059
-56.9497	-22.0699		65.0867
-50.4851	-16.4564		70.9879
-55.4587	-11.0017		65.5335
-62.0027	-15.9531		57.823
-68.693	2.16698		43.0933
-66.1157	4.11541		47.6688
-68.1771	9.29506		41.5808
-70.808	1.07838		37.8131
-47.7111	-36.3633		73.9745
-42.4817	-35.2224		77.8531
-53.0718	-37.5078		68.6345
-47.8046	-41.4045		73.6195
-3.17992	4.03971		96.7514
-4.98309	3.47589		96.2413
-3.49734	-0.337957		100.616
-3.33201	8.82559		92.5485
-29.6997	67.2541		70.1987
-30.5102	73.392		65.8482
-34.9529	65.6162		67.4999
-27.732	60.5255		75.1821
-23.7685	68.3655		72.4474
-4.04384	-106.889		62.5422
-4.31193	-106.148		69.4888
-7.18498	-106.648		61.9749
-3.2847	-107.892		54.9617
-63.292	-50.8881		46.9594
-64.3928	-44.985		47.235
-61.2111	-56.4953		47.571
-60.0917	-50.3731		54.2922
-3.57273	-101.462		86.3174
-3.40955	-103.585		81.6038
-3.70356	-98.2085		90.0513
-2.63533	-106.215		75.3403
-36.5936	-89.1691		64.0581
-37.1736	-85.7226		68.1536
-41.7543	-84.7345		60.3501
-35.5329	-91.8586		60.7154
-31.6637	-92.8724		68.3135
-41.0097	-92.7607		38.1838
-36.4301	-95.5953		43.1176
-43.6742	-88.8942		43.1604
-45.2973	-89.7652		32.897
-38.5307	-96.658		32.4547
-2.67431	-109.658		47.5333
-2.61677	-112.767		42.0571
-5.45912	-109.617		46.7696
-8.36273	-6.18126		102.241
-5.95317	-5.17355		103.843
-7.76952	-1.92644		98.7111
-11.2154	-7.4748		99.667
-9.03569	-9.48153		105.045
-26.9193	-19.6397		81.8935
-23.5473	-16.7131		83.3023
-25.2663	-14.4043		81.6211
-30.5807	-21.6143		80.9512
-29.2026	-58.1356		83.6974
-27.1041	-58.4628		84.2198
-27.8248	-57.4297		84.0756
-14.8018	-26.7762		93.4861
-16.4772	-26.8759		91.8068
-14.1657	-27.8871		93.1193
-16.0695	-25.3942		93.6337
-14.3167	-31.2019		91.741
-12.5318	-30.7885		93.0655
-14.1321	-30.3157		91.956
-16.6305	-31.1107		89.9837
-14.7424	-32.6008		91.5792
-4.60677	-27.1381		100.085
-6.34643	-26.9679		99.2866
-4.50303	-28.3756		98.9606
-4.59208	-26.0852		101.756
-19.0925	-30.0055		88.1631
-19.6286	-31.3854		88.0683
-18.6278	-28.9408		88.5058
-21.2889	-27.9728		86.5304
-9.74736	-17.8156		107.472
-9.83264	-16.1649		107.938
-12.2113	-18.0993		104.115
-9.58336	-19.7097		106.339
-7.34231	-17.9318		109.621
-24.9933	-70.7933		85.8852
-25.918	-74.4462		84.6273
-21.4004	-72.459		88.063
-24.2838	-67.8913		85.5996
-28.1036	-68.4192		83.3739
-28.7806	-51.765		86.1938
-30.516	-52.524		85.1716
-26.9186	-50.8432		87.5133
-28.8053	-47.5971		86.8933
-4.93643	-32.721		96.8507
-4.86799	-30.8239		97.3518
-6.64409	-32.5989		96.4133
-5.02396	-34.9685		96.6962
-7.26404	2.37919		95.0517
-7.22336	6.51361		91.331
-9.92304	0.382706		93.0859
-19.9295	-18.6827		89.3577
-20.3059	-17.9859		88.0584
-20.1942	-20.1158		88.5976
-19.2572	-18.2868		91.4716
-19.0381	-17.2347		91.4868
-7.89397	-29.0938		96.6077
-6.45271	-29.1239		97.433
-7.98063	-27.9296		97.1852
-9.34992	-29.5763		95.4904
-7.84945	-30.6449		96.1363
-7.82232	-26.9897		98.1475
-7.74973	-25.9811		99.5828
-18.4741	-17.5528		93.5629
-18.8776	-19.2479		92.6929
-18.2167	-16.6006		93.7872
-20.3932	-22.7565		87.8885
-19.9575	-25.1494		88.0734
-19.453	-21.8089		90.1978
-5.10465	-42.562		97.9445
-5.00898	-39.9638		97.3654
-7.71734	-41.9949		97.6802
-5.27607	-44.4073		98.3953
-25.4852	-33.348		85.2575
-23.8996	-29.1763		84.6859
-27.5377	-33.3397		84.2549
-26.9525	-38.0363		86.1802
-23.2921	-33.4389		86.6716
-9.6488	-68.9377		94.2641
-13.5323	-68.8123		92.9576
-9.84894	-71.4072		93.5006
-6.0469	-68.9737		94.8006
-9.63062	-67.0034		94.8534
-23.748	-52.9608		88.2668
-24.5548	-51.2624		88.6922
-25.6645	-54.7958		85.9808
-23.9397	-53.7672		87.7438
-18.0308	-15.9066		93.5817
-16.6183	-14.7339		96.0821
-18.1203	-14.9245		92.087
-17.0571	-68.16		91.3124
-16.8231	-66.2493		91.4313
-20.3334	-66.9491		88.9178
-17.3073	-70.4928		90.8984
-2.79865	-69.0373		95.4877
-2.95904	-67.1545		95.6724
-2.73202	-71.3756		95.0036
-56.6852	27.3055		57.2818
-57.8274	28.59		55.3188
-59.1926	21.7928		52.2344
-55.4545	26.2622		59.0944
-38.0939	52.6451		71.4127
-39.8137	57.6765		67.6958
-44.5475	50.0855		66.876
-37.0238	48.7034		74.5483
-33.1447	54.4029		75.2204
-50.3221	46.7359		61.7228
-51.6893	52.3126		57.2044
-56.2973	42.877		54.3372
-49.0038	42.8617		65.4442
-36.9314	41.8237		77.142
-36.7693	44.1993		76.7276
-37.0385	39.1206		77.2127
-32.8206	44.1217		80.7931
-59.6585	29.9213		51.8002
-63.1514	23.7611		45.2088
-53.8729	35.7934		61.412
-60.9431	32.678		48.6497
-22.5102	34.6016		80.0468
-18.8454	33.3207		80.1134
-22.0658	36.7631		81.0148
-25.8997	34.6345		79.5424
-22.6827	31.8533		78.5128
-7.44871	16.1752		83.4322
-7.3953	13.7175		85.1225
-5.01251	17.6682		84.741
-7.35358	18.1207		82.4466
-9.82476	13.925		81.5279
-30.7179	-4.20164		75.6502
-25.5466	-2.88133		76.9024
-29.2301	-0.882528		74.6643
-36.9805	-5.21036		74.3499
-32.2638	-8.3275		76.8542
-57.9353	8.89362		56.7981
-55.4349	5.42458		60.553
-55.3707	11.0546		58.4494
-58.4103	13.3468		54.862
-60.4143	7.21215		55.0814
-7.31702	10.4822		87.796
-5.21143	12.0089		88.6853
-9.5371	8.10548		86.2937
-37.0949	36.7776		77.0383
-36.7982	34.5826		76.6841
-33.0311	39.0165		79.959
-40.9392	35.6687		74.5828
-44.9796	34.0097		71.5426
-50.5827	29.6134		66.3518
-44.3348	31.7861		71.8189
-53.7328	17.5787		59
-55.2509	17.2574		57.3584
-53.7463	15.0571		58.8132
-51.8295	17.4883		60.5069
-52.7418	19.9027		60.4887
-41.9203	20.7116		69.0469
-40.1565	21.6652		70.5496
-43.5575	19.74		67.2886
-37.939	22.4861		71.6592
-35.6156	22.9734		72.495
-37.7221	23.2419		72.1046
-40.2367	22.367		70.9725
-35.1656	23.708		72.9203
-32.993	23.2548		72.9537
-30.7803	23.4303		73.1092
-32.724	24.1351		73.3908
-29.9453	24.0766		73.4598
-28.751	23.3278		72.938
-26.6442	22.5151		72.5064
-24.4368	21.2764		71.774
-22.4794	19.8393		70.9398
-23.3142	21.98		71.9949
-25.5845	23.2176		72.7454
-21.4898	20.4522		71.1653
-21.2523	18.474		70.2123
-22.0851	22.5		72.3009
-24.654	24.1548		73.1542
-32.1477	24.9779		73.8692
-29.5115	25.0665		73.9794
-47.9695	16.6568		63.2054
-47.2832	15.9117		63.7775
-29.1583	33.7682		78.831
-29.3161	31.5229		77.5338
-29.1928	36.3478		79.9837
-32.951	33.1733		77.7488
-43.7494	25.397		70.8074
-43.2474	23.7689		70.3717
-40.4454	27.0629		72.9646
-43.4803	27.5377		71.3003
-37.9497	7.3602		70.2612
-31.5645	7.25512		71.8081
-43.2364	8.77745		67.9066
-38.3984	5.93064		70.3793
-26.1286	8.65587		72.1331
-26.4151	7.29486		72.3367
-22.4286	10.2393		71.9459
-19.0639	13.7336		71.2461
-19.7984	12.6364		71.5349
-18.7231	14.6411		70.9844
-37.0483	10.3206		70.1447
-31.4827	10.1662		71.49
-41.8831	11.8251		68.0966
-21.859	13.6921		70.3679
-21.1144	14.2887		70.0878
-23.3534	12.7649		70.8239
-20.5364	14.7815		69.991
-20.0375	15.3484		70.019
-15.7749	22.5253		74.591
-14.4972	24.6607		76.3808
-17.2256	24.4509		74.8886
-17.0447	20.2478		72.5851
-18.4047	16.0159		70.9744
-26.7562	24.6427		73.6896
-17.7841	19.4056		71.742
-19.0303	21.2279		72.0672
-17.2944	18.0016		71.7096
-36.7925	11.5826		70.1591
-31.3738	11.4047		71.3849
-22.0585	14.4712		69.8568
-23.485	13.9119		70.3223
-21.3349	14.813		69.7086
-20.9445	15.1659		69.5521
-45.2496	19.1886		65.669
-2.59062	32.2805		84.0265
-2.29507	35.1107		84.5703
-4.65235	32.132		83.5958
-2.70182	29.5224		83.523
-20.5884	5.07203		74.991
-23.4909	3.59151		74.3961
-21.348	2.35751		76.2244
-18.5702	6.60442		75.569
-20.1351	7.09506		74.0895
-16.3965	8.23049		76.5836
-14.2293	10.0975		78.0098
-16.6052	13.2583		73.4049
-16.9237	14.83		72.4426
-14.9899	13.8469		74.792
-11.5078	21.8771		77.5875
-10.5993	22.7942		78.606
-12.5111	23.9728		77.4241
-20.7131	11.4879		71.7611
-20.2297	10.3483		72.5012
-19.9883	8.8799		73.1993
-22.5403	7.31548		72.9871
-20.1201	-55.6931		87.2218
-17.3064	-54.8581		89.002
-22.628	-56.4148		85.4212
-19.9811	-55.6164		87.0007
-24.1099	-56.7995		84.4739
-23.8314	-56.6619		84.4161
-4.82486	-47.5921		98.6337
-4.84154	-48.8617		98.2287
-5.27544	-46.4809		98.5783
-8.37763	-47.4633		97.9873
-10.1093	-49.7277		96.6595
-12.2126	-50.0364		95.8361
-9.6668	-50.7931		95.9892
-7.58809	-49.6977		97.2986
-10.5597	-48.6933		97.0373
-14.6666	-50.5578		94.5709
-17.4706	-51.613		92.6296
-14.5309	-51.7228		93.7252
-15.3692	-49.5827		94.9879
-10.7409	-47.4184		97.434
-10.8467	-46.1453		97.5791
-13.2199	-47.8199		96.4684
-14.7726	-46.1515		96.0215
-15.4138	-47.2472		95.6581
-12.3635	-45.5489		97.0933
-14.3875	-45.0311		96.1455
-20.4615	-53.5545		89.7002
-20.4989	-52.1869		90.7827
-8.89263	-51.7866		95.1523
-11.7455	-52.1784		94.0961
-8.44185	-52.4937		94.3993
-6.46134	-51.5735		95.8625
-14.6362	-53.0381		92.4385
-14.5271	-53.8253		91.5067
-24.9019	-55.4337		86.0189
-26.2011	-57.1593		84.4757
-20.3135	-56.6774		87.8916
-20.3933	-56.8924		88.1629
-17.3906	-56.0659		89.8766
-20.2056	-56.6313		87.5828
-20.8594	-58.1603		88.6984
-18.2989	-58.367		91.1717
-20.677	-57.7156		88.6152
-15.4082	-58.4551		93.4797
-15.8211	-59.3146		93.4448
-12.4358	-58.1834		95.1348
-15.1856	-57.5887		93.2444
-8.41312	-55.5534		95.7283
-5.37607	-55.3444		96.492
-8.25763	-54.5663		95.1149
-11.7978	-56.1087		94.5758
-8.64024	-56.7441		96.1673
-3.19941	-57.7948		97.4072
-3.1179	-56.6225		97.15
-5.62131	-57.6794		97.2145
-3.10002	-58.935		97.7828
-24.2455	-58.1097		83.8351
-24.2515	-57.6603		84.4348
-22.4298	-57.8201		85.3013
-24.077	-59.5364		83.2608
-2.67345	-54.551		93.3539
-2.82188	-53.6961		93.891
-2.58276	-55.9616		92.3371
-4.91268	-54.7038		92.8558
-3.14766	-60.1294		97.7502
-5.84561	-60.0156		97.3444
-3.22749	-61.1769		97.546
-2.95335	-65.3524		96.6644
-3.17518	-63.825		97.3795
-5.85426	-65.1775		96.416
-10.6118	-45.2745		97.6429
-8.38984	-45.1138		98.1085
-9.88902	-43.97		97.6897
-3.0659	-55.3254		96.6784
-2.99892	-54.2504		96.0399
-2.96032	-53.7944		95.6508
-3.01791	-53.6188		95.2301
-5.24989	-53.8273		95.4676
-8.17848	-54.1127		94.7247
-8.10153	-53.9358		94.3905
-11.289	-54.6067		93.5963
-3.0422	-53.5521		94.654
-5.18157	-53.6318		94.4808
-14.3561	-55.3716		91.9184
-14.5996	-55.783		92.3856
-14.2611	-55.218		91.563
-16.3098	-62.1686		93.1693
-16.5246	-63.2418		92.7041
-13.334	-62.3395		94.7737
-16.1215	-61.212		93.4392
-9.65424	-62.0543		96.1134
-9.68567	-63.2757		95.6969
-5.85863	-62.0344		97.1061
-9.45167	-60.9601		96.4437
-3.18491	-62.3834		97.5132
-14.2955	-54.0063		90.899
-14.1361	-53.9308		90.3983
-11.2299	-53.1339		92.5774
-24.3262	-57.5071		84.9119
-23.2604	-57.9835		85.3658
-7.56246	-54.9318		92.0195
-7.72369	-54.1597		93.0239
-7.49295	-56.367		91.6277
-10.7082	-55.4214		91.0193
-7.96082	-53.9389		93.7743
-11.0154	-54.4355		92.6938
-9.64958	-64.871		94.9085
-13.4218	-64.9362		93.6981
-16.0161	-60.2783		93.4482
-12.9066	-60.2707		95.287
-16.601	-64.6425		92.202
-19.4981	-63.7452		90.2899
-13.8397	-53.5872		90.0546
-16.5669	-54.3357		88.5756
-13.3199	-52.2079		89.3659
-11.0562	-52.7458		91.1772
-8.05851	-52.0366		92.1544
-8.05298	-52.5971		92.8648
-8.48994	-50.8806		90.8198
-5.6974	-51.6751		92.3853
-12.8646	-49.3763		88.2186
-15.1238	-49.9767		87.3024
-12.9393	-45.6454		87.1823
-10.7103	-48.826		88.8876
-23.8128	-62.4956		83.2737
-22.0806	-62.2854		84.5817
-23.5141	-65.8322		83.0725
-2.16234	-58.7824		91.7776
-2.26107	-62.9246		91.179
-4.36294	-58.8824		91.3076
-8.71967	-48.2874		89.2403
-8.58083	-44.7987		88.2847
-6.32099	-48.0395		89.7553
-7.3135	-59.2928		90.655
-7.15355	-63.4024		90.4936
-10.4052	-59.8029		89.9354
-27.1604	-57.5979		78.9862
-27.4037	-57.2129		78.4936
-12.8466	15.2673		76.6691
-12.3211	13.7408		78.1734
-79.9552	-9.37404		-43.0862
-81.2207	-10.011		-41.3285
-80.1264	-4.97492		-43.0821
-78.8386	-8.32486		-46.5041
-79.305	-13.7656		-42.289
-81.1747	9.49695		-6.38976
-80.1333	11.6281		-1.57009
-79.1101	11.8526		-10.98
-79.569	14.2594		-16.0451
-80.1133	13.8116		-22.7188
-80.2891	9.30304		-16.4368
-79.3977	19.839		-17.4058
-76.0881	-33.3731		-33.7011
-77.3509	-29.4107		-35.5175
-75.0141	-37.6373		-31.0533
-78.6337	-30.9617		-31.9545
-78.0562	-26.2808		-37.5609
-79.9356	-24.9552		-35.5929
-77.8868	-21.8154		-39.3392
-75.7786	-27.848		-40.4539
-82.6472	-9.9726		-40.4217
-82.679	-5.09435		-40.6894
-82.2231	-14.0783		-39.4615
-85.0482	-9.01982		-40.0217
-84.1678	-26.1357		-32.3352
-85.39	-27.2928		-31.2215
-82.7311	-24.4048		-33.7561
-86.1007	-28.301		-30.1966
-85.9614	-24.146		-32.3498
-85.822	-31.8259		-27.6048
-86.9713	-28.7589		-28.9953
-88.7159	-18.7721		-30.4375
-90.9341	-13.7959		-33.5771
-88.7802	-18.1748		-29.641
-78.4484	-40.6764		-18.8891
-80.8384	-38.7409		-22.4232
-77.5118	-39.7845		-20.8825
-77.969	-41.3534		-16.8052
-79.0306	-40.8814		-18.2157
-81.1015	-33.1018		-6.76948
-80.8179	-33.6466		-6.73438
-79.9754	-34.9271		-6.93054
-88.6679	-17.7921		-29.2193
-88.2377	-18.3583		-28.2278
-92.3402	-2.45993		-33.2516
-92.9244	-1.50775		-34.7795
-91.1872	-4.49559		-31.5199
-91.7339	7.25324		-30.8953
-91.9821	8.56265		-31.0176
-92.1658	10.7563		-30.0009
-91.8217	12.8341		-26.8543
-92.3323	11.2056		-30.3934
-91.6532	10.5972		-27.8261
-83.3246	-10.6783		-7.46998
-83.3076	-4.96188		-8.17599
-83.3394	-14.2408		-6.68859
-82.6187	-9.99692		-6.11944
-78.7282	-26.1558		0.00620546
-79.4404	-21.7399		0.444258
-77.8453	-30.0353		-0.315701
-77.7561	-26.6171		2.81063
-82.7491	-21.1452		-9.1395
-82.8896	-19.1722		-9.25948
-83.0863	-23.2276		-9.67194
-80.101	8.77683		-16.3952
-80.273	8.77816		-16.2291
-80.1462	9.92677		-19.8889
-87.9774	16.2186		-17.1262
-88.9975	17.9014		-20.2572
-88.7499	15.5249		-16.117
-86.7452	13.3061		-14.5438
-87.1351	16.5985		-18.3032
-88.6154	18.515		-25.211
-87.6235	18.2293		-22.2131
-87.7948	17.4418		-26.5748
-89.0433	17.1733		-28.8789
-88.8908	18.6497		-24.7381
-90.7695	3.84403		-39.4395
-91.833	4.09879		-38.902
-90.971	9.81442		-36.5585
-89.9309	3.34193		-39.6597
-84.2169	-0.219359		-8.67479
-84.4341	-1.5514		-9.37517
-93.5705	3.21637		-36.275
-94.0402	8.41479		-34.0436
-93.6249	3.124		-36.6604
-93.2369	0.385841		-36.491
-91.3351	13.7764		-22.9361
-90.346	13.2405		-18.9781
-91.4338	14.7802		-22.3321
-91.1186	12.3986		-23.6588
-85.4687	0.404849		-11.5651
-86.0683	2.77409		-12.3289
-84.8808	-1.39483		-10.9536
-91.9472	3.24412		-33.5924
-93.1827	1.83355		-35.4147
-83.5207	-6.49833		-12.7217
-84.0459	-4.85189		-11.6747
-83.6542	-6.21957		-13.4362
-88.268	-5.87737		-26.8332
-90.4904	-3.10925		-28.7225
-88.1776	-6.93894		-26.9772
-87.8809	-5.3975		-26.2059
-80.17	-17.6974		0.258581
-79.2938	-17.8537		2.90166
-80.9472	-13.2054		-0.626021
-82.7309	0.0716336		-39.2928
-83.7694	2.64233		-38.3119
-82.7106	4.84544		-37.2207
-81.8041	-0.421669		-40.404
-86.0935	7.67745		-35.6174
-86.4144	3.71584		-38.565
-88.5821	12.446		-33.7736
-85.9757	11.5485		-32.4106
-88.8182	2.33603		-39.6499
-87.4761	-3.43603		-40.5798
-87.0418	-8.52148		-40.1567
-81.1693	-24.2856		-34.7017
-81.3747	-20.9199		-36.5109
-81.508	-27.2239		-32.8186
-81.7932	-17.698		-38.1366
-80.2934	-17.8278		-39.1661
-87.6484	-18.3015		-27.1858
-80.4218	-29.9577		-31.2099
-79.245	-33.6194		-28.8454
-77.852	-40.9755		-13.9512
-77.212	-41.272		-13.7389
-76.6468	-41.4762		-13.4179
-76.4501	-41.215		-18.8408
-88.4003	-7.75056		-27.4272
-90.4057	-6.29145		-29.6026
-81.9868	-9.42017		-5.01388
-81.8987	-8.86496		-3.79441
-80.8056	-22.0997		-3.13435
-81.1709	-22.3224		-3.89871
-83.5228	-26.7524		-9.41047
-83.7054	-25.6653		-10.3171
-84.3525	-28.817		-10.8928
-82.9033	-16.9926		-6.06967
-83.1891	-17.1942		-8.30181
-85.7128	13.4054		-29.2482
-84.635	14.0147		-25.9127
-83.1207	9.57542		-32.1299
-82.1355	8.01876		-33.9684
-81.5163	10.1439		-29.661
-81.7469	7.72824		-35.0026
-91.0101	4.21488		-28.532
-90.7888	2.67719		-28.1794
-84.0543	-5.5673		-14.9762
-85.542	-4.17757		-17.6437
-87.8475	-4.57914		-25.7262
-87.2956	-4.52037		-24.3277
-89.8434	-0.846141		-26.952
-6.25314	85.2867		65.3357
-6.58919	92.8586		57.0639
-13.8559	84.201		64.8886
-6.44121	77.6408		70.9018
-5.3809	70.188		75.1194
-12.5204	70.1087		74.7683
-5.1143	62.3238		79.2929
-27.7736	55.0147		78.6094
-22.478	56.2965		80.111
-27.8447	51.4912		80.9213
-4.4147	-24.8668		103.922
-6.38474	-24.9224		102.589
-4.59907	-23.4997		105.944
-5.0306	-14.4412		111.14
-5.04749	-16.1694		111.24
-4.9115	-12.608		110.578
-7.34859	-14.5718		110.056
-5.02747	-17.96		110.789
-5.01057	-19.7624		109.71
-4.70039	-29.6018		97.996
-4.92402	-37.5647		96.9728
-7.26683	-37.4722		96.5121
-4.87553	-21.6795		108.062
-6.9877	-21.7518		106.747
-4.66585	-10.6004		109.517
-4.29754	-8.13022		107.627
-6.924	-10.9577		108.588
-4.99917	46.0488		85.6049
-5.41914	49.7534		84.4253
-11.5762	47.074		84.3574
-4.60897	42.9784		85.7819
-3.2813	18.4364		85.2246
-3.34443	20.6288		84.1631
-3.41294	16.0833		86.6658
-3.40083	22.7709		83.5382
-3.50235	24.8598		83.2197
-5.2246	21.9713		83.0098
-3.27343	-51.3968		92.512
-3.06131	-52.2719		93.6774
-3.63309	-50.2571		91.6849
-3.04222	-52.4082		94.6489
-3.28175	-52.2735		95.3216
-5.35776	-52.4465		94.3281
-4.68435	-49.8141		97.7903
-4.37339	-50.7767		97.1509
-3.7229	-51.6242		96.3953
-5.48139	-45.6784		98.4623
-3.77688	-47.8498		90.3743
-3.87755	-44.2942		88.5739
-20.2997	82.8782		64.0143
-20.8361	90.0621		55.9538
-25.9818	81.3074		62.8599
-19.8439	76.095		69.113
-16.9687	48.9679		84.3755
-17.43	51.2581		83.9928
-22.7903	50.131		83.4274
-17.314	45.8529		84.3792
-18.5839	43.5992		83.9065
-20.6983	40.8007		82.6037
-24.0789	44.4434		82.8443
-21.6528	38.8187		81.8365
-25.2995	39.319		81.5418
-17.0833	37.2569		82.1928
-25.6007	25.4191		74.2308
-28.7014	25.9267		74.4977
-23.5441	25.0876		73.7648
-24.8008	26.87		75.2002
-27.737	23.8544		73.2814
-23.9159	28.9706		76.6176
-20.9225	27.9901		76.4392
-27.0264	29.2013		76.4844
-44.4025	86.1756		40.4019
-43.7028	80.2172		47.1037
-38.7558	89.8193		43.0309
-46.0425	91.9409		30.4476
-31.2537	79.5971		61.0707
-36.8098	77.3477		58.4242
-32.1168	85.8926		53.2195
-27.8564	49.6159		81.6362
-32.1714	47.919		80.7326
-27.9345	46.5405		82.1371
-29.4737	39.0416		80.9474
-28.9223	41.4986		81.6139
-28.1428	44.2506		82.0749
-29.8825	29.013		76.1882
-33.5687	28.3085		75.4472
-30.8397	27.1407		75.0918
-42.3966	74.8495		54.3913
-41.6516	69.1086		59.3175
-48.6731	71.896		48.9944
-36.8536	45.9987		76.0021
-41.4961	43.8053		72.3967
-37.4442	24.8801		73.0635
-40.0826	23.93		71.668
-34.9173	25.5543		73.9116
-37.4522	26.1892		73.7355
-37.0556	32.391		76.0423
-40.4174	31.5643		74.3013
-36.9248	30.0216		75.2939
-37.1288	27.8412		74.5079
-40.717	63.431		63.6772
-46.839	60.7347		58.8918
-54.5702	69.5434		41.2962
-59.4768	67.5356		32.6389
-53.6247	63.9881		47.7323
-42.3298	21.4671		69.4232
-43.9932	20.3376		67.5577
-43.4004	22.894		69.9122
-45.1225	21.4773		67.8777
-42.5976	22.0276		69.7041
-43.8196	29.7653		71.7644
-48.1802	26.187		67.6598
-16.4569	31.2756		79.6185
-14.7167	32.7965		81.0015
-17.399	28.9991		77.9653
-14.1418	28.6939		78.8216
-13.0289	34.6788		82.1934
-11.5655	32.0527		81.6362
-18.9915	26.5634		75.7554
-20.2242	24.7407		74.0887
-3.54139	39.5962		85.5713
-65.2704	-65.6481		-5.71964
-65.4114	-66.0613		-12.3594
-66.9422	-60.3624		-3.96919
-78.3535	22.3748		-37.1552
-79.5189	16.6034		-31.9171
-78.7657	24.6943		-29.0095
-77.292	28.0833		-42.0355
-78.064	18.4356		-42.8686
-76.5244	-7.90897		-52.4635
-77.2489	-2.24333		-52.6098
-74.3366	-8.07378		-58.1998
-75.4838	-13.9881		-50.8832
-77.8253	4.10161		-52.1663
-79.831	2.01687		-45.8549
-78.5101	9.78669		-50.2608
-75.8877	5.89073		-58.7301
-72.3432	-31.4498		-44.7044
-72.5775	-25.8793		-46.755
-69.0621	-34.8729		-48.6764
-5.66167	55.5941		82.3639
-11.9998	55.7251		81.7506
-17.5148	56.3814		81.1715
-18.0424	62.6212		77.8833
-20.0791	-103.211		58.0088
-14.4699	-105.335		59.5287
-26.145	-100.725		52.9398
-17.8123	-105.664		48.5918
-45.5212	-85.3457		47.5437
-46.5251	-82.6183		51.7657
-49.7542	-81.9197		42.6566
-39.8061	-90.1175		52.4534
-53.0307	57.9983		52.4376
-58.4842	54.9753		44.8517
-18.4527	69.5251		73.6706
-64.4409	65.6151		23.9746
-64.1164	58.687		28.8537
-69.1806	64.2105		14.0943
-21.2122	98.1038		46.9512
-14.4092	99.8599		47.517
-21.8841	105.858		35.3658
-27.3771	95.7271		46.2755
-62.1211	37.5624		44.6561
-63.0194	44.6074		40.3489
-46.6459	20.2656		65.8827
-54.1908	25.1684		60.5637
-52.6048	23.975		61.9681
-55.6307	20.6436		57.0867
-51.2355	22.9368		63.1821
-2.11996	-117.993		39.4502
-56.9951	-70.4474		43.6562
-55.6139	-74.5948		39.6488
-51.957	-74.3331		51.6577
-57.9381	-65.964		46.6912
-9.4154	-42.0141		97.4152
-9.32591	-39.8366		96.5696
-11.1748	-42.3912		96.9486
-24.8021	-49.053		89.0943
-22.3217	-47.0023		91.2564
-24.4726	-45.2462		89.3498
-12.7026	-38.4891		95.0252
-11.9327	-36.1093		94.6088
-15.2202	-39.0811		93.8436
-13.3691	-40.7788		95.4027
-10.4019	-37.8979		95.7389
-32.0399	-52.9293		84.353
-32.5963	-48.9779		84.6594
-34.0243	-53.7761		82.9853
-31.0699	-56.2927		83.5857
-61.8787	16.0553		49.4441
-63.4049	16.0118		46.0798
-63.4059	10.693		49.5094
-59.5434	16.3751		52.4204
-65.6375	16.5234		41.9469
-67.9594	16.24		36.2857
-50.1492	17.5972		61.8774
-50.4704	15.941		61.2764
-57.7432	16.8042		54.8708
-80.6199	8.44408		-37.0456
-80.6622	10.9514		-33.0718
-79.3367	10.5222		-41.1273
-80.6	4.64921		-40.178
-78.6137	-17.9601		-41.1632
-76.7797	-18.277		-44.3189
-69.6614	-52.555		-14.9992
-72.0776	-48.7414		-22.0167
-67.5381	-58.2439		-17.2455
-69.0873	-54.5834		-8.61884
-71.8116	-48.1712		-13.1023
-80.3649	-0.0266476		-42.181
-76.9269	-27.4639		6.07523
-75.8088	-28.3222		10.5369
-77.7332	-22.8983		6.25764
-75.8839	-31.8138		5.62804
-73.357	-0.355883		29.9951
-75.622	-1.77201		21.3658
-73.0804	-7.77456		31.5492
-72.9165	7.50116		28.3083
-53.6746	12.4193		59.5191
