1843
-61.2461	-95.8421		-32.2088
-75.8045	-35.1407		-1.77088
-62.4689	-79.753		-31.0407
-54.4726	-107.159		-49.7226
-54.8771	-124.264		-52.2553
-25.9933	-153.693		22.6535
-23.973	-140.45		27.7739
-24.5077	-109.373		41.1832
-21.2809	-119.519		35.4167
-29.2224	-60.516		81.4889
-19.9672	-56.9643		85.8489
-20.0249	-58.911		84.5687
-16.1752	-155.478		26.9475
-19.1507	-66.5474		83.2521
-77.1038	53.7727		-1.20741
-49.0784	-81.485		-58.2902
-47.8297	-102.693		-60.5166
-55.6395	-87.1992		-46.2535
-47.8978	-120.51		-63.146
-57.9091	-66.1662		-46.294
-16.0882	118.938		4.96163
-30.0315	114.031		5.44953
-15.4634	111.609		-64.8046
-14.1623	91.4568		-93.4421
-28.3612	88.7889		-89.5347
-30.1722	107.789		-61.6324
-14.0904	66.0417		-109.425
-27.1731	64.0517		-106.418
-30.2702	116.344		-27.9864
-15.6062	121.138		-30.023
-13.5352	39.6604		-117.698
-26.3966	37.6067		-115.468
-11.5363	12.0232		-121.016
-24.9415	10.0421		-117.067
-22.687	-15.8863		-111.243
-10.7857	-14.3604		-115.297
-10.0377	-39.0404		-101.138
-20.9552	-39.3964		-98.6882
-9.01772	-75.4505		-84.6297
-8.75408	-94.5097		-82.9483
-18.8143	-95.6643		-81.1826
-19.7892	-76.7683		-82.2243
-8.92031	-113.614		-82.1172
-19.0011	-114.165		-80.756
-10.3283	-55.6669		-90.1445
-21.2186	-57.3791		-87.7152
-43.0847	106.082		5.31493
-54.93	95.542		3.5703
-52.4979	77.1924		-76.4848
-41.3015	84.0567		-83.5107
-40.4557	60.2586		-100.56
-51.7143	55.5046		-92.2615
-54.0431	92.3272		-51.8482
-42.6644	101.537		-57.2006
-55.7022	97.4272		-24.7079
-43.7696	108.339		-26.2383
-50.2783	31.4162		-100.702
-39.3621	34.5166		-108.8
-37.3491	8.35292		-110.647
-48.5144	6.21418		-101.896
-44.12	-17.4858		-97.922
-34.5431	-17.1942		-105.009
-32.7706	-40.6734		-92.8628
-43.1408	-40.6355		-84.8939
-32.2239	-59.1249		-82.1283
-38.8932	-98.8371		-70.3906
-40.7359	-78.7042		-68.9844
-30.8379	-77.9509		-77.0126
-29.1456	-97.2775		-77.215
-29.5997	-115.493		-77.4863
-64.1027	80.4415		-44.9982
-61.9697	68.6576		-67.4156
-70.1717	57.9826		-55.9195
-72.3371	66.4291		-35.2059
-73.2339	69.0957		-12.2998
-65.5385	84.1988		-20.7316
-58.6911	27.4419		-90.8366
-60.9636	49.6858		-82.7613
-53.2373	-17.8448		-87.9196
-56.717	4.59833		-91.9402
-51.0404	-38.626		-77.0412
-73.4104	33.1209		-60.0269
-61.0875	-17.5933		-76.8704
-66.8778	-16.3045		-66.7758
-70.0137	0.692786		-70.1818
-63.9752	2.63135		-81.4986
-71.6967	17.2494		-68.851
-65.8003	22.8007		-80.6198
-68.5845	42.4158		-70.5372
-60.2029	-47.3282		-53.2293
-62.9922	-31.699		-60.7616
-57.2265	-35.713		-68.9139
-93.2328	9.51352		-35.3747
-91.448	10.1702		-36.5531
-92.6838	18.2474		-29.2588
-90.8198	19.2951		-30.3652
-88.55	14.3887		-14.9378
-86.7534	15.2523		-16.8605
-84.5958	14.6467		-19.737
-89.6409	8.6343		-37.6597
-89.6271	17.8992		-31.6772
-92.5584	-2.3077		-37.9752
-92.4164	17.5829		-20.1146
-93.2398	16.5189		-28.1192
-39.114	-117.165		-72.1255
18.2142	-102.853		76.0604
15.0035	-104.101		73.1006
20.9933	-102.038		72.5293
18.8444	-101.419		78.3014
68.2506	-8.33806		47.4786
64.3089	-8.77711		52.9451
68.6124	-11.37		46.5183
69.4513	-4.19516		43.7277
64.153	-6.01211		55.8682
64.2759	-1.45081		54.3064
61.4058	-7.61246		59.2857
11.6279	37.8011		82.9357
14.0264	36.8167		82.4796
15.198	40.7569		82.9342
8.87628	39.0934		85.3518
9.06319	34.5019		83.9038
9.14102	18.3135		79.1592
9.85267	17.2081		78.7324
9.59499	19.8943		78.4827
8.54865	18.8247		79.6672
12.7692	18.5108		75.5275
14.4206	16.9425		73.8723
13.3075	20.181		75.1901
11.2499	20.3889		76.9967
12.3032	16.8927		76.1896
42.6391	14.4993		66.6329
39.6347	13.0921		68.1866
44.2674	15.6674		65.5285
16.0711	11.155		74.915
15.7718	12.1898		74.5743
15.6654	10.2695		75.8242
18.4983	11.0508		71.4003
29.8743	-55.0365		79.182
29.7499	-54.9102		79.4472
29.9809	-55.1569		78.7448
29.7678	-54.9753		79.5051
28.5815	-54.0227		81.5978
28.9385	-54.5036		80.3459
29.6741	-54.2704		80.5404
28.6832	-53.4288		82.2335
26.7197	-53.8421		83.3027
33.1315	-54.9661		79.521
32.8652	-52.4473		80.7414
30.2506	-55.2934		77.9863
29.8134	-54.6254		78.5298
30.7163	-55.353		76.6282
30.0692	-55.6536		78.283
25.2471	-60.6815		85.008
25.7162	-61.5176		84.681
28.014	-57.5338		81.8852
25.1406	-59.9473		84.9955
22.6756	-64.338		87.9127
22.2877	-48.9104		89.6401
21.9694	-47.2796		90.0104
19.3977	-47.1975		91.7535
22.5749	-49.7412		89.2101
24.617	-51.0013		87.21
28.9681	-55.1231		80.2566
29.0496	-55.1508		80.2494
29.1079	-55.1022		80.1423
27.3015	-55.4502		81.2863
80.4419	-35.3573		-8.31174
79.8809	-35.7588		-7.53827
79.985	-38.7169		-11.2481
81.0606	-34.3778		-8.26217
87.2578	-26.0657		-20.3049
87.7571	-25.1129		-21.5661
86.1812	-24.053		-19.8781
86.9578	-26.6776		-18.6907
87.5557	-26.7416		-21.8851
83.6038	-32.2749		-10.0536
83.733	-29.6377		-9.34608
82.9735	-32.543		-9.36443
84.9067	-32.2302		-13.9614
82.5679	-19.3271		-14.461
82.4627	-18.5063		-14.8586
82.5179	-17.7977		-13.8259
82.8929	-19.7848		-13.2367
83.0558	-20.807		-14.8944
87.8685	-0.745629		-13.9874
87.2996	-2.74783		-14.7271
88.1487	0.0211057		-14.4995
87.9361	-0.172586		-13.0528
91.0576	10.3217		-18.687
91.0996	10.9209		-17.6885
90.727	9.48024		-18.6104
92.139	11.4745		-21.7664
84.8125	-18.6088		-19.1292
83.873	-17.3393		-17.4589
84.3624	-21.5798		-17.7036
87.0074	-21.6042		-21.9212
87.0947	-16.2025		-22.9319
89.6756	0.829356		-20.5625
90.0287	2.13206		-21.1336
88.4965	0.161228		-16.5719
89.5397	-0.640095		-21.5272
92.7063	-10.2953		-31.8999
92.5998	-10.1029		-31.3112
91.8715	-13.4091		-31.4983
93.0865	-9.05483		-33.0888
93.4433	-7.41673		-34.7618
93.6254	-5.09887		-33.9393
93.3493	-8.10803		-35.8135
93.6825	-4.09924		-36.4667
88.2009	-23.4901		-23.4703
88.6414	-21.5159		-24.9113
88.6249	-24.5358		-24.2637
90.3737	-9.78313		-27.7865
89.3445	-11.7998		-26.6334
91.641	-10.0893		-29.6289
90.4003	-8.44506		-27.5173
81.9604	-27.3878		-6.10816
82.0053	-29.6466		-6.84246
82.5662	-26.9686		-6.93966
81.7249	-26.611		-5.46601
81.6299	-24.9841		-4.70975
81.9696	-23.0155		-4.66808
81.2202	-25.1958		-3.80962
83.1461	-15.9692		-4.88031
82.8798	-16.5416		-4.45976
83.4658	-16.2779		-5.74762
83.5969	-12.9283		-4.98938
82.5405	-17.3925		-3.98759
82.2073	-17.2699		-3.11733
82.359	-19.6907		-4.32204
84.5167	-22.6227		-17.1
84.4609	-23.3912		-15.8151
84.2747	-12.0778		-12.3736
83.1703	-15.5042		-12.7755
84.1591	-12.5743		-13.8761
85.4207	-7.93724		-13.0856
84.6929	-10.9594		-11.1467
93.4358	6.39975		-30.852
93.5701	7.12936		-31.1697
93.3129	5.99599		-30.2924
93.6719	5.23951		-32.5973
93.7012	1.65678		-33.4335
93.5489	0.424407		-31.7821
93.7452	-0.139605		-34.1539
93.7953	2.9632		-34.2465
93.5175	3.42272		-31.483
90.545	8.88731		-18.7823
91.3347	8.98676		-21.5446
90.0109	8.00552		-17.7454
92.2494	8.84241		-24.8109
91.8745	7.78901		-24.1119
93.292	8.54973		-28.9081
92.7734	10.119		-25.6694
38.2896	23.9601		71.8098
40.5074	22.915		70.8621
35.5783	24.711		72.3065
25.1514	-100.741		67.7202
24.15	-101.62		64.6542
28.2179	-99.38		66.4265
45.1879	18.8504		66.5889
44.266	20.455		67.9349
46.0448	17.5694		65.4484
49.8471	21.1346		65.0823
52.4431	22.6184		63.4347
49.0366	23.6241		66.7794
47.5071	20.1655		66.0734
50.1754	18.7091		63.4073
74.2312	-47.643		-4.26873
74.9385	-46.2453		-8.42631
74.6061	-46.2277		-3.03481
73.3187	-49.9964		-4.33501
17.7701	16.0822		71.1071
18.1851	15.4373		70.9355
17.8049	16.9831		71.2048
16.7928	18.5708		72.1535
17.9894	20.2895		72.4946
16.5916	17.1816		71.9758
7.82874	20.1706		80.1844
7.11505	20.2176		80.8406
7.75378	22.2705		80.1051
22.8436	-54.9676		85.1775
23.6612	-55.3036		83.7203
23.2185	-54.4469		85.5979
19.6327	-55		87.7201
66.204	-69.621		-8.33069
65.4405	-69.5036		-2.83031
64.5337	-72.0551		-9.30724
67.1307	-67.1222		-8.9704
81.5533	-4.97493		0.967716
80.6404	-12.2144		3.41443
82.3681	-5.71765		-1.68356
82.2175	2.79774		-2.13451
80.5109	-3.96271		5.39986
65.5543	-72.4728		-20.8403
65.0132	-74.5603		-22.3735
66.3144	-68.2105		-21.3719
64.8937	-74.6346		-16.0957
62.5339	-107.853		-26.4981
62.6754	-117.125		-26.6582
60.7977	-104.238		-35.2123
62.082	-99.0043		-25.2331
62.4674	-110.156		-21.4976
29.2986	-55.5116		80.2914
29.4698	-55.6183		80.3415
27.6016	-56.3282		81.726
29.711	-55.8431		80.288
24.8572	-59.5979		85.222
24.9678	-58.7289		84.8564
22.3003	-62.7621		88.1532
30.0575	-97.7868		66.4125
34.1012	-95.192		61.4586
29.8351	-96.2393		69.6537
48.9555	-60.2563		-65.7494
47.7712	-56.4194		-70.4992
51.5835	-59.2765		-61.5803
48.0095	-63.3637		-65.1199
56.2225	80.3103		35.5904
58.0525	82.2602		28.6499
52.2326	83.5353		38.2162
57.0283	76.2991		38.6175
89.9409	-20.1794		-32.2618
91.2949	-14.9263		-35.5914
90.4699	-19.391		-31.2506
88.7672	-24.4135		-29.5126
89.3161	-20.2217		-33.4941
86.3009	0.633719		-8.08826
85.5016	-3.65669		-7.02115
86.1085	0.320452		-9.18639
86.0441	4.90405		-10.3819
84.9893	0.927379		-7.3614
83.8461	-20.4867		-8.06781
83.4043	-21.1438		-6.98709
84.2138	-23.0301		-9.34269
84.1644	-20.696		-9.5931
83.8649	-18.8071		-7.72117
83.6486	-26.9277		-8.58407
83.2287	-24.1208		-7.30348
84.1494	-25.5495		-11.7594
92.421	-9.09547		-38.2516
91.6412	-9.09102		-39.0633
93.0033	-2.65313		-40.0103
92.8951	-9.1055		-37.395
90.6183	-8.95642		-39.7267
89.7021	-14.5845		-37.5418
89.5658	-8.71603		-40.1029
91.0515	-2.6652		-41.2824
83.7452	4.92046		-8.34294
83.0484	7.11788		-11.1342
83.5518	5.89385		-8.05266
83.9041	3.2683		-7.48974
86.6359	-18.3488		-36.4391
84.952	-17.7812		-37.2008
87.3204	-13.7633		-38.6957
87.6966	-18.9578		-35.7481
85.4889	-22.3333		-34.3395
88.782	-25.5816		-25.0441
89.3703	-22.7595		-27.1053
88.4096	-27.417		-23.0531
88.6406	-26.5052		-26.2417
86.4486	-32.5482		-25.3642
86.1291	-34.3247		-22.8404
85.2616	-33.8821		-26.5824
87.1177	-30.3246		-26.6585
87.8007	-29.8561		-24.0056
87.3785	-30.9023		-19.0636
86.9857	-32.5304		-19.5489
87.7128	-29.8502		-20.3689
86.9676	-30.252		-17.7051
77.58	-41.9562		-13.5186
77.0835	-42.837		-13.9624
78.6065	-40.342		-15.9624
77.6401	-41.0561		-9.25336
82.4857	-37.5166		-16.104
82.8035	-38.2091		-18.4634
83.919	-36.0424		-15.9474
82.1056	-35.7341		-13.1416
81.4495	-38.5034		-15.9251
88.8352	7.29452		-11.642
88.8458	8.67898		-11.7455
87.4876	3.67982		-10.7508
89.1254	7.25278		-11.9798
88.8767	9.62273		-12.0014
90.0522	12.7725		-13.9519
88.457	9.54757		-11.9813
93.1277	-8.93881		-36.6577
92.1031	-13.7034		-33.915
93.7197	-3.12516		-38.4754
94.1739	5.57547		-35.5778
93.976	4.60208		-35.3554
94.2842	4.92532		-36.4525
94.1778	7.16551		-34.0807
89.792	8.23193		-13.7823
89.666	7.99838		-13.255
89.3472	6.70641		-14.0864
90.2377	9.72483		-14.74
89.3284	7.14454		-12.3869
88.5582	3.99334		-12.2348
90.2928	11.2945		-13.8561
92.3397	-10.0776		-30.7391
93.1318	-7.02148		-31.3237
91.0028	-13.6089		-29.6886
89.0433	5.06867		-15.4209
89.403	6.71749		-16.135
88.9668	4.92287		-14.9756
89.2788	4.18396		-17.2028
89.7602	7.45795		-17.2951
90.2084	7.04637		-19.3321
88.4654	-15.1265		-25.2429
89.0649	-16.8871		-26.3275
84.89	-10.1298		-9.95815
86.0346	-5.29736		-10.8274
84.7261	-10.1637		-8.9106
83.7212	-14.4055		-10.7571
88.2908	0.479069		-14.8413
88.6073	2.4522		-14.4239
53.2974	-57.2023		-59.7573
53.5706	-52.6632		-62.7584
54.6917	-57.4025		-57.0757
28.51	-25.3928		81.4966
29.4618	-29.6394		82.0532
29.1527	-23.7872		81.0589
26.941	-24.8188		81.7795
24.27	-22.7974		83.5082
24.6477	-23.9126		83.0991
24.6454	-19.9172		83.6893
23.0078	-23.1985		84.6854
52.3007	38.0731		67.3901
52.2633	36.2573		67.2473
57.221	33.965		62.0933
52.474	39.6756		66.7676
46.7703	40.5965		71.6221
9.77532	-27.5957		91.8422
8.86583	-27.1139		92.8048
9.48748	-28.2869		91.6987
11.3836	-27.5675		91.057
11.2052	-24.4825		94.5438
9.31054	-25.0699		95.1097
12.9488	-25.0894		92.571
11.8834	-23.278		95.4146
44.8234	16.4573		65.4213
44.5029	17.1208		65.7997
18.3657	-16.1311		93.3265
18.5504	-17.0338		93.2938
18.9338	-16.0251		92.6331
16.8481	-15.5018		94.8046
84.3778	-26.052		-32.5793
83.3926	-28.349		-31.4031
83.081	-24.4921		-33.9356
85.4025	-27.1775		-31.4983
66.03	77.1081		16.0599
63.5984	80.6442		17.1922
66.829	72.545		20.6833
68.0081	77.7931		6.67462
30.89	-61.0202		75.5134
31.3801	-59.1435		74.8013
30.8055	-62.4276		75.1972
29.989	-60.7574		76.7843
30.44	-50.455		75.2654
29.3334	-50.5923		76.5758
30.1464	-49.5693		75.0459
31.1409	-52.1084		74.8128
-17.9365	-103.758		72.6314
-18.2943	-102.547		74.6274
-20.5553	-103.122		69.6691
-14.9575	-104.801		72.8335
-69.0543	-7.00472		48.3343
-70.3762	-3.08563		44.7223
-69.2536	-10.3226		47.5726
-66.7329	-5.81651		53.2758
-64.4661	-3.99875		56.2241
-61.5131	-5.3418		59.7961
-64.4209	0.375674		55.1619
-10.8415	39.6939		83.8956
-12.4627	37.7957		83.2005
-8.72783	35.9887		83.1708
-8.62988	40.5336		84.2601
-13.9068	42.3722		83.8064
-8.82679	18.7873		79.1271
-8.3349	19.1814		79.5791
-9.081	20.3737		78.4987
-9.36994	17.6888		78.9009
-11.8391	19.3782		76.0079
-13.7646	17.9892		74.324
-11.3513	17.7123		76.7482
-10.4831	21.0745		77.184
-12.5881	21.2082		75.5056
-43.4611	14.5506		68.9275
-40.2693	13.1567		70.8272
-45.2339	15.8324		67.6805
-15.0079	11.782		75.772
-16.4954	10.9179		75.1566
-14.6146	10.8532		76.7818
-14.7742	12.9303		75.3313
-29.3367	-54.7909		79.4569
-29.2187	-54.6743		79.7157
-29.2391	-54.7428		79.77
-29.4315	-54.8926		79.0408
-28.0532	-53.6999		82.0778
-29.2766	-54.0325		80.9452
-26.3098	-53.5807		83.6983
-28.1505	-53.2621		82.6583
-32.3974	-52.233		80.9538
-29.6856	-55.0933		78.1973
-29.5177	-55.3813		78.5759
-30.1702	-55.0966		76.7884
-29.2564	-54.3587		78.8318
-24.915	-60.8456		85.4059
-25.3675	-61.496		85.0417
-22.2637	-64.0956		88.3427
-24.7703	-59.9914		85.4137
-27.4518	-57.192		82.1923
-21.8311	-48.4221		90.318
-21.2964	-47.0526		90.872
-24.3802	-50.2905		87.7907
-22.1481	-49.2954		89.9524
-18.6622	-47.0104		92.6943
-28.4093	-54.8687		80.6958
-26.8018	-55.1324		81.8173
-28.5558	-54.8535		80.5565
-28.4984	-54.8956		80.6778
-78.5847	-34.4087		-7.58467
-79.3089	-33.4647		-7.51437
-78.0013	-37.7316		-10.6481
-77.9612	-34.7171		-6.78319
-86.9413	-24.6969		-21.7188
-87.2408	-22.8536		-24.1928
-87.2	-25.9553		-22.2713
-86.3985	-25.8083		-19.4889
-85.7626	-23.0945		-20.6472
-82.1308	-31.2832		-10.2371
-82.9381	-32.359		-12.5182
-81.8943	-31.5143		-9.09865
-81.8765	-28.6347		-9.8366
-82.3959	-18.7848		-14.8567
-82.3726	-17.7544		-15.8189
-82.8221	-20.2928		-15.454
-82.6365	-19.3447		-13.5956
-82.2995	-17.0939		-14.5763
-86.6186	0.561992		-14.4664
-86.7233	1.11893		-13.6232
-86.8828	1.41157		-15.1176
-87.0668	-1.46913		-16.3178
-90.4512	11.5192		-19.5786
-90.2858	12.0643		-18.453
-91.2315	12.9417		-23.1104
-89.9202	10.5238		-19.3555
-84.9538	-9.37662		-19.5791
-87.0709	-5.34528		-22.7351
-84.2307	-11.7051		-19.9004
-84.0854	-10.6923		-16.4867
-85.925	-5.84911		-18.4884
-89.8252	4.8715		-22.6879
-89.3654	3.38181		-22.4359
-87.8797	5.29296		-17.7293
-90.459	6.46855		-23.5957
-91.2205	4.50856		-27.3833
-81.2004	-27.7911		-32.7035
-82.0636	-27.2898		-32.6141
-80.0868	-27.3973		-33.4698
-81.1017	-29.8487		-31.404
-91.604	-9.35048		-32.7541
-91.9881	-8.18534		-33.7253
-90.8177	-12.4584		-32.3611
-91.5091	-9.14919		-32.2097
-92.2441	-6.63914		-35.2848
-92.4281	-4.42309		-34.2584
-92.472	-3.53528		-36.5532
-92.149	-7.33084		-36.3344
-87.5857	-21.1154		-26.14
-87.9319	-18.7856		-27.7614
-87.9086	-22.0447		-26.8505
-86.6824	-19.3872		-24.6296
-89.6226	-7.60121		-29.9298
-88.635	-9.63472		-28.7498
-89.6459	-6.35907		-29.6435
-90.5668	-9.18006		-30.4993
-87.8843	-12.7		-28.0178
-88.3741	-14.3062		-29.0058
-86.8193	-13.9581		-25.7503
-80.103	-26.4257		-5.39438
-79.8091	-25.678		-4.75541
-80.4785	-25.9915		-6.79147
-80.3208	-28.6637		-6.20659
-79.7135	-24.0618		-3.99482
-79.3088	-24.2647		-3.11654
-79.7634	-22.1098		-5.17866
-81.6354	-14.9285		-6.55766
-82.1461	-11.7399		-6.71971
-81.9559	-15.2317		-7.41238
-81.3785	-15.4485		-6.14137
-80.9925	-16.3671		-5.51769
-80.5959	-18.6115		-5.71116
-80.5499	-16.2448		-4.50313
-84.1486	-21.6023		-18.0929
-84.0966	-19.9382		-19.3987
-84.0835	-22.6091		-16.3689
-84.1326	-10.0754		-14.8804
-83.1164	-13.8381		-14.699
-84.5275	-9.03482		-13.7023
-85.2663	-6.34899		-15.1293
-82.5961	-15.7771		-14.2089
-82.7718	-15.6669		-13.294
-92.1161	6.90621		-30.3953
-92.383	5.71482		-32.1429
-91.9755	6.46842		-29.8444
-92.247	7.65167		-30.6829
-92.4712	2.06902		-33.0952
-92.3179	0.963637		-31.7043
-92.222	3.86896		-31.1435
-92.4688	3.34753		-33.7968
-92.5188	0.361551		-34.0039
-89.752	9.90091		-19.6199
-88.872	9.12341		-18.4117
-91.007	10.1543		-22.5336
-92.0023	10.0309		-25.7014
-91.6338	9.0068		-25.0772
-92.2589	11.5007		-26.4878
-92.4493	9.79965		-29.4156
-91.0201	7.76842		-24.3597
-91.7855	7.47216		-28.2164
-89.4237	8.15128		-20.2246
-38.8788	24.4868		74.4411
-36.3687	25.2328		75.0144
-41.1708	23.3972		73.3956
-24.5694	-102.089		65.2701
-26.9513	-100.62		65.0174
-23.5873	-102.921		62.1034
-46.0002	19.1672		68.758
-46.9441	17.7977		67.4271
-44.783	20.6981		70.3526
-49.9552	22.0046		67.801
-48.6344	24.6894		69.9419
-52.2132	23.1886		66.6061
-50.2571	18.9964		66.127
-48.042	20.7394		68.5011
-72.3874	-46.4092		-3.63767
-71.6663	-48.5626		-4.07027
-72.7602	-44.9837		-2.30078
-73.2955	-44.8147		-8.01114
-18.8086	17.3732		70.8971
-19.0943	16.6582		70.7545
-19.0193	18.209		71.0091
-17.3351	19.8203		72.1765
-18.6608	21.4305		72.6275
-16.8241	18.4466		72.132
-7.76109	20.4687		80.0042
-7.77829	22.6704		79.7661
-7.25347	20.541		80.5426
-22.4379	-54.6918		85.6575
-19.3469	-54.5011		88.2696
-22.82	-54.1407		86.118
-23.1251	-55.0515		84.3878
-64.821	-68.2705		-8.96159
-65.6696	-65.7179		-9.52437
-64.2582	-71.0216		-10.9423
-64.2288	-68.0631		-3.35081
-80.1928	-4.17275		-0.786608
-79.0524	-11.3214		1.93578
-79.1882	-3.1705		3.74104
-81.1058	2.48883		-1.36951
-81.017	-4.69583		-3.48499
-64.9733	-71.451		-21.8427
-64.4247	-73.8216		-17.1781
-65.7351	-67.3145		-22.393
-64.3799	-73.8604		-23.3617
-62.8943	-108.851		-25.027
-62.8813	-117.467		-26.4622
-61.8497	-110.674		-20.8061
-62.7444	-99.2986		-25.0069
-61.1506	-105.256		-32.7679
-28.7573	-55.2587		80.71
-27.0612	-56.1241		82.2061
-28.5945	-55.1217		80.7577
-28.8975	-55.3902		80.6549
-30.5205	-54.7713		79.8958
-29.7746	-56.1614		80.5604
-24.4633	-59.5907		85.6072
-21.8847	-62.4571		88.6227
-24.497	-58.6684		85.3086
-28.8487	-99.1202		64.834
-29.1283	-97.8052		69.7238
-33.2955	-96.8189		62.1101
-48.6205	-59.9095		-66.808
-47.4587	-63.1449		-66.3387
-51.0453	-58.9735		-62.8849
-47.3741	-56.0725		-71.0428
-56.4195	80.0342		34.2319
-57.3673	75.8469		37.3277
-52.5262	83.2538		37.0124
-58.1417	82.0878		26.6772
-88.8224	-18.9831		-33.652
-90.1763	-14.0477		-36.4045
-88.1904	-19.0114		-34.8767
-87.6707	-23.0741		-31.1628
-89.4395	-18.1941		-32.5396
-84.2805	1.23166		-8.40703
-84.1629	-2.65607		-8.85113
-83.1678	1.19179		-7.10462
-85.0505	5.6674		-10.3613
-85.2863	1.32715		-9.33417
-82.287	-19.3406		-9.75737
-81.7367	-20.0233		-8.48216
-82.3195	-17.6959		-9.39055
-82.6765	-19.5498		-11.3329
-82.7071	-21.8746		-10.993
-81.7958	-25.7147		-9.63867
-81.3281	-22.9736		-8.17718
-82.818	-25.3774		-11.3923
-91.1664	-8.38562		-38.7889
-91.6704	-8.32817		-37.957
-91.8053	-2.22549		-39.78
-90.379	-8.38365		-39.5857
-89.3597	-8.2546		-40.2289
-88.5702	-13.6987		-38.3272
-89.8641	-2.28367		-41.0448
-88.3558	-8.0333		-40.5816
-81.9373	5.28488		-8.62074
-82.1065	3.4917		-7.2266
-81.7585	6.27296		-8.38413
-82.0753	7.74115		-10.8752
-85.4841	-17.2164		-37.7463
-83.7516	-16.6492		-38.5386
-84.3322	-20.9604		-35.9698
-86.4926	-17.785		-37.0961
-86.1825	-12.9185		-39.4784
-87.9693	-23.0662		-27.7698
-88.3104	-21.4321		-28.6803
-87.6045	-25.2768		-27.5835
-87.723	-25.0814		-25.5401
-85.4338	-31.4839		-25.7469
-86.8743	-28.9463		-24.3518
-86.0603	-29.5664		-27.0891
-84.0686	-32.8302		-26.8093
-84.9582	-33.4913		-23.1189
-86.6034	-30.0571		-19.4851
-86.2075	-29.3677		-18.2441
-86.9612	-28.9839		-20.9334
-86.0694	-31.7779		-19.798
-75.582	-40.7974		-13.0965
-75.6191	-39.8836		-8.83128
-76.6903	-39.9432		-14.6829
-75.0254	-41.6932		-13.5834
-81.0039	-37.2355		-14.0227
-80.8048	-38.1761		-17.0563
-79.5682	-38.3303		-14.1819
-81.045	-35.508		-11.1803
-82.1458	-35.9099		-14.6029
-87.5876	8.11624		-11.5451
-87.8835	8.06664		-11.987
-86.3503	4.62698		-10.9107
-87.6199	9.55188		-11.6925
-87.6539	10.4932		-11.9662
-87.2425	10.4061		-11.9193
-88.8005	13.9261		-14.4787
-92.8849	6.06947		-35.0692
-92.9475	7.53544		-33.367
-92.993	5.42089		-35.9436
-92.6878	5.11712		-34.8225
-88.4285	9.23808		-13.9266
-88.9932	10.8969		-15.2553
-88.015	7.6615		-14.234
-88.3599	8.99418		-13.4247
-88.0746	7.99753		-12.4008
-88.9791	12.4255		-14.2391
-87.3187	4.87087		-12.3935
-91.239	-9.16905		-31.5848
-89.99	-12.7057		-30.5723
-91.9428	-6.19144		-31.8218
-88.5185	8.61994		-18.0739
-88.0345	7.7438		-16.3831
-87.5601	6.13038		-15.5677
-87.5743	5.97798		-15.2998
-84.7273	-8.24345		-12.5336
-85.9167	-3.93303		-12.5247
-83.5597	-12.7944		-12.6164
-84.5981	-8.2084		-11.4683
-86.9916	1.83478		-15.5011
-87.2673	3.59468		-14.8739
-87.0214	1.56301		-16.9436
-52.6643	-56.9433		-61.0567
-53.8854	-57.218		-58.1622
-52.991	-52.1541		-64.1103
-28.005	-23.7051		82.1996
-26.2326	-23.2301		82.93
-28.5493	-21.8277		82.0155
-29.5012	-27.5486		82.0973
-23.303	-21.4925		84.9762
-22.2812	-22.2416		86.0284
-23.5274	-18.2046		85.4579
-23.8216	-22.5446		84.3508
-50.9213	39.7884		68.1173
-50.931	38.0112		68.5479
-45.4511	42.2112		71.9519
-51.2732	41.1541		67.2709
-56.1284	34.8837		63.267
-8.86388	-27.1095		95.0113
-9.16266	-26.5517		95.6643
-9.65671	-27.5093		93.8957
-7.63296	-27.5685		95.6726
-9.50406	-25.7645		96.7833
-10.667	-25.2204		96.6446
-8.36375	-25.5989		98.4134
-45.8339	16.6822		67.4899
-45.515	17.4284		67.8441
-18.9246	-16.229		95.4128
-17.7132	-15.6044		96.8943
-19.3403	-16.0418		94.6675
-19.0423	-17.1483		95.2881
-65.8858	76.9639		14.5431
-67.7761	77.5897		5.03806
-66.7117	72.3905		19.0999
-63.4676	80.4954		15.4318
-30.2445	-61.0318		75.6542
-29.4365	-60.6567		76.8578
-30.305	-62.4146		75.1014
-30.8011	-59.0388		74.9967
-30.0833	-49.8938		75.2424
-30.717	-51.6705		74.8005
-29.9346	-48.8744		74.8527
-28.9613	-50.0925		76.6479
-12.3264	-24.6871		96.0523
-13.043	-23.5416		97.0521
-13.6239	-25.2821		93.9899
8.21972	-25.5165		95.3326
6.95555	-25.3598		96.9025
8.01996	-26.2731		94.2828
7.78305	-26.8568		93.6917
6.54754	-27.3264		94.43
-10.2834	-28.0112		92.9095
-11.604	-27.9484		92.1685
-10.0442	-28.7552		92.6823
82.0263	-33.7958		-28.8022
80.5159	-34.2191		-28.7231
82.047	-30.7727		-30.9893
83.0029	-34.201		-28.1877
81.6055	-36.7363		-25.6862
73.5363	-47.1927		9.81623
72.5524	-49.0181		17.4545
72.191	-51.4768		9.08659
74.3917	-45.226		3.3661
74.3858	-42.5381		11.0908
57.9259	-113.78		-7.19023
57.7066	-103.316		-6.95271
55.2974	-115.024		-2.68848
59.0338	-124.438		-8.26787
60.1666	-112.51		-11.7994
59.4722	-133.332		-7.08774
60.1578	-139.504		-8.1064
61.5258	-131.917		-11.5018
57.0408	-135.259		-2.36785
52.0012	-97.6209		5.45853
52.7944	-91.4215		6.62887
48.4841	-99.1802		10.3372
51.6754	-105.59		2.44479
55.3782	-96.6491		0.216556
61.5798	-95.1795		-13.2616
61.1781	-101.956		-15.6043
62.4766	-94.1184		-18.4519
61.8519	-89.7494		-13.0315
60.0039	-95.5597		-8.82724
65.6966	-66.1217		22.3615
67.2127	-62.8451		23.7791
63.9069	-68.0764		30.6884
63.9802	-69.3758		20.4453
67.1496	-64.7043		14.1434
73.9634	32.2013		23.7453
74.7312	40.161		20.7728
69.6031	35.414		35.4921
73.8769	24.9031		26.986
77.4178	30.5938		11.7662
79.3414	42.1794		-27.893
79.096	38.643		-37.5296
78.1377	48.8782		-33.2256
79.9371	43.9972		-16.6909
80.5049	34.478		-23.7938
8.2277	-115.45		46.9869
5.71532	-115.608		48.101
8.10982	-122.369		42.9992
11.5848	-115.044		45.168
8.9746	-111.537		49.3912
8.84483	-132.787		38.0705
10.1812	-143.025		32.5587
12.5348	-131.748		36.4824
5.63822	-132.985		38.8876
4.10697	-150.72		30.9595
8.01976	-150.377		30.3066
3.71863	-143.605		34.0229
0.340866	-150.914		31.7337
4.49197	-156.181		30.4536
68.0983	-52.6655		-31.9579
70.6608	-46.7902		-29.8011
67.64	-58.8569		-26.7347
65.4975	-58.6209		-34.0997
68.8481	-45.2681		-36.152
69.7371	-39.9934		-39.1361
66.0453	-45.6631		-42.409
70.6128	-35.3208		-41.9836
72.8731	-35.4342		-36.0974
62.4938	-124.742		-27.4074
62.5036	-131.489		-30.114
60.9228	-121.813		-34.163
62.9961	-127.76		-21.0218
2.68387	-133.184		39.3079
2.43239	-122.985		44.9684
-0.166004	-133.246		39.639
70.7854	-50.6118		26.183
71.8918	-45.4852		26.5295
69.0872	-51.3972		34.4406
69.8267	-54.9481		25.5803
67.6931	-63.3861		6.43952
66.0355	-66.7923		5.19604
68.3607	-62.6093		-1.39291
69.5961	-59.4747		7.36436
9.69838	-95.9105		88.8161
5.39357	-95.4992		89.7872
9.50866	-98.7447		86.4527
14.6297	-94.8792		86.713
9.69254	-91.6059		89.7079
19.6128	-92.9503		84.3228
19.8767	-96.6252		82.3023
24.7802	-90.3226		81.0594
19.5692	-88.4723		85.5103
2.15368	-87.377		91.4737
5.53757	-86.7559		90.8641
2.34594	-82.917		91.1306
-0.817074	-87.5883		91.6525
2.13616	-91.716		91.4109
9.49395	-101.761		81.1384
9.953	-103.868		77.4942
14.1429	-101.145		83.3929
5.66879	-102.326		82.415
10.6394	-105.231		73.339
6.45573	-105.985		74.2538
11.0167	-106.036		68.7067
17.4392	2.6581		78.368
18.2774	-1.92991		81.2481
20.3082	0.660338		77.3201
16.7746	6.65146		75.8919
13.5789	4.72139		79.1476
48.8667	-31.4755		74.1471
55.0541	-32.423		68.7265
48.0167	-26.2672		74.5381
42.5901	-29.4806		78.0954
49.5329	-36.1288		73.7839
59.8532	-21.4226		62.9748
64.4149	-20.1891		56.4516
58.5536	-15.4977		63.8928
53.7638	-21.0794		69.3224
60.326	-27.0739		62.6084
69.1487	1.47761		43.8963
72.2383	0.250498		39.1288
69.7766	9.73135		41.8348
66.8517	3.30282		47.6412
50.0873	-40.4691		72.7994
50.4909	-44.6238		71.7674
55.6645	-41.377		66.7887
44.6957	-38.8774		76.9719
-0.0897758	3.76639		96.1444
0.233954	8.83087		92.1841
-1.91893	4.02872		96.1926
-0.250565	-0.746206		99.8735
2.03775	3.18704		95.6176
30.1879	70.5194		69.2873
24.9402	71.3678		71.182
29.0115	64.2875		73.2235
35.8238	69.0735		66.7289
31.4643	76.2564		65.2393
3.05085	-107.924		64.3862
2.80853	-108.675		59.3282
6.4797	-107.529		63.7783
3.03573	-107.399		69.78
-0.21267	-108.12		64.6007
66.9894	-51.6877		41.6944
63.9725	-51.3186		48.9693
65.5637	-57.0325		41.6375
67.9962	-46.1858		42.3715
2.61695	-102.707		83.0521
2.51873	-99.8237		85.9388
0.00893698	-102.885		83.2838
2.6769	-105.099		78.9127
3.02597	-106.45		74.7398
-0.256318	-106.739		74.7914
41.2943	-86.6081		61.699
35.7385	-90.1461		66.9564
40.2937	-89.5178		59.0201
46.4335	-82.6602		56.8862
41.5196	-83.0457		64.5651
45.4687	-89.2001		37.2759
42.5183	-92.8843		32.6957
49.7451	-85.4068		31.9864
48.0261	-86.11		41.4741
40.3265	-93.3128		42.6481
2.93879	-110.027		54.3081
5.88823	-109.859		53.5016
0.0489601	-110.03		54.5258
3.46303	-111.954		51.1966
6.39633	-5.5893		98.706
6.69844	-8.74727		101.38
9.8247	-6.77615		96.0974
6.17851	-1.67091		95.1347
3.47207	-4.71253		99.9941
29.2526	-20.7853		80.898
32.0825	-23.2916		80.3877
27.7629	-15.631		80.6508
26.1057	-17.6624		82.0793
32.2357	-55.9687		79.5212
34.4776	-55.6245		79.1204
14.7173	-25.9742		90.6652
16.3298	-24.3825		91.0103
14.0139	-26.9802		90.1271
17.018	-26.0146		89.0615
14.3472	-30.1506		88.6376
14.9777	-31.5637		88.4972
17.1743	-30.2876		87.0769
14.1566	-29.2599		88.8704
11.7994	-29.7103		90.0754
0.306704	-28.3386		98.5647
0.238914	-27.2066		100.389
-1.25384	-28.3812		98.803
0.530309	-29.4606		97.179
2.14168	-28.1013		97.8374
19.7945	-29.674		85.7669
22.3084	-28.1096		84.3531
19.4271	-28.4772		86.0486
20.2869	-31.014		85.6118
7.41814	-18.0976		104.275
4.42881	-18.4729		106.431
7.13923	-19.9514		103.291
10.7174	-17.7853		101.095
7.4613	-16.3141		104.657
28.3114	-70.7689		82.1742
31.8799	-68.1057		79.8445
27.7013	-68.1382		82.9428
24.0363	-73.6092		84.6176
28.8349	-74.3197		81.2019
32.1513	-49.8508		82.1801
30.5685	-46.3202		83.7502
29.6076	-49.2647		83.7796
34.4825	-50.3381		80.8109
1.16421	-33.4888		95.2529
1.48002	-35.2284		95.1894
3.06948	-33.0153		94.9233
0.877964	-31.7903		95.6408
-1.07656	-33.7255		95.343
4.71284	2.06066		94.4817
8.06342	0.813842		89.4532
4.89242	6.46493		90.9057
21.9641	-18.1703		87.7549
20.6782	-16.2044		89.7219
20.978	-17.327		89.6456
22.2091	-19.6862		86.9684
22.547	-17.8893		86.5243
4.11971	-29.5664		95.2235
4.09317	-31.1633		94.7661
7.23664	-29.342		92.7834
4.01419	-28.6919		95.8002
2.51566	-30.0028		95.8708
3.75611	-27.8636		96.81
4.97081	-26.6274		96.789
19.7049	-16.3472		91.5473
19.322	-15.51		91.6709
20.4367	-17.9817		90.5979
22.0307	-22.5068		86.2818
21.1778	-21.0059		88.2776
20.9506	-25.1918		86.071
2.8378	-42.2273		96.8605
3.3028	-44.237		97.419
7.25975	-41.6502		95.4
2.38674	-39.511		95.9849
-0.373638	-42.8298		97.0872
26.3956	-33.4247		83.8191
23.9118	-33.2812		84.8047
27.5087	-37.9091		84.511
28.4106	-33.6695		83.1419
25.0222	-29.5226		83.4392
11.5318	-73.4424		91.3313
11.8235	-71.5769		92.3432
7.49539	-74.3023		91.9306
11.1886	-75.8095		90.4183
15.907	-72.4877		89.7665
27.622	-51.9731		84.2803
28.1207	-52.5594		83.5695
30.4957	-52.7484		81.5397
27.0067	-50.6643		85.4643
19.0305	-14.8165		91.5233
19.2382	-14.0022		90.2235
16.848	-13.6642		93.5647
19.9593	-71.1186		88.0783
19.8427	-73.2614		87.3962
23.6519	-69.0446		85.9672
20.0146	-69.6496		88.8146
3.46351	-73.9944		92.2916
0.0140774	-74.3511		92.3113
3.19287	-76.0836		91.4994
3.55869	-72.3475		93.3867
60.65	28.8686		56.9024
59.5704	27.9438		58.4184
62.5606	23.1942		52.3906
61.5438	30.1564		55.2135
40.1021	55.4863		70.5212
34.027	57.2209		74.1519
39.9936	50.1465		73.2829
46.4495	52.8752		66.3319
40.8708	61.2863		67.0414
52.9743	49.3372		61.0638
52.6291	44.4354		64.2319
59.0904	45.0139		54.5572
53.9641	54.9515		56.9529
40.9959	42.3359		75.2364
40.5624	44.6057		75.0271
35.1634	43.9955		79.3075
41.5288	40.2064		74.8578
62.905	31.5938		51.9928
63.7748	34.728		49.1932
58.164	37.1262		59.8996
66.3293	25.4813		45.8734
23.3782	33.3158		78.7204
23.7837	31.5827		77.0091
27.3383	33.8297		78.3641
23.2124	35.2979		80.2771
19.9832	32.469		78.412
5.80321	16.7465		83.3571
8.45557	14.3329		81.7977
5.85287	18.9801		82.3356
3.09766	18.7912		84.3128
5.61772	14.0923		84.9651
31.6395	-4.73107		74.7373
33.3486	-9.66438		76.4308
38.1809	-6.35064		73.133
29.9583	-0.460894		73.2071
26.1747	-2.8591		75.8517
58.3776	7.26342		56.3961
61.3875	5.29117		54.3152
59.1937	11.8683		55.2434
55.6067	9.0717		58.4457
56.4757	3.1524		59.4658
5.26863	10.6517		87.5501
8.01289	8.46706		86.1707
2.67306	12.3051		88.4746
42.0592	38.2236		74.0333
47.1572	36.7599		71.2163
36.748	38.4709		76.8898
41.9068	36.135		73.8351
51.9759	34.298		67.5715
51.3367	32.3458		67.9265
56.1012	30.9106		63.5643
54.7577	16.6299		59.3331
54.8458	20.3258		60.6662
52.2517	16.5076		61.2215
54.393	13.3843		59.1413
56.8566	16.5453		57.557
41.3176	20.2455		69.1053
42.9018	19.1815		67.7543
39.6009	21.1697		70.2727
37.8414	22.0692		71.0801
35.7999	22.7525		71.4836
37.9892	22.9556		71.3952
35.5795	23.7789		71.8873
39.9886	22.0336		70.5464
33.1733	23.2564		71.6824
30.3414	23.3116		71.6102
32.8421	24.1205		72.0017
29.7901	24.1946		71.9028
27.6792	22.9509		71.1836
25.3371	22.0051		70.5689
22.9697	20.9622		69.8122
20.7071	19.8772		69.2074
21.7237	21.6872		70.1612
19.6208	20.3563		69.6314
24.1316	22.7519		70.7921
18.5157	18.1842		71.4228
20.4628	22.2394		70.5484
23.0032	23.602		71.1784
32.5432	25.126		72.4755
29.2867	25.1695		72.2606
46.3726	15.2264		64.5893
46.7298	16.1896		64.5808
45.2926	14.3643		65.0766
31.679	34.0571		77.2255
36.5246	34.12		75.6215
31.7238	35.927		78.2262
31.6187	31.996		76.1334
47.0849	25.8585		68.9016
44.8301	23.828		69.3955
48.7653	28.0338		68.3722
43.4413	26.9845		71.2888
36.929	8.02223		69.0938
42.1434	8.47225		67.3532
30.7171	8.48542		70.0673
37.6544	6.29327		69.0434
25.9752	9.70482		70.3384
22.0825	11.1319		70.1827
26.4244	8.16407		70.4907
17.6053	13.6133		72.3577
17.0783	14.5569		72.1482
19.3209	13.4504		69.7585
35.9475	11.208		69.0306
40.2268	11.8277		67.8862
30.4383	11.4604		69.7736
20.7621	14.2948		68.8271
22.615	13.4608		69.1801
19.9611	14.8458		68.6862
18.4793	14.5587		71.257
17.9281	15.0821		71.2592
14.4026	22.4442		75.3622
13.522	24.8		76.9379
15.1866	19.9952		73.6408
15.9049	24.3329		75.6371
16.605	15.8139		72.0952
26.0621	24.6693		71.8278
15.8327	19.1009		72.8837
15.4586	17.6406		72.8644
16.8474	20.8272		73.1534
35.6135	12.3675		69.0484
30.3142	12.6564		69.6351
20.7384	15.0967		68.3526
19.981	15.3418		68.3992
22.4975	14.5831		68.7058
18.5916	15.0681		70.867
43.9367	18.1147		66.5453
2.49624	33.0183		83.634
-0.469362	33.3031		83.591
1.9555	30.5374		83.0233
5.01857	32.405		83.3505
3.26502	35.7997		84.4798
20.5919	6.31262		72.9765
20.2284	8.25789		71.9364
18.5511	7.69768		73.3656
21.5623	3.26191		74.5099
23.6835	4.65869		72.5121
16.5205	9.12362		74.1758
13.2296	10.2485		78.4887
15.5684	13.2464		74.1929
13.8333	14.0086		75.6031
15.6705	14.744		73.3068
10.3416	22.0288		78.0383
11.3469	24.1532		77.8795
9.48532	23.2087		78.8956
20.3049	12.3096		70.0089
19.9924	11.1868		70.6459
20.065	9.83998		71.0754
22.5615	8.31109		70.9528
23.8301	-55.3319		83.3964
23.7608	-55.1819		83.1952
27.093	-54.695		80.9018
20.2925	-55.7759		85.934
29.0023	-54.6282		79.7854
28.6862	-54.5607		79.766
3.5938	-47.7829		97.6286
8.45943	-47.5032		95.8807
3.56404	-46.4268		97.7242
-0.253278	-48.3024		97.8867
3.53338	-49.2907		97.3535
11.0876	-50.8587		94.3355
11.2545	-49.1606		94.782
8.37636	-50.7583		95.0441
10.873	-52.4571		93.5886
13.7472	-51.2305		93.2852
16.6655	-51.3116		91.9623
16.6468	-49.9306		92.5902
16.6057	-52.9891		91.0248
19.694	-51.9417		90.1222
11.2362	-47.4742		95.1689
13.8349	-48.0231		94.264
11.1335	-46.1119		95.3745
15.6871	-46.0804		93.6541
16.5887	-47.1422		93.2113
15.3583	-44.9036		93.6112
12.9288	-45.3975		94.7944
23.3038	-53.467		86.4437
23.0951	-52.0847		87.7552
10.2268	-54.0334		92.769
7.24355	-53.8845		93.6522
9.71728	-54.9514		92.1802
13.3424	-54.3557		91.6526
16.629	-54.8279		89.8053
16.716	-55.6189		88.7847
29.8479	-53.3748		81.3421
24.1776	-56.3604		83.8186
24.1513	-56.2377		83.5763
20.5373	-57.476		86.6536
24.2028	-56.6824		84.1466
24.7656	-58.1306		84.7353
24.5304	-57.6331		84.6357
21.7928	-60.8068		87.9526
18.7166	-61.8305		90.7165
18.4598	-60.7071		90.439
15.1173	-62.2789		93.2752
19.2218	-62.8318		90.6254
10.2787	-59.5841		93.9808
10.8613	-61.1635		94.8289
14.2675	-59.5518		92.3761
9.87204	-57.9906		93.332
7.11954	-59.7402		94.5406
3.11977	-63.749		97.2769
3.22841	-65.1755		97.3838
7.57839	-63.2423		96.2363
2.93739	-62.0292		96.9187
-0.0620865	-64.2255		97.4051
29.3521	-56.0039		79.067
29.1971	-55.4322		79.6958
29.2739	-57.3418		78.4575
27.395	-56.2202		80.5127
2.70143	-57.7209		91.6394
2.69461	-56.9256		92.8
5.48895	-57.5743		91.193
2.61845	-59.2444		90.344
0.0567078	-57.8327		91.7789
3.31349	-66.4643		97.2713
-0.0512282	-67.0239		97.3301
3.34825	-67.5599		96.9986
7.93004	-65.8077		96.4723
3.52176	-70.6953		94.7413
7.96038	-70.4682		94.3948
3.47447	-69.3847		95.8964
0.0834239	-71.2431		94.6569
10.7898	-45.0901		95.4741
9.88374	-43.7507		95.5045
8.14106	-44.9341		96.0736
2.72764	-60.1208		96.0146
-0.0691605	-60.3976		96.1632
2.58803	-58.4218		95.2586
2.55748	-57.3699		94.7218
5.52503	-56.9357		94.2311
2.72863	-56.958		94.2336
0.0373741	-57.6242		94.8406
9.66765	-57.3107		92.8342
13.41	-57.4318		91.2958
9.56951	-57.0412		92.4323
2.79645	-56.7852		93.6333
5.50667	-56.4962		93.222
0.027757	-56.9555		93.6971
17.0034	-57.5993		89.135
16.8733	-57.3515		88.7609
17.3544	-58.2076		89.5157
19.7806	-65.8122		90.3299
19.9562	-66.8755		89.8508
19.6442	-64.9285		90.573
16.3076	-66.456		92.6361
12.1542	-66.896		94.8988
12.1317	-68.0328		94.3473
12.2521	-65.7216		94.9958
8.29872	-67.6226		95.8689
3.40309	-68.4346		96.5806
0.0804735	-68.9985		96.5543
16.7052	-55.7498		88.3016
13.2979	-55.3034		90.196
16.5738	-55.6486		87.8409
32.2552	-54.739		79.7473
31.0691	-55.0593		79.6619
29.1163	-55.2319		80.2715
27.3759	-55.7319		81.6223
9.36916	-58.299		90.1292
9.47771	-57.2048		91.0048
13.0295	-58.2594		88.7665
9.415	-59.8418		89.0281
9.4703	-56.9761		91.8661
13.0124	-57.1748		90.4775
12.1128	-69.5803		93.3597
16.4389	-68.9386		91.4159
19.3634	-63.9203		90.8126
15.8837	-64.5135		93.1953
19.9893	-68.1225		89.2622
23.1764	-66.3786		87.1994
16.1935	-55.2396		87.4924
12.9037	-54.8915		89.0668
15.4806	-53.4572		86.7121
19.4273	-55.1997		85.6264
9.61857	-54.6222		90.1051
5.9519	-53.8556		91.0805
10.1103	-52.7365		88.5214
9.45423	-55.142		91.0701
14.6359	-50.113		85.6121
12.1079	-49.8019		86.5505
14.3148	-45.9168		84.5917
17.2401	-50.397		84.4472
28.8016	-60.8886		78.0238
27.6794	-65.2285		78.3259
26.9069	-61.267		79.5905
2.4276	-62.8707		88.9942
5.33764	-62.6257		88.642
2.81001	-66.9236		88.2107
0.0270784	-62.9942		89.0914
9.12441	-48.7085		87.3743
6.38951	-48.514		87.8635
8.5857	-44.5095		86.2695
8.93643	-62.2976		87.8537
8.92068	-66.5229		86.9788
12.9872	-63.0848		86.6408
31.8267	-55.5812		73.9106
31.8423	-55.9404		73.6369
11.6829	15.4421		77.3729
11.1828	13.9336		78.6958
81.211	-8.53543		-44.5203
80.4873	-12.9017		-43.8085
79.2915	-8.02508		-47.7086
81.84	-3.92879		-44.5279
82.7111	-9.02099		-42.8224
82.2697	9.89051		-5.28079
82.5856	12.6966		-9.22691
81.1631	11.9208		0.202896
81.673	14.8052		-16.3201
81.2787	20.3372		-17.9495
82.2124	9.91794		-17.3888
82.1314	14.363		-23.4319
75.4696	-32.5519		-33.6858
77.9367	-30.3192		-32.0619
74.4614	-36.6762		-31.1626
76.7994	-28.6045		-36.0127
77.7946	-24.9902		-38.0332
75.094	-27.0257		-40.8228
78.7752	-21.1324		-40.4713
79.9862	-23.8358		-36.1254
84.3453	-9.51509		-40.8125
85.88	-9.02633		-40.4453
83.72	-13.8015		-39.6907
84.7979	-4.34898		-41.198
86.1806	-27.9769		-30.4797
87.3169	-24.2379		-32.1529
86.9181	-28.429		-29.2736
85.2373	-30.7854		-29.5952
90.8242	-18.419		-30.3792
90.7555	-17.8703		-29.5606
81.2835	-38.5122		-22.4481
81.7017	-38.7816		-21.6994
80.7314	-39.389		-19.9648
80.5146	-37.5657		-24.5811
82.3866	-32.3516		-8.52889
82.061	-33.0631		-8.52812
81.632	-34.0073		-8.73038
90.7056	-17.5137		-29.1722
90.2094	-18.0909		-28.2505
93.7306	-2.2943		-34.105
93.7709	-1.5784		-35.9234
93.6023	-3.49884		-32.5356
93.9047	8.06891		-32.0835
94.0791	9.33817		-32.1931
94.261	11.471		-31.2695
93.6509	11.2186		-28.9482
94.4328	11.9313		-31.6633
93.8986	13.5261		-28.1032
85.6297	-9.63103		-8.41387
85.5849	-4.61556		-8.63857
85.1089	-8.9045		-7.00638
84.6884	-13.5703		-7.90747
80.5065	-25.5706		-2.0593
79.5877	-26.1242		0.607142
79.9734	-29.3067		-2.65039
81.0297	-21.3109		-1.43929
83.0497	-19.9841		-12.059
83.4671	-21.9927		-12.5975
82.9718	-18.109		-12.141
82.2076	9.4464		-17.4274
82.5162	10.6705		-21.0366
82.242	9.44332		-17.2185
90.1603	16.9036		-18.3457
91.082	18.5697		-21.5348
89.3075	17.297		-19.5096
88.8479	13.7195		-15.0849
90.9359	16.2115		-17.3631
90.624	19.2666		-26.5699
89.8344	19.0161		-23.5626
90.9189	19.4018		-26.0759
91.0673	17.9723		-30.2877
89.7983	18.2161		-27.984
91.3699	3.68066		-40.6383
90.5727	3.22001		-40.8241
91.6803	9.64802		-37.8458
92.4436	3.92271		-40.095
86.6201	0.327044		-9.69612
86.8341	-0.981053		-10.2845
94.2254	3.10759		-37.6205
94.6488	8.24973		-35.4345
94.0136	0.358369		-37.717
94.2703	3.01236		-37.9686
93.41	14.4027		-24.1099
92.5029	13.9438		-20.0299
93.1809	13.0328		-24.8034
93.4785	15.5777		-23.8054
88.0766	0.936748		-12.251
87.4719	-0.824982		-11.6819
88.6634	3.5798		-13.3674
93.8244	3.84366		-34.8315
93.9976	1.86404		-36.7096
91.3686	6.60792		-23.2464
90.9002	5.253		-22.423
92.6113	6.05792		-27.4098
86.0593	-6.03038		-13.2717
86.1914	-5.72593		-14.0379
86.5788	-4.24493		-12.3754
90.7163	-5.21385		-27.2685
92.7917	-2.23094		-29.6721
90.462	-4.73344		-26.6222
90.5799	-6.24216		-27.4486
81.5265	-17.3667		-1.29322
82.209	-12.8459		-1.85489
80.7193	-17.6252		1.17435
84.9899	1.14493		-40.4104
83.8309	0.572741		-41.5516
84.803	5.73971		-38.2685
85.9975	3.62534		-39.4573
88.1945	8.47572		-36.816
88.0235	12.2597		-33.6488
90.551	13.0845		-34.9506
88.3759	4.4159		-39.7363
89.6266	2.33575		-40.738
88.4843	-3.3519		-41.0533
88.0805	-8.60122		-40.3087
81.6796	-24.0624		-34.9572
80.6547	-27.2513		-32.9629
82.3762	-21.1838		-36.1544
83.1373	-17.7083		-37.946
81.5001	-16.9403		-40.4696
89.636	-18.0241		-27.2195
79.8921	-29.0509		-32.8229
78.9762	-32.1553		-31.5958
80.993	-28.8544		-32.2457
80.6395	-35.3683		-27.5873
80.2869	-35.3275		-28.0373
79.2976	-39.208		-22.0154
80.6357	-39.0976		-17.2517
80.0394	-39.4262		-16.862
79.4694	-39.6799		-16.4262
90.7681	-7.00449		-27.9173
92.7825	-5.66416		-30.1403
84.5004	-8.27983		-5.89623
83.7832	-7.87509		-4.655
82.2474	-21.7103		-4.82324
82.5672	-21.9358		-5.53373
84.348	-25.2108		-12.7858
85.4165	-27.1133		-14.5578
84.4626	-24.3963		-13.5565
84.0824	-16.5512		-7.51253
84.4915	-16.7079		-9.72319
87.7126	14.0647		-30.4158
85.3335	10.4653		-33.2037
86.79	14.7022		-26.992
84.4662	8.878		-35.0195
84.0283	8.58814		-36.1059
83.8933	11.0471		-30.6901
82.7483	-16.8398		-12.9089
83.0023	-16.5686		-12.2862
93.2296	5.09294		-29.7418
93.0509	3.6155		-29.4068
86.5785	-4.92448		-15.619
85.9426	-7.50264		-16.2584
87.5875	-3.82813		-18.0791
90.4354	-3.92317		-26.1272
92.237	-0.0352787		-27.7637
89.8584	-3.86647		-24.7712
7.65742	86.9254		63.8198
7.31645	79.7926		69.2846
15.2638	86.0634		63.5239
7.93621	94.1519		56.7231
-0.189763	87.1412		63.9329
6.76927	72.6479		73.5785
-0.476016	72.4977		73.8423
6.30778	64.9402		77.3064
13.8421	72.449		72.9884
28.2736	57.9749		76.7661
28.5085	52.7963		79.435
23.5961	58.2691		78.2163
0.072656	-25.9282		102.786
1.46004	-24.2576		102.983
-1.50722	-25.8517		103.285
3.44267	-25.6514		99.856
1.56828	-14.7718		107.681
4.38891	-14.7751		106.568
1.53509	-12.6994		107.073
-1.04994	-14.7094		107.988
1.58945	-16.7311		108
1.65786	-18.6849		107.605
-0.959934	-18.7018		107.986
1.63711	-20.5853		106.602
0.725355	-30.482		96.2842
-1.15655	-30.6773		96.3971
1.81044	-37.3535		95.4796
4.26371	-36.8329		95.1963
-0.70695	-37.6563		95.5779
1.59699	-22.4717		105.067
4.00293	-22.352		103.84
-0.679143	-22.4774		105.501
1.25108	-10.5605		105.869
4.01235	-10.7335		104.879
1.02197	-7.85805		103.945
-1.2784	-10.4908		106.247
5.78122	47.0961		83.6853
-0.462062	47.6211		83.8863
5.35845	44.0654		85.5207
12.4612	47.337		82.6915
6.17501	51.0935		82.2626
1.08896	19.6878		84.6722
0.844466	16.8458		86.3258
1.21926	21.8945		83.6919
-0.642186	19.9615		84.7093
1.33634	23.9502		83.0597
3.38663	22.9857		82.7111
1.45858	25.9501		82.7452
-0.503195	24.1898		83.1191
3.01279	-53.7972		91.3031
0.00565529	-53.9067		91.4738
3.3156	-51.7306		89.8264
2.69727	-54.7806		92.8088
2.62342	-55.0104		93.7175
-0.00875973	-55.2069		93.8262
5.34707	-54.7023		93.225
2.696	-54.8862		94.068
3.50089	-50.7298		96.8624
3.37383	-52.1876		96.2075
-0.244772	-51.0224		97.1289
3.06221	-53.6731		95.1855
-0.143008	-53.9257		95.3174
3.56727	-45.3971		97.6542
-0.274215	-46.064		97.9272
3.22367	-48.4775		88.2247
2.84579	-44.364		86.9226
-0.152235	-48.4414		88.3266
21.5641	85.0031		62.8399
20.4139	78.4127		68.3339
27.0333	83.3353		62.3589
22.4507	91.6		56.1292
18.1767	47.9128		82.7262
18.168	45.0497		83.2445
23.7786	48.579		82.4496
16.9665	51.6369		81.7542
19.7526	42.4315		82.643
21.7528	39.5184		82.1028
24.7593	42.8003		82.6857
23.4644	37.2107		81.2766
19.11	36.5124		81.7979
27.1814	38.1326		80.9799
25.2205	25.6482		72.3115
24.7358	27.1867		73.3353
21.9566	24.5725		71.7773
28.8049	26.2645		72.8147
26.7897	23.7617		71.4294
24.1523	28.987		74.643
27.8395	29.6839		74.9079
20.91	28.1571		74.3083
46.25	87.4551		41.3126
47.6809	92.4967		31.4371
40.436	91.0133		43.7161
45.4911	81.9588		48.6477
32.4389	81.7922		60.5957
33.5605	87.5379		54.3667
38.2122	79.6539		58.0125
28.8679	48.7865		81.4013
29.5011	47.0318		81.7967
34.2387	48.4983		78.8673
31.2095	39.1113		80.088
31.0662	40.9175		80.8602
30.1445	44.1053		81.8403
31.6274	29.7014		74.5844
32.052	27.6867		73.6076
35.9958	29.1676		73.9768
44.4441	76.9685		54.2798
50.8118	74.0097		49.4376
43.3389	72.034		59.1075
40.373	46.8875		74.4204
46.4627	44.5677		70.4567
38.8584	24.8311		72.0628
39.2825	26.3603		72.4071
35.9896	25.755		72.7096
41.3749	23.8097		70.9956
41.5538	33.8454		73.576
40.7633	31.0519		73.3808
46.3802	32.532		71.0741
39.9156	28.3937		72.8908
41.9863	66.782		63.1813
48.6155	63.925		58.6
56.8577	71.3136		42.9669
55.9302	66.2391		48.1446
62.1258	69.0131		35.2384
41.7504	20.9785		69.2463
43.4627	19.8223		67.8739
43.6553	22.5749		69.333
45.4971	21.1833		67.8218
42.3724	21.6413		69.3254
50.3776	30.394		68.1365
53.4058	27.3491		64.8451
17.1307	31.0775		77.4448
14.6711	29.2225		76.399
17.6649	29.2871		75.71
16.3036	32.5169		78.9371
15.1709	33.9938		80.4946
12.683	32.0439		79.2047
18.1402	26.5792		73.6531
18.6846	24.5394		72.2381
5.18891	39.9979		85.419
0.369999	41.1156		85.3941
68.5251	-63.3733		-8.89454
70.2674	-58.4741		-7.35549
67.6034	-63.5881		-14.5328
80.5491	22.3066		-35.4182
80.5789	18.6368		-41.6646
79.7587	28.2619		-40.8193
80.8049	25.5103		-30.19
81.5562	17.4361		-33.3022
76.7132	-7.81006		-53.4525
75.8506	-13.6898		-52.0689
74.3648	-8.07656		-58.8945
77.6717	-2.02424		-53.4456
78.8739	3.71285		-51.1523
77.3236	6.17939		-59.0176
79.5693	9.31292		-49.3648
80.7669	1.41865		-44.467
71.5807	-30.6403		-44.8752
68.2877	-34.0347		-49.0049
73.0501	-25.0214		-48.1838
6.24276	57.7639		80.1623
-0.44649	57.2893		80.642
12.2074	57.6078		79.7386
17.2822	57.6418		79.4812
18.4541	64.974		76.2288
21.5534	-103.296		58.315
19.7932	-105.209		52.5424
28.1274	-99.9168		52.5907
15.2511	-105.446		61.3194
49.8965	-83.3609		45.0572
44.3238	-88.1128		50.5418
54.5801	-79.1214		39.8844
51.0289	-80.8631		48.4877
55.1058	60.5645		52.6047
60.9205	57.047		45.4707
19.4582	71.9835		72.472
67.2482	66.6084		25.8266
71.2898	64.5515		15.8998
67.0908	60.0933		31.4431
23.041	99.0949		46.5686
29.2598	96.8173		45.9988
23.0713	106.23		34.7052
15.8693	100.758		46.8818
64.9108	39.6809		45.8062
65.6468	46.552		41.4389
46.1527	19.5439		66.5094
58.4619	26.8695		59.6888
58.9872	21.627		56.9144
56.8533	25.5489		61.0854
54.9872	24.3935		62.4164
3.08215	-115.708		48.6591
0.532314	-115.761		49.0611
61.0245	-70.1473		39.2663
62.2701	-66.5511		41.3588
56.4929	-73.3507		46.4519
59.5781	-73.3512		36.2991
9.25781	-41.6972		95.0746
11.2803	-42.0686		94.6273
8.49492	-39.2609		94.4089
26.144	-48.633		86.2837
25.2902	-44.8189		87.1012
23.3341	-46.6699		88.6514
12.1015	-37.7678		92.4842
9.36348	-37.0746		93.3779
13.3055	-40.3114		93.1783
15.2834	-38.4251		91.2658
11.0614	-35.282		91.9617
36.3031	-50.9428		79.9594
36.3151	-53.9322		79.0654
38.5896	-51.9613		78.592
35.2745	-47.6046		81.121
64.3077	17.011		49.5149
61.7972	16.6548		52.7512
64.8963	10.5807		48.9711
66.4857	17.5632		46.0925
68.5612	18.3135		42.1592
70.9064	18.1951		36.6202
50.2378	16.5005		62.609
50.3031	14.4609		62.0962
59.3996	16.3359		55.3515
82.791	9.29016		-38.0987
82.6408	5.56465		-41.2761
81.5124	10.5947		-39.6336
82.86	11.8063		-34.1123
79.6369	-17.1813		-42.3983
77.5146	-17.7193		-45.5333
73.5305	-50.5322		-18.5287
75.1135	-46.3193		-16.1859
72.9417	-52.8007		-11.8686
69.6296	-56.2289		-19.2313
72.2699	-47.4955		-22.6767
82.5153	0.188181		-40.8915
78.6767	-26.9717		3.64608
77.9891	-31.1537		2.96291
79.3047	-22.5683		4.13467
77.6676	-27.8209		7.82144
74.688	-0.390777		31.3756
74.627	7.71857		30.245
74.4734	-8.04237		31.9398
76.9822	-1.46159		22.2577
53.6196	10.3522		59.7628
51.6041	11.5584		61.1362
51.6639	7.71166		61.5998
49.7266	12.6683		62.2544
48.1799	11.2673		63.3794
76.5944	-27.8998		14.156
75.4314	-27.9099		20.4076
76.0092	-32.8644		12.912
77.2448	-22.6162		14.4064
26.0789	-10.7918		80.0731
29.7586	-12.6113		78.7475
24.5554	-5.96241		78.5927
22.7628	-8.61857		81.6546
34.9153	-15.1266		77.6862
40.8272	-18.0121		76.383
35.8138	-20.7407		79.0426
19.1722	-6.37345		83.626
15.6642	-3.81035		85.8085
19.8993	-9.89495		85.5186
23.7498	-17.1123		84.521
22.0996	-14.7738		85.8146
18.6163	-18.6537		92.7169
16.7297	-18.107		94.7777
18.4743	-20.471		92.0856
19.8175	-19.2799		91.2286
20.5496	-19.924		89.7158
20.0938	-22.2419		89.265
39.0358	-36.9694		79.6465
34.4136	-35.1354		81.5034
40.3428	-41.3509		79.1841
37.8356	-31.9736		80.1975
36.587	-26.3465		79.9551
4.58427	-32.7794		94.4892
5.21027	-34.7438		94.5528
7.74772	-32.5991		92.491
60.0225	-50.8054		57.1146
60.7207	-45.8821		58.0445
55.4427	-49.9521		64.576
58.8093	-55.9857		56.5412
29.0635	-42.2057		84.4002
26.5677	-41.8332		85.7928
31.3479	-42.8424		83.3382
41.0126	-45.8272		78.3082
41.3251	-50.2123		77.4762
45.6756	-47.3896		75.1562
36.9836	-44.585		80.6201
7.65573	-36.8634		93.8587
56.9638	-61.5402		56.5171
60.2081	-62.7814		49.4791
52.7984	-59.2621		64.3825
54.1157	-66.1736		58.1473
60.4044	-32.2709		61.9907
60.5754	-37.0685		60.9798
65.1599	-31.3964		53.688
