1836
-10.2712	26.2873		80.4697
-23.4056	10.4036		69.6539
-17.4122	-57.3437		87.7608
-24.4822	-58.1964		83.3131
-5.2792	-51.6158		97.8853
-5.89115	-48.6854		98.4426
-11.4395	-51.8167		95.5757
-11.0952	-54.2856		94.3866
-5.08372	-53.8541		96.757
-18.1046	-53.1112		91.574
-11.4128	-49.1999		96.701
-18.4142	-50.8032		92.7607
-10.576	-56.0195		92.8714
-3.62245	-55.4451		95.71
-17.7061	-59.1938		89.1037
-17.5474	-58.7893		88.5416
-18.046	-60.4101		89.647
-12.0801	-62.1543		94.3539
-11.3846	-60.1899		94.4283
-3.89853	-60.1261		96.9836
-3.56657	-57.7659		96.3686
-10.7108	-58.1999		93.9105
-4.1404	-62.4002		97.0747
-24.8484	-59.4112		83.0804
-3.2204	-57.1859		93.9628
-4.32907	-64.5551		96.5513
-4.3159	-66.779		96.6703
-9.94842	-46.7856		97.4542
-3.3291	-57.0834		95.5636
-10.3487	-57.5256		93.1439
-12.727	-66.0703		92.6975
-12.4314	-64.0934		93.9382
-10.2759	-56.0426		91.8113
-9.99559	-57.796		91.7837
-15.891	-55.6997		87.572
-10.1894	-54.5401		90.2097
-24.4572	-61.1536		81.9528
-3.27782	-59.7322		92.3447
-3.40851	-55.5397		94.0472
-4.54903	-53.8186		91.7149
-10.1346	-60.1317		90.5934
-26.2895	-50.9352		77.8223
-29.0843	-55.1534		75.3521
-15.0037	-48.831		85.622
-9.62508	-47.9478		87.816
-26.2582	-67.0315		79.1029
-22.1162	-67.8613		82.4035
-3.51806	-66.5531		90.1881
1.37584	-66.6897		91.055
-4.46986	-47.3176		89.2071
-9.51653	-66.8756		88.5111
-28.7869	-62.5825		76.0217
-81.2687	-13.4836		-41.5422
-82.0072	-5.0463		-42.2312
-79.1491	-3.18185		-47.3583
-78.0361	-12.9124		-46.6216
-79.6365	2.28919		0.72158
-80.617	18.4789		-7.86984
-79.8404	18.2786		-25.8235
-81.649	10.5154		-22.1463
-78.0537	-28.0533		-34.7186
-77.9433	-33.6322		-32.66
-79.9458	-20.8497		-38.8765
-75.5337	-22.8491		-43.4686
-84.6705	-3.19565		-40.8699
-84.2676	-13.462		-39.8592
-83.437	-31.2403		-30.0977
-85.3253	-22.7213		-34.9508
-82.1168	-37.8112		-25.2295
-77.4603	-41.2134		-19.8168
-89.6987	-13.7459		-31.3716
-92.4662	0.790782		-35.4202
-79.4935	-22.5476		-1.02305
-77.4263	-31.15		-1.23953
-82.753	-19.8735		-10.5408
-83.3375	-23.4191		-11.7476
-81.0079	9.57621		-20.5778
-88.597	-3.20762		-41.1088
-88.3273	18.0716		-22.0879
-89.9735	16.9735		-20.0014
-86.9959	17.1164		-24.2416
-85.7627	0.983994		-11.583
-93.609	8.31002		-35.2461
-90.7054	-4.48227		-30.1899
-90.0302	-2.01488		-28.8061
-83.6107	6.91557		-35.6015
-81.5524	4.33684		-38.8331
-81.3531	-26.9768		-33.6823
-81.6915	-4.50054		-6.86462
-82.4424	10.8534		-28.9307
-81.5128	9.90408		-31.4005
-89.5494	9.16245		-21.7627
-85.7442	-10.3625		-24.4897
-13.2551	92.6563		57.0097
-11.2978	79.0732		69.754
-9.54079	65.318		78.4008
-19.2317	52.6837		82.2595
-5.68713	-24.9763		106.797
-6.12573	-13.3373		113.288
-8.3728	51.2164		84.7117
-7.42233	41.9784		85.8771
-2.81435	25.2288		86.1433
-25.7529	89.4313		55.2721
-19.4619	45.7327		83.7206
-21.573	38.651		82.7144
-28.2233	28.3239		75.5258
-21.7538	26.8944		74.6905
-37.515	84.8948		50.8547
-42.0553	97.2045		31.1099
-35.9975	28.6359		74.7827
-46.9062	68.9964		50.1518
-44.4064	31.2588		72.829
-59.7963	62.8975		37.485
-49.7474	26.7042		66.1348
-11.6211	29.7462		81.8776
-67.5813	-60.3504		-11.4784
-79.3636	13.8825		-37.4319
-77.6531	23.8908		-49.1452
-74.9755	-0.977315		-59.1221
-72.9543	-14.6476		-56.9475
-79.5788	6.60893		-44.4914
-76.3969	12.5494		-57.4076
-68.9744	-28.8849		-50.6862
-13.54	-103.168		54.8277
-25.0682	-100.841		50.759
-50.953	-78.5803		43.7331
-71.8849	57.6579		18.2162
-16.5063	108.315		34.679
-30.0112	103.915		33.7028
-50.2456	18.4569		63.4939
-52.1647	-71.7438		52.5105
-8.6202	-42.7211		97.0363
-21.9411	-45.9087		89.8972
-8.47428	-37.892		96.1874
-13.301	-38.5783		93.3619
-14.9954	-43.9046		94.0693
-37.316	-51.1374		79.5
-35.7195	-58.4762		78.0804
-75.4029	-43.3308		-23.5255
-75.5698	-33.5802		6.00037
-77.5604	-24.1604		6.3331
-75.6715	4.4505		17.6291
-76.1069	-10.7684		19.7276
-52.4967	10.0905		60.716
-75.2752	-24.1516		19.0183
-73.8372	-35.5604		18.6623
-16.8297	-7.52844		89.433
-18.4727	-22.6923		91.8354
-16.6226	-20.6558		96.3495
-36.7365	-40.385		79.8781
-52.1573	-57.2286		61.9401
-44.6575	-53.2288		72.7589
-46.8262	-65.7626		64.4326
-65.5533	-35.3971		48.238
-31.946	-80.4143		75.5472
-39.8529	-73.5638		70.0973
-51.2649	-1.37098		64.1088
-48.4689	3.75969		64.8327
-40.8235	-61.1621		73.1018
-36.1323	-67.1083		75.0884
-13.1327	-80.6501		88.7523
-35.516	3.88124		69.3442
-12.164	-13.5059		106.019
-71.8302	-23.8181		33.7599
-70.9507	-36.1683		32.9721
-7.21509	28.3334		83.7323
-19.5181	-38.8268		89.3108
-22.1382	-56.6084		83.8914
-21.141	-49.6492		81.8171
-30.9387	-135.355		17.4918
-39.487	-132.051		10.487
-41.9752	-146.662		7.71119
-33.2141	-149.495		13.9713
-41.8089	-98.9413		23.036
-32.2671	-102.239		29.653
-37.6559	-110.671		14.2632
-28.9824	-113.828		23.3614
-32.799	-63.1604		79.1913
-51.0894	-85.5557		17.8654
-54.6467	-78.8381		23.3698
-46.7993	-128.883		2.89252
-49.4671	-143.513		0.932897
-58.4308	-76.4921		9.85682
-56.12	-83.4156		5.51304
-59.9735	-82.7347		-5.1209
-59.9605	-95.7246		-33.1318
-75.676	-37.5887		-3.47643
-61.0984	-80.0438		-31.774
-52.7486	-107.435		-49.7417
-54.2362	-123.993		-52.1883
-23.5679	-151.856		19.2766
-21.2916	-137.976		23.8701
-21.1603	-105.227		41.3217
-19.6719	-116.437		35.4245
-26.6868	-63.9675		82.6574
-17.3092	-58.9828		87.6597
-17.2385	-60.8301		87.0695
-13.9442	-153.607		23.3887
-16.1899	-67.6383		85.9294
-75.3735	53.0786		-1.99501
-49.1	-81.5546		-57.3266
-46.6587	-103.006		-59.9707
-54.7747	-87.2495		-46.888
-47.506	-120.387		-62.7106
-57.3438	-66.7643		-46.0201
-13.8876	118.336		6.66359
-28.1601	113.389		6.71635
-15.9792	111.208		-64.2991
-14.0295	91.5298		-93.0779
-29.7212	89.2996		-90.1845
-31.038	107.502		-61.0383
-13.7223	65.9203		-109.353
-26.8258	63.896		-105.932
-28.5465	115.54		-26.5723
-13.8877	120.212		-28.351
-13.2023	39.4458		-117.153
-25.7935	37.522		-113.804
-13.3251	11.8599		-118.96
-25.9636	10.7548		-115.876
-23.7728	-16.736		-107.636
-12.1023	-15.3078		-111.154
-11.4279	-38.7795		-99.7037
-23.3028	-38.7197		-98.2887
-10.0988	-75.052		-83.1611
-9.80257	-93.9757		-81.5788
-19.7438	-95.1243		-79.8339
-20.7061	-76.4061		-80.7657
-9.61423	-112.488		-82.6062
-19.7109	-112.853		-81.3969
-11.1047	-55.2743		-89.283
-22.0535	-57.1398		-86.417
-41.256	105.453		5.87448
-53.0869	94.9359		4.119
-53.3946	77.6597		-76.7451
-42.7956	84.6427		-84.6224
-40.1029	60.2842		-99.6202
-51.7644	55.6032		-91.5872
-54.9263	92.1864		-51.8534
-43.5241	101.313		-56.8266
-53.8454	96.6922		-23.5605
-41.9879	107.583		-24.9589
-49.9321	31.5182		-99.457
-38.8058	34.8697		-107.637
-38.4162	9.07686		-109.668
-48.9486	7.48698		-101.637
-45.028	-18.9232		-94.2669
-35.439	-18.1812		-101.514
-34.9404	-39.7543		-93.125
-45.6154	-39.6929		-85.6804
-32.9815	-58.9547		-80.6693
-39.3731	-98.4306		-69.1928
-41.1768	-78.5662		-67.6827
-31.5529	-77.6518		-75.5944
-29.8938	-96.7715		-75.8866
-28.8829	-114.814		-77.6495
-64.6263	80.1825		-45.3543
-62.2183	68.872		-67.6482
-70.6801	57.9136		-55.9523
-70.4677	65.6255		-34.2757
-71.3377	68.4138		-12.5455
-63.875	83.5106		-20.4896
-59.0459	27.6899		-90.2021
-60.9423	49.7298		-82.3085
-53.9564	-19.0742		-85.0457
-58.2053	5.25797		-91.4073
-53.5331	-38.2568		-77.3882
-73.8882	33.1621		-60.0395
-61.4167	-18.6843		-74.6729
-67.6939	-16.8106		-65.6664
-70.811	0.884178		-69.885
-65.1217	3.04637		-81.0597
-72.0044	17.4963		-68.9697
-66.2833	23.0924		-80.3071
-67.721	42.2092		-71.728
-60.7909	-47.2287		-53.4618
-63.5274	-33.7608		-57.2693
-59.7601	-35.6237		-68.9991
-93.2313	9.07232		-35.8523
-91.4316	9.74814		-36.9807
-91.2881	16.0542		-27.9275
-89.4096	17.1507		-29.1046
-88.6678	12.5215		-14.4999
-86.6218	13.3567		-16.3258
-84.7613	12.8953		-19.3147
-89.6864	8.15773		-37.887
-88.2615	15.8001		-30.3492
-92.2772	-2.97516		-37.9531
-90.7805	15.7373		-19.1637
-91.959	14.7251		-27.4713
-38.731	-117.423		-71.3049
19.5988	-102.147		70.2687
16.7586	-103.142		70.1623
22.0285	-101.56		67.4094
20.1161	-101.052		72.2147
68.7749	-10.1039		45.8294
67.1359	-9.16862		49.0087
68.9881	-13.538		45.1253
69.8891	-6.038		42.4788
65.4041	-7.57295		51.4559
65.4754	-3.34371		50.2624
63.0607	-9.09493		54.6843
12.5778	34.6437		87.3343
14.7571	32.5293		87.2758
15.077	36.8238		87.4074
9.81574	36.6211		87.7164
10.6531	31.8157		86.8537
8.73696	20.5417		78.6609
9.47515	19.3908		77.5234
9.43563	22.0729		77.96
8.25092	20.8329		79.8684
12.1584	20.8115		72.6578
17.25	17.4766		71.7114
16.5693	20.7266		73.8774
10.9347	22.7077		75.355
11.7017	19.1259		73.3527
44.6027	12.5598		66.7188
41.2604	10.6702		68.4272
46.3699	14.0966		65.6375
18.1564	10.9229		72.9131
17.7281	12.1605		72.5825
17.9712	9.81062		74.0509
19.6982	9.77686		72.1733
29.5449	-58.8085		81.2843
29.4613	-58.7123		81.5363
29.5942	-58.9027		80.8191
29.4736	-58.7628		81.5984
29.6258	-57.4304		81.9717
28.7989	-58.1722		82.59
29.4491	-58.0031		82.7372
29.7277	-56.9609		82.5689
28.1978	-56.9132		83.4656
32.232	-58.6243		81.2879
32.2924	-56.2701		82.4694
29.611	-59.0114		79.7773
29.2889	-58.3618		80.4105
30.0517	-58.9152		78.1272
29.4734	-59.2944		80.1477
26.7344	-62.5489		84.9446
27.0293	-63.4968		84.6441
28.9153	-60.654		82.1488
26.6524	-61.8001		84.7582
23.682	-63.982		87.7732
23.9515	-51.4705		89.4679
23.3293	-50.1381		90.0319
20.4601	-49.782		92.1893
24.2842	-52.2389		89.1304
26.7339	-53.3059		87.007
28.7754	-58.7453		82.4937
28.8598	-58.7823		82.4747
28.886	-58.744		82.3637
27.3898	-58.9042		83.6529
79.2538	-36.9521		-8.01197
78.6807	-37.3627		-7.22318
78.6832	-40.2234		-10.7803
79.87	-35.9845		-7.97708
87.1925	-27.5029		-19.2937
87.6203	-25.5952		-21.9353
86.246	-26.0151		-18.2277
86.7985	-28.7596		-16.9602
87.6344	-28.7712		-19.9841
82.346	-33.94		-9.69234
82.6471	-31.3682		-9.26239
81.7367	-34.205		-9.05662
82.9729	-35.1434		-11.2342
82.7885	-21.5647		-13.2641
82.7103	-20.4884		-14.0387
82.8512	-19.8453		-13.0829
83.1128	-22.0636		-11.9817
83.1228	-22.9143		-13.6693
88.4126	-1.96109		-14.3042
87.8669	-3.94818		-15.0147
88.6906	-1.17336		-14.8444
88.5176	-1.42949		-13.5122
91.8391	8.9477		-18.303
91.8751	9.50718		-17.3532
91.4408	8.00476		-18.2736
92.9237	10.1727		-21.2764
85.0423	-19.2052		-19.8397
84.2033	-17.7926		-18.4699
84.5187	-23.0058		-17.2004
87.0054	-22.1114		-22.3326
87.2232	-16.5839		-23.5715
90.0749	-0.493902		-20.5008
90.4599	0.648571		-20.8503
89.0244	-1.02421		-16.8575
89.9162	-1.78829		-21.4282
92.6806	-10.4672		-32.4746
92.5636	-10.247		-31.9658
91.7861	-13.5548		-32.042
93.0361	-9.32211		-33.4547
93.3395	-7.58287		-35.1759
93.4079	-5.4287		-34.2963
93.1949	-8.21956		-36.2291
93.4795	-4.45874		-36.5797
88.0662	-23.8673		-23.9781
88.5885	-21.5802		-25.8412
88.5501	-24.8476		-24.8399
90.4391	-10.3252		-28.0319
89.4351	-12.4036		-26.7687
91.6479	-10.3376		-30.1123
90.4784	-9.08947		-27.6332
80.9418	-29.1686		-6.07265
80.9722	-31.3827		-6.74264
81.6006	-28.7308		-6.97894
80.768	-28.3742		-5.52746
80.6864	-26.6799		-4.89056
81.0618	-24.6339		-4.92943
80.3157	-26.8669		-4.06609
82.0702	-17.3153		-5.5996
81.7814	-17.8445		-5.18835
82.5488	-17.8184		-6.41807
82.6038	-14.1451		-5.79244
81.5481	-18.7654		-4.58043
81.1797	-18.687		-3.65393
81.4238	-21.3151		-4.75594
84.5301	-24.588		-15.9752
84.3932	-25.6003		-14.3453
84.8438	-12.8403		-13.6631
83.7248	-16.6003		-13.2732
84.7451	-13.2549		-15.051
85.9629	-9.00663		-13.8438
85.2923	-11.704		-12.6195
93.7388	5.23157		-29.8315
93.8692	5.97359		-30.0842
93.5716	4.81747		-29.2667
93.731	4.42648		-31.8639
93.6952	0.774557		-32.8381
93.5117	-0.341214		-31.4497
93.6347	-0.697992		-33.9544
93.7686	2.1953		-33.7459
93.6479	2.28188		-30.5202
91.2435	7.383		-18.4444
91.9863	7.57925		-20.994
90.6374	6.48616		-17.352
92.7664	7.48479		-24.0564
92.3424	6.40955		-23.368
93.7962	7.28318		-28.0293
93.3256	8.752		-24.9131
40.5006	23.5652		73.2966
42.9552	22.5133		72.2563
37.5202	24.4344		73.7389
25.3539	-100.611		63.4899
24.3922	-101.133		60.9006
27.7491	-99.2516		63.4868
47.6466	17.6995		67.1448
46.7538	19.5499		68.9696
48.4169	16.1889		65.7134
52.5442	19.45		65.9041
55.4281	20.7948		64.657
51.6704	21.9992		68.2815
50.135	18.8037		66.9169
52.8707	17.0142		63.9952
72.833	-49.5174		-3.30124
73.7284	-47.7384		-7.80464
73.3326	-48.0334		-2.04238
72.0503	-51.6336		-3.58081
19.6746	16.0874		68.6075
19.946	15.2638		68.3949
19.7192	17.007		68.7499
19.1425	18.8355		69.8098
19.886	20.4897		70.4078
18.8788	17.4565		69.5208
7.52609	22.0184		80.973
7.16442	21.8201		82.3104
8.12527	23.776		81.5832
24.8002	-57.0153		85.3086
25.4165	-57.5755		83.9998
25.1542	-56.6055		85.6817
21.7782	-56.222		87.5171
61.67	-69.1893		-9.98205
62.859	-70.4523		-2.82693
60.6894	-71.4859		-12.1921
62.8826	-66.9676		-10.3424
80.7128	-6.69159		-0.26228
79.7012	-13.835		2.39098
81.5383	-7.34723		-2.77623
81.6298	1.3095		-3.52767
79.6386	-5.77311		4.13132
61.3736	-71.5907		-23.2946
60.925	-73.9028		-24.7302
62.1644	-67.312		-23.8807
60.9561	-73.7769		-18.932
61.0516	-108.932		-22.2474
61.6263	-117.939		-23.8795
59.8597	-105.248		-29.5647
61.2962	-99.6342		-25.921
62.4102	-110.827		-19.961
29.1766	-59.2111		82.4505
29.3032	-59.3559		82.3955
28.6072	-59.6744		82.4345
29.5017	-59.5918		82.3303
26.3899	-61.4136		85.0062
26.2506	-60.7744		85.0678
23.4085	-62.2708		88.017
29.4395	-97.9026		63.3703
33.2566	-95.5901		58.4653
29.5246	-96.5312		65.7963
49.0184	-60.3495		-65.7677
47.7882	-56.5267		-69.8669
51.6845	-59.438		-62.008
48.1453	-63.507		-65.4957
53.6351	80.5865		33.738
55.4804	82.4281		26.5861
49.7244	83.8237		36.4683
54.6938	76.3687		36.7669
89.9693	-20.0715		-33.3681
91.1857	-14.9357		-36.2348
90.5578	-19.3264		-32.2864
88.7824	-24.2597		-30.7896
89.2709	-20.0369		-34.5781
85.6416	-0.652943		-9.09285
84.7022	-5.00487		-8.00667
86.6011	-0.725748		-9.74536
86.4832	3.66179		-10.6381
84.3346	-0.504121		-8.35601
82.987	-22.1535		-8.35007
82.5159	-22.8411		-7.23446
83.2879	-24.7103		-9.4866
83.219	-22.3598		-9.82755
83.0077	-20.376		-8.19242
82.6778	-28.5132		-8.56243
82.2598	-25.7657		-7.34027
83.3674	-28.1812		-9.83569
92.2599	-9.15937		-38.666
91.4207	-9.1254		-39.5825
92.7368	-2.95906		-40.002
92.7233	-9.18231		-37.8324
90.4354	-8.98631		-40.2167
89.6032	-14.4268		-38.2445
89.3675	-8.65599		-40.6688
90.812	-2.95746		-41.2299
83.2411	3.53039		-9.55345
83.5244	5.79085		-11.2625
83.0658	4.61444		-9.36958
83.246	1.94744		-8.48646
86.5374	-18.1303		-37.4485
84.8021	-17.4192		-38.323
87.2518	-13.6518		-39.3283
87.6099	-18.7689		-36.7286
85.4355	-22.0417		-35.5331
88.7949	-25.8461		-25.7437
89.2803	-22.7743		-27.8581
88.3414	-28.0045		-23.1355
88.3781	-26.8263		-26.2544
84.8217	-33.8602		-24.4396
84.6532	-36		-21.0055
83.1288	-34.9567		-25.73
86.6525	-31.4599		-24.9299
87.4501	-31.8803		-21.8379
86.7123	-32.9848		-16.893
86.1672	-34.6288		-17.254
87.3014	-31.7621		-18.5155
86.4356	-32.3969		-15.6595
76.0866	-43.3325		-12.8415
75.474	-44.2593		-13.2663
77.1267	-42.3976		-14.4923
76.2978	-42.6046		-8.74763
80.9546	-39.9098		-13.951
81.1607	-40.5018		-16.2029
82.2239	-38.5771		-13.6229
80.7358	-38.3467		-11.1064
79.839	-40.7595		-14.2211
89.4073	5.91642		-11.8304
89.4443	7.45625		-11.9055
88.0103	2.43944		-11.0758
89.7031	5.9347		-12.2019
89.4368	8.33902		-12.1179
90.7808	11.6803		-13.984
89.0855	8.32587		-12.126
92.9625	-9.0401		-37.0974
92.0516	-13.804		-34.4866
93.401	-3.33593		-38.7403
94.0794	5.03613		-35.2397
93.855	4.02438		-34.9783
94.1532	4.44465		-36.1633
94.272	6.48175		-33.4447
90.486	6.68846		-13.7941
90.3325	6.59128		-13.2855
90.0122	5.14128		-14.0055
90.9975	8.29922		-14.6601
89.8726	5.89522		-12.5488
89.09	2.53129		-12.4664
91.0718	9.92321		-13.8636
92.2977	-10.2186		-31.399
93.047	-7.38609		-31.5687
90.9874	-13.8567		-30.202
89.5842	3.48973		-15.3325
90.0303	5.11147		-15.8508
89.5026	3.33439		-14.8993
89.825	2.63243		-17.0575
90.4131	5.94661		-16.9996
90.8462	5.56771		-18.9018
88.5285	-15.4687		-25.8183
89.0479	-17.0897		-27.0573
85.4803	-10.758		-11.4897
86.7005	-6.40209		-11.4794
85.3068	-10.7965		-10.3547
84.2613	-15.4904		-11.3647
88.8288	-0.785584		-15.2157
89.118	0.939257		-14.6256
53.3633	-57.4904		-60.1249
53.6569	-52.8802		-62.8238
54.7747	-57.704		-57.4329
28.2755	-28.1365		81.3506
29.6021	-31.6558		81.3684
29.31	-26.9233		81.019
26.7968	-28.0111		82.4346
21.8889	-25.5016		83.2647
22.322	-26.4878		82.7197
22.5271	-22.8476		83.1073
20.7007	-25.8926		84.6772
51.8542	36.1454		67.8022
51.9543	34.0496		68.5213
57.3335	32.1134		62.2904
51.9571	38.0454		66.6362
46.0682	38.1073		71.8512
7.74939	-30.9192		95.3273
6.70352	-30.0875		96.5375
7.53705	-31.7243		95.1589
9.42261	-31.0016		94.2234
8.76707	-26.3441		98.2096
7.17534	-26.87		99.1002
10.4231	-27.5496		95.6076
9.52359	-24.8698		99.0677
47.0695	15.0074		65.5208
46.8142	15.7189		65.8773
17.6452	-17.7159		95.8391
17.7138	-18.6744		95.6089
18.1357	-17.6936		94.7335
16.4932	-16.8253		98.043
84.4481	-26.1117		-33.3968
83.2326	-28.6107		-32.0152
82.9951	-24.4428		-34.809
85.4297	-27.2081		-32.352
63.1204	77.6412		13.0295
60.8927	81.1795		14.0423
64.1998	72.499		18.3195
65.7421	78.1911		2.965
30.2157	-63.6215		76.0338
30.7521	-61.8014		75.5391
30.3851	-64.4851		74.9852
29.4234	-63.4505		77.5024
30.2096	-53.5882		76.2649
29.1329	-53.9397		77.8729
30.2517	-52.0433		75.4514
30.7344	-55.2897		75.784
-15.6206	-101.902		73.3815
-15.9725	-100.849		75.354
-18.0757	-101.164		70.3695
-12.7764	-102.92		73.5339
-69.0339	-7.41792		45.2789
-70.1206	-4.69142		42.2857
-69.2094	-10.8253		44.1932
-67.0959	-6.33942		49.0868
-65.0729	-4.29166		51.8519
-62.6083	-5.05806		54.7033
-65.0626	-0.387429		50.9557
-8.20528	36.8316		85.2818
-9.96919	34.4853		84.4626
-6.78679	33.6014		85.2693
-5.60931	38.4026		86.0313
-10.7107	38.8727		85.0405
-10.6438	20.3158		79.1438
-9.77997	20.52		80.4198
-10.9622	21.9082		78.6215
-11.4253	19.1738		78.1711
-14.716	21.0502		73.4813
-16.5735	19.5853		71.0459
-14.1078	19.3266		74.1989
-12.908	22.5189		76.1774
-15.2774	22.5567		73.3771
-46.1585	15.1286		65.1006
-43.4954	13.6917		66.9133
-47.2527	16.1201		64.0037
-17.6803	13.1893		71.6166
-19.2454	12.0764		70.8334
-17.2547	12.093		72.7215
-17.4957	14.4122		71.2653
-27.434	-59.1026		81.333
-27.33	-59.0008		81.6101
-27.339	-59.054		81.662
-27.5171	-59.2021		80.8872
-26.6949	-57.7297		83.4124
-27.5815	-58.2965		82.5414
-24.5341	-57.5456		83.8168
-26.3565	-57.5794		82.9586
-30.946	-56.5398		81.3443
-27.7591	-59.2889		79.9228
-27.6051	-59.6214		80.2892
-27.9869	-59.1819		78.5599
-27.4308	-58.6042		80.5837
-22.1993	-62.5584		86.6282
-22.4611	-63.2671		86.2544
-18.7413	-64.0765		89.501
-22.1456	-61.9407		86.7548
-25.4698	-60.9578		83.9039
-21.3312	-51.6126		90.6634
-20.8231	-50.3005		91.2126
-23.3935	-53.6929		88.1128
-21.0758	-52.6501		90.1766
-18.0392	-50.0058		93.1315
-26.6914	-59.0716		82.6299
-24.9422	-59.1121		83.8016
-26.8173	-59.074		82.511
-26.7822	-59.1044		82.6075
-78.5267	-36.4268		-9.39917
-79.2557	-35.4619		-9.32028
-77.6048	-39.7141		-12.2149
-77.6587	-36.7879		-8.38083
-86.8094	-26.9248		-20.4037
-86.4472	-25.3669		-22.7405
-87.2684	-28.2028		-21.048
-86.7755	-27.8254		-18.4622
-85.7563	-25.348		-19.1491
-82.7445	-33.088		-11.3385
-83.3015	-34.1968		-12.9262
-82.2544	-33.3546		-10.7424
-82.6647	-30.4058		-10.5742
-82.4145	-20.8883		-14.1177
-82.121	-19.9985		-14.6963
-83.0328	-22.0777		-14.9377
-82.7108	-21.2845		-13.0113
-82.0091	-19.3958		-13.5733
-86.0662	-1.65024		-14.7886
-86.6113	-0.889769		-13.9968
-86.0126	-0.988538		-15.2387
-85.166	-3.81736		-15.3802
-88.8732	9.25707		-18.5272
-88.8934	9.78384		-17.5853
-89.9291	10.4849		-21.5353
-88.4847	8.31391		-18.5137
-82.6951	-11.9368		-18.2576
-84.8874	-8.02007		-21.347
-82.059	-14.333		-18.6515
-81.8901	-13.234		-15.4729
-83.5432	-8.28933		-17.2851
-87.9481	2.4962		-21.4005
-87.5446	0.921803		-21.191
-86.8595	2.85684		-17.2677
-88.4824	4.13314		-22.1807
-89.4762	2.05798		-26.0374
-81.5224	-29.9918		-31.4683
-82.6633	-28.2038		-32.4984
-80.2825	-29.9457		-31.9424
-81.9017	-32.0258		-30.355
-91.0948	-10.3511		-32.6924
-91.4581	-9.20066		-33.6222
-90.2353	-13.5357		-32.4089
-90.995	-10.1654		-32.1586
-91.8008	-7.49647		-35.3003
-92.0726	-5.28659		-34.217
-92.1579	-4.31748		-36.4791
-91.6571	-8.21888		-36.3239
-86.3904	-23.7688		-24.6927
-86.7466	-21.4893		-26.4784
-86.8601	-24.7312		-25.5268
-85.2186	-21.8398		-23.1815
-87.8968	-10.309		-28.4839
-87.0648	-12.2472		-27.3826
-87.9249	-9.02889		-28.2154
-90.0478	-10.1927		-30.5324
-86.1343	-15.3622		-26.4578
-86.9497	-17.0112		-27.5808
-84.986	-16.4184		-24.268
-80.7901	-28.2766		-7.44427
-80.5772	-27.5454		-6.81253
-81.4221	-27.8199		-8.31536
-80.8025	-30.5663		-8.10581
-80.4778	-25.9097		-6.08817
-80.1074	-26.1045		-5.28397
-81.2445	-23.7249		-6.58796
-81.8439	-17.2399		-6.01078
-81.2663	-14.6684		-5.56745
-81.871	-17.6975		-6.61751
-81.5776	-17.79		-5.61894
-81.4936	-18.417		-5.47895
-81.3386	-20.7226		-5.95888
-81.1382	-18.3591		-4.48586
-84.1883	-23.7794		-16.9362
-84.0433	-22.4502		-18.0591
-84.4239	-24.6661		-15.7628
-82.4291	-12.5837		-14.0509
-81.4385	-16.7466		-13.2433
-83.3189	-11.3262		-12.9172
-83.6061	-8.71628		-14.2863
-82.062	-18.08		-13.0799
-82.157	-18.162		-12.1576
-91.0018	5.46854		-30.2966
-92.4032	4.92903		-32.2473
-90.902	5.03984		-29.7324
-91.626	6.46668		-30.6118
-92.3056	1.24678		-33.0348
-92.1308	0.134739		-31.6798
-92.1337	3.00715		-31.1494
-92.4282	2.61726		-33.8713
-92.3072	-0.445416		-33.9065
-88.3047	7.67147		-18.7552
-87.6793	6.71852		-17.6173
-89.0722	7.92173		-21.2613
-89.9219	7.85507		-24.4401
-89.5604	6.79703		-23.7663
-90.488	9.18103		-25.2656
-90.9982	7.62608		-28.3075
-88.9328	5.49632		-22.9209
-90.2117	5.06032		-26.9042
-87.9003	5.87893		-19.1665
-39.6414	25.8577		72.7907
-36.5682	26.592		73.6253
-42.2496	24.7994		71.4451
-21.9978	-99.98		66.4308
-24.1277	-98.679		66.2065
-21.154	-100.651		63.4967
-47.3378	19.4777		65.474
-48.5566	17.9089		64.0486
-45.4854	21.3781		67.2704
-50.0548	21.7655		64.6005
-48.4202	24.8847		66.8148
-51.703	22.9188		63.0953
-51.2783	18.7719		62.8798
-48.2916	20.6912		65.0255
-71.1919	-50.0024		-3.06291
-70.3254	-52.2613		-3.2174
-71.6282	-48.5168		-2.00012
-72.1618	-48.1977		-7.50553
-21.6584	18.7393		66.9495
-21.9227	18.0002		66.8188
-21.6166	19.5026		67.5244
-19.792	21.09		69.1179
-20.7234	22.6251		69.933
-19.5173	19.8129		68.6647
-8.96692	21.7436		81.5256
-8.11113	23.5381		82.037
-7.92807	21.6009		82.7529
-20.4777	-57.4039		87.2357
-17.2148	-56.6635		89.8011
-21.1294	-56.9202		86.847
-21.1062	-57.8629		86.2286
-63.4357	-71.8304		-6.07733
-64.3323	-69.4633		-6.73393
-62.8891	-74.3748		-7.82029
-62.5238	-71.8156		-0.794775
-79.0553	-7.28533		-0.0685662
-79.5088	-13.5885		1.90136
-77.9119	-6.19933		4.55014
-80.7957	1.08617		-3.92918
-80.1013	-7.81648		-2.65501
-63.9715	-73.2115		-21.1752
-63.333	-76.7704		-14.3363
-64.6841	-69.0277		-21.6934
-63.441	-75.3652		-22.7819
-59.6674	-108.211		-27.4854
-59.5793	-116.825		-28.87
-59.8112	-110.632		-21.4893
-61.3049	-99.0697		-25.8831
-58.1059	-104.875		-34.9514
-27.0235	-59.4702		82.617
-25.1761	-59.9186		84.0555
-26.8772	-59.3227		82.662
-27.1441	-59.6101		82.5648
-28.846	-59.1947		81.5645
-27.8309	-60.3713		82.2699
-21.8299	-61.4926		87.0532
-18.5368	-62.532		89.8872
-22.0112	-60.9866		86.8618
-25.9282	-97.2642		66.0657
-26.1495	-95.9779		68.6094
-29.8284	-94.9307		61.3719
-48.3158	-60.4519		-64.6691
-47.3954	-63.5186		-64.4452
-50.9116	-59.4861		-60.9923
-47.0599	-56.6631		-68.673
-55.9205	80.5786		33.0299
-56.4118	76.3796		36.1732
-51.9498	83.7825		35.8128
-58.1429	82.5884		25.7652
-88.5108	-19.818		-33.6043
-89.665	-14.8365		-36.3205
-87.8509	-19.8202		-34.8133
-87.2916	-24.0335		-31.1364
-88.7264	-19.2037		-32.5653
-83.0697	-0.746676		-8.9358
-82.1639	-5.12046		-7.91423
-82.0321	-0.601956		-8.20991
-83.6225	3.65053		-10.4241
-83.7717	-0.817261		-9.51754
-82.6437	-21.3896		-9.44101
-82.2086	-22.0955		-8.41128
-82.5438	-19.9119		-8.79245
-82.9085	-21.6184		-10.7546
-83.1711	-23.7125		-10.8694
-82.4734	-27.5759		-9.86925
-82.2215	-24.7553		-8.88444
-83.328	-27.2572		-11.2559
-90.7648	-9.11957		-38.7136
-91.2629	-9.12243		-37.868
-91.5513	-2.83729		-39.758
-89.9394	-9.15341		-39.506
-88.9193	-9.01033		-40.1478
-88.1772	-14.3899		-38.2514
-89.4606	-2.94725		-40.9804
-87.8487	-8.77404		-40.5184
-81.3973	3.43603		-9.40363
-81.9737	1.79014		-8.38188
-82.1795	4.43391		-9.48967
-81.4436	5.75909		-11.137
-85.4393	-17.8646		-37.7118
-83.8917	-17.2321		-38.5156
-84.52	-21.6717		-35.9669
-86.3577	-18.4844		-37.0386
-86.017	-13.5281		-39.4215
-87.1541	-25.6857		-26.3507
-87.5953	-22.611		-28.6847
-86.9329	-26.6334		-27.5376
-87.2132	-27.7349		-24.1027
-86.0622	-33.8843		-24.7322
-86.8533	-31.7008		-22.8529
-86.3239	-30.9149		-26.9143
-85.3228	-34.8105		-26.2687
-86.0808	-35.2975		-22.7062
-86.6883	-32.1484		-18.3787
-86.3231	-31.543		-17.1053
-87.2011	-30.999		-20.0289
-86.0102	-33.8053		-18.8225
-74.7667	-43.4314		-13.3502
-74.9729	-42.4496		-9.67261
-76.043	-42.3132		-15.0669
-74.1769	-44.3517		-13.7623
-80.5519	-38.9853		-15.2575
-80.5291	-39.909		-17.6274
-79.0368	-40.1263		-15.6008
-80.6241	-37.4113		-12.7474
-82.1637	-37.6901		-15.0437
-87.2544	6.03196		-11.845
-87.6455	6.04397		-12.3345
-85.2304	2.34915		-10.8183
-87.2268	7.59992		-11.9391
-87.2217	8.50124		-12.1528
-86.6316	8.41359		-12.077
-88.997	12.0503		-14.2006
-92.9529	5.34127		-35.1727
-92.924	6.8885		-33.6512
-93.0589	4.73792		-35.9864
-92.7424	4.36765		-34.9306
-88.746	7.34104		-14.1966
-88.5874	8.69446		-14.8524
-88.0946	5.70789		-14.4431
-88.1821	6.92458		-13.4942
-87.8138	6.00549		-12.6823
-89.1746	10.4113		-14.122
-86.9428	2.81048		-12.6203
-90.7388	-10.1594		-31.6197
-89.2247	-13.7541		-30.5856
-91.5279	-7.08931		-31.8864
-87.4357	6.1141		-17.2192
-87.3797	5.44262		-16.2098
-86.9236	3.7936		-15.7108
-87.171	3.79333		-15.2705
-82.9355	-10.719		-11.5941
-84.1758	-6.32984		-11.7011
-81.9596	-15.6848		-11.1784
-82.4577	-10.8424		-10.337
-86.1541	-0.502738		-15.5304
-86.7835	1.37126		-14.9918
-86.036	-0.9332		-17.0927
-52.6326	-57.5693		-59.0066
-53.9443	-57.7745		-56.4674
-52.8874	-53.0774		-62.1547
-27.3791	-26.0808		81.0754
-25.211	-25.7426		82.029
-27.7413	-24.4676		80.5712
-29.291	-30.0356		81.3395
-22.2205	-23.9158		84.0025
-21.2697	-24.4031		85.1777
-22.7415	-21.1564		83.9528
-22.6589	-25.195		83.6639
-49.7455	39.5661		68.6509
-49.8995	37.8982		69.267
-44.0434	41.3387		72.3944
-49.0334	40.9099		66.2851
-54.3179	34.842		62.1652
-9.31591	-28.8848		96.8817
-9.58815	-28.0549		97.3746
-10.0333	-29.6406		95.8391
-8.23595	-29.422		97.89
-9.84246	-26.958		98.5345
-10.9835	-26.4911		98.2996
-8.72149	-26.5759		100.627
-47.876	16.9735		63.8077
-47.5743	17.741		64.1994
-18.2456	-16.7589		95.1239
-17.0718	-16.017		97.3355
-18.5795	-16.7438		94.1567
-18.1331	-17.7388		95.012
-64.8345	76.7688		13.791
-66.0381	77.0461		4.73661
-67.1401	72.841		17.2515
-62.372	80.3114		15.0224
-27.8043	-64.2698		77.8111
-26.9972	-64.1244		79.2438
-27.6416	-65.3694		77.2979
-28.3986	-62.6295		77.4144
-28.2802	-54.0007		76.5121
-28.7113	-55.7235		76.6599
-28.139	-52.3955		75.9606
-27.1855	-54.2724		78.0903
-12.4257	-25.9064		97.4317
-12.9575	-24.4464		98.0567
-13.4951	-27.0131		94.9114
6.03392	-27.6055		99.514
4.95094	-27.3705		101.701
5.9278	-28.8979		98.4913
5.71916	-29.7023		97.9689
4.35442	-30.0515		98.6954
-10.513	-30.291		94.6959
-11.649	-30.2451		93.6372
-10.0366	-31.2588		94.5965
80.2251	-35.1136		-27.5456
78.9512	-36.0279		-26.888
81.1171	-32.0806		-30.0333
81.1048	-35.4207		-27.0174
78.557	-38.2814		-24.2403
72.2356	-48.943		10.5808
70.9574	-50.4507		18.0728
70.968	-53.3576		10.0192
73.2993	-46.9643		4.04684
73.1599	-44.1558		11.5051
55.2394	-114.024		-7.09862
54.2685	-102.76		-7.7588
52.0827	-114.632		-2.6313
57.7882	-125.431		-8.22914
58.4713	-112.881		-11.2603
59.0113	-132.71		-8.04733
60.3884	-138.535		-7.21031
61.2922	-130.568		-11.5205
56.7331	-134.876		-5.62624
49.0356	-97.4066		2.38757
49.6035	-91.5007		3.40596
45.6663	-99.004		7.30351
48.8802	-104.884		1.26814
52.1185	-96.2183		-2.94399
57.7536	-94.5647		-15.7938
59.3992	-102.137		-14.4645
58.9771	-93.6551		-20.6407
57.982	-88.9988		-15.9323
56.1667	-94.87		-11.6395
64.1545	-67.4129		22.7044
65.709	-63.9161		24.1998
62.0208	-69.0491		30.5539
62.3065	-70.9344		20.5959
65.3332	-66.1754		14.8813
72.8094	30.7443		22.028
72.8263	38.9799		19.8337
68.9148	33.9109		32.9986
74.5597	22.9508		25.8021
78.2567	29.0927		11.4334
76.9012	42.2024		-30.0753
77.2274	38.5369		-38.8322
75.5619	49.0254		-34.7087
77.0675	44.3295		-20.2413
77.8984	35.0065		-25.7737
7.95135	-111.43		46.955
4.93706	-111.331		47.8058
8.99987	-119.17		42.601
11.9109	-111.355		45.4617
6.93683	-107.944		49.232
11.8466	-130.276		34.8441
13.003	-141.535		29.9019
15.5232	-129.431		33.3818
8.51487	-130.412		35.9799
6.29756	-149.788		28.4293
9.94433	-149.5		27.91
5.89077	-142.1		31.4619
2.77675	-149.749		28.6497
6.73111	-154.961		26.5559
66.1245	-52.8216		-33.1359
69.3433	-47.2988		-30.7223
64.2977	-58.3948		-28.6592
64.0047	-59.2195		-34.6328
68.6833	-46.1196		-36.6901
69.4135	-40.6885		-39.8056
65.7284	-46.2737		-43.0613
70.243	-35.926		-42.3485
72.571	-36.2554		-36.7383
61.7875	-125.418		-25.5066
61.6662	-132.488		-27.5572
60.1713	-122.915		-32.142
62.3708	-128.076		-19.5069
5.40657	-130.661		36.5612
3.32448	-119.384		44.2136
2.45109	-130.588		36.8005
69.4829	-51.6081		26.1675
70.6249	-46.7341		26.3544
67.5335	-52.177		34.338
68.2978	-55.9069		25.8888
66.3454	-64.8294		7.20658
64.4595	-68.3409		5.83539
66.8529	-63.9711		-0.549254
68.0533	-61.0293		8.13969
8.99254	-94.5829		88.0165
4.92422	-94.9304		89.7475
9.16327	-98.2281		85.5729
14.2329	-94.0675		85.3126
9.21525	-90.5743		89.711
20.9814	-91.7716		79.1098
20.9357	-95.8847		76.8806
25.8428	-89.9632		75.9087
21.0326	-87.5681		80.6713
3.21803	-86.8702		92.125
6.16435	-86.6282		91.5667
3.87538	-82.3997		92.0188
0.744727	-86.8788		92.271
2.56596	-91.0581		91.8137
9.64674	-101.181		81.7559
10.4152	-103.157		77.7388
14.2994	-100.813		80.0715
5.81944	-101.36		83.336
12.7378	-103.584		70.8435
8.71607	-103.819		71.4738
10.9	-103.739		66.2422
19.4981	0.65056		80.2298
20.125	-3.91118		82.7079
21.9765	-1.66023		78.2836
18.4118	5.14231		77.6494
16.8292	3.51294		82.5778
51.5951	-30.5819		69.0607
57.5333	-31.5099		63.0976
51.0957	-25.3871		69.0571
45.0172	-29.1457		73.8449
51.7548	-35.3958		69.0925
62.2241	-21.295		56.9738
66.0435	-20.7047		50.7208
61.1249	-15.6847		58.0107
56.8215	-20.6383		63.3821
62.4938	-26.7489		56.6561
70.5092	-0.327521		40.1002
72.2281	-1.12897		35.2447
70.3591	7.69555		39.663
68.5078	1.22254		44.2616
51.81	-39.9106		68.7011
51.564	-44.6137		68.3679
56.9836	-41.1466		62.5999
46.1853	-38.6014		73.7158
0.481568	4.99222		100.166
0.507358	10.0081		95.9645
-1.11952	5.2664		100.284
0.594721	0.332527		103.878
2.44477	4.41936		99.078
29.3667	70.589		68.236
24.3822	71.4624		70.4136
27.8697	64.4751		72.2233
34.8013	69.0686		65.3601
30.7682	76.0604		64.131
3.22501	-104.598		62.6322
2.55982	-104.873		57.86
6.53123	-104.45		62.1489
3.32972	-104.396		67.465
0.125242	-104.564		62.7646
65.2264	-52.3957		41.5757
62.3745	-52.3205		48.7843
63.6213	-57.5904		41.5136
66.5384	-47.3288		41.5286
2.9003	-101.675		84.3728
2.46207	-98.9334		87.9743
0.915327	-101.721		84.6566
5.3542	-102.844		75.921
5.61302	-104.023		71.8568
2.65465	-104.048		71.9668
40.1476	-87.3385		58.5985
35.057	-90.9199		63.4852
39.2382	-90.0953		56.113
44.9906	-83.0415		54.6676
40.4582	-83.9366		61.7037
44.7151	-89.7019		37.0592
42.0113	-93.6028		32.8979
48.9014	-86.3775		31.6325
47.0434	-86.4717		40.7427
39.8203	-93.3532		42.1247
1.24454	-105.665		53.2209
4.1142	-105.9		52.6399
-1.34782	-105.52		53.3392
0.933462	-107.473		50.5141
5.68854	-5.58192		104.877
6.12484	-8.98788		107.847
8.54628	-6.72036		101.305
5.32347	-1.37294		101.091
2.9636	-4.69499		106.891
29.4022	-24.5689		80.8772
32.7183	-25.9977		79.4547
28.3456	-19.6272		80.8895
26.3115	-21.739		82.691
31.5818	-59.7208		81.3216
33.5556	-59.2657		80.5533
12.3367	-29.0297		93.291
15.0498	-26.8609		92.4648
12.2492	-30.4212		92.6567
15.2688	-28.7691		90.1559
12.8675	-33.7572		91.8776
13.3478	-35.0529		91.7018
16.179	-33.2042		88.1248
12.726	-32.8695		92.0888
10.3296	-33.3853		92.967
-0.562369	-30.4299		101.669
-0.519723	-28.3875		103.532
-2.06126	-30.2594		101.706
-0.311507	-31.7764		100.231
1.47309	-30.3577		100.985
18.6113	-32.3942		86.3215
21.0238	-30.8865		84.6861
17.6258	-31.2809		86.5838
19.1782	-33.8839		86.23
6.37013	-17.8567		110.397
3.70061	-18.3746		113.167
6.0245	-19.9213		109.165
9.07152	-17.6761		106.29
6.57802	-16.1524		110.929
28.5206	-71.7239		80.3777
31.7067	-69.2972		78.8375
27.6193	-68.8672		82.2439
24.6712	-73.7436		82.3566
29.2516	-74.9441		78.5416
32.2024	-53.3288		83.6526
32.855	-49.3294		81.4334
31.5468	-52.327		82.3
33.9828	-53.7881		82.359
1.21202	-36.8243		98.3331
1.30807	-38.4852		97.998
2.84587	-36.3001		97.8742
0.205454	-34.5944		98.6948
-1.55039	-36.4187		98.2257
4.92777	3.13078		97.499
7.63548	1.38017		94.4473
4.87424	7.8519		93.6429
20.2288	-20.7161		88.0381
19.2232	-18.4205		90.5426
19.1321	-19.3497		90.3391
20.3161	-22.3497		87.1449
20.6617	-20.5609		86.6067
3.277	-32.432		97.9954
3.89189	-34.5104		97.7088
5.64301	-32.886		96.846
3.23489	-31.3726		98.7014
1.80841	-32.83		98.8897
3.07794	-30.3844		99.8971
2.95509	-28.8897		101.601
18.6927	-18.1536		93.0545
18.4639	-17.2938		93.4448
18.6747	-19.9095		91.7444
19.9002	-25.1599		86.3902
18.9238	-23.3704		88.5794
18.7306	-27.7216		86.4494
3.03984	-45.4236		98.3843
3.51389	-47.3676		98.8403
5.56378	-44.7123		98.1678
2.64281	-42.7676		98.1068
0.674479	-45.9552		98.5677
25.6857	-35.4641		83.0415
23.1365	-35.7277		84.5552
28.7535	-40.0721		82.8783
28.5841	-35.9391		82.9125
23.921	-31.6609		82.9264
11.8556	-72.0933		93.4466
11.8787	-70.1344		94.9107
8.03289	-72.5231		93.8841
11.7473	-74.4866		92.1222
18.9307	-70.7321		86.4792
29.3909	-54.8521		83.4904
29.7619	-55.5474		82.8749
30.2237	-56.4898		83.6095
29.404	-53.1104		84.0005
17.9876	-16.5871		93.281
18.1902	-15.9751		91.6791
16.6089	-15.1725		96.6002
22.1506	-70.0658		85.2693
22.323	-72.2899		83.8466
25.4416	-69.2472		83.6432
21.8459	-68.427		86.7525
4.79267	-72.9337		93.9932
1.65374	-73.2156		94.0389
4.76375	-75.0427		93.0193
4.75403	-71.2556		95.1752
63.1956	26.9667		57.1441
62.1446	25.9426		59.1101
65.023	21.1704		51.8852
64.0141	28.3538		54.9672
38.8036	55.0042		69.0952
32.5479	56.7796		73.1778
38.5917	48.91		72.3985
45.5683	52.2434		64.5284
39.7201	61.2795		65.3097
52.5115	48.5552		58.9591
52.038	43.3812		62.8466
58.9735	44.1473		51.823
53.4763	54.32		54.5795
39.6719	39.4486		75.6367
39.14	42.4133		74.9762
33.3153	40.4952		79.7317
40.4008	36.4428		75.9025
65.2914	29.9501		51.3558
63.7887	33.2509		47.066
58.0843	35.7867		58.8909
68.087	23.3947		44.7667
22.1933	29.3924		81.3777
23.1915	28.4345		79.497
25.9653	29.7806		81.4142
18.2429	32.2534		82.8504
19.482	29.0423		81.4324
5.33766	18.2185		85.277
7.90018	16.2661		81.9892
5.79225	20.1851		84.4995
2.9625	19.5435		87.5466
5.10901	15.7437		86.8466
32.6797	-7.6064		74.2944
34.3785	-12.2489		75.2287
39.1199	-8.96152		72.1477
30.7756	-3.43408		73.4237
27.6154	-5.56529		76.0177
60.4052	4.29194		54.7659
63.1921	2.73275		51.9765
61.4515	8.80056		53.6965
57.6243	6.13003		57.2191
58.2285	0.542073		57.5485
4.80055	12.3113		89.6746
7.53838	10.1386		86.8486
2.46134	13.7031		91.5423
40.9992	34.2771		75.7468
46.6702	33.4388		72.895
34.8744	34.3133		78.6038
41.042	32.0914		75.71
51.7534	32.1532		69.0564
53.3921	30.131		70.5813
58.3145	28.7925		65.4804
57.31	13.9945		58.9771
57.5493	18.0796		60.9687
54.7119	14.2513		61.1252
56.6601	10.4782		58.3348
59.3969	13.953		57.0103
43.7557	19.7135		70.0229
45.3614	18.3149		68.4151
41.9888	20.9165		71.3522
39.9721	21.9739		72.0444
37.6875	22.7614		72.4296
40.1034	22.742		72.5663
37.4762	23.5372		73.0574
42.4016	21.7216		71.7822
34.8475	23.2177		72.6417
31.8819	23.1337		72.3543
34.4888	23.9078		73.112
31.275	23.8078		72.755
28.9284	22.7064		71.5915
26.2844	21.815		70.7568
23.7084	20.66		69.9921
21.5216	19.422		69.414
22.6342	21.3354		70.3956
20.7394	20.1146		69.8936
25.1914	22.4939		71.0395
20.3157	18.2788		69.0218
21.5245	21.8677		70.9658
24.1799	23.1969		71.7312
34.0821	24.8402		73.8366
30.7079	24.6006		73.3929
48.6152	13.636		64.5891
49.0878	14.6905		64.6716
47.402	12.7257		65.0574
31.7533	30.4422		79.716
37.5399	30.6325		78.0773
28.887	31.4176		80.25
32.0078	29.2059		78.4377
49.4559	24.3059		70.9952
47.4709	22.7884		71.0919
51.1192	26.1609		70.9766
45.7762	25.6173		73.3845
37.8962	5.14222		69.3174
43.3522	5.8913		67.3483
31.5156	5.59103		70.6028
38.685	3.46796		69.2384
26.4482	7.20843		70.8184
22.8034	9.40917		70.6526
26.9711	5.44224		71.2997
19.4578	13.4797		69.9495
19.0494	14.5165		69.6832
20.2028	12.4244		70.064
36.7404	8.3105		69.4451
41.6679	9.27862		68.1585
30.9846	8.59993		70.2244
21.2559	13.0651		69.1011
22.9851	11.9158		69.4334
20.495	13.7866		68.8588
20.0287	14.3287		68.7674
19.6015	15.0096		68.7667
17.0918	22.9324		74.0002
16.6833	24.8238		76.9981
17.7535	20.5077		71.7839
18.1912	24.3371		74.5234
18.7327	15.9819		69.6408
27.2641	24.0763		72.5523
18.134	19.5619		70.7593
18.0188	18.0304		70.5418
19.0627	21.124		71.1551
36.5379	9.69135		69.4768
30.8464	9.94163		70.0549
21.2827	13.9021		68.5088
20.66	14.2909		68.4226
22.8179	13.1391		68.8662
20.2498	14.7953		68.3526
46.2759	16.9381		66.9504
4.81687	32.0872		87.2429
1.88722	32.1932		87.2222
3.91258	29.9381		86.4473
7.31262	31.1995		86.9721
5.26244	34.5359		87.4126
21.5899	4.22999		74.0295
21.0524	6.44519		72.963
19.7708	6.05197		74.6489
22.8492	0.930972		75.453
24.5456	2.14349		73.4456
17.9913	7.91676		75.7408
16.2955	9.92125		77.5526
17.9382	13.3326		72.0153
16.7317	14.2178		73.6923
17.9711	14.9859		71.0114
10.4472	23.8535		77.9264
11.6483	25.4847		78.041
9.83424	24.7444		79.7167
21.1173	11.077		70.3649
20.8919	9.85848		71.1805
20.9929	8.25667		72.006
23.4364	6.12527		71.9322
25.4845	-57.6949		83.4655
25.3665	-57.6222		83.2154
27.3521	-58.0998		83.1552
22.2239	-57.1116		85.6108
28.8448	-58.2858		81.9762
28.5845	-58.1785		81.9305
3.86605	-50.6107		99.0956
6.91291	-50.2461		99.7322
3.78605	-49.4391		99.2895
0.80067	-51.018		99.3213
4.06963	-52.0529		99.8166
10.0011	-52.7778		97.942
9.88455	-51.4455		98.6257
7.17113	-52.7677		98.7033
9.98588	-54.031		98.0846
12.591	-53.2393		98.1938
18.198	-53.292		91.9735
18.0435	-52.0008		92.7808
18.3018	-54.5019		90.964
21.3622	-54.082		89.8055
9.59081	-50.1258		99.044
12.4685	-50.2919		98.0519
9.36703	-48.9395		98.966
14.1071	-48.5027		97.4885
17.5075	-49.7088		93.8478
13.638	-47.5107		97.6156
11.1729	-48.1794		98.7371
25.3075	-55.715		86.2752
24.9958	-54.3708		87.5634
9.57274	-55.196		97.3943
6.77186	-55.0204		98.0017
9.34545	-55.7693		96.5255
12.9741	-55.6351		96.5184
18.855	-55.6494		89.3837
18.9171	-56.2425		88.4813
29.5818	-57.2258		83.5208
25.7732	-58.6965		84.0622
25.6907	-58.6296		83.8664
22.3789	-58.4691		86.6101
25.8281	-58.8831		84.3139
26.123	-60.2035		84.9668
25.8827	-59.7658		84.9647
23.0357	-60.8527		88.0369
20.0366	-60.9951		90.3853
19.9143	-60.11		89.9914
14.4234	-61.582		97.4548
20.4471	-61.8477		90.2803
10.0229	-58.8844		97.3734
10.5102	-59.9931		97.6004
13.5496	-59.5852		97.1468
9.60873	-57.8996		97.025
6.62838	-58.8508		98.1111
4.20782	-62.0614		99.2063
4.41548	-63.2056		98.9624
7.45572	-61.3319		98.4535
3.99704	-60.6885		98.9707
1.45607	-62.0281		98.1809
28.8804	-59.6021		80.86
28.9891	-59.1334		81.7465
28.6762	-60.8678		80.0372
27.3157	-59.6501		82.5803
3.5784	-58.2164		94.2627
3.53418	-57.3384		95.6966
6.0456	-58.6464		94.9269
3.61879	-59.954		93.6718
1.41211	-58.245		94.3327
4.55586	-64.3919		98.538
1.60426	-64.7511		98.5642
4.59758	-65.3707		98.0629
8.01172	-63.583		98.2175
4.80937	-69.1693		96.3799
8.33659	-68.473		96.3452
4.73643	-67.8013		97.8049
1.75469	-69.4407		96.3396
9.04969	-47.9901		99.1182
7.95437	-46.6417		98.4004
6.43908	-47.8664		98.8713
3.88832	-59.2646		98.4236
1.40886	-59.1382		97.184
3.72792	-58.084		98.036
3.65917	-57.6024		97.7421
6.16561	-57.5104		97.6208
3.68998	-57.3017		97.4107
1.41527	-57.414		96.4852
9.40897	-57.4806		96.7331
12.9799	-58.1033		96.2555
9.29285	-57.3166		96.4573
3.62404	-57.3919		97.3093
6.05057	-57.1381		96.6015
1.40834	-57.3199		96.8323
18.9972	-57.9718		88.8988
18.879	-57.794		88.5035
19.2096	-58.3753		89.3058
20.9325	-64.6633		89.8065
21.2449	-65.7267		89.1671
20.8154	-63.6742		89.9721
18.0955	-64.7139		91.1761
12.0552	-65.4261		97.7419
12.1751	-66.5145		96.9745
11.9039	-64.5388		98.1972
8.33215	-65.9735		98.4632
4.75079	-66.5828		98.3747
1.63901	-66.6312		97.4963
18.7911	-56.4675		87.7157
12.7429	-56.5111		95.2457
18.4404	-56.3666		87.2194
31.6292	-58.4721		81.5829
30.6021	-58.9009		81.73
28.896	-58.8534		82.4835
28.4464	-59.0015		82.2288
9.07934	-58.7965		94.5338
9.15111	-57.8448		95.704
12.4926	-58.9962		93.5718
9.17099	-60.1478		92.97
9.10916	-57.2269		95.8437
12.5944	-58.0366		95.5771
11.8737	-68.4189		96.4092
18.4391	-67.1635		89.2975
20.5636	-62.8089		90.2675
17.7317	-62.8678		91.8526
21.4736	-66.9866		88.1603
24.4652	-66.2343		86.2393
18.0875	-55.9724		86.8953
12.4627	-56.1937		94.0961
17.3996	-54.7856		86.3521
21.3659	-56.589		85.1581
9.28223	-55.6631		94.9058
6.54992	-55.1752		94.304
9.59436	-54.5259		93.5662
9.23924	-56.0011		95.3621
14.0323	-52.8289		91.2421
11.6511	-52.2961		91.8576
13.7054	-49.0954		89.9197
18.9587	-52.3731		84.3489
28.3136	-63.6126		78.8332
27.5115	-66.773		78.0556
26.5378	-63.8066		80.4434
3.61719	-62.917		92.0131
5.84294	-63.2901		92.3955
3.73828	-66.6891		91.0081
1.51436	-63.0257		92.0879
9.32505	-51.8369		92.2718
6.87349	-51.5143		92.3615
8.91962	-48.1325		90.7888
8.9256	-63.3075		91.9625
9.07723	-66.8587		90.3864
12.2718	-63.5003		91.1397
31.2813	-58.6018		74.8225
31.6119	-58.2823		73.7218
11.1045	17.5109		74.8966
10.5505	15.8924		76.8768
81.1006	-8.99147		-43.9878
80.4409	-13.3343		-43.2921
79.0251	-8.26724		-47.34
81.1727	-4.32287		-44.1976
82.5598	-9.39454		-42.3998
82.0045	8.57399		-7.12869
82.4027	11.5375		-11.2267
81.0459	10.6102		-2.34097
82.4919	13.7419		-16.304
82.2453	19.2359		-17.5007
82.8983	8.76418		-17.4074
83.1591	13.1356		-23.0849
75.2635	-33.3993		-34.48
77.7153	-31.2116		-32.8803
74.3069	-37.5957		-31.9023
76.4018	-29.51		-36.296
77.431	-25.8116		-38.4214
74.8223	-27.7104		-41.2304
78.5955	-21.7943		-40.2935
79.6626	-24.6625		-36.6264
84.0462	-9.44676		-41.5545
85.6271	-9.0552		-41.0942
83.5497	-13.5457		-40.5833
84.4296	-4.55838		-41.6947
86.0909	-28.1034		-30.9026
87.3863	-24.0219		-33.3465
86.6854	-28.6488		-29.3008
84.6881	-32.3115		-27.5551
90.8474	-18.4038		-31.4036
90.822	-17.9235		-30.6083
78.9124	-40.311		-20.8843
79.4061	-40.5844		-20.115
79.2073	-41.4737		-18.2851
78.5912	-39.6207		-22.703
81.2378	-34.0423		-8.33312
80.9045	-34.63		-8.26447
80.3522	-35.6403		-8.37568
90.7715	-17.5489		-30.1886
90.1746	-18.1516		-29.1549
93.3963	-2.73053		-34.3232
93.4772	-1.96342		-35.9684
93.454	-4.14147		-32.488
94.2212	6.90223		-31.0315
94.507	8.2555		-31.1351
94.658	10.3313		-30.1134
94.2946	10.0483		-28.0662
94.8365	10.7814		-30.4904
94.5474	12.2935		-27.1982
84.7806	-10.9795		-9.1754
86.0344	-5.44268		-9.6726
84.1663	-10.0482		-8.05711
83.7877	-15.0229		-8.65594
79.5065	-27.2039		-2.28615
78.5067	-27.5759		0.287216
78.989	-31.0819		-2.72455
79.9556	-22.7903		-1.85766
83.2963	-22.2984		-10.9387
83.4706	-24.2015		-11.3846
83.2371	-20.3249		-11.1945
82.8594	8.26731		-17.4037
83.2327	9.60736		-20.8594
82.8934	8.26204		-17.2073
91.1956	15.4313		-17.6206
92.1592	17.148		-20.6745
90.3422	15.8517		-18.7685
89.673	12.6838		-15.0091
91.9663	14.7112		-16.6511
91.445	17.8402		-25.4553
90.8208	17.6246		-22.6509
91.7901	17.9803		-25.0204
91.8413	16.5933		-29.0283
90.6146	16.8059		-26.8185
91.0357	3.3582		-40.4625
90.2739	2.91753		-40.6329
91.2214	9.31257		-37.4455
92.2331	3.59791		-39.8895
87.0504	-0.796114		-10.143
87.3426	-2.01441		-10.875
94.2427	2.70458		-37.3064
94.6283	7.78354		-34.9345
93.9494	-0.133923		-37.4278
94.283	2.62392		-37.6646
94.1098	13.1318		-23.3041
93.3609	12.5786		-19.5469
93.8779	11.7836		-24.0319
94.26	14.1066		-22.7199
88.6671	-0.204081		-12.8096
88.0933	-1.98516		-12.2617
89.2569	2.1589		-13.4845
93.6841	3.23514		-34.521
93.9221	1.28593		-36.4007
91.8167	5.14197		-22.5121
91.3193	3.77999		-21.7529
93.0219	4.72133		-26.5614
86.5936	-7.09535		-13.8832
86.7648	-6.78395		-14.611
87.1879	-5.44291		-12.8442
90.807	-5.94111		-27.2325
92.6225	-3.19797		-29.3171
90.6117	-5.53097		-26.6527
90.6615	-7.04224		-27.354
80.4913	-18.8517		-1.9052
81.2663	-14.3111		-2.69952
79.6792	-19.1501		0.562656
84.4782	0.74124		-40.0666
83.3281	0.184186		-41.206
85.0175	4.85796		-37.4261
85.4452	3.0338		-38.9936
88.4502	7.62537		-35.9375
88.6867	11.0962		-32.6121
91.0598	12.0525		-33.7595
87.8132	4.1213		-39.4365
89.2106	1.94815		-40.6048
88.2577	-3.53562		-41.2683
87.8855	-8.56084		-40.8629
81.4584	-24.1044		-35.6921
80.4451	-27.1991		-33.9643
82.3214	-20.7994		-37.4665
83.0121	-17.3253		-39.1379
81.3699	-17.561		-40.1165
89.6116	-18.1423		-28.0366
79.4425	-30.1439		-32.2069
78.3943	-33.8668		-29.7657
80.7412	-29.9068		-31.7612
78.2068	-37.6527		-25.2207
77.3228	-37.4748		-25.7339
77.4974	-41.0554		-20.6804
79.0091	-41.2625		-15.3799
78.5721	-41.5233		-15.2739
78.0154	-41.7208		-14.9727
90.8363	-7.78799		-27.8104
92.5974	-6.09281		-30.45
83.5816	-9.49811		-6.94527
82.9005	-9.36497		-5.63473
81.3796	-23.3996		-5.19885
81.6858	-23.5431		-5.8173
83.9567	-27.6957		-11.126
84.7929	-29.7601		-12.457
84.1085	-26.6647		-11.8328
83.2274	-18.1773		-8.14075
83.5804	-18.3675		-10.1626
88.4661	12.8427		-29.4698
86.0033	9.22912		-32.2351
87.7272	13.5094		-26.3388
85.0549	7.70578		-34.0219
84.4707	7.5139		-35.0282
84.5566	9.78507		-29.8526
83.2024	-18.3173		-13.0109
83.4162	-18.2877		-12.16
93.3908	3.86767		-28.7449
93.2154	2.37121		-28.4493
87.1874	-6.07754		-15.9409
86.5196	-8.35596		-16.9838
88.1093	-4.781		-18.5184
90.683	-4.75826		-26.1834
92.3732	-1.07936		-27.3219
90.1673	-4.73555		-24.8729
10.807	86.5515		63.5514
9.84676	78.9989		70.8152
14.2064	85.8456		63.8057
10.7504	93.6617		56.5411
3.06237	86.8153		64.2055
9.26146	72.1733		75.3461
2.66493	72.0463		75.7475
8.70897	64.7373		79.3054
15.6982	71.9673		74.5377
26.6903	57.6475		76.2528
26.6819	51.4757		79.4001
22.5233	57.9524		77.912
-0.387446	-26.7344		106.176
-0.00896392	-24.9256		108.839
-1.83191	-26.5865		106.704
1.54673	-26.8042		104.787
1.3203	-15.1612		115.08
3.90632	-15.1191		113.823
1.48163	-13.1809		114.57
-0.883487	-15.2546		115.609
1.32355	-16.8942		115.151
1.12706	-18.6173		114.542
-1.03306	-18.7492		115.061
0.911817	-20.4715		113.386
-0.0113744	-33.1443		99.3644
-1.65213	-33.3184		99.529
1.8009	-40.6443		97.9011
4.53985	-40.2366		97.6193
-0.694213	-40.7727		98.0747
0.575413	-22.5866		111.463
2.76915	-22.5784		109.886
-1.41097	-22.5732		111.919
1.19516	-10.9397		113.362
3.69435	-11.1009		112.073
0.941354	-8.11586		111.363
-1.09948	-10.8163		113.653
7.66311	45.9012		87.01
2.30951	47.0517		87.0341
7.47482	42.1083		87.6319
12.6183	45.258		86.6967
7.85507	50.3762		85.5136
1.33958	20.117		88.5031
0.990314	17.6793		89.9181
1.87616	22.052		87.5519
-0.180166	20.3974		88.6414
2.58626	23.7488		87.0884
4.16583	23.2209		86.2304
2.99236	25.6193		86.7067
0.805762	23.9677		87.2952
3.82391	-55.0483		94.4374
1.3558	-55.0012		94.2174
4.04594	-53.8079		93.3638
3.57867	-55.7379		95.7708
3.64217	-55.9415		96.8637
1.40468	-55.7754		95.4143
6.02862	-55.87		96.5821
3.69957	-55.4181		96.3637
4.22123	-52.9983		99.331
4.12977	-53.9627		98.5159
0.875065	-53.0658		98.7031
4.08796	-54.7838		97.8465
1.25398	-54.9977		97.6816
3.78458	-48.4396		99.3259
0.713871	-49.1441		99.1662
3.97979	-51.1046		92.0688
3.77249	-47.4434		90.5844
1.20794	-50.9143		91.8085
20.0361	84.8928		62.8839
20.3008	78.3595		67.8246
25.508	83.4846		61.6154
20.5504	91.5786		56.46
17.1979	46.3824		84.965
16.2258	42.8633		85.7113
21.3837	46.9265		84.2258
16.6763	51.0903		83.6819
16.3915	38.954		85.8155
16.9505	35.3486		85.1448
21.4582	39.452		85.2473
18.4126	33.3394		84.0611
14.9514	33.4233		84.6227
23.5462	33.5937		84.0154
26.4566	24.7368		73.2971
25.4244	25.7416		74.7209
23.1888	23.9299		72.645
29.7839	25.4583		74.2254
28.0618	23.3497		71.9587
24.6582	26.936		76.7113
28.1742	27.3184		76.818
21.7258	26.4221		76.4766
43.9453	87.7287		39.9965
45.2015	92.828		29.7781
38.2343	91.3501		42.692
43.4967	82.0192		47.4208
30.5414	82.0097		59.7858
31.864	87.607		53.6314
36.2192	79.8426		56.9214
25.5451	47.4384		82.5428
26.0313	45.0336		83.1746
32.1688	46.5737		78.6688
27.9441	34.5184		83.2706
27.798	36.2746		83.6475
