1822
29.597	-70.6862		78.825
25.2159	-64.5827		80.9952
19.3861	-67.0709		85.8303
22.129	-72.907		83.3187
28.1552	-48.595		83.4364
22.9785	-47.3931		83.1039
1.34024	-39.016		93.1546
4.91287	-38.5871		92.8606
5.09995	-34.5718		92.1127
1.54179	-35.3239		93.0094
9.83522	4.29669		90.374
19.1845	-18.0511		90.883
18.6225	-18.7942		92.312
19.188	-20.9642		90.9153
7.26262	-34.3013		90.9401
18.1212	-25.6796		88.6948
0.0161953	-46.6147		95.3797
4.90478	-45.9047		95.1492
4.60155	-41.9977		93.2813
0.381763	-42.4932		93.6789
21.6046	-39.4557		84.6186
26.4507	-40.196		82.7444
11.9949	-65.4552		93.6947
5.46671	-66.0893		96.5191
6.15974	-69.3175		94.5498
12.9978	-68.6677		91.5473
19.6134	-52.0239		85.473
22.9819	-54.8439		82.4534
16.4164	-15.5079		94.753
17.7751	-63.8145		87.7605
0.330502	-66.1799		96.8113
0.70254	-69.3276		95.4976
63.3583	20.4899		54.5623
66.0296	22.8891		49.3678
59.672	34.7444		60.561
37.0685	52.5126		74.9016
49.3199	47.4306		67.075
50.0771	57.175		59.9245
60.4133	39.468		56.3867
61.3187	49.8227		47.7753
49.4951	42.9618		69.6565
37.3822	47.698		78.1946
22.9725	31.9253		77.6563
30.2606	33.6753		77.1675
30.1762	38.1742		81.1015
21.9268	35.303		80.7902
9.66313	11.729		84.4391
4.54762	19.9468		85.1454
4.66251	15.4163		87.4354
27.385	-9.09205		80.6976
41.1593	-12.8199		76.9739
37.7101	-3.56603		74.6652
24.862	0.248518		76.9988
64.6379	8.49563		51.5986
60.2677	9.3195		56.6808
57.2897	3.14179		60.3898
49.9578	34.5653		71.3607
39.0984	42.4245		77.8436
40.0914	37.6098		76.4482
57.4879	28.0802		64.281
60.0673	18.8035		58.6555
50.1272	16.2727		64.6041
40.0108	32.7999		74.4576
51.146	21.9267		67.1422
46.8628	26.1127		70.6817
17.3194	27.6102		76.6774
13.2311	21.7002		76.7742
18.3716	21.9331		73.0464
-0.111923	35.5695		84.6506
0.351568	30.1663		84.2869
5.48058	29.3803		83.8278
7.84403	35.1411		84.8642
23.5046	5.00687		74.7682
11.6451	24.7697		78.8653
23.189	8.07721		73.2323
14.5673	-54.5178		85.0566
20.1285	-55.9963		82.2773
5.58781	-50.4734		95.8413
5.31244	-47.9988		95.4292
-0.0324894	-48.7366		95.6286
-0.201005	-50.8854		95.5115
9.88984	-50.5428		95.2371
5.19889	-52.0593		95.6932
9.56507	-52.1789		94.4007
14.1301	-51.0948		88.872
9.76229	-48.4049		95.0748
13.8749	-49.2573		89.6488
3.74389	-53.2573		94.3378
9.10884	-53.4256		93.3014
23.6998	-56.5992		81.0863
14.8232	-55.4635		86.3933
15.0572	-55.8053		87.0022
15.544	-56.771		87.9526
9.75009	-56.9219		95.533
10.4574	-58.8425		96.2118
3.80593	-56.7921		96.645
9.24837	-55.1144		94.5358
3.57439	-54.9847		94.7557
-0.611968	-59.181		100.36
4.25243	-58.8958		98.0506
-0.621769	-56.962		98.7199
20.3682	-57.0015		82.22
-0.503072	-54.5693		92.4123
3.50114	-54.6841		93.0987
-0.199614	-61.344		99.9154
4.70066	-61.0929		98.4517
5.10888	-63.1823		98.0918
-0.17697	-63.6111		98.8092
8.47298	-46.4356		94.266
-0.644017	-55.0081		94.9211
3.69552	-54.4158		94.7007
-0.543022	-54.4148		93.9172
9.05488	-54.5994		93.7469
11.4149	-62.8049		95.9487
10.9632	-60.7858		96.4544
8.85123	-53.5359		92.2993
8.81985	-55.0001		92.6337
8.71431	-52.184		90.364
13.4451	-52.9996		89.7455
20.4111	-58.9145		81.304
3.40167	-56.3617		91.7443
-0.375716	-56.1922		91.6104
3.62645	-53.1448		93.2617
4.48922	-51.3008		90.778
8.92111	-56.6648		91.3205
23.9831	-48.6894		77.1129
27.0082	-53.2306		74.6873
8.8016	-46.5554		87.8307
13.1183	-47.0067		87.0002
24.4337	-64.1418		77.024
20.1846	-64.5286		80.3484
4.46599	-46.1697		87.5697
9.15827	-62.6201		88.9604
4.18818	-61.9783		90.2365
26.9165	-60.2999		74.6883
82.1182	-13.3065		-41.2547
78.5849	-13.6782		-46.076
80.3982	-3.41212		-47.2556
83.6846	-5.02921		-42.2441
82.6536	0.608986		-5.61456
83.6087	8.05222		-13.1235
81.1304	18.783		-6.88976
80.4827	3.10801		1.62968
82.0488	18.1826		-25.4933
82.9501	10.3506		-21.4467
79.0214	-27.8016		-34.6336
76.8565	-35.134		-30.2541
76.1672	-22.6728		-43.3818
80.696	-20.7826		-38.3986
86.4688	-3.43878		-40.723
85.4817	-13.2547		-39.6153
84.1724	-31.2341		-29.7024
86.5803	-22.7343		-34.4628
80.9996	-39.3305		-22.5285
78.4657	-41.0898		-19.3005
81.6485	-36.3188		-10.591
91.2837	-13.875		-30.8992
93.9784	0.296853		-35.0217
86.8106	-23.5179		-20.4136
79.1507	-22.634		1.38807
77.7855	-31.196		0.298113
83.0303	-20.0699		-9.26829
83.2085	-24.1038		-9.71656
82.9237	9.65456		-20.0478
90.3009	-3.58054		-40.8787
92.5481	16.8649		-19.4574
90.8402	17.9574		-21.6034
89.5009	17.0134		-23.8419
95.0757	7.62779		-34.7504
90.2059	7.07707		-14.8155
88.2007	1.51038		-10.9894
92.9121	-4.47161		-29.8947
92.6851	-1.71955		-28.5482
84.1476	4.49882		-38.6759
86.1889	6.96117		-35.541
82.1485	-27.2554		-33.0495
88.484	-9.89809		-24.2059
85.0061	10.9526		-28.5293
84.0354	9.98488		-31.1265
92.2715	9.23866		-21.3509
-1.80203	78.1265		67.1343
15.1245	77.3714		66.8921
15.5696	91.3668		54.7241
-1.95766	93.0681		55.299
-1.55137	63.5393		76.2924
14.6323	63.9345		74.9017
26.2081	53.7398		79.1317
5.80177	-28.2303		101.751
2.24166	-28.2638		103.975
7.38305	-17.2396		107.061
2.55018	-17.2261		108.479
2.75354	-21.7444		109.047
2.73401	-25.1834		107.771
2.25284	-11.6747		106.162
-1.05654	49.9522		82.8163
-0.385509	44.2411		84.3856
13.4599	44.1675		83.3871
13.3334	50.7861		81.0148
1.06402	16.6619		88.0948
0.729062	21.1503		86.0449
4.83066	23.9547		84.3026
0.675829	25.1992		84.9149
-0.418252	-53.2974		92.5148
-0.403191	-51.1502		90.2192
-0.379097	-53.2884		94.2307
-0.0984188	-52.4601		94.9412
-0.0842461	-45.7741		87.1016
28.7608	88.2111		53.3729
27.3358	48.5306		81.2163
29.1099	42.3771		81.6564
31.8276	29.0918		73.8414
24.3413	26.7636		73.6936
41.8	95.7969		31.3876
40.1491	83.2256		49.9481
39.9442	28.5385		72.9788
51.2925	67.6026		51.552
49.0482	30.1573		70.8679
62.3705	61.6863		38.5779
54.9104	24.8362		65.6392
15.8877	31.0681		79.4378
68.8794	-59.4715		-14.1215
81.8553	13.8536		-37.3723
78.7344	22.9647		-48.9264
73.1588	-14.4183		-56.9373
75.8946	-1.14278		-59.2606
77.3192	11.9335		-57.2514
81.2626	6.49588		-44.3853
69.7284	-27.5556		-52.3951
12.7474	-104.899		52.5893
26.5599	-101.205		53.1434
55.9636	-79.9901		45.9435
71.7873	56.5659		19.2814
29.465	102.354		33.6016
15.6491	106.801		34.2685
57.0409	-72.4829		55.9036
7.48268	-42.3361		92.8862
17.1993	-44.8644		87.1837
7.28266	-38.4371		92.129
12.2394	-43.1138		92.3689
11.207	-38.7539		90.9305
31.4719	-56.5713		79.2742
33.5784	-49.4381		80.6615
74.085	-44.8677		-21.3518
75.8081	-32.9113		7.70282
77.4844	-23.7521		8.5285
77.6512	6.29116		18.3475
77.1475	-9.54546		21.2992
53.8293	7.17604		62.107
75.6814	-22.6582		22.0335
73.8673	-33.8788		21.4868
16.0341	-9.52983		91.4592
15.8389	-23.3558		95.3432
17.6004	-23.8751		91.7983
33.2498	-40.9524		81.2402
53.5459	-55.9234		63.9681
43.0941	-52.1895		75.5204
49.2515	-65.8891		64.6327
66.5007	-36.1648		52.0796
42.6936	-73.4034		68.1458
33.3187	-78.2979		73.6796
52.9283	-5.16439		68.4687
49.7052	1.0437		68.1451
40.2501	-59.911		75.0144
35.5949	-66.1077		75.9803
13.7273	-75.5379		90.3207
35.5743	1.44436		73.3786
12.6159	-17.5607		102.34
72.9372	-23.1346		36.8428
71.4729	-34.886		36.8315
9.23534	27.5276		81.9245
16.1857	-39.012		87.0715
18.4024	-54.034		82.6546
18.5685	-47.4605		80.3551
34.1338	-136.285		20.2253
36.4296	-150.207		18.6222
44.9255	-147.186		11.2163
42.3241	-133.622		13.5869
43.0539	-98.2871		18.2031
34.7734	-103.278		28.4387
31.6808	-115.439		24.6965
40.9658	-111.871		15.2488
29.0469	-61.0633		79.1504
52.9327	-85.6636		14.0725
57.2013	-79.6593		20.0649
49.803	-129.751		4.86315
52.6972	-143.74		2.94507
60.2655	-76.4224		7.35291
61.2359	-82.644		-8.9755
57.8715	-82.8685		2.45529
60.7304	-96.3455		-33.8588
76.6047	-37.1274		-1.68073
62.1129	-80.6905		-32.4269
55.0895	-124.319		-52.8347
54.3087	-107.678		-50.5066
23.7481	-139.296		27.5699
26.6693	-152.448		23.0097
23.7034	-107.775		40.8914
21.6395	-117.88		33.2216
22.8527	-61.3814		82.1038
14.5461	-55.8259		85.5261
14.6047	-57.401		84.5601
17.1826	-153.948		26.233
14.7437	-63.4328		83.3917
76.9114	52.7346		-1.76552
50.1427	-81.9035		-59.2269
55.8579	-87.7875		-48.7797
48.6444	-102.947		-60.8494
48.1483	-120.64		-63.4618
58.4402	-67.3132		-47.5485
29.8034	112.883		5.66692
15.3714	117.787		5.36956
15.6679	111.863		-64.57
30.3269	107.872		-61.3304
28.8468	88.8695		-89.989
14.6967	91.609		-93.4916
28.0542	63.5679		-106.276
14.7325	66.0208		-109.842
30.3186	115.611		-27.3964
15.7286	119.899		-29.1945
-0.0388561	122.295		-30.0796
-0.575951	119.12		5.08003
26.9485	37.7837		-114.36
14.3591	39.6071		-117.721
25.7393	10.8281		-116.069
13.6206	11.4433		-119.744
23.9918	-15.1244		-110.941
22.453	-38.7589		-98.6296
12.114	-39.3352		-100.717
12.6225	-14.6411		-114.35
0.464417	-13.6443		-115.981
0.637697	12.2773		-121.191
9.7057	-75.6783		-84.6778
21.5992	-76.4022		-82.7377
20.7119	-95.305		-81.6782
9.24196	-94.5785		-83.0083
10.0086	-112.82		-82.7954
0.508466	-112.606		-83.3068
-0.493007	-93.5459		-83.5797
22.6148	-56.8211		-88.2414
11.6976	-55.8637		-90.8045
0.967349	-55.7258		-91.3659
0.0582856	-75.0635		-85.4205
54.8575	94.7111		3.48462
42.9168	105.082		4.96319
52.9786	77.2241		-76.3016
52.4054	55.1136		-91.6631
41.1059	59.9353		-99.8885
41.7294	84.0203		-83.996
42.756	101.545		-56.9319
54.0561	92.3744		-51.6123
55.6831	96.7944		-24.2218
43.7635	107.778		-25.7266
50.8077	31.8796		-99.8319
39.8969	34.7278		-107.861
48.6105	7.13845		-101.612
38.0345	8.79855		-109.688
45.5013	-17.4805		-96.8944
35.776	-16.7817		-104.522
44.8531	-40.8387		-84.9394
34.4527	-40.3757		-92.9022
34.0245	-59.1267		-82.5032
40.3306	-98.7016		-71.0988
30.8945	-97.0619		-77.6732
32.5304	-77.8487		-77.5502
42.3666	-78.9457		-69.5609
30.6476	-114.813		-78.3812
20.6473	-113.526		-81.4188
63.9507	79.6066		-44.8371
72.477	66.0123		-34.6167
70.3936	57.8241		-55.9262
62.393	68.4802		-67.4018
73.3202	68.5897		-12.7377
65.6438	83.2035		-21.1544
61.452	49.5054		-82.3682
59.917	27.8104		-90.4416
58.2111	4.38862		-91.1518
54.7974	-18.7842		-86.7866
52.2735	-39.2716		-76.2051
74.8168	32.1899		-59.996
62.3647	-18.8863		-76.2101
65.5006	2.04895		-80.6755
71.2886	0.735617		-70.0299
68.3578	-17.4697		-66.2645
67.1374	22.6746		-80.2317
72.9256	17.2094		-68.9678
68.8478	41.5512		-71.6454
58.5716	-37.0485		-68.1741
64.4808	-33.4544		-59.8222
60.9252	-48.1862		-53.3757
94.7039	8.36968		-35.369
92.8764	9.06539		-36.5891
92.0655	17.0207		-28.8802
93.9865	15.8644		-27.7387
88.4419	13.2579		-15.5732
90.2346	12.3359		-13.6198
86.2897	12.6506		-18.6151
91.0714	7.53124		-37.5584
90.8448	15.685		-30.2045
93.8628	-3.37537		-37.5799
93.3235	15.6886		-18.687
94.6131	14.6135		-27.3081
-1.19341	108.501		34.153
0.286537	112.943		-65.6185
40.4862	-117.091		-72.403
0.515586	92.2645		-94.7295
0.439401	67.3235		-111.108
0.461666	40.6314		-119.155
0.595382	-39.3306		-101.152
-70.9106	-44.1456		18.0895
-73.4161	-41.1364		3.66417
-68.9016	-53.4677		16.8063
-59.3911	-102.037		-10.5017
-55.2001	-103.348		-2.33049
-58.4403	-139.596		-4.37388
-56.493	-125.173		-3.24625
-60.4	-122.042		-10.6018
-61.6353	-135.507		-13.3034
-55.5924	-89.8523		-0.746247
-48.703	-106.333		7.64982
-49.9139	-91.9953		9.81654
-59.5727	-89.1465		-10.8398
-62.0809	-88.0363		-19.568
-61.5698	-100.593		-20.2518
-66.51	-60.7035		13.3073
-63.342	-66.9342		9.79561
-63.0078	-70.4101		26.1342
-66.2533	-63.6663		30.0159
-78.1225	37.6638		7.81254
-77.2376	22.4587		14.7701
-69.9214	27.1921		39.2291
-71.9324	42.1857		29.8606
-79.3295	31.6976		-32.8364
-80.1626	35.4905		-12.7193
-77.5861	50.3309		-22.1127
-75.605	44.1282		-42.1002
-7.23273	-109.805		46.8827
-13.5658	-108.865		44.4937
-13.2549	-119.758		37.6616
-6.50245	-120.62		40.889
-15.4551	-141.598		31.6842
-7.66634	-142.842		32.7734
-8.53371	-155.115		32.1281
-71.0247	-40.4588		-34.4325
-64.3947	-51.4314		-41.4823
-68.8412	-53.027		-26.959
-72.9815	-31.9457		-38.1912
-66.2471	-39.7906		-45.8717
-62.4598	-131.719		-24.955
-60.0625	-127.526		-40.231
-67.5926	-57.1174		34.2507
-68.9814	-46.4758		38.3736
-68.2104	-58.5851		-2.11104
-6.68103	-86.4648		93.2435
-14.6004	-85.1386		90.1192
-14.9854	-94.6406		85.0732
-7.03745	-95.5129		88.1804
-24.0952	-82.8568		84.8226
-24.1869	-91.1874		79.8226
-5.7151	-76.7182		94.1693
-7.50715	-100.842		84.6498
-8.82151	-103.347		68.8392
-13.8283	-1.02956		85.5105
-14.0003	7.12126		79.8512
-19.3824	3.1744		77.5648
-20.0566	-6.15649		82.704
-56.4268	-35.7947		67.285
-43.9192	-32.4132		79.3906
-42.9964	-23.7114		78.2071
-55.8897	-25.8875		69.1992
-65.9378	-25.5036		53.2184
-54.4022	-15.3762		68.7801
-68.3606	9.46686		44.6137
-72.2731	8.96797		35.4551
-44.1246	-41.6792		77.0735
-56.396	-44.9203		64.7068
-2.005	7.2872		92.4004
-2.46686	-3.30378		98.7196
-31.2926	75.735		63.7587
-42.5354	72.758		58.8463
-41.8225	61.4448		66.7329
-31.3001	63.2404		72.376
-8.07204	-105.098		55.9774
-64.9728	-46.3084		48.548
-62.8963	-57.8495		49.8969
-36.3465	-85.4139		72.7846
-47.6542	-78.4854		63.0705
-47.2132	-85.016		56.7176
-38.5046	-94.6588		37.4294
-43.8921	-89.3814		49.67
-53.9648	-82.4245		36.6549
-46.6366	-89.0452		29.533
-2.67126	-12.3347		104.984
-7.92233	-5.68613		95.3909
-8.55526	-13.4903		99.9816
-20.7373	-17.6024		86.3911
-28.989	-21.4105		82.7388
-27.9095	-58.8928		80.9444
-13.6425	-28.3344		90.9165
-12.8964	-30.5212		89.3211
-9.06727	-34.8472		89.7413
-12.9323	-32.709		87.8832
-13.7913	-34.8387		87.0671
-1.63112	-30.4181		97.6712
-2.00111	-32.3032		94.3838
-19.2945	-33.345		84.8684
-2.51442	-21.1991		108.225
-8.58914	-20.4455		102.754
-8.01158	-23.8108		101.415
-2.42432	-24.6415		106.542
-30.6357	-70.5099		81.8282
-22.3309	-74.1838		87.8823
-20.2444	-67.762		89.8054
-26.6239	-64.9102		83.8078
-28.883	-47.9719		80.965
-24.2589	-46.1104		83.8179
-2.19299	-34.434		92.7172
-2.87486	-38.4024		92.3651
-7.88958	3.54576		89.3087
-17.4252	-19.6931		90.8949
-17.5136	-22.6966		91.0575
-16.7162	-20.1499		92.2447
-5.10442	-34.2013		91.6673
-16.635	-27.1201		89.2929
-3.9747	-41.9948		93.3324
-5.01864	-45.7846		93.7027
-27.5069	-39.6532		81.6906
-22.1878	-39.4405		83.5862
-12.5522	-65.2945		95.0267
-12.7635	-69.09		93.6001
-5.39639	-69.4204		95.6396
-5.36186	-65.8991		97.1487
-20.9129	-52.391		85.9437
-24.8497	-55.1212		82.4318
-13.8504	-16.0135		94.955
-18.7795	-64.0591		91.1207
-61.1774	35.1131		60.4244
-66.3281	23.4644		49.0433
-63.5206	21.01		54.1641
-53.0924	57.1168		59.1991
-51.5061	47.6322		66.2347
-40.6592	51.3611		75.6183
-63.0958	49.8378		47.7935
-62.0631	39.547		56.032
-40.5839	47.8278		78.4765
-50.862	43.539		69.2075
-23.4818	32.5198		77.319
-22.2972	36.8601		79.7616
-30.8043	38.3776		79.1175
-31.4362	34.0699		76.8905
-8.55912	11.4463		83.8571
-2.67111	15.5088		87.3347
-3.01047	20.185		85.3353
-26.8902	-10.4103		80.6566
-24.9116	0.0267966		76.5779
-37.7416	-4.24854		74.5059
-41.0098	-13.3696		76.4348
-56.7598	3.52477		59.654
-59.746	9.77686		55.8508
-64.4408	8.90252		50.7069
-51.5461	35.0858		70.2062
-41.0709	37.8436		76.4475
-41.2491	43.2769		78.1823
-58.6249	28.8361		64.21
-60.4019	19.3738		58.1068
-40.5678	33.2335		74.5976
-51.8456	21.8411		66.1428
-47.8703	26.4907		69.8348
-13.0768	22.3083		76.6086
-16.8639	27.6942		76.6782
-18.8692	22.755		72.9019
-7.98348	35.582		83.3741
-4.92531	29.8221		83.2844
-24.0435	4.80473		74.1928
-11.2376	25.7182		79.2991
-23.9787	7.82199		72.8202
-15.6824	-54.7337		88.4645
-21.6914	-56.1687		84.1939
-5.52874	-50.5643		93.9829
-5.5045	-48.0244		94.5358
-10.3956	-50.5439		92.3929
-10.3338	-52.1003		93.3902
-5.54651	-52.1029		93.121
-15.6522	-51.3769		90.6011
-10.1838	-48.3445		92.2603
-15.5065	-49.3873		89.932
-9.94952	-53.4094		94.4155
-4.64854	-53.1528		93.5335
-16.2263	-56.082		90.121
-15.9362	-55.801		89.4142
-16.7803	-56.9823		90.4532
-11.7488	-58.4298		96.1146
-11.038	-56.7638		95.7528
-5.0915	-56.7852		98.6431
-4.64329	-54.8583		96.967
-10.2417	-55.2305		95.3356
-5.43838	-58.8089		99.1938
-22.0143	-57.1782		84.1107
-4.3678	-54.6074		91.9276
-5.65296	-60.9892		99.2243
-5.45444	-62.9353		98.4399
-8.78023	-46.1717		92.74
-4.45983	-54.2987		95.4398
-9.86508	-54.6953		94.4747
-12.5213	-62.3322		96.0751
-12.1643	-60.3415		96.6246
-9.63773	-53.5592		92.4379
-9.51029	-54.9622		93.1134
-14.2264	-53.1355		88.6112
-9.53166	-52.0309		88.2821
-22.033	-59.0965		83.8177
-4.04392	-56.1656		92.4513
-4.43002	-53.2184		91.7923
-5.17273	-51.4328		89.4718
-9.62824	-56.6162		91.5339
-24.7908	-48.9821		76.8701
-28.0731	-53.497		74.455
-13.8862	-47.4135		83.0005
-9.14649	-46.6791		84.7667
-25.4485	-64.4269		81.025
-21.031	-64.6962		84.0819
-4.05031	-62.0381		91.0859
0.0596532	-61.9896		91.6016
-4.68649	-45.9889		86.7963
-9.31929	-62.6141		89.6809
-28.1161	-60.4232		76.906
-81.2527	-13.5691		-40.6618
-82.5617	-4.62643		-41.5241
-79.3772	-3.07132		-46.7381
-77.7867	-13.2681		-45.4776
-79.9931	3.63669		0.840478
-80.6083	19.1406		-7.4655
-81.1432	18.9748		-25.0516
-81.9907	10.7423		-21.981
-77.9878	-27.9129		-33.7601
-76.0869	-34.5675		-30.3585
-79.7457	-21.1674		-37.5159
-75.3497	-23.1058		-42.4656
-85.302	-2.76828		-40.2004
-84.5695	-13.3984		-39.107
-83.1961	-30.7098		-29.5076
-85.5335	-22.9919		-33.5264
-80.339	-38.2393		-23.4001
-77.9567	-40.0819		-20.4028
-90.4842	-13.6106		-30.2788
-92.8456	0.785783		-34.677
-78.3856	-22.425		0.898558
-77.0394	-30.4907		-0.366454
-82.168	-19.5054		-9.32191
-82.4201	-23.4343		-9.98411
-81.9271	9.98607		-20.5239
-89.1259	-2.95325		-40.3425
-89.7481	18.7383		-21.6764
-91.474	17.4818		-19.9173
-88.3899	17.7794		-23.9231
-87.1231	1.86057		-11.4924
-93.9448	8.21264		-34.6141
-91.6942	-4.06152		-29.3022
-91.4997	-1.37733		-28.1169
-85.2386	7.57947		-35.2955
-83.1989	5.01731		-38.4853
-81.0956	-27.2241		-32.2761
-82.8405	-3.44457		-6.83425
-83.9144	11.5028		-28.2836
-83.1641	10.6531		-31.1255
-91.1713	9.71218		-21.4564
-87.3793	-9.64471		-23.7168
-18.4114	91.3352		54.5521
-19.0435	77.7053		66.5114
-18.3422	63.693		75.0692
-28.9695	52.6026		79.4967
-1.88818	-28.0687		102.266
-2.81044	-17.4276		107.295
-16.1834	50.6645		81.4566
-14.803	44.3564		82.6466
-3.42845	24.5778		84.1304
-31.7745	87.9883		52.8659
-28.7989	47.3652		81.0433
-30.0269	42.3754		80.561
-32.5511	29.0561		73.9099
-24.976	27.2836		73.7132
-43.3617	83.2562		49.0114
-43.7521	95.4242		30.7402
-40.5777	28.7626		72.7441
-54.029	67.4447		51.0521
-50.3141	30.7466		70.0774
-64.3878	61.8936		37.6861
-55.6926	25.1529		65.0241
-15.4376	31.2975		79.3527
-68.5049	-58.1754		-15.5074
-81.0609	14.7415		-37.3103
-77.8751	23.867		-48.3991
-74.9927	-0.813329		-59.0131
-72.5046	-15.0278		-55.9743
-80.3949	7.18021		-44.3069
-76.5607	12.809		-57.3803
-68.9598	-28.3394		-51.027
-15.4529	-103.353		53.6551
-27.6642	-99.5528		46.2084
-57.7593	-76.8193		43.0736
-72.2615	56.4404		20.0461
-17.8147	106.622		34.0405
-31.6154	101.928		33.1779
-53.2922	16.5948		62.6535
-58.0671	-69.6988		54.8696
-7.41918	-42.3598		92.3818
-18.606	-44.5254		86.2449
-5.99467	-38.4801		91.7089
-10.621	-39.2523		89.6379
-12.6198	-43.2354		90.3025
-33.558	-48.961		80.0398
-33.015	-57.0836		79.3774
-73.6622	-43.9165		-22.2092
-75.0289	-32.666		6.71518
-76.6751	-23.6339		7.63376
-76.8512	6.41795		17.3952
-76.2597	-9.36742		20.2477
-53.9358	7.09997		60.9643
-74.7716	-22.995		20.3261
-72.9012	-34.018		18.7554
-14.1622	-10.1207		90.5643
-15.7215	-25.1182		92.1146
-13.3053	-23.9348		95.4648
-33.4617	-39.9981		81.3113
-54.244	-55.0902		63.1596
-42.7812	-51.2238		74.9597
-50.263	-63.5013		65.5875
-65.7968	-35.8205		51.2241
-34.7168	-77.6846		78.4041
-44.4811	-71.9124		69.4236
-51.2194	-5.15633		67.6693
-48.8232	0.399868		67.398
-41.6687	-60.2254		72.9581
-36.9409	-65.9248		77.3613
-13.6419	-75.9252		91.8232
-35.4742	0.919407		73.4258
-7.93894	-17.0362		103.621
-71.8819	-23.1614		35.3173
-70.4844	-34.9179		38.5812
-8.76893	28.4101		81.6188
-16.2828	-39.3664		86.3404
-19.5646	-54.3461		85.1532
-19.2742	-48.1187		79.8492
-34.216	-135.266		22.7162
-42.7121	-131.551		14.1824
-45.1595	-146.174		10.5976
-36.3939	-149.059		17.7303
-42.6761	-96.5191		20.404
-35.1425	-102.427		28.942
-40.8314	-109.995		18.8961
-32.9031	-114.128		25.7327
-30.6491	-61.301		79.4119
-52.7519	-84.0517		17.4494
-58.2051	-77.1865		23.5553
-50.2762	-128.556		5.13784
-52.4926	-142.475		3.15578
-59.9903	-73.4497		6.07504
-57.0652	-80.4719		1.9726
-60.8016	-79.9655		-8.93143
-59.9912	-95.2013		-35.582
-75.8314	-36.7616		-2.8728
-61.28	-79.546		-34.3071
-54.4684	-106.535		-51.0791
-55.3319	-123.489		-53.1577
-26.8487	-151.577		24.3466
-25.1023	-138.58		28.9862
-24.5842	-106.339		35.7582
-22.4588	-117.606		31.0861
-24.659	-61.7075		84.6665
-15.6575	-56.1601		88.958
-15.7829	-57.5721		88.6549
-17.0813	-153.915		29.9963
-15.3336	-63.6978		87.1245
-77.1199	52.7299		-0.508761
-48.7852	-81.0933		-59.7378
-47.5446	-101.985		-61.4435
-54.6444	-86.7742		-49.3601
-47.9706	-119.807		-63.8353
-57.2614	-66.0858		-48.4858
-16.2441	117.837		5.25185
-30.805	113.055		5.24299
-15.2308	111.686		-64.7681
-13.872	91.4238		-93.5713
-28.1176	88.7773		-90.0927
-29.9664	107.925		-61.6084
-13.9962	66.7423		-109.977
-27.0478	64.508		-106.564
-30.5109	115.842		-27.7967
-15.7566	120.995		-29.5636
-13.5006	40.3023		-118.079
-26.0675	38.2869		-114.582
-12.4501	12.1182		-119.895
-25.0743	10.6128		-116.255
-23.6354	-14.919		-110.971
-11.7671	-13.7519		-114.838
-11.0895	-38.2154		-101.139
-22.0267	-38.4442		-98.8888
-9.37475	-75.2808		-85.014
-9.72334	-94.2335		-83.3548
-19.0578	-95.2843		-81.7297
-19.6833	-76.5834		-82.6488
-9.06859	-112.514		-82.9752
-18.791	-112.956		-81.7202
-10.0724	-55.4906		-91.0233
-21.1078	-57.2121		-88.2683
-44.0506	105.02		4.41713
-55.5736	94.0144		3.70689
-52.2073	76.7013		-75.5473
-41.1809	84.2618		-84.194
-40.192	60.5286		-100.195
-51.3827	55.2578		-91.5241
-53.5919	91.833		-50.8548
-42.5237	101.572		-57.2347
-55.5769	95.9577		-23.3644
-43.9328	107.555		-25.8462
-49.7808	31.0817		-98.6605
-38.9602	35.3373		-108.167
-37.5071	9.00554		-109.974
-47.8747	6.98894		-101.093
-45.0844	-17.056		-97.4354
-35.3468	-16.2674		-104.915
-33.2154	-40.04		-93.2881
-43.6499	-40.0802		-85.4217
-32.1032	-59.0065		-82.7388
-38.6326	-98.3242		-71.2589
-40.5496	-78.2837		-69.8887
-30.7572	-77.6809		-77.6105
-29.1621	-96.808		-77.8918
-29.2237	-114.139		-78.7363
-63.4828	79.3978		-44.3151
-61.3524	67.5812		-66.2431
-69.6527	56.7272		-54.5983
-71.9807	65.2426		-33.589
-73.3127	67.9292		-12.3116
-65.3681	82.9566		-20.759
-58.8611	26.9096		-89.0896
-60.3737	48.932		-81.0795
-53.5764	-18.6251		-85.7107
-57.0427	4.11038		-89.8218
-51.5518	-38.7413		-76.2211
-73.9846	33.2623		-59.7608
-60.9558	-18.4361		-75.0022
-67.4154	-16.4238		-66.1494
-70.7015	1.15568		-70.1646
-64.8514	3.38575		-81.4969
-72.2702	17.7674		-68.7448
-66.5029	23.5452		-80.4378
-67.8074	41.1597		-70.578
-59.8613	-47.0177		-54.0386
-63.3813	-32.5965		-59.0937
-57.6761	-36.0789		-67.676
-93.565	8.96664		-35.2215
-91.7786	9.74733		-36.356
-92.8042	16.5668		-27.5728
-90.9007	17.7425		-28.7881
-89.1961	12.8419		-14.3817
-87.4069	13.7528		-16.1944
-85.1693	13.1756		-19.1345
-90.0871	8.23216		-37.4275
-89.7019	16.3038		-30.0022
-92.7213	-2.84368		-37.1423
-92.2344	16.303		-19.2513
-93.4333	15.3635		-27.1739
-39.164	-116.476		-72.6839
17.3615	-99.1688		72.2648
14.4254	-100.191		72.2371
19.8755	-98.8641		69.6921
17.7581	-97.744		75.3418
69.8854	-9.1919		47.8183
68.9913	-8.0897		52.0178
70.1902	-12.6495		47.1121
70.606	-5.25795		44.1839
67.2343	-6.85624		53.7851
66.7956	-2.84075		52.4436
65.0356	-9.19016		57.0363
13.2687	37.9582		84.7203
15.9741	37.8398		83.1662
17.3898	42.4022		83.0334
10.3236	38.9533		85.1306
10.6167	34.314		84.2061
10.3148	17.873		79.7642
10.9028	16.4471		79.0771
10.6829	19.3778		79.0331
9.76549	18.4862		80.3323
14.6216	18.4917		74.9907
16.3102	16.6479		73.1691
15.2733	20.197		74.5552
12.2917	19.6874		77.152
14.306	16.7334		75.5218
47.6992	13.5014		66.7895
44.0345	11.2757		68.6019
49.0136	14.4836		64.7302
17.7484	10.3974		74.7402
17.5137	11.4568		74.303
17.2436	9.49107		75.8963
19.1243	9.46248		74.2895
22.6155	-56.8667		80.5377
22.4921	-56.7466		80.7751
22.7598	-56.9721		80.1261
22.4955	-56.8113		80.8272
21.5189	-54.9771		83.7263
21.7992	-56.2377		81.7333
22.4461	-56.0965		81.9083
21.6874	-54.5641		83.7636
20.1796	-54.5143		84.4778
25.3069	-56.8985		80.7663
25.5891	-53.9983		81.5746
23.2042	-57.1387		79.3473
22.7061	-56.4087		79.9712
24.2573	-57.2248		77.9172
22.9198	-57.4854		79.7093
19.1305	-59.4084		86.8033
19.4657	-60.1295		86.4893
21.3511	-58.2073		84.3519
18.9985	-58.7104		86.9034
16.614	-60.1105		88.9338
16.6235	-50.0799		87.8635
16.0289	-48.6704		88.3202
13.5175	-48.5185		89.8861
16.9625	-50.672		87.5869
19.5915	-51.1637		86.4794
21.7639	-56.818		81.6731
21.8546	-56.8608		81.6564
21.8786	-56.8428		81.562
20.4367	-56.73		82.7629
79.1745	-36.4209		-7.63482
78.5655	-36.8445		-6.85774
78.5333	-39.6771		-10.6381
79.7317	-35.6089		-7.54284
87.4333	-26.848		-19.3667
88.0109	-25.0072		-22.0061
86.4408	-25.4031		-18.3037
87.0175	-28.1178		-17.1868
87.8772	-28.1739		-20.0268
82.2571	-33.6866		-9.30056
82.4398	-31.0093		-8.74784
81.6676	-33.9187		-8.52044
82.9326	-34.7508		-10.9289
82.5293	-21.2522		-12.7473
82.4656	-20.26		-13.5711
82.5505	-19.4596		-12.4785
82.8	-21.7542		-11.4171
82.9878	-22.7112		-13.153
88.2596	-1.25885		-14.0103
87.7339	-3.2469		-14.7551
88.5489	-0.485236		-14.5857
88.3689	-0.731475		-13.1666
91.5569	9.45621		-18.0775
91.5443	10.0644		-17.0274
91.1781	8.5339		-18.0481
92.6537	10.5765		-21.1054
85.1205	-18.6089		-19.7411
84.2019	-17.3287		-18.2434
84.5882	-22.506		-17.0507
87.2669	-21.5397		-22.4542
87.4078	-15.9907		-23.694
89.8794	0.142462		-20.3874
90.2774	1.23238		-20.7413
88.7982	-0.389612		-16.6027
89.8003	-1.1525		-21.446
92.7758	-10.5023		-32.418
92.5938	-10.3165		-31.8581
91.6867	-13.6143		-31.821
93.2023	-9.36129		-33.3518
93.4794	-7.73796		-34.9603
93.7335	-5.60241		-33.8825
93.3474	-8.41358		-36.026
93.7622	-4.66956		-36.1633
88.4238	-23.4441		-23.9714
88.9201	-21.2215		-25.8558
88.859	-24.5288		-24.8013
90.5608	-9.9887		-28.2997
89.5533	-11.9012		-27.0701
91.6506	-10.2894		-30.1635
90.592	-8.61214		-27.955
80.7103	-28.6937		-5.63456
80.7039	-31.0791		-6.3074
81.3379	-28.3108		-6.52872
80.4799	-27.7719		-4.99892
80.4398	-26.2329		-4.34529
80.8439	-24.1209		-4.30396
80.0863	-26.3534		-3.47312
82.1491	-17.2096		-4.70953
81.8571	-17.6694		-4.34737
82.4861	-17.5094		-5.63022
82.3895	-13.6488		-5.14754
81.5394	-18.392		-3.8975
81.2368	-18.2901		-3.01048
81.3257	-20.9387		-4.12829
84.6691	-24.023		-15.8433
84.4699	-25.153		-14.0327
84.42	-11.856		-13.1871
83.3265	-16.2939		-12.6654
84.2731	-12.388		-14.6987
85.7624	-8.17731		-13.5532
84.9188	-10.8179		-12.0092
93.7439	5.54548		-30.0722
93.8814	6.305		-30.3204
93.6043	5.12444		-29.5129
93.9118	4.43188		-31.8259
93.8235	0.812744		-32.6353
93.6695	-0.285708		-31.2161
93.874	-0.852229		-33.5287
93.9584	2.10832		-33.4695
93.6746	2.56701		-30.7166
90.9651	7.90344		-18.2237
91.7494	8.10577		-20.8153
90.3743	7.08049		-17.0885
92.6267	8.00539		-24.0725
92.2282	6.9511		-23.3861
93.643	7.72981		-28.1096
93.1958	9.2208		-24.9828
43.1054	25.2269		71.2822
45.5431	24.0061		70.2994
39.9694	26.1116		72.0131
24.2538	-98.3228		68.5358
23.4862	-99.3053		66.4001
26.8067	-96.9559		68.8593
50.0742	18.2456		65.7322
49.1086	20.5329		67.3117
50.8239	16.4542		64.4185
53.9968	20.2558		64.1819
56.1749	21.4385		63.0293
52.9723	23.2289		66.301
52.0755	19.6371		65.3852
54.4497	17.4924		62.5588
72.3887	-49.1396		-3.36114
73.2643	-47.4389		-7.96902
72.8544	-47.4459		-1.86777
71.6251	-51.3554		-3.91761
19.9242	15.3147		70.3353
20.3953	14.5666		70.1726
19.9591	16.2429		70.3941
18.8124	18.2086		71.3167
20.2682	20.1975		71.4279
18.4517	16.6566		71.4166
9.07803	19.6635		80.9464
8.44544	19.7488		81.6412
9.02689	21.6117		80.4901
17.2403	-54.6345		85.8265
17.6971	-55.1869		84.8242
17.5837	-54.1943		85.9807
14.3941	-53.7573		87.1333
64.8034	-71.3697		-9.38169
63.9349	-71.5176		-3.92235
64.2374	-73.982		-11.263
65.6492	-68.8648		-10.0267
80.5702	-5.84737		0.396513
79.633	-12.9556		3.22949
81.3998	-6.50581		-2.20693
81.6868	1.89694		-2.97458
79.6841	-4.74538		4.80915
65.6754	-73.9282		-22.6571
64.8652	-75.882		-22.9843
66.1396	-69.6436		-23.0975
64.8745	-76.325		-17.9521
61.7547	-109.587		-26.1108
61.7577	-117.885		-27.784
60.4664	-105.849		-34.3922
62.2844	-99.7377		-25.8014
62.0277	-111.713		-20.4544
22.094	-57.207		81.7041
22.2212	-57.3515		81.6735
20.8993	-57.076		84.2722
22.4277	-57.587		81.653
18.7337	-58.2631		87.2106
18.7835	-57.849		86.98
16.1779	-58.4663		88.9928
28.6275	-95.8303		68.3682
33.4512	-94.4269		65.0275
28.2506	-94.1549		67.9651
49.3017	-60.7598		-66.3804
48.102	-56.9789		-70.3547
51.8126	-59.7667		-62.4623
48.4025	-63.8539		-66.2763
56.5294	79.2215		33.4556
58.2459	81.4232		26.3953
52.5897	82.3088		36.0208
57.5949	75.3322		36.3457
90.1163	-19.8016		-33.0683
91.3015	-14.5348		-36.0699
90.6607	-19.0052		-32.0576
88.983	-24.1117		-30.4453
89.4062	-19.7141		-34.424
85.7103	-0.202912		-8.39635
84.6626	-4.55958		-7.38245
86.6878	-0.284615		-9.09141
86.5026	4.0596		-9.98663
84.3256	-0.140088		-7.71312
82.6544	-21.6031		-7.75161
82.2618	-22.3143		-6.70025
83.0164	-24.3368		-8.89143
82.9614	-21.9385		-9.21113
82.7411	-19.9885		-7.44483
82.3808	-28.1649		-8.02824
82.01	-25.2757		-6.89089
83.2494	-27.8119		-9.38397
92.5383	-9.35759		-38.4816
91.7557	-9.354		-39.2946
93.1364	-3.28632		-39.4115
93.0166	-9.35706		-37.6295
90.7195	-9.20417		-40.009
89.6657	-14.1423		-38.0299
89.6666	-8.95313		-40.3955
91.1729	-3.34288		-40.7214
83.288	4.04805		-8.94872
83.4829	6.19822		-10.6781
83.0838	5.02146		-8.70742
83.2644	2.3422		-7.84407
86.633	-17.7009		-37.397
84.9392	-17.0813		-38.1909
87.3217	-13.3079		-39.1882
87.6492	-18.3124		-36.729
85.5858	-21.6471		-35.5019
89.0056	-25.5798		-25.5755
89.6049	-22.4281		-28.0508
88.5862	-27.493		-23.4399
88.8538	-26.5127		-26.7739
86.216	-34.2596		-23.5098
85.5991	-36.2281		-20.6341
84.8212	-35.786		-24.4985
87.2866	-30.9541		-26.3279
87.6837	-31.3197		-22.1661
87.0728	-32.4661		-17.1328
86.4807	-34.2732		-17.2866
87.5405	-31.0723		-18.5555
86.6944	-31.7055		-15.8336
76.0163	-42.6272		-13.1252
75.433	-43.5843		-13.5464
77.1236	-41.807		-14.6119
76.028	-41.9279		-8.67263
81.0005	-39.5206		-13.8171
81.2659	-40.2774		-16.1821
82.3572	-38.1182		-13.4577
80.6938	-37.6847		-10.949
79.8371	-40.3839		-14.0214
89.264	6.33528		-10.9873
89.2486	7.79096		-11.2386
87.9607	2.87268		-10.3534
89.5261	6.30628		-11.4146
89.3073	8.64201		-11.4548
90.5281	11.9061		-13.3556
88.9739	8.63816		-11.4652
93.2435	-9.20331		-36.9217
92.1609	-13.3826		-34.3326
93.7929	-3.63035		-38.1577
94.4128	4.8231		-34.7555
94.2041	3.81957		-34.4946
94.5161	4.17205		-35.6177
94.4267	6.32125		-33.2222
90.2162	7.24435		-13.2108
90.1007	7.01635		-12.6874
89.7803	5.722		-13.519
90.6802	8.81287		-14.1638
89.8079	6.20602		-11.945
88.9757	3.10996		-11.874
90.7538	10.3404		-13.2536
92.3456	-10.2741		-31.288
93.1928	-7.33498		-31.5379
90.8738	-13.8063		-30.0872
89.4087	4.19501		-15.0781
89.8213	5.76117		-15.582
89.3324	4.02633		-14.6278
89.6054	3.25542		-16.8062
90.1658	6.55602		-16.7329
90.5621	6.14884		-18.683
88.7436	-14.8369		-26.0656
89.32	-16.6028		-27.1326
85.2022	-10.0206		-10.9441
86.6117	-5.70294		-11.0434
85.0063	-10.035		-9.96505
83.8847	-15.0765		-10.6525
88.6783	-0.0537626		-14.9026
88.9684	1.63182		-14.2602
53.6265	-57.845		-60.5228
53.8511	-53.4235		-63.1842
55.2419	-58.2305		-57.7821
26.4335	-26.7847		83.7018
27.5755	-30.6827		83.2549
27.0465	-25.1476		83.5981
24.3817	-26.3688		84.1632
21.3414	-24.3499		85.4561
21.9423	-25.5226		84.877
21.8017	-21.5098		86.2954
20.3407	-24.7776		86.3115
54.6963	37.9266		66.6681
54.7262	35.8109		67.3385
59.5543	33.108		61.4632
54.9216	39.6278		65.675
49.6423	40.8778		70.3977
9.19692	-31.2061		91.0478
8.67993	-30.8437		91.9948
8.80307	-31.9305		90.8024
10.2138	-31.1281		90.531
11.2662	-28.2078		94.5989
9.95088	-28.8896		94.9086
12.2091	-28.8763		93.2146
12.0011	-27.1977		95.8791
49.5898	15.3556		64.4952
49.3457	16.1146		64.7521
17.4362	-19.3553		95.0166
17.4676	-20.3142		94.811
17.8084	-19.1355		94.283
16.4784	-18.9252		96.4251
84.5903	-25.8717		-33.2792
83.4559	-28.4687		-31.8541
83.2354	-24.1404		-34.7602
85.5865	-27.0624		-32.1628
65.7676	76.2504		14.0451
63.4276	79.7611		15.1726
66.6729	71.755		18.5483
68.2352	76.3618		4.59682
25.306	-62.1691		76.4014
25.9038	-60.3792		75.8562
25.8731	-62.8931		75.722
24.0267	-61.8472		77.7129
25.3464	-51.6767		76.3128
23.7561	-51.8498		77.7522
25.8909	-50.4438		75.6636
25.8899	-53.7277		75.9035
-19.0538	-99.3325		74.7144
-19.204	-98.0192		77.4469
-21.7134	-98.6215		71.4434
-16.1987	-100.679		78.262
-68.9889	-9.11724		47.9143
-70.0262	-4.92202		44.0592
-69.3922	-12.3708		47.223
-67.2746	-8.47262		51.5661
-65.3101	-6.70361		54.2056
-62.605	-8.36485		58.0782
-65.4777	-2.21181		52.1071
-13.7835	39.2695		82.4543
-15.3592	37.5802		81.8471
-10.327	35.0866		82.7983
-10.8519	39.9229		82.6707
-17.8539	42.2694		82.2038
-9.48574	18.1076		79.7371
-8.80874	18.5591		80.4959
-10.0352	19.8002		78.973
-10.7218	17.1457		78.7577
-13.6423	18.2643		75.2759
-16.3911	16.9831		72.8782
-13.4394	16.7023		75.8679
-11.8235	20.2876		77.178
-14.4438	20.135		74.8849
-48.1979	12.7658		64.9025
-44.9387	10.945		67.5039
-49.881	13.9789		63.4001
-17.6867	10.3214		74.2508
-19.3884	9.31036		73.7373
-17.0309	9.347		75.3555
-17.4683	11.4652		73.8077
-24.6159	-56.9735		81.4114
-24.4435	-56.8492		81.7034
-24.4496	-56.9245		81.7599
-24.757	-57.0827		81.0067
-23.4317	-55.6038		82.7288
-24.4128	-56.1537		82.3945
-21.8388	-55.0814		84.5008
-23.5312	-55.1236		83.2151
-27.3689	-54.4793		81.185
-25.1559	-57.2165		79.8816
-24.8227	-57.6036		81.3496
-26.0774	-57.3154		78.495
-24.68	-56.4739		80.4824
-20.361	-59.5775		88.5864
-20.8063	-60.3456		88.1957
-17.9249	-60.2466		91.2789
-20.1883	-59.0161		88.6239
-22.6992	-58.8104		85.3738
-18.2208	-50.0714		87.8337
-17.7545	-48.6859		88.1381
-20.6464	-51.7161		86.4117
-18.4487	-50.8547		88.1545
-15.0757	-48.7037		89.5214
-23.6948	-56.9421		82.5742
-22.0215	-56.9089		84.6147
-23.8147	-56.9506		82.4564
-23.7841	-56.9796		82.5596
-78.5702	-35.9009		-8.70873
-79.2628	-34.9476		-8.59958
-77.9824	-39.0684		-11.7998
-77.9903	-36.1592		-7.88225
-86.4235	-26.821		-19.1226
-86.9187	-24.9512		-21.6027
-86.9298	-27.9877		-19.9403
-86.0195	-27.7868		-17.1085
-85.3669	-25.1641		-18.1147
-82.4257	-32.6852		-10.6845
-83.0718	-33.7528		-11.9794
-81.908	-32.8199		-10.0032
-82.0698	-30.2053		-9.38134
-81.6476	-20.6555		-12.6853
-81.5843	-19.6649		-13.4756
-82.0526	-22.1463		-13.0981
-81.9063	-21.1474		-11.3972
-81.7046	-18.8442		-12.5619
-87.1646	-0.876152		-14.1924
-87.2418	-0.405376		-13.5413
-87.429	-0.0991515		-14.7651
-86.6229	-2.82411		-15.0513
-90.4518	9.92516		-18.4449
-90.4878	10.4994		-17.6422
-91.5733	11.019		-21.3751
-90.0773	8.99667		-18.423
-84.2164	-11.1043		-17.6977
-86.5537	-7.24064		-20.7218
-83.5439	-13.5482		-17.9379
-83.5282	-12.1949		-14.8221
-85.2752	-7.31739		-16.8481
-89.5724	3.12838		-21.0346
-89.1759	1.61814		-20.8509
-88.5157	3.65651		-17.0855
-90.1369	4.76606		-21.9052
-91.1465	2.69159		-25.8036
-81.2689	-29.6033		-30.7191
-82.3991	-28.4243		-31.0994
-80.0551	-29.4419		-31.2068
-81.1038	-31.6121		-29.5225
-91.7244	-10.1875		-31.75
-92.0622	-9.06668		-32.6753
-90.8824	-13.3344		-31.167
-91.635	-9.9708		-31.1783
-92.3156	-7.3459		-34.1489
-92.5442	-5.18711		-33.2916
-92.6036	-4.14442		-35.5881
-92.2135	-8.02561		-35.188
-87.3276	-23.3398		-23.4873
-87.7896	-21.1846		-25.306
-87.734	-24.4019		-24.1856
-86.1909	-21.5031		-22.0149
-89.4977	-9.73336		-27.8138
-88.5026	-11.7102		-26.721
-89.5086	-8.38022		-27.5044
-90.7221	-9.98275		-29.5704
-87.6028	-14.8475		-25.5989
-88.1554	-16.6147		-26.5046
-86.2586	-15.9688		-23.2285
-80.0008	-28.0967		-5.9049
-79.7219	-27.2751		-5.25315
-80.6096	-27.687		-6.74749
-80.3152	-30.0932		-7.32195
-79.669	-25.6684		-4.64666
-79.2867	-25.8382		-3.79896
-80.0016	-23.6354		-4.60718
-81.2361	-16.6623		-4.98927
-81.7351	-13.4293		-5.16555
-81.5499	-16.9807		-5.88108
-80.9746	-17.2186		-4.57135
-80.6622	-17.9727		-4.12903
-80.4406	-20.3969		-4.33849
-80.3326	-17.8543		-3.21042
-83.5691	-23.752		-15.6424
-83.5489	-22.199		-16.8464
-83.5105	-24.6921		-14.1453
-83.6386	-11.7244		-13.3167
-82.5302	-15.6008		-12.8367
-84.0828	-10.5715		-12.0417
-84.7562	-7.90518		-13.6283
-82.0305	-17.4725		-12.1976
-82.3121	-17.4166		-11.5711
-92.714	6.1339		-30.1437
-92.8603	5.02415		-31.7209
-92.5791	5.69711		-29.6954
-92.8394	6.87074		-30.4036
-92.7336	1.3143		-32.2825
-92.5406	0.139518		-30.7628
-92.6122	3.12923		-30.622
-92.8596	2.7004		-33.2581
-92.7359	-0.317079		-33.1561
-89.8774	8.33012		-18.5246
-89.3314	7.52941		-17.558
-90.6537	8.51881		-20.9714
-91.542	8.40648		-24.2253
-91.1394	7.36529		-23.5675
-92.0754	9.67356		-25.0613
-92.5856	8.20612		-28.2891
-90.6086	6.11916		-22.6845
-91.8388	5.61886		-26.7834
-89.4998	6.53446		-18.9527
-43.7104	25.5237		70.8327
-40.5265	26.2629		71.7497
-46.2935	24.2474		69.5063
-25.4837	-97.077		66.5242
-27.6083	-95.5111		66.7868
-24.6242	-97.9796		62.4556
-50.6451	17.8492		64.5375
-51.4273	15.8984		63.1649
-49.681	20.2952		66.3077
-54.5343	20.4198		63.8036
-53.7738	23.6516		65.8093
-56.4866	21.386		62.7233
-54.4983	16.9325		62.0458
-52.8496	19.3832		64.4124
-71.951	-48.0474		-5.25438
-71.1926	-50.1996		-5.64465
-72.3955	-46.5375		-3.85675
-72.8778	-46.3116		-9.72868
-21.9878	15.2469		69.7637
-22.4021	14.2951		69.644
-22.2089	16.2149		69.853
-20.1413	18.2534		71.0677
-21.4461	20.2904		71.3975
-19.5982	16.4494		71.0527
-7.76379	19.8114		81.4002
-7.92585	22.1399		81.1821
-6.94625	19.9095		82.2003
-18.42	-54.901		87.5818
-15.5562	-54.0663		89.2418
-18.859	-54.6103		86.973
-18.8888	-55.4455		87.1985
-64.5404	-69.7991		-9.678
-65.3197	-67.4224		-10.0029
-63.9652	-72.2264		-11.4163
-63.7678	-69.5697		-5.07204
-80.0043	-5.47579		0.0698011
-79.0727	-12.6981		2.51742
-79.2218	-4.35382		4.11507
-80.981	2.30318		-3.75419
-80.7526	-6.24517		-2.52371
-64.5348	-72.6225		-21.1381
-64.1185	-74.5689		-15.5978
-65.2823	-68.5943		-23.2247
-63.8765	-74.6998		-21.6226
-61.4802	-107.417		-28.18
-61.685	-115.999		-29.2038
-61.6257	-109.608		-21.3093
-61.3458	-98.5605		-28.2271
-60.136	-104.21		-35.7941
-24.0263	-57.3224		82.599
-22.3447	-57.6889		84.9719
-23.8805	-57.1859		82.6282
-24.147	-57.4633		82.5742
-25.6634	-57.0023		81.5508
-24.8789	-58.1803		82.1165
-19.9099	-58.5536		88.7858
-17.4474	-58.5596		90.9218
-19.9888	-58.1545		88.4547
-29.8073	-94.714		67.2902
-29.615	-93.3892		70.0965
-34.3808	-92.3466		62.1472
-48.0778	-59.8399		-67.0461
-47.0781	-62.8927		-66.8594
-50.6807	-58.986		-63.4047
-46.8214	-55.9951		-70.9846
-58.7283	78.9766		32.5624
-59.7079	74.924		35.4439
-55.0717	81.9478		34.9143
-59.7326	80.8799		25.4375
-88.9795	-19.8966		-32.3509
-90.3005	-14.7704		-35.3303
-88.3455	-19.9291		-33.6203
-87.7964	-24.0943		-29.6366
-89.5203	-19.1105		-31.334
-84.6213	0.126322		-8.86823
-83.7677	-4.14211		-7.79138
-83.4686	0.335629		-8.25377
-85.4777	4.46532		-10.4994
-85.5461	0.067814		-9.53001
-81.8493	-21.0678		-7.9655
-81.4579	-21.8075		-7.06767
-81.883	-19.4768		-7.64039
-82.0937	-21.3836		-9.29112
-82.2275	-23.6913		-9.11647
-81.6827	-27.4903		-8.32602
-81.2555	-24.688		-7.06977
-82.4317	-27.2177		-9.49165
-91.3096	-8.95496		-37.7926
-91.7426	-9.06475		-36.8054
-91.9993	-2.67467		-38.9148
-90.5343	-8.95608		-38.5876
-89.5172	-8.83129		-39.2413
-88.7039	-14.4433		-37.2362
-90.0255	-2.69696		-40.1952
-88.4987	-8.5215		-39.7162
-82.296	4.45436		-9.75851
-82.3218	2.77033		-8.34884
-82.1167	5.42772		-9.48353
-82.5058	6.62954		-11.4601
-85.6366	-18.0105		-36.5931
-83.9797	-17.4131		-37.4108
-84.564	-21.9703		-34.6015
-86.6788	-18.6137		-35.884
-86.3663	-13.5591		-38.5147
-87.9137	-25.4058		-25.0559
-88.4594	-22.4106		-27.3399
-87.763	-26.3249		-26.2405
-87.5848	-27.3154		-23.2495
-85.3763	-33.4281		-23.7922
-86.7963	-30.7977		-22.3241
-86.3589	-30.2662		-26.3547
-84.0081	-34.7429		-24.9785
-84.7779	-35.2688		-21.1299
-86.1954	-31.8996		-17.3022
-85.8544	-31.3651		-16.1586
-86.6737	-30.7561		-18.7977
-85.6458	-33.616		-17.6947
-75.4892	-42.1104		-14.1897
-75.536	-41.3031		-10.0114
-76.628	-41.1938		-15.8728
-74.9203	-43.0297		-14.6555
-80.8962	-38.4854		-14.7606
-80.8756	-39.3322		-17.1625
-79.4019	-39.5161		-15.1292
-80.8159	-36.8971		-12.2139
-82.3828	-37.1606		-14.4941
-88.2981	6.71083		-11.9521
-88.5258	6.65615		-12.0302
-86.9147	3.2092		-10.9351
-88.3447	8.17206		-12.0531
-88.3299	9.12521		-12.2444
-88.0093	9.07611		-12.1995
-89.4907	12.4121		-14.0456
-93.3046	5.30974		-34.4744
-93.3576	6.95344		-33.0528
-93.3877	4.67295		-35.2007
-93.0834	4.31955		-34.0946
-89.1666	7.66262		-13.7943
-89.6721	9.27008		-14.9264
-88.7018	6.12697		-14.1117
-89.0272	7.44157		-13.215
-88.6847	6.61957		-12.4157
-89.6927	10.8126		-13.9931
-87.8664	3.40753		-12.36
-91.3821	-9.95353		-30.6066
-90.0784	-13.5607		-29.4719
-92.053	-6.92876		-30.8829
-89.0952	6.92616		-17.1129
-88.7375	6.19086		-16.0596
-88.327	4.51377		-15.4816
-88.2389	4.37689		-15.0086
-84.2602	-9.75147		-11.034
-85.516	-5.38427		-11.1495
-83.0824	-14.5129		-10.8256
-84.1687	-9.75546		-9.9494
-87.5588	0.297265		-15.099
-87.8626	1.99251		-14.722
-87.7158	0.0166581		-16.7712
-52.3169	-57.0324		-61.5358
-53.901	-56.9844		-58.8495
-52.6929	-52.39		-64.038
-25.7779	-28.7296		83.3874
-23.3592	-28.45		84.0927
-26.3954	-27.138		83.3664
-27.5974	-31.7652		82.614
-20.0306	-26.8289		86.1003
-18.9501	-26.9996		86.9157
-20.6399	-24.2028		86.6849
-20.5708	-27.848		85.4186
-56.3702	38.5641		66.1354
-56.5994	36.2741		66.2052
-51.0968	41.4204		69.7444
-56.6231	40.2891		65.2878
-60.7172	33.6319		61.4561
-5.73635	-30.3107		93.5134
-5.91068	-29.7667		94.1992
-6.41646	-30.6147		92.5716
-4.59346	-30.6607		93.9911
-6.12525	-29.1405		95.394
-7.17579	-28.6649		95.358
-4.91191	-29.0273		97.0095
-50.4185	14.7174		63.1304
-50.1292	15.6199		63.4712
-14.9986	-19.992		94.9364
-13.7123	-19.3759		96.3978
-15.5312	-19.9481		94.0804
-15.1066	-21.0707		94.6355
-66.5933	75.9899		14.1175
-68.4107	76.3799		4.35599
-67.8008	71.4445		17.6043
-64.6221	79.366		14.3626
-26.6453	-62.3179		79.4063
-25.2364	-61.9503		81.4694
-27.0092	-63.0169		78.9736
-27.3095	-60.5434		77.9312
-26.6125	-51.8547		75.8824
-27.3102	-53.8777		75.4298
-26.8035	-50.6972		75.4139
-25.1385	-51.9599		77.3084
-8.63171	-28.3353		94.909
-9.18257	-27.284		95.9827
-9.92402	-28.8446		93.0796
8.86779	-29.4856		94.5182
7.94506	-29.4541		96.3004
8.51822	-30.2621		93.3604
8.09132	-30.532		92.7685
7.0529	-30.9144		93.2603
-7.1138	-31.1419		91.7081
-8.29263	-31.2714		90.984
-6.89046	-31.8381		91.3621
81.324	-35.7365		-26.7053
79.6179	-36.2877		-26.4979
81.9564	-32.5506		-29.3939
82.501	-36.1585		-26.049
80.1569	-39.0454		-23.2297
71.5957	-48.0688		11.7251
70.7577	-49.377		19.7244
70.462	-52.7751		10.2001
72.5858	-46.3175		4.79637
72.9042	-42.7149		12.9082
58.4174	-115.164		-7.04989
58.4812	-104.339		-6.59451
56.0144	-115.81		-2.59679
59.1326	-125.047		-7.77662
60.3546	-113.613		-11.4416
59.7321	-132.822		-8.77627
60.2742	-138.967		-9.97424
61.3765	-131.132		-13.7861
57.477	-134.827		-3.99556
52.2459	-98.8686		2.82304
52.9455	-93.0967		3.88309
49.085	-99.8339		7.79815
52.1815	-106.737		2.18445
55.8036	-97.6105		-2.15042
62.0252	-96.6825		-16.0119
61.6043	-104.281		-14.8063
63.1665	-95.4049		-21.0884
62.1961	-91.3698		-15.6639
60.0968	-97.0624		-11.0301
64.4273	-68.667		22.249
66.3267	-64.7466		24.7901
62.9857	-70.8504		29.7258
62.6847	-71.8835		19.5376
65.2017	-67.046		14.1694
74.5101	31.727		23.3235
75.0722	39.4305		18.8437
70.0592	34.0583		34.3241
74.3449	24.21		26.3166
77.6477	29.9972		11.714
79.168	41.7481		-28.8818
78.7518	38.0995		-38.4603
77.3786	49.0776		-34.0141
79.5374	43.8178		-18.3768
80.5498	33.9736		-24.1095
7.3875	-114.137		43.6437
4.31876	-114.362		44.5484
7.82997	-120.485		40.4285
11.0032	-113.641		42.2034
7.30938	-110.207		46.0717
8.50513	-131.391		35.4734
9.45881	-142.605		30.7103
12.5036	-130.461		33.9265
5.19353	-131.593		36.6105
2.73077	-150.9		31.4114
6.47412	-150.639		31.0115
2.15544	-143.179		32.6765
-0.774668	-150.812		32.2128
3.35493	-155.757		30.9803
67.797	-53.3447		-32.6098
70.3525	-47.7095		-30.1056
67.2892	-59.7465		-27.404
65.2816	-59.5149		-34.7577
68.5425	-46.2623		-36.5277
69.3296	-41.1839		-39.6527
65.8215	-46.7296		-42.9348
70.1821	-36.2916		-42.3298
72.5454	-36.6411		-36.5009
61.7627	-124.48		-30.5652
61.7853	-131.053		-33.0513
60.3978	-121.708		-37.2736
62.3522	-127.62		-24.0181
2.00283	-131.821		37.0945
1.91433	-120.991		41.8026
-0.887722	-131.746		37.307
69.6673	-50.9366		27.8905
70.7889	-45.2831		28.5725
68.4386	-52.1359		37.2557
68.8026	-55.8281		27.3976
66.0139	-65.3637		6.29305
64.3473	-69.0122		4.29756
66.7062	-64.2751		-1.94004
67.6607	-61.2654		7.738
9.6796	-90.0717		89.9759
5.73889	-90.6105		91.0642
9.31758	-94.2495		87.7621
14.0203	-89.5914		87.7371
10.2369	-85.3768		91.2978
19.1807	-88.0104		83.7971
18.4847	-92.3986		81.1847
23.6986	-86.415		79.0926
19.1497	-83.4871		85.3119
3.47156	-81.3289		93.8905
6.76426	-80.9351		93.1133
3.50831	-76.5492		93.3893
0.452605	-81.3748		93.7485
3.02448	-86.3318		92.8418
8.90506	-97.3844		84.3358
9.38374	-99.5975		79.8469
13.6735	-96.8617		82.5676
5.1196	-97.831		85.4635
10.2177	-101.371		77.2004
6.13527	-101.87		78.1967
10.2578	-102.545		68.5491
17.6059	1.58178		81.9261
18.0375	-2.9173		84.7974
20.3664	-0.444069		80.4422
16.9365	5.49634		79.1665
15.0173	4.19607		83.2351
52.0543	-30.8302		73.0495
58.2068	-30.9951		66.3875
51.8043	-25.4885		73.5034
44.6282	-28.7959		78.2862
52.8012	-34.6825		73.8878
63.7849	-21.2854		59.6515
67.3358	-20.0709		53.6121
62.3145	-16.0346		61.0158
57.8599	-20.8251		67.0746
63.9496	-26.7491		59.7122
70.8184	0.542849		41.5518
73.4427	0.704639		36.26
70.0776	8.44114		40.7564
68.701	2.19764		45.6523
51.8093	-39.0684		72.9171
51.1566	-43.7173		72.1764
57.0454	-40.5584		65.8863
46.0178	-37.762		77.5741
3.80033	2.41018		96.4371
3.34773	8.06138		92.8872
1.98365	2.64173		96.6348
3.92543	-2.9427		99.6795
5.61461	1.78568		95.8017
32.4465	69.1125		66.688
27.0937	70.0555		68.5623
32.3938	63.2532		70.4076
38.2361	67.6063		64.0522
33.0618	74.7793		62.6361
1.71684	-104.547		63.0057
1.06686	-105.945		55.6794
5.32003	-104.211		62.439
2.00071	-103.571		69.6731
-1.80511	-104.629		63.1433
66.4563	-53.0366		45.7631
63.6885	-52.79		52.8901
65.2369	-58.8348		46.4742
67.4911	-47.0611		45.7792
2.079	-98.2686		86.2734
2.05414	-95.5057		89.0663
-0.924495	-98.5842		86.1944
2.29269	-100.952		84.5496
2.47726	-102.407		79.2598
-0.803554	-102.477		79.8246
40.8626	-87.9409		64.463
34.6755	-89.7184		65.5692
40.0836	-90.4281		63.0661
46.5896	-85.099		61.2432
40.4304	-84.4566		63.7744
46.232	-90.4669		38.2913
43.0174	-93.5082		32.0805
50.1573	-87.3437		32.0206
48.3954	-88.6914		43.6529
40.7395	-94.2456		45.312
0.849401	-107.29		50.4043
3.78595	-107.483		49.5649
-2.00802	-107.063		50.5767
0.735786	-110.18		46.9167
8.68641	-8.82436		101.129
9.24186	-12.6358		103.462
11.2563	-9.97214		98.7493
8.44508	-3.94554		97.9709
6.32986	-8.30559		102.476
26.9274	-22.0834		83.4457
30.9703	-24.4436		82.7306
25.5135	-17.2436		84.019
23.3906	-19.2568		85.2587
24.6801	-57.802		80.8021
26.7493	-57.632		80.2533
13.2327	-29.3417		92.3176
14.6513	-27.3399		91.4847
12.4747	-30.3216		91.5446
14.6802	-28.6821		89.5009
12.24	-33.3341		89.6817
12.6189	-34.8349		90.8544
14.2897	-33.0737		87.6808
12.2376	-32.4987		90.0219
10.2328	-33.0542		89.5164
3.27847	-31.8142		95.7667
3.34512	-30.9846		98.0879
1.67291	-32.0814		96.2782
3.29795	-32.6305		94.413
4.92779	-31.507		94.7787
16.82	-32.0118		86.5718
19.5141	-30.3354		85.7113
16.5514	-30.9668		86.8596
17.1322	-33.4413		86.3795
9.72235	-22.2702		104.949
7.33789	-22.7837		107.01
9.34395	-24.1563		103.979
12.3071	-22.0833		101.928
9.97659	-20.5505		105.398
24.1797	-68.4396		81.5186
27.1094	-67.1863		79.9826
22.5501	-65.5547		83.2469
20.8246	-69.382		84.2776
25.9953	-72.0855		80.8316
26.1761	-50.955		83.8319
25.7511	-47.7947		82.9639
24.3878	-50.0334		84.6632
27.9784	-51.7194		81.6969
3.48079	-37.2236		92.5653
3.30557	-38.8235		93.1132
4.89375	-36.7098		92.1134
3.4415	-35.0202		92.6105
1.5487	-37.2705		92.785
7.89498	0.923714		94.6837
10.2636	-0.399239		93.4033
7.34058	5.94427		91.6497
19.7165	-19.9642		89.9971
18.8483	-18.6646		91.7003
19.1229	-19.5959		91.529
19.8415	-21.5498		89.1403
20.1135	-19.5005		89.0973
6.10487	-32.8333		92.2236
6.07207	-34.242		91.5233
7.31937	-32.8035		91.2953
6.12524	-31.9438		92.9434
4.89079	-33.114		92.7553
6.17558	-31.1575		94.0914
6.42886	-30.4214		95.578
18.242	-19.1715		93.2404
18.0009	-18.2711		93.474
18.6232	-20.5901		92.3622
19.6959	-24.021		87.699
19.0716	-22.9489		89.6251
