1820
-10.1741	-72.1463		94.1431
-14.3005	-71.5381		92.6204
-10.3222	-74.2294		93.821
-5.97381	-72.4137		95.1947
-9.91763	-70.2418		94.7808
-25.2238	-54.5485		84.1421
-24.9475	-52.7707		84.8425
-27.2569	-56.6976		81.2632
-25.094	-55.9805		83.4376
-17.6082	-19.0581		92.3408
-16.146	-18.2045		94.7869
-17.7566	-18.0461		91.407
-17.8424	-71.3479		89.5311
-17.6862	-68.9685		91.133
-21.3563	-69.8563		87.084
-18.3818	-73.3911		88.9677
-2.25692	-72.5331		95.8342
-2.32321	-70.9273		96.0873
-2.28845	-74.5671		95.479
-61.7429	27.4678		57.282
-62.6202	28.9196		55.3017
-63.7509	21.8581		53.4118
-60.6532	26.3056		59.0972
-41.5379	54.6755		67.6855
-42.2298	60.3677		64.1591
-47.7413	51.8409		63.4681
-41.0047	49.565		70.7645
-36.04	56.5833		71.1882
-54.0763	48.3614		58.3892
-54.9412	53.9228		54.3013
-59.8898	44.1818		52.4879
-53.3513	43.7104		61.9333
-41.5824	41.647		73.5387
-41.1272	44.2881		72.9873
-42.1404	38.7328		73.7256
-36.6822	43.2006		76.8957
-63.9151	30.5536		52.1281
-66.9354	24.412		46.8372
-58.8569	36.2416		58.9479
-64.5718	33.7006		49.1569
-25.0443	33.4738		76.5947
-21.4119	32.498		76.7526
-24.6275	35.0619		77.2512
-28.6879	33.9132		76.2154
-25.3942	31.7119		75.6886
-6.61622	15.8565		82.7773
-6.54025	13.1481		84.5762
-4.23725	17.439		84.0449
-6.71118	17.9357		81.6418
-8.91776	13.584		81.1232
-31.0794	-6.52361		76.8622
-25.0048	-4.31575		78.0438
-29.071	-2.17071		75.7493
-38.652	-8.44365		75.3731
-33.1587	-11.4789		78.076
-59.9972	4.49422		57.3707
-57.8003	0.193987		61.1015
-57.3534	6.41024		59.4272
-61.04	8.60371		56.2159
-62.7559	2.90047		55.4104
-6.53068	9.58075		87.3204
-4.37315	10.8717		88.3843
-8.90583	7.53627		86.0049
-42.6843	36.3438		73.7694
-42.7951	34.4701		73.8133
-37.7625	37.9188		76.6906
-48.1902	34.9807		70.6388
-52.9534	33.0812		67.5548
-56.777	29.5315		64.1781
-52.3609	31.0638		68.1998
-56.6878	14.565		60.3019
-58.6567	14.3411		58.542
-55.9954	10.7132		60.114
-54.4767	14.9269		62.0186
-56.8537	18.8143		61.5859
-44.4261	21.5106		69.8484
-42.6177	22.7811		71.0509
-45.9943	19.9058		68.4751
-40.6397	23.7895		71.8391
-38.2893	24.6417		72.1763
-40.661	24.7291		72.2292
-42.9428	23.6168		71.4396
-38.0492	25.541		72.5353
-35.3799	25.197		72.2591
-32.3384	25.0158		72.1829
-34.9989	25.9833		72.6414
-31.7707	25.7865		72.4406
-29.4309	24.3138		71.855
-26.7894	23.0234		71.434
-24.2779	21.3953		70.8916
-22.1335	19.6708		70.2508
-22.9826	22.0572		71.0703
-25.608	23.6479		71.6192
-20.8167	20.228		70.489
-20.7937	18.1823		69.7354
-21.6169	22.5395		71.3594
-24.5036	24.4159		71.949
-34.6882	26.9299		73.0449
-31.3315	26.6179		72.8572
-49.3425	14.5196		65.0834
-48.2733	13.6649		65.6239
-32.6246	33.7968		75.9357
-32.7879	32.0525		75.1859
-32.7666	35.6334		76.7513
-37.4093	33.1918		75.1774
-49.1257	25.9187		69.7071
-47.4639	24.4872		70.1332
-45.8198	27.5525		71.6572
-50.7119	27.6679		69.2716
-38.8743	6.6891		71.2987
-31.5624	7.15478		72.8509
-44.402	7.15286		68.9093
-39.4736	4.90026		71.4191
-25.9302	8.41722		72.6816
-25.9157	6.83577		73.1305
-22.0349	9.82197		72.1824
-18.2849	13.3302		71.0773
-19.1214	12.1655		71.4417
-17.8023	14.168		70.9433
-37.7862	10.0354		71.3652
-31.661	10.1717		72.3481
-42.7381	10.779		69.5209
-21.6677	13.1979		70.3149
-20.8074	13.7534		69.9736
-23.3395	12.2898		70.9454
-20.1257	14.1731		69.9095
-19.4712	14.8037		69.8845
-14.3971	22.3455		73.8651
-13.5736	24.5029		75.2654
-16.3568	24.3887		73.8014
-15.499	20.2092		72.3474
-17.4238	15.6544		70.8218
-27.7873	25.7754		72.4216
-16.4894	19.2577		71.4517
-17.8619	21.0926		71.5067
-15.9463	17.6524		71.5484
-37.7177	11.3822		71.2828
-31.6767	11.3254		72.2088
-21.9694	13.9392		69.787
-23.5751	13.3529		70.4179
-21.0887	14.2502		69.5901
-20.6011	14.6581		69.4079
-46.9617	18.307		67.31
-3.56221	31.656		81.1045
-4.37472	34.7039		81.1265
-6.21307	31.4649		80.5468
-2.90952	28.9344		81.239
-19.2113	4.66315		75.5063
-22.3738	3.01076		75.1678
-20.142	1.75296		76.8865
-17.101	6.23457		75.9679
-18.8808	6.67066		74.5006
-15.049	7.90815		76.785
-12.9637	9.83158		77.9885
-15.2726	12.9811		73.3254
-15.5858	14.4563		72.44
-13.4436	13.7834		74.8007
-10.3826	21.5647		76.8759
-9.73536	22.6145		77.6779
-11.473	23.7364		76.4249
-20.1159	11.07		71.798
-19.3862	9.86159		72.6763
-18.881	8.3549		73.5716
-21.5273	6.79166		73.5364
-21.3061	-57.3958		84.3541
-17.6262	-56.7923		87.1279
-24.1668	-58.4535		81.0683
-21.1921	-57.3452		84.5158
-26.0279	-58.601		79.6763
-25.723	-58.5203		79.7083
-3.16975	-49.7573		96.3664
-3.13287	-51.1523		96.408
-3.22038	-48.4265		95.9777
-6.30993	-49.3318		95.5105
-8.94287	-52.2253		94.321
-11.4734	-52.4136		93.4487
-8.53205	-53.5689		94.3281
-6.15712	-52.1318		95.3723
-8.98289	-50.8512		94.6865
-14.063	-52.651		92.2302
-17.1522	-53.3922		90.2174
-13.8721	-54.0659		91.8099
-14.0724	-51.5228		92.5616
-8.79504	-49.411		94.7998
-8.69392	-48.0421		94.9014
-11.391	-49.8872		93.9915
-13.112	-48.216		93.4047
-13.822	-49.3122		93.0851
-10.4808	-47.525		94.4403
-12.6211	-47.1492		93.3819
-20.7291	-55.2317		87.0924
-20.6253	-53.813		87.9386
-7.95203	-54.7293		93.6421
-10.9695	-54.9146		92.5642
-7.55569	-55.3136		93.0653
-5.17782	-54.584		94.4395
-14.1349	-55.3842		90.7686
-14.1469	-56.0288		89.9262
-26.6567	-57.39		81.1821
-28.0157	-58.7353		79.4912
-21.5319	-58.3809		84.9053
-21.4758	-58.7699		85.2641
-17.7319	-58.2449		88.0618
-21.4888	-58.3113		84.6663
-22.096	-60.1316		85.8714
-18.6877	-60.8428		89.5575
-21.786	-59.6474		85.8012
-15.6159	-61.2959		92.3986
-16.1045	-62.1974		92.4667
-12.3512	-61.4529		94.5407
-15.2733	-60.3769		91.941
-7.90851	-59.2822		94.907
-4.77125	-59.4247		95.7701
-7.69219	-57.8909		94.1831
-11.461	-59.2365		93.4368
-8.27662	-60.5647		95.7604
-2.4357	-62.4673		98.0055
-2.33378	-61.0777		97.5796
-5.21246	-62.0775		97.2248
-2.52681	-63.7662		98.2092
-26.3582	-60.042		79.0449
-26.1421	-59.4723		79.6342
-24.3791	-60.0399		80.7053
-26.3859	-61.3748		78.5575
-1.92135	-57.8456		92.2326
-1.92321	-57.0489		93.2907
-1.62171	-59.0873		91.6464
-4.2838	-57.9195		91.9352
-2.5498	-64.9913		98.2143
-5.49537	-64.4687		97.5042
-2.61245	-66.026		98.1219
-2.46582	-69.4579		96.6951
-2.59603	-68.1583		97.3304
-5.64787	-68.9602		96.4904
-8.40123	-47.1442		94.9934
-5.99365	-46.9444		95.3448
-7.53078	-45.8946		94.7564
-2.22668	-59.5913		96.7493
-2.0782	-58.2257		95.8019
-2.00821	-57.3935		95.2433
-2.04825	-57.0664		94.7264
-4.45826	-57.3379		94.9099
-7.5595	-57.2986		93.6392
-7.46096	-57.0313		93.2434
-10.9131	-57.5091		92.4026
-2.02837	-56.9065		94.129
-4.38507	-56.9399		93.767
-14.2561	-57.7713		90.4565
-14.5012	-58.4399		90.8637
-14.163	-57.5789		90.0325
-16.8845	-65.0803		92.1918
-17.1669	-66.1498		91.8024
-13.5537	-65.5453		94.3106
-16.6567	-64.1843		92.3787
-9.52816	-65.8583		96.1569
-9.71462	-67.0146		95.7023
-5.5486	-66.4677		97.5503
-9.31563	-64.9396		96.3986
-2.61536	-67.0348		97.8258
-14.1219	-56.1684		89.4173
-14.0236	-56.0999		88.882
-10.7468	-55.7382		91.3357
-26.0506	-59.2767		80.27
-24.3376	-59.5607		81.8346
-7.25637	-58.0297		91.2757
-7.24324	-57.2191		92.2185
-7.39635	-59.2251		90.4201
-10.6567	-58.2086		90.1389
-7.2868	-56.9833		93.0502
-10.6426	-57.213		91.4144
-9.70062	-68.4395		95.4985
-13.894	-68.0974		93.3901
-16.3615	-63.1808		92.5057
-13.1041	-63.5827		94.6399
-17.4433	-67.5533		91.3036
-20.1016	-66.9769		88.3494
-13.6745	-55.738		88.8372
-16.8435	-56.2744		87.0258
-13.1164	-54.4032		87.9164
-10.5838	-55.2254		90.1613
-7.45855	-54.9596		91.1419
-7.33143	-55.4063		92.161
-7.84268	-53.5869		89.5778
-4.83183	-54.6941		91.5066
-12.6386	-51.2929		86.5451
-15.2464	-51.7672		85.3969
-12.5848	-47.6349		85.1892
-10.2569	-50.8795		87.3292
-26.3421	-64.4072		78.1881
-24.2301	-64.5026		79.9354
-25.9613	-67.5438		78.3618
-1.45989	-62.2072		90.8132
-1.61981	-66.0073		90.6411
-3.8944	-62.1952		90.5734
-7.96844	-50.555		87.8532
-7.66611	-46.9213		86.5013
-5.46208	-50.2443		88.2046
-6.98417	-62.2342		89.9719
-7.12661	-66.1804		89.602
-10.5688	-62.4187		88.6257
-30.0371	-59.2224		73.602
-30.3862	-59.052		73.017
-11.4457	15.0257		76.5876
-11.0748	13.47		77.9774
-80.495	-8.98237		-43.097
-82.03	-9.50303		-41.3726
-81.1396	-4.13548		-43.1941
-78.533	-8.27068		-46.5063
-79.79	-13.4633		-42.376
-81.4657	9.64892		-5.53897
-80.6236	11.6785		-0.454746
-81.6613	12.4933		-9.74842
-81.5602	14.5903		-14.9391
-81.8876	14.1956		-22.0604
-81.9994	9.66761		-16.1841
-81.2868	20.1267		-16.1496
-74.8642	-32.5116		-34.5334
-76.0154	-28.818		-36.5349
-73.8435	-36.6945		-32.3397
-77.4945	-30.3436		-33.3518
-76.8441	-25.5464		-38.2281
-79.1589	-24.361		-36.3322
-78.0365	-21.4474		-39.9128
-74.2557	-27.1054		-41.1291
-83.5429	-9.47052		-40.4682
-83.9682	-4.0912		-40.7907
-82.9682	-13.7049		-39.5841
-85.0356	-8.96107		-40.1289
-83.7685	-25.672		-33.2131
-84.7545	-26.884		-32.0591
-82.533	-23.768		-34.6191
-85.5407	-27.7093		-31.0239
-86.5918	-23.7549		-33.0507
-84.4275	-31.4868		-28.695
-86.2915	-28.1555		-29.8071
-90.0979	-18.1378		-30.904
-91.3793	-13.5709		-33.9727
-90.1208	-17.6059		-30.1372
-79.59	-39.6361		-21.08
-80.0657	-37.8397		-24.2307
-78.7541	-38.6173		-23.2868
-79.1202	-40.4069		-18.9782
-80.137	-39.8958		-20.3809
-82.0008	-32.8765		-8.15067
-81.5987	-33.3425		-8.22544
-80.7307	-34.5173		-8.61531
-90.0844	-17.2325		-29.7233
-89.6182	-17.7869		-28.817
-92.8875	-2.20635		-33.398
-92.8202	-1.44828		-35.0266
-92.888	-3.95124		-31.5974
-93.4157	8.58553		-31.0506
-93.6763	9.89567		-31.1439
-93.8356	11.9835		-30.1089
-93.4268	13.3977		-26.7283
-94.0033	12.44		-30.5041
-93.1868	11.1504		-27.6175
-84.329	-9.88336		-7.84094
-85.5201	-4.37202		-8.24961
-83.4006	-14.2072		-7.22869
-83.8808	-9.10908		-6.44967
-79.1369	-26.1684		-1.27738
-80.2135	-21.9506		-0.360474
-78.397	-29.6089		-2.02471
-78.1616	-26.4745		1.39351
-82.8372	-21.077		-10.2313
-82.7927	-19.2998		-10.1806
-83.1282	-23.0863		-10.7584
-82.0011	9.2133		-16.2109
-82.057	9.254		-16.0129
-82.2014	10.4333		-19.7037
-89.9884	16.5991		-16.6269
-90.8345	18.2456		-19.6996
-90.7574	15.8604		-15.6629
-88.6824	13.5151		-13.7125
-89.1433	16.9924		-17.7468
-90.2218	18.943		-24.825
-89.566	18.7121		-21.7656
-89.4118	18.0185		-26.3498
-90.6668	17.951		-28.6586
-90.522	19.0691		-24.302
-90.4754	3.8017		-39.5153
-91.5423	4.0423		-38.9694
-91.1499	10.2629		-36.7398
-89.7096	3.32871		-39.6979
-86.4568	0.199262		-8.75328
-86.7278	-1.05334		-9.44647
-93.3776	3.17366		-36.4352
-94.1428	8.82762		-34.3
-93.4179	3.08108		-36.7999
-93.0564	0.39273		-36.6568
-93.0134	14.2437		-22.7093
-92.1794	13.7247		-18.7277
-93.0958	15.2071		-22.0828
-92.7818	12.9211		-23.4701
-87.8175	0.973501		-11.5852
-88.3308	3.26735		-12.2732
-87.2734	-0.789868		-11.0287
-93.2576	4.42969		-33.8843
-93.047	1.8166		-35.596
-85.8766	-5.84221		-12.9634
-86.3889	-4.0658		-11.8703
-85.997	-5.57636		-13.6421
-90.0819	-5.0627		-27.0276
-92.0599	-2.4391		-28.845
-89.9826	-6.33006		-27.1344
-89.8477	-4.64362		-26.3749
-80.6838	-17.9861		-0.351871
-79.9578	-18.2308		2.36898
-81.22	-13.3708		-1.13102
-84.38	1.73324		-39.5132
-85.3844	4.21381		-38.5368
-84.3516	6.26414		-37.2725
-83.0611	0.73987		-40.5547
-87.7978	9.07943		-35.7777
-87.8267	5.0631		-38.7495
-90.1674	13.6587		-33.8212
-87.6005	12.6274		-32.3789
-88.6831	2.38231		-39.6868
-87.4462	-3.30971		-40.4487
-87.1222	-8.5214		-39.9414
-81.0034	-23.4406		-35.5026
-81.8321	-20.2318		-36.984
-79.9407	-26.9092		-33.6359
-82.4126	-17.192		-38.3934
-80.7081	-17.3944		-39.4372
-89.0763	-17.7509		-27.811
-79.1235	-29.4632		-32.3768
-78.4163	-32.8705		-30.2005
-78.7682	-40.3143		-16.1073
-78.254	-40.6184		-15.9143
-77.7243	-40.8236		-15.6179
-77.6952	-40.1879		-21.1382
-90.1698	-7.06673		-27.6225
-92.0251	-5.72339		-29.7615
-83.353	-8.53932		-5.31005
-82.6802	-8.17511		-4.03957
-81.25	-22.3248		-4.09041
-81.5116	-22.4685		-4.71772
-83.6547	-26.6014		-10.624
-83.8385	-25.5668		-11.3675
-84.5604	-28.5773		-12.2374
-82.7893	-17.1739		-6.86985
-83.1172	-17.3525		-9.12392
-87.3329	14.0636		-29.0346
-86.4661	14.7216		-25.7074
-84.9468	10.648		-31.955
-84.0271	9.2894		-33.8606
-83.4502	11.0658		-29.468
-83.5596	8.95706		-34.9976
-92.5648	4.92043		-28.5061
-92.3594	3.49851		-28.2306
-86.3257	-4.80524		-15.1264
-87.2189	-3.52193		-17.8111
-89.8453	-3.76399		-25.8547
-89.3542	-3.70981		-24.4584
-91.5453	-0.110907		-27.008
-8.34058	87.0967		61.3068
-8.5513	94.0748		54.6078
-15.9953	86.0854		61.0053
-8.25674	80.1553		66.3205
-7.98893	72.6801		70.688
-15.1398	72.667		69.9871
-7.76193	64.9096		74.4053
-30.5866	57.4455		73.9404
-25.0449	57.9402		75.629
-30.703	52.4505		76.5005
-2.65664	-31.8556		102.223
-4.71814	-31.6154		100.826
-2.70657	-30.1553		104.514
-3.42321	-21.0861		110.084
-3.37945	-23.0425		109.99
-3.54247	-18.7877		109.502
-6.02174	-20.8239		108.944
-3.27035	-24.7677		109.498
-3.08332	-26.4278		108.259
-3.30012	-36.084		95.5852
-2.9113	-41.5352		93.9622
-5.10373	-41.0808		93.6958
-2.92788	-28.178		106.546
-5.20166	-27.967		105.149
-3.54407	-16.4354		108.583
-3.67477	-13.4478		106.819
-5.96232	-16.558		107.586
-7.06347	45.9001		80.8259
-7.36536	50.6043		79.7674
-13.581	46.699		80.2614
-6.83205	42.7008		80.9941
-2.46854	18.2351		84.5324
-2.54604	20.4232		83.4318
-2.37639	15.5167		86.1888
-2.62836	22.4008		82.6358
-2.70554	24.4158		82.0397
-4.50638	21.6502		82.1091
-2.30654	-54.5005		91.5643
-2.01611	-55.2987		93.1212
-2.61502	-53.054		90.0607
-2.05399	-55.4786		94.1059
-2.14125	-55.3296		94.5844
-4.37382	-55.4415		93.7424
-3.08934	-52.4723		96.0851
-2.89676	-53.6568		95.5488
-2.53401	-54.5892		94.9486
-3.12659	-47.5036		95.7814
-2.75773	-50.0126		88.3496
-2.66621	-46.496		86.8599
-22.2883	85.0548		60.225
-22.904	91.4505		53.8118
-28.0895	82.3865		59.7957
-21.814	78.8875		65.0429
-19.6915	48.2961		79.6275
-19.6545	51.4111		78.9766
-25.3828	49.4182		78.6854
-19.9994	44.4459		79.7986
-21.1709	41.6011		79.2781
-23.1086	38.7965		78.5737
-26.8163	42.4857		78.8356
-24.061	36.8282		77.8425
-28.3073	37.4266		77.6415
-19.6526	35.5887		78.2471
-26.8701	26.6128		72.8596
-30.7508	27.5372		73.2469
-23.2624	25.2268		72.4234
-26.3864	27.8982		73.5419
-28.6459	24.9691		72.095
-25.8393	29.4123		74.4552
-22.2199	28.3188		74.2971
-29.5047	30.1556		74.5131
-46.8052	86.1009		39.5174
-46.2288	80.7325		46.4771
-41.051	89.6814		41.9608
-47.866	91.1918		29.8687
-33.4614	80.7717		58.0334
-39.1895	78.5877		55.4724
-34.3965	86.3922		52.1649
-30.7942	49.7115		77.4768
-35.5557	48.2017		76.451
-30.8154	46.1705		78.1135
-32.7574	37.5206		77.1731
-32.3322	39.8714		77.9503
-31.3386	43.185		78.274
-33.1435	30.2552		74.4693
-37.513	29.715		74.0373
-33.9737	28.8466		73.8627
-45.3612	75.8376		51.8465
-44.3893	70.9643		56.3458
-51.5637	72.7803		47.0899
-40.9814	46.5024		72.187
-46.7851	44.0707		68.4866
-41.3308	26.3627		72.7165
-44.1849	25.1597		71.6874
-38.0206	27.3987		73.2554
-41.4636	27.3554		72.9298
-42.7584	32.4527		73.4309
-47.9799	31.1176		71.3098
-42.2	30.6158		73.2983
-41.8104	28.7472		73.1163
-43.1885	65.8468		60.3528
-49.7153	62.7708		55.8178
-57.2924	70.2833		40.8359
-62.2789	67.922		33.3678
-56.6033	65.09		45.7829
-44.9073	22.1763		70.146
-46.526	20.4985		68.6514
-46.593	23.4963		70.1624
-48.0928	21.6153		68.7095
-45.4893	22.888		70.2872
-51.679	29.2504		68.795
-54.702	26.351		66.1969
-18.1595	30.7222		76.6357
-17.3186	32.1524		77.528
-18.5526	28.9694		75.4943
-15.3395	28.5691		76.3052
-15.9295	33.6222		78.4378
-13.4338	31.3425		78.2888
-18.9227	26.5311		73.9412
-19.6152	24.7591		72.7781
-5.97977	39.0363		81.0933
-66.2714	-63.3567		-10.408
-66.1986	-63.6061		-16.7569
-68.138	-58.5058		-8.43872
-79.9101	22.935		-36.7265
-81.2439	17.326		-31.6699
-80.4912	25.2446		-28.575
-78.7055	28.786		-41.5164
-79.6199	19.7917		-42.7889
-75.9276	-7.8759		-52.4038
-76.8137	-2.09186		-52.398
-73.6047	-7.99968		-58.0154
-75.2245	-13.9695		-50.8581
-77.619	3.97094		-51.8406
-79.7963	2.34598		-45.9115
-78.453	9.62808		-49.966
-75.784	5.18829		-57.8456
-70.7998	-30.7016		-44.8715
-72.3193	-24.9927		-47.5616
-67.4986	-33.9244		-49.0121
-7.77414	57.8434		76.9237
-14.0049	57.2698		77.3866
-19.8249	57.6943		76.5956
-20.7539	64.7121		73.2833
-22.8934	-100.888		56.9043
-16.4574	-102.82		60.9661
-29.8921	-98.1444		50.987
-20.3027	-101.767		49.4533
-51.8883	-85.5465		42.9231
-53.4947	-83.551		46.8227
-55.6738	-81.0521		36.4287
-46.7715	-89.3151		48.945
-55.8594	59.4441		49.9963
-61.4894	56.0469		43.4615
-21.1728	71.434		69.6052
-66.9805	65.5278		24.1894
-66.97	59.1289		29.9039
-70.8783	63.5033		14.5764
-23.2771	98.5382		44.7226
-16.4074	100.122		45.2413
-23.4222	104.574		34.5181
-29.4955	95.3752		45.0078
-65.4379	38.8865		44.8217
-65.9876	45.7515		40.183
-49.2227	19.5601		67.1369
-59.5249	25.1346		60.5573
-58.1055	23.9105		62.1865
-60.5683	20.0568		57.9691
-56.4537	22.8838		63.5338
0.835032	-109.681		43.6486
-62.7821	-72.499		36.9325
-60.8917	-74.8236		32.8212
-59.0578	-76.4856		44.6008
-64.0161	-69.2539		39.506
-7.05188	-44.2083		94.3008
-6.75828	-42.6084		93.8493
-8.90716	-44.5081		93.9034
-24.3782	-50.4892		85.293
-21.1549	-48.591		88.151
-23.3022	-46.7772		85.8987
-10.3964	-41.3207		92.177
-9.79467	-39.599		91.8292
-12.9922	-41.6632		90.9892
-10.938	-42.9833		92.5606
-8.17964	-41.1647		93.0261
-33.3017	-54.3073		79.3073
-33.1548	-50.4287		80.0206
-35.8228	-55.2154		77.9702
-33.2077	-57.8932		78.5211
-65.3788	15.6031		50.7392
-67.052	16.402		47.5193
-65.9908	8.89453		50.3224
-63.3311	14.9392		53.5847
-68.9983	17.2696		43.693
-71.36	17.2495		38.2823
-52.36	15.3935		63.6129
-52.2794	13.2111		63.0288
-61.2189	14.2906		56.0175
-82.3416	9.82847		-37.0484
-82.4718	11.897		-32.8989
-80.8475	11.8838		-41.1167
-82.1459	6.26477		-40.4422
-78.8109	-17.6982		-41.384
-76.7173	-18.0995		-44.6284
-70.7294	-50.8382		-18.3179
-71.2953	-47.6579		-23.9751
-68.412	-56.2013		-20.8636
-70.2921	-52.9564		-12.2142
-72.6977	-46.8166		-15.8867
-81.566	1.09426		-42.3575
-77.3097	-27.3426		4.56485
-76.3536	-28.2726		9.1629
-78.0803	-23.0032		5.15181
-76.4776	-31.4718		3.8079
-75.3646	-0.750634		30.7522
-77.439	-2.07097		21.8918
-75.6414	-8.74663		31.8065
-75.196	7.65991		29.6989
-55.3511	7.70823		60.7936
-53.6339	5.88646		62.5762
-53.5525	9.69076		61.9128
-52.118	11.3096		62.9634
-50.6477	10.1588		64.1125
-75.3748	-28.7411		15.6315
-76.3714	-23.5042		15.8691
-74.4508	-33.5623		14.7544
-74.4439	-28.9895		22.6269
-24.1035	-13.1038		82.2746
-20.9631	-10.6854		83.8278
-22.9774	-7.72145		80.814
-28.2572	-14.8404		80.6861
-34.7887	-16.8879		78.89
-36.0944	-22.0957		79.296
-42.2903	-19.1588		76.9515
-17.7165	-8.42231		85.8027
-18.244	-12.5344		87.5977
-14.7759	-6.0576		88.2149
-21.2157	-20.4974		86.2154
-19.829	-18.0167		87.3207
-17.326	-23.4512		93.2643
-18.14	-24.1033		91.8317
-16.9845	-25.4365		92.7022
-16.1104	-22.9815		95.3445
-18.6737	-24.6195		90.3775
-18.1672	-26.9219		89.7904
-39.6623	-38.215		78.8319
-38.8319	-32.31		78.9367
-40.3675	-42.9406		77.989
-34.2491	-36.0443		80.2645
-37.2811	-27.2364		79.2666
-6.42864	-38.165		93.073
-7.70267	-37.8622		92.6022
-6.55582	-39.6385		93.147
-62.3524	-53.3121		56.0308
-61.1855	-59.1453		55.4348
-57.9063	-52.2187		62.9399
-63.0677	-48.0236		57.0599
-28.0321	-44.2381		82.629
-30.6836	-44.6816		81.7252
-25.3203	-43.6435		84.0157
-40.644	-47.6398		76.9759
-35.9781	-46.5864		79.1832
-46.2204	-49.3963		73.7853
-40.3468	-52.381		76.3083
-6.61802	-41.006		93.4123
-59.4749	-64.976		55.5336
-56.7556	-70.0229		57.27
-55.3153	-62.5047		62.6527
-62.3965	-66.172		48.5155
-62.9325	-34.8784		61.3239
-67.8163	-33.3697		52.6579
-63.6499	-38.9767		59.3524
-32.0551	-94.3907		72.6678
-25.8402	-97.5503		77.6797
-32.4551	-91.6139		74.9211
-44.2146	-81.7011		67.1909
-38.4001	-84.6731		72.0228
-42.3705	-78.0283		70.7167
-48.9372	-78.297		63.5722
-58.2494	-11.9567		64.7204
-52.3195	-11.3171		69.3682
-55.8376	-6.01058		64.9617
-48.2057	8.68927		66.2344
-49.4016	6.32443		65.715
-54.126	-1.02231		64.4984
-52.1343	1.79943		65.0413
-48.875	-1.98899		68.6419
-46.2164	12.3642		67.1371
-2.70847	-97.9864		93.0369
-50.5787	-60.3492		68.0318
-44.9022	-58.1224		72.701
-51.597	-55.7124		68.3123
-48.8439	-64.464		68.5771
-39.8742	-74.5052		73.618
-35.4765	-77.3409		76.6147
-36.5364	-70.8715		76.3054
-43.2983	-71.2911		71.6271
-46.2588	-10.2256		72.721
-44.3755	-5.29883		72.1071
-48.211	-15.6355		73.3544
-52.4842	-50.7119		68.9566
-49.0536	-23.0194		74.7048
-10.9656	-87.2976		92.6781
-15.6171	-86.1449		90.5357
-10.7084	-82.4165		92.5356
-20.7087	-84.6388		87.5685
-19.9823	-80.0839		87.9789
-25.6776	-82.55		84.0679
-42.8727	-2.00252		71.7137
-35.172	-0.780094		73.8595
-41.5429	0.708914		71.565
-50.684	4.15494		65.3449
-46.3533	2.90491		68.6788
-40.4726	2.91586		71.4861
-32.8674	3.72106		73.2089
-12.3811	-3.92037		90.5042
-11.8343	1.13006		87.4022
-12.5991	-8.70347		93.2743
-13.9336	-17.4304		98.4728
-14.2187	-18.7177		98.6811
-11.3083	-16.9607		102.363
-13.6809	-15.6302		97.5445
-10.9323	11.672		79.4254
-10.9901	9.11627		81.4859
-21.6143	-2.79529		78.8589
-2.51831	11.7079		88.8792
-65.5492	2.2016		52.3785
-11.2172	5.35146		84.3613
-64.956	-65.6329		41.3992
-67.1409	-62.028		32.2838
-70.7832	-19.0422		46.98
-73.2906	-16.9125		39.4588
-70.6896	-25.5978		45.842
-69.5343	-42.2151		43.3705
-70.8053	-40.8697		35.9539
-67.0432	-42.9924		50.8812
-70.1157	-37.0972		44.3028
-70.625	-31.7881		45.2218
-72.3499	-29.862		37.2846
-20.5657	-100.136		81.5282
-10.622	-77.58		93.5855
-14.7218	-77.5752		90.7669
-6.33327	-77.91		94.9276
-19.1355	-76.3605		88.4289
-26.7879	12.3509		71.5091
-27.7962	0.845381		74.7195
-26.9204	3.26483		74.0853
-26.345	5.12129		73.5168
-2.41146	-78.0904		95.5251
-6.43674	25.7187		80.4317
-6.208	23.1244		80.7146
-4.86369	26.1758		81.0953
-7.2269	28.2532		79.9879
-7.83618	24.9889		79.6013
-18.9284	15.7909		69.9383
-18.8836	17.0787		69.9389
-15.7418	15.9686		71.8807
-8.90814	23.833		78.6178
-9.9404	26.3181		78.2599
-2.77709	26.6004		81.6346
-6.46514	-31.1425		99.4388
-6.88515	-29.8902		101.032
-8.70487	-20.3647		106.726
-11.5984	-20.0535		103.091
-8.75254	-18.6365		106.269
-17.5047	-31.321		87.3714
-14.79	-32.8441		88.6956
-17.1074	-30.2405		88.5213
-8.46172	-16.7154		105.675
-6.65873	19.9744		80.9338
-8.40076	30.9252		79.8978
-10.0787	30.0314		79.0853
-19.3914	18.5116		70.0905
-11.5349	28.9434		78.1482
-12.522	27.6156		77.1752
-13.0686	26.1417		76.2166
-19.6671	-37.0148		85.8675
-20.8433	-39.9874		85.6969
-16.5736	-37.7941		87.528
-22.3527	-43.1828		85.7224
-18.9767	-42.5257		87.8353
-24.8969	-57.9839		80.0339
-22.8411	-57.981		81.6586
-24.6682	-56.9025		79.4946
-25.2054	-56.5444		82.9541
-23.4003	-54.5905		85.6139
-24.3238	-53.8598		78.3946
-24.141	-49.3532		78.1237
-21.2599	-52.7554		81.9216
-13.9113	-37.9587		89.0607
-14.8029	-39.8891		89.3218
-11.526	-37.9641		90.4938
-16.0122	-42.1476		89.5712
-16.9365	-44.3684		89.9329
-20.3637	-56.9632		84.724
-18.9179	-55.4674		84.8034
-18.0701	-52.2655		83.8865
-18.0373	-48.5052		82.5003
-9.46117	-37.867		91.6776
-9.47869	-35.9791		91.8248
-11.8516	-45.3152		92.9276
-14.9276	-46.0876		91.6164
-18.0904	-15.6277		89.1156
-15.6626	-13.9512		92.2221
-3.65544	-8.92639		103.8
-13.1094	-12.5155		95.761
-7.5587	-27.4552		103.274
-9.97585	-27.0795		100.255
-12.7497	-26.761		97.0554
-14.9106	-26.8862		94.0107
-13.5638	-24.63		97.8127
-16.2267	-27.4259		92.1977
-16.7982	-28.1205		90.588
-16.9632	-29.2226		89.443
-14.2268	-19.8627		98.9531
-14.0979	-21.262		98.9603
-13.9105	-22.8846		98.4047
-38.5712	-141.222		12.1479
-36.9286	-132.578		13.272
-42.4923	-139.449		8.58929
-39.7161	-147.437		11.2307
-34.018	-142.731		15.4769
-35.4222	-120.679		14.9161
-31.0998	-122.151		18.9159
-34.8959	-110.118		16.2185
-39.6244	-119.068		10.8208
-38.1612	-94.8205		22.3821
-36.7938	-98.2835		18.8705
-34.6676	-97.0349		27.7259
-41.6781	-92.581		17.4188
-35.5496	-102.978		17.2787
-39.2194	-101.259		12.9022
-31.309	-104.69		22.3503
-46.5872	-67.9432		69.7228
-41.9963	-65.2061		73.3931
-50.4666	-71.06		65.2266
-53.5603	-74.3468		59.6338
-54.6157	-77.8566		54.8745
-54.5739	-80.8984		50.5723
-37.7957	-62.9218		75.9775
-35.8485	-65.544		76.7915
-34.3733	-61.1608		77.6337
-38.8974	-59.8279		75.788
-32.7054	-60.2299		78.2995
-31.2339	-61.9651		78.5082
-45.106	-90.2808		12.9222
-48.6153	-88.1138		7.92368
-43.7413	-94.1741		10.2751
-47.518	-86.8138		16.2215
-51.3354	-83.6427		20.9372
-55.2175	-80.4701		25.2246
-53.3906	-81.1531		14.092
-58.6269	-77.4724		29.1948
-59.9873	-75.0081		21.5449
-43.4041	-117.431		6.8608
-44.7107	-129.326		6.04085
-42.5985	-106.99		7.66179
-47.0622	-116.169		2.7862
-46.1704	-137.886		5.10799
-49.6133	-136.354		1.35645
-47.5793	-144.284		4.21229
-42.7897	-99.495		8.66001
-73.6273	-29.2701		30.1209
-74.5088	-23.2041		30.6989
-72.7279	-34.8509		29.405
-60.5918	-73.2327		14.4635
-61.3502	-71.6428		7.58409
-58.0358	-76.0692		11.2832
-74.4374	16.4416		29.5185
-77.6003	14.1822		18.634
-68.1255	-60.0296		24.0103
-68.5186	-57.9439		15.7148
-71.8242	-40.3199		28.8822
-72.5249	-39.4106		21.3163
-75.1785	-16.0801		31.7781
-76.3198	-16.7128		23.4447
-73.4781	-38.3781		13.963
-74.6097	-36.8626		7.16096
-57.0179	-85.2443		-7.45628
-54.6287	-85.7666		-2.67966
-57.8372	-81.0755		-5.86817
-59.0025	-84.9035		-12.0955
-56.4433	-90.0134		-8.72988
-56.0939	-95.4744		-9.44896
-59.0954	-77.0977		-3.46053
-60.5185	-73.63		-1.27296
-60.6402	-76.5523		-9.05508
-57.2918	-78.0645		1.89149
-78.9615	-2.90822		13.1034
-78.2229	-10.9679		15.3494
-79.1817	5.04045		10.819
-79.4791	13.3275		7.84016
-79.6851	21.1956		5.23492
-79.7944	29.0051		2.0419
-79.7594	36.6987		-1.73583
-80.7285	28.3137		-8.88562
-69.1119	-56.0342		7.76452
-69.7261	-54.4533		0.234968
-77.2736	-17.5555		16.1045
-78.0837	-18.2741		9.73126
-50.6632	-114.899		-1.60226
-51.6777	-126.446		-2.0679
-55.5786	-79.3306		8.00445
-53.3366	-82.8446		4.88451
-52.8729	-134.752		-2.83199
-54.1295	-140.857		-3.83746
-59.7748	-111.024		-18.6403
-60.3232	-120.588		-19.7765
-60.5862	-84.4088		-16.7418
-61.269	-79.9644		-15.7141
-61.5801	-82.909		-21.2979
-62.2155	-75.611		-14.3888
-60.8572	-127.755		-21.1234
-61.3205	-133.403		-22.9433
-69.9416	-54.0265		-6.7907
-75.5895	-35.4491		2.80452
-74.7996	-39.0501		1.14954
-76.6627	-33.6921		-0.2925
-78.9365	-18.5335		5.63305
-60.599	-90.5347		-29.0742
-61.2215	-84.3433		-27.9633
-59.4124	-86.4281		-35.6961
-62.2121	-78.5756		-26.962
-61.8598	-72.3528		-32.8374
-66.2351	-62.2323		-23.1387
-74.0703	-44.3126		-14.5077
-75.4904	-41.9158		-20.9192
-56.6909	-117.209		-46.3596
-56.4503	-108.899		-44.9836
-53.515	-114.824		-53.122
-56.8935	-125.093		-47.6701
-72.621	-42.8945		-28.4176
-75.1169	-39.1907		-26.8112
-76.9573	-37.4291		-26.1697
-78.0327	-36.5322		-26.3393
-29.2522	-144.043		18.5909
-30.5056	-150.51		17.3455
-24.4349	-145.786		21.5751
-27.9494	-135.622		20.4523
-26.6404	-106.185		28.0406
-28.2429	-102.279		29.8636
-25.6748	-113.049		25.9763
-20.9073	-107.6		33.3942
-35.8365	-95.5987		45.1857
-38.9601	-93.9936		50.4928
-32.1874	-96.8043		38.6467
-29.7675	-99.3471		33.5258
-24.3302	-101.222		38.8397
-26.4484	-123.436		23.2491
-21.4143	-125.046		27.0768
-33.7768	-68.1214		77.9114
-31.384	-65.5055		79.0132
-41.3004	-92.4092		54.9863
-29.8992	-63.7678		79.2806
-28.8338	-62.4195		79.579
-27.6969	-65.6348		81.0087
-27.9355	-61.2111		79.8237
-26.1049	-62.7693		81.5067
-30.7737	-80.2649		80.1294
-31.8844	-84.3265		78.6548
-32.5022	-88.0835		76.8996
-21.3938	-59.218		85.7796
-18.0941	-59.4482		88.9717
-21.274	-58.3584		84.8811
-17.5069	-58.0606		87.222
-21.4159	-58.7294		84.4187
-24.2516	-59.3095		81.2934
-21.4825	-59.1537		84.0896
-21.1603	-61.216		82.5656
-17.6256	-58.8365		86.6001
-20.9805	-64.4461		82.172
-17.7222	-63.2814		85.3323
-20.5815	-67.7972		82.1929
-15.0901	-108.548		37.9198
-14.9132	-115.518		34.4836
-16.4059	-105.404		39.9445
-19.4948	-146.967		24.0265
-20.831	-152.562		22.1979
-14.7502	-147.926		26.1332
-18.1707	-138.951		26.6571
-16.4434	-126.457		30.4163
-7.38197	-104.318		48.578
-9.53503	-103.965		55.5132
-11.8675	-103.987		46.6979
-10.4984	-148.63		27.587
-11.7986	-153.894		25.8793
-11.4037	-104.072		63.4222
-14.0021	-57.532		89.5349
-13.9175	-57.8798		89.2631
-13.93	-58.4221		88.6894
-14.21	-59.6515		87.8601
-14.131	-62.8311		87.1274
-13.8234	-66.6095		87.1606
-75.0533	46.862		15.5292
-71.2425	49.2808		25.8398
-75.0266	54.307		10.1467
-77.9217	45.1578		4.68018
-80.6669	27.0221		-19.1446
-73.9447	-19.4056		-49.8298
-70.9968	-21.1926		-54.6685
-50.5895	-93.5855		-55.7548
-47.6884	-91.6739		-60.273
-50.4724	-103.84		-56.8523
-53.4761	-96.3683		-50.5435
-51.3892	-83.3902		-54.6909
-50.6599	-112.792		-58.1156
-47.5661	-111.163		-62.6507
-51.2199	-121.177		-59.2607
-57.3215	-81.0614		-42.6333
-58.7574	-72.8631		-41.186
-54.9385	-76.9439		-48.6664
-56.5901	-90.4514		-43.2107
-23.0256	111.143		21.0064
-15.8053	113.092		21.107
-22.7803	115.657		6.19334
-29.8526	108.379		20.7185
-22.1776	101.441		-77.9336
-14.7766	102.9		-79.4584
-21.3244	90.4065		-91.1465
-29.2197	99.4558		-76.0583
-22.8737	109.696		-62.0071
-20.9688	78.0219		-100.198
-14.1595	78.3991		-101.668
-20.8016	64.6504		-107.166
-27.7297	76.4363		-98.324
-22.9457	114.652		-44.9789
-22.7333	117.8		-27.5425
-15.3272	116.348		-46.0277
-30.0763	112.248		-43.4213
-7.70536	121.256		-10.9174
-7.61058	120.889		-28.7826
-15.4121	120.069		-10.6258
-7.52021	118.564		6.03374
-20.3707	51.7708		-112.131
-14.0638	52.5867		-113.529
-19.6268	38.6559		-115.467
-26.3318	50.5927		-110.13
-19.145	24.7837		-117.303
-12.9714	25.7128		-118.81
-19.0716	11.249		-117.578
-25.3574	23.8497		-115.145
-17.0078	-26.888		-107.063
-18.005	-14.6038		-112.049
-11.4993	-26.7958		-108.213
-16.5526	-38.3231		-100.036
-22.7674	-27.5968		-104.929
-6.27864	-0.799129		-117.867
-6.06584	-13.4213		-115.417
-12.3466	-1.19395		-116.895
-6.38628	12.3694		-119.928
-14.3141	-84.9399		-82.9107
-9.29733	-84.6098		-83.5043
-14.052	-94.285		-82.5672
-19.5431	-85.6719		-81.6311
-14.7297	-75.5134		-83.791
-13.9039	-103.505		-82.4205
-9.09703	-103.273		-82.8495
-14.0011	-112.572		-82.32
-18.899	-103.962		-81.4896
-16.624	-47.5401		-94.0661
-11.0251	-47.2621		-94.8746
-16.1413	-55.9207		-89.454
-21.8573	-48.0909		-92.5366
-15.2865	-65.2985		-85.958
-10.014	-64.5559		-86.9662
-20.9355	-66.2306		-84.3905
-4.77396	-64.3786		-87.284
-4.41863	-74.7669		-84.9589
-5.09538	-55.1484		-90.8449
-48.4771	96.0226		18.2287
-42.4622	100.983		19.1891
-49.0349	100.026		4.68099
-54.2191	90.6619		16.9494
-46.3686	69.7906		-88.5676
-46.953	81.0017		-79.5869
-40.5284	72.1666		-92.3013
-45.8181	57.4984		-95.0252
-51.818	66.7163		-84.3585
-47.4071	90.2352		-67.4815
-52.9309	85.8478		-63.9364
-48.0976	96.7375		-53.3493
-41.7311	93.919		-70.6939
-48.7432	100.586		-38.7669
-49.5832	102.166		-24.2813
-42.9337	105.15		-40.2685
-54.4585	95.1013		-37.1304
-49.4597	102.101		-9.64538
-55.3004	96.3576		-9.7252
-43.3556	107.091		-9.51704
-45.1401	45.4718		-99.9081
-50.5627	43.3125		-95.7265
-39.2774	47.3032		-103.738
-44.4968	33.0702		-103.316
-43.5307	20.4441		-105.215
-37.9184	21.5397		-108.962
-42.9908	7.70043		-105.186
-48.847	19.0692		-100.916
-41.6464	-4.50168		-103.792
-46.4235	-5.20727		-99.6717
-36.4457	-4.23298		-107.186
-40.4063	-17.3421		-99.4819
-39.7204	-29.5981		-94.9838
-34.4227	-29.026		-98.7909
-38.9199	-40.2264		-88.8683
-44.4044	-29.2995		-91.2262
-38.1818	-49.5605		-83.3831
-42.7366	-49.7135		-79.1958
-32.9909	-49.5307		-86.9313
-37.4545	-59.0695		-78.5339
-35.0085	-87.2066		-73.8811
-39.5742	-88.2058		-69.8897
-36.0071	-77.7318		-73.7121
-30.0251	-86.8777		-77.0995
-34.1439	-97.0659		-74.7597
-23.9179	-104.518		-80.1744
-29.0496	-105.43		-78.1261
-24.2121	-95.6094		-79.8793
-24.1331	-113.314		-80.3759
-36.6616	-68.5932		-75.2135
-31.8363	-67.8738		-78.9236
-41.2996	-68.881		-70.8123
-66.9489	69.3238		-50.6492
-62.6231	75.4339		-55.8853
-66.0818	63.8207		-61.1557
-70.942	62.4531		-44.8154
-68.0073	72.9478		-39.2123
-68.9499	75.1306		-27.9709
-69.5538	76.0262		-16.8801
-64.574	82.3199		-32.0626
-72.8728	67.4385		-22.8792
-68.94	76.7481		-6.20762
-65.1112	83.5938		-8.52018
-72.0747	69.1337		-1.25973
-55.3387	41.1019		-91.3465
-54.61	29.3864		-94.6128
-59.6935	38.4641		-86.5547
-56.0947	52.3218		-86.419
-56.6754	63.7186		-80.0344
-61.2529	60.0872		-75.2525
-57.2299	73.4321		-71.386
-51.2349	-5.87138		-95.0198
-49.3964	-17.8003		-91.1018
-55.8149	-6.64808		-89.561
-52.8462	5.70237		-96.0555
-53.6999	17.4545		-96.2411
-58.248	16.0412		-91.065
-48.5876	-28.7826		-87.1203
-47.8604	-39.555		-80.6891
-52.6019	-28.7138		-81.7683
-46.8356	-49.0071		-75.0449
-50.5057	-47.3895		-71.0892
-45.9663	-69.4965		-65.2703
-44.8784	-79.4078		-64.4837
-49.8167	-71.9908		-58.9334
-77.0614	35.0599		-46.616
-74.9434	40.5625		-52.3258
-76.0968	29.299		-54.2561
-59.3843	84.6872		16.3857
-59.9798	88.5738		3.39842
-79.1599	44.2807		-6.0208
-77.8379	52.127		-11.6427
-66.3423	-7.41813		-73.8547
-64.3815	-16.9923		-71.0862
-69.0691	-7.84815		-68.425
-67.5843	1.1692		-74.6492
-63.2545	-7.50028		-78.9922
-68.379	10.4628		-75.0557
-71.2604	8.42068		-69.1553
-69.2189	19.5975		-73.6595
-65.3777	12.3747		-80.5757
-70.1719	28.8993		-70.4122
-72.9051	25.362		-64.7517
-71.2539	38.1351		-65.517
-66.9681	32.5615		-76.3253
-58.85	-41.5423		-60.543
-57.3962	-49.3968		-56.7611
-61.5987	-39.3972		-56.7663
-60.6522	-34.0591		-64.2371
-56.1599	-43.8056		-64.0033
-68.1565	-22.7896		-59.1669
-70.1927	-15.5262		-61.6172
-65.3738	-24.48		-62.7957
-66.4288	-30.076		-55.773
-52.6756	-74.3909		-53.6485
-54.3123	-65.654		-53.3994
-76.845	-37.5377		-6.06088
-75.1508	-40.4118		-4.05667
-77.5971	-33.9809		-3.81885
-77.6246	-32.3685		-2.34639
-82.0142	-6.99427		-2.66249
-82.7674	-1.68112		-4.59686
-92.5543	3.93589		-38.2259
-93.1968	3.53528		-37.513
-93.0253	10.2359		-35.8519
-83.0269	-35.5063		-25.6903
-82.0669	-38.3019		-22.348
-82.0116	-35.3397		-26.4085
-92.7538	14.8785		-32.1963
-93.6435	14.2075		-31.635
-92.1416	17.7346		-27.8336
-91.7835	15.1921		-32.6985
-87.1802	9.3345		-11.1624
-85.9105	9.3073		-11.746
-91.4504	18.6642		-23.385
-92.3722	17.9555		-22.6705
-87.8352	-19.4387		-35.3147
-84.7159	-36.3546		-18.303
-83.1909	-38.389		-18.8274
-84.4087	-36.3163		-15.524
-83.0315	0.933638		-6.32603
-88.4345	16.9798		-18.8405
-86.6604	13.942		-16.2324
-87.2808	16.1367		-20.5087
-84.4794	9.6056		-13.2319
-83.5864	10.1251		-14.8175
-91.1227	15.0301		-32.9338
-82.7627	9.8784		-16.2841
-83.8471	11.7873		-18.9255
-85.2321	13.679		-22.5062
-83.0959	11.5739		-23.622
-87.2074	-27.7511		-28.3207
-87.5126	-29.2675		-20.802
-81.5108	-39.3863		-19.5643
-84.1337	-35.335		-13.2545
-84.9369	-32.5907		-13.1609
-85.5857	-30.1841		-14.0191
-85.9937	-28.4935		-15.018
-92.1676	-8.88859		-36.2656
-92.6165	-3.04769		-37.7792
-93.3926	3.24561		-37.1066
-94.1319	9.34834		-34.8252
-91.2161	15.2754		-15.2242
-92.2589	16.9237		-18.2765
-91.3969	14.6418		-14.9441
-91.3849	14.0393		-14.8231
-92.4898	15.765		-17.8364
-91.2217	12.9734		-15.0313
-94.0194	13.6718		-31.2827
-94.1362	13.1813		-31.1514
-93.4615	15.8901		-26.8111
-92.937	17.2468		-22.2035
-93.1624	16.6472		-22.0957
-93.1827	16.0687		-21.8552
-93.6146	14.8531		-26.4785
-94.1097	12.8045		-30.8588
-92.8856	-1.08033		-36.1685
-90.9483	11.6775		-15.6163
-88.5651	4.43217		-13.2806
-92.5709	11.4067		-24.1141
-92.669	-4.73162		-30.8457
-92.708	-2.69759		-30.5563
-92.6596	-0.776345		-29.9306
-92.4617	0.783565		-29.0228
-92.0958	2.13931		-27.813
-84.0574	-25.0225		-12.6486
-85.1995	-26.5961		-14.3743
-86.7749	-2.11357		-10.4563
-83.0023	-17.4336		-10.2501
-86.0956	-27.7986		-15.5304
-34.467	27.7813		73.4322
-35.1878	92.9077		43.7058
-36.0126	99.0531		33.0841
-8.51189	101.324		45.4385
-8.35328	107.759		34.7331
-36.2174	105.091		19.9977
-36.5004	109.231		5.88628
-8.03356	114.33		21.2357
-22.6897	118.059		-10.2284
-29.8904	115.181		-9.83358
-36.6789	111.577		-9.69414
-36.848	111.603		-25.6991
-66.6781	52.4183		35.001
-74.0614	61.6057		4.29122
-75.5218	60.7303		-6.52439
-60.376	90.3797		-9.69505
-60.534	90.2025		-22.3743
-7.68192	117.446		-46.6207
-7.71351	112.14		-63.9396
-36.5242	109.217		-41.6462
-36.3017	104.51		-58.2217
-75.7091	59.7166		-17.284
-75.2408	58.2913		-28.1362
-59.5631	89.1801		-35.0651
-58.6852	85.9798		-47.471
-74.1473	55.6753		-38.8743
-73.2538	51.8924		-49.2041
-72.2051	46.2185		-58.1852
-69.0343	51.2247		-64.1076
-43.9446	-90.0158		-65.1862
-43.3083	-99.9087		-66.5542
-43.4516	-109.224		-67.5605
-38.6612	-107.479		-71.9682
-43.692	-117.649		-68.7493
-7.35973	103.793		-80.1031
-6.96934	91.4703		-93.3264
-7.00742	78.5862		-102.682
-7.18552	65.8311		-109.583
-7.11457	53.0839		-114.354
-6.90552	40.0799		-117.747
-6.44613	26.3474		-119.611
-18.4395	-1.82189		-115.39
-24.4139	-2.76375		-113.179
-5.61079	-26.6052		-109.022
-5.39309	-38.6332		-101.087
-5.36564	-47.4569		-95.049
-4.39448	-83.9812		-84.0259
-4.25396	-93.0845		-83.6535
-4.14216	-102.644		-83.3663
-4.28295	-112.384		-82.9598
-34.219	74.563		-95.7347
-33.5964	61.7458		-102.351
-34.8258	86.7507		-86.5188
-35.5332	96.9816		-73.7899
-32.8605	49.1549		-107.32
-32.2823	36.1069		-110.513
-31.6751	22.84		-112.398
-31.6057	9.40739		-112.528
-30.5225	-3.62913		-110.242
-29.7581	-16.2746		-106.225
-28.6972	-28.3427		-102.162
-27.7179	-39.3425		-95.9251
-27.4578	-48.8439		-90.1297
-27.2455	-57.7873		-85.3232
-26.4432	-67.0332		-82.0755
-25.6571	-76.6891		-80.2986
-24.97	-86.1639		-79.7216
-34.0333	-106.289		-75.3844
-34.247	-114.894		-76.1328
-57.8167	81.1838		-60.1433
-65.3224	56.1727		-69.7194
-64.4834	46.0529		-76.6532
-63.5036	35.9469		-81.6845
-62.7233	25.2458		-84.8244
-61.991	14.4702		-86.0775
-61.1507	3.20506		-85.2895
-59.6708	-7.29117		-84.2732
-57.6598	-17.953		-80.863
-56.2739	-27.9337		-76.8756
-54.7209	-37.3581		-72.4783
-59.5822	-27.3001		-71.5419
-53.4296	-45.6184		-67.6363
-56.022	-57.6466		-53.9244
-58.2101	-56.1556		-50.5811
-75.1146	22.3489		-59.4771
-77.1401	18.9576		-53.674
-74.3365	14.239		-62.1468
-71.3462	-7.97533		-63.3741
-72.6996	-0.699788		-63.8134
-62.5844	-26.0183		-67.1344
-73.5779	6.92714		-63.6957
-64.3967	-37.0424		-53.146
-62.6729	-44.273		-49.9552
-17.9466	-102.908		43.7118
-62.3771	-70.2825		0.924542
-51.7986	-86.653		2.68284
-14.0063	-50.3436		92.8935
-17.0314	-51.023		91.1947
-20.2837	-52.6362		88.5068
-8.5714	-61.7535		96.2869
-8.8335	-62.8246		96.4692
-9.05646	-63.925		96.5235
-24.7582	-67.8522		84.0705
-23.8377	-66.372		84.459
-23.2274	-64.9928		84.8538
-18.1429	-47.1562		89.7836
-39.8207	-56.3633		75.8664
-30.2533	-35.6176		81.3488
-31.9833	-40.2856		81.005
-32.641	-45.8889		80.5342
-63.5666	-43.5075		57.9534
-20.0941	23.2389		71.9306
-78.9687	15.6182		-47.4543
-82.1016	13.5556		-28.0241
-82.8404	11.6053		-25.7024
-73.6868	-43.2931		-0.826028
-26.7132	11.1123		71.8707
-53.1051	40.7459		64.0964
-49.6911	15.6332		65.1467
-9.47127	-34.7356		91.9243
-47.658	18.7361		67.3042
-12.3767	-32.8808		90.4594
-82.7738	11.4073		-24.5953
-56.3472	-99.8355		-44.1163
-61.2137	-64.8126		-39.1874
-60.7161	-58.858		-43.8117
-60.9551	-52.9861		-47.2772
-23.1963	-29.4345		83.6857
-28.9626	-58.8191		79.2637
-14.773	-59.3425		91.484
-26.0747	-59.2199		79.9559
-7.38083	-55.4823		92.5734
15.0347	-103.301		-82.5143
15.1057	-112.402		-82.4652
-78.5031	-36.5533		-26.0161
-79.5148	-35.1719		-27.1746
83.167	-23.2276		-7.48831
-81.8842	-22.6318		-5.53983
82.8663	-29.8834		-32.0007
-80.9407	-34.8867		-27.2452
90.8563	2.69036		-21.0805
-89.1042	0.750676		-19.8254
-89.0198	-0.535051		-20.898
85.8909	-11.5759		-18.4712
85.2662	-13.8897		-18.9857
87.9051	-7.82486		-21.3659
-83.3513	-16.0845		-17.211
-83.661	-16.8391		-18.1004
84.6245	-16.5001		-18.608
-84.5374	-18.304		-19.5399
89.4978	-3.95278		-22.5306
-88.633	-3.25289		-21.9194
28.1445	20.0945		70.6176
24.0182	17.7795		69.7611
21.6835	15.5478		69.0063
22.0373	14.3079		68.867
22.8476	13.382		69.0845
45.5284	15.0697		66.8616
45.7637	16.6168		66.9338
44.0463	18.5355		68.5077
41.4875	20.457		70.0278
37.6133	22.0177		71.1203
33.0945	22.1749		71.2898
31.1408	18.1857		71.3133
33.362	14.0151		71.3678
36.2377	14.1039		71.0972
38.4754	15.9954		70.773
38.7238	18.6645		70.8269
36.7073	20.4116		71.1759
33.8349	20.2931		71.3619
35.0265	17.2308		71.4574
31.3172	15.6546		71.3586
41.863	15.4659		69.2493
27.4859	14.6611		70.4665
26.4034	17.0717		70.2948
31.0455	12.1531		71.2024
42.192	17.993		69.4053
37.2389	12.5167		70.6752
25.9726	18.4069		70.1879
25.1444	17.5695		69.9745
27.4406	18.4858		70.5488
25.6335	18.9688		70.0903
34.6424	12.7752		71.1862
36.8563	13.1705		70.8335
34.7681	13.7736		71.2928
32.3985	13.0387		71.2946
34.392	12.0146		71.0815
40.4373	19.1054		70.2709
41.5235	19.2729		69.896
39.6813	19.7548		70.586
40.3945	18.2729		70.2429
38.8093	20.6713		70.8225
39.7319	21.3988		70.7487
37.0356	21.3011		71.0984
37.9371	19.7693		71.0186
35.3633	21.6538		71.2013
35.5078	22.4503		71.2445
33.3679	21.273		71.2652
35.2573	20.6908		71.3035
31.5921	20.4223		71.1859
30.6866	21.2732		71.1102
30.0513	19.2709		71.0664
32.3712	19.5384		71.3767
36.7923	15.5299		71.1598
36.9919	16.5078		71.2121
35.6578	15.3641		71.3527
37.7568	14.8356		70.8646
33.2233	18.8713		71.5083
33.0011	17.8567		71.5651
34.2765	19.1371		71.4986
34.7725	14.7316		71.3969
34.0275	15.2783		71.5092
37.5182	17.2341		71.1408
37.1045	18.1331		71.244
38.7442	17.2186		70.7745
37.0857	19.06		71.2226
36.0183	19.1915		71.3743
35.2338	19.7121		71.4024
21.9252	16.291		69.1716
21.7582	14.9062		68.8897
22.4898	13.7962		68.9642
44.3936	13.9553		67.7125
45.939	15.8758		66.6479
45.2907	17.5233		67.5292
42.8497	19.5666		69.2987
33.0398	15.3734		71.5141
32.9441	16.2575		71.5645
31.9962	14.6142		71.369
32.4153	16.9915		71.5559
31.0404	16.7623		71.3573
42.5028	19.2006		69.3928
43.2158	18.4396		68.9609
28.9102	16.3058		70.9185
26.7392	15.8671		70.3351
29.509	15.0511		70.9825
28.787	17.4563		70.9058
30.6034	13.8837		71.0779
28.9164	13.3951		70.819
26.516	12.6924		70.2756
23.9136	15.2721		69.5275
24.556	14.4018		69.6409
23.5781	16.0865		69.5093
43.2539	14.2842		68.4238
43.8461	15.4128		68.1212
41.4447	14.1245		69.3689
42.5489	12.9109		68.9311
44.1099	17.7905		68.2752
44.2356	17.2352		68.0865
39.2986	14.0227		70.1967
40.0613	15.5717		70.1311
25.472	13.511		69.8946
28.8647	18.3565		70.8817
23.3438	16.6064		69.518
44.1361	16.4229		68.0152
42.1257	16.7316		69.3035
40.3119	17.0107		70.1924
40.1195	12.6938		69.7646
41.3979	13.2775		69.3318
42.5554	13.4442		68.8413
-27.8525	21.4854		71.4148
-24.2362	19.3198		70.4964
-21.9063	16.9268		69.381
-22.1128	15.7031		69.2005
-22.8503	14.8024		69.4869
-42.1904	14.0545		69.5046
-45.1279	16.3433		67.5923
-45.3859	17.7143		67.7254
-43.7771	19.7209		69.2553
-41.1153	21.3565		70.9061
-37.5259	23.1261		71.7763
-32.7005	23.3117		71.9453
-30.6693	19.3028		72.0072
-33.1397	14.7948		71.9682
-36.1435	14.8178		71.6799
-38.3602	16.7199		71.3169
-38.5893	19.381		71.4183
-36.4484	21.2754		71.8795
-33.3207	21.1982		72.0785
-34.9654	17.9258		72.0464
-30.9245	16.6048		72.012
-41.567	16.5067		69.8886
-27.1127	15.9713		71.0904
-26.1916	18.5613		71.003
-39.8513	13.6426		70.5246
-30.561	13.3382		71.8132
-41.8787	19.0224		70.1231
-36.9702	13.3065		71.3559
-25.8126	19.8449		70.9322
-25.5601	20.4301		70.8857
-27.1339	19.9363		71.299
-25.1105	19.0418		70.7251
-34.4231	13.5921		71.7856
-34.1249	12.8621		71.7424
-32.0451	14.0001		71.9258
-34.6117	14.4599		71.8649
-36.6949	13.8707		71.4708
-40.1953	20.0077		71.0119
-40.2346	19.0629		70.8916
-39.5714	20.6144		71.2631
-41.1793	20.1735		70.656
-38.6684	21.5961		71.5402
-37.7669	20.573		71.6933
-36.9758	22.3633		71.8038
-39.6016	22.3062		71.5555
-34.9599	22.6189		71.9548
-34.8512	21.6044		72.0029
-32.906	22.337		71.9711
-35.1219	23.4922		71.934
-31.0796	21.589		71.9058
-31.9399	20.5442		72.0711
-29.6502	20.5319		71.7931
-30.324	22.5611		71.7585
-36.8536	16.1505		71.7276
-37.7326	15.5089		71.4201
-35.6781	15.9713		71.936
-36.9864	17.1041		71.7578
-32.8826	19.7386		72.2213
-33.9695	19.8933		72.1847
-32.726	18.7001		72.2175
-34.661	15.3871		71.9994
-33.9747	15.9348		72.1153
-37.4938	17.9009		71.6873
-38.633	17.9048		71.3409
-37.0131	18.7323		71.8113
-36.8666	19.7933		71.8534
-35.779	19.9064		72.0152
-34.8346	20.5632		72.0976
-23.1827	18.2394		70.0585
-21.9052	16.2494		69.2181
-22.5342	15.2089		69.3293
-43.9418	15.2045		68.4036
-45.5215	17.0683		67.484
-44.9093	18.5943		68.3254
-42.3911	20.6351		70.2187
-32.8017	16.1185		72.1558
-31.6771	15.5129		72.0251
-32.7638	17.0591		72.2326
-32.1658	17.8328		72.2365
-30.601	17.7509		72.0254
-42.0803	20.2059		70.2243
-42.8673	19.5089		69.6635
-28.549	17.5158		71.6026
-28.3928	18.7991		71.6094
-29.0063	16.2024		71.6241
-26.487	17.2475		71.0042
-30.1585	14.9648		71.7184
-28.3861	14.6377		71.4265
-25.9873	14.0651		70.8172
-23.8856	16.6969		70.0619
-23.7358	17.5409		70.1309
-24.3936	15.8156		70.182
-42.9134	15.3779		69.0625
-41.1922	15.1817		69.9852
-43.4561	16.5158		68.7966
-43.8349	18.8651		68.9727
-43.831	18.3167		68.8851
-39.1734	14.8296		70.864
-39.816	16.4156		70.7375
-25.1255	14.8813		70.4114
-28.4431	19.7337		71.6033
-24.1823	18.3359		70.3606
-43.7417	17.468		68.7766
-41.7933	17.7778		69.9284
-40.1219	17.7778		70.7518
-41.0772	14.3369		70.0307
-42.3094	14.5597		69.4129
27.7813	20.6784		70.6639
25.0071	19.1348		70.0247
22.5061	17.4677		69.5061
20.6355	16.112		69.0752
19.8243	15.0497		68.7688
19.7586	14.3986		68.5472
19.9039	14.0691		68.3947
20.1309	13.8916		68.3958
20.7264	13.6219		68.5045
21.5012	13.34		68.7399
23.4468	12.9729		69.4012
27.4371	12.1268		70.578
32.094	11.4463		71.3818
37.7235	11.5661		70.6164
42.3914	12.0395		69.0527
45.5089	13.5381		66.9871
47.0439	14.6566		65.6291
47.4482	15.0884		65.3935
47.2915	15.4236		65.5459
46.6104	16.5512		66.3994
45.5653	18.0329		67.6875
44.1219	19.4022		68.7323
42.3839	20.6508		69.8388
40.4616	21.6825		70.6172
38.588	22.491		71.0137
35.6508	22.8335		71.3509
33.2041	22.8378		71.3343
30.3719	21.9739		71.0814
-25.1347	20.6476		70.8258
-27.5122	22.1673		71.3666
-30.0148	23.3837		71.7376
-32.6988	23.9851		71.9746
-35.4598	24.0192		71.9828
-38.1882	23.6055		71.7949
-40.278	22.7775		71.4511
-42.1114	21.7806		70.7617
-43.8372	20.6388		69.5995
-45.2165	19.208		68.415
-46.2182	17.8386		67.332
-46.9736	16.702		66.4495
-47.0981	16.3551		66.2713
-46.6581	16.0493		66.465
-45.0649	14.9022		67.6549
-42.0362	13.2167		69.7543
-37.5364	12.514		71.2923
-31.6799	12.4871		72.0686
-26.8612	13.4536		71.1236
-23.6278	14.3683		69.908
-22.1385	14.7914		69.221
-21.4627	15.1078		68.9441
-20.9403	15.34		68.7617
-20.8118	15.4698		68.7466
-20.7939	15.8128		68.8825
-20.9972	16.523		69.0711
-21.7978	17.6703		69.5823
-23.1325	19.0538		70.2162
47.2681	14.2937		65.643
45.7248	13.0411		66.8895
47.6383	15.5128		65.4447
47.7444	14.9037		65.4215
-20.5626	16.8913		69.2674
-20.3103	15.9645		69.1224
45.9395	18.4486		67.7262
44.4575	19.9758		68.8572
42.6609	21.2422		69.9917
40.6784	22.2802		70.7608
38.582	23.0658		71.2565
35.6048	23.4289		71.4729
37.8071	11.0828		70.5728
32.1325	10.8949		71.438
23.3669	12.4498		69.5968
21.4035	12.9436		68.9759
19.5741	13.9445		68.6812
19.8793	13.6351		68.6582
47.0262	16.7607		66.3565
27.4438	11.5138		70.7706
-42.3839	22.3363		70.9041
-44.1572	21.1597		69.7306
-38.2409	24.1835		71.9424
-40.4797	23.3549		71.6233
-22.6912	19.4916		70.2422
-24.724	21.1058		70.8373
-37.6564	11.923		71.2214
-31.6862	11.9155		72.1077
-23.631	13.8949		70.1219
-22.096	14.4263		69.4631
-20.5728	15.4024		68.9594
-20.8455	15.0856		68.9964
-45.6599	19.6833		68.4556
-46.6456	18.0929		67.2949
-26.8469	12.8151		71.3389
42.5	11.6105		69.0582
19.1708	14.4767		68.8847
19.2304	15.291		68.9919
-42.1245	12.756		69.7376
-45.3348	14.3809		67.5407
-46.9587	15.6514		66.2693
-47.4198	16.2455		66.1604
-47.3016	16.9028		66.3983
33.053	23.3895		71.4056
27.3864	21.1465		70.6323
30.1143	22.4348		71.0825
21.9483	17.8818		69.5407
24.578	19.6026		70.1097
20.0602	16.4609		69.1713
20.5111	13.3022		68.723
-35.5032	24.6917		72.1391
-32.5426	24.5485		72.047
-29.7631	23.8512		71.7462
-27.1322	22.636		71.3695
-21.307	18.0513		69.6628
-21.3648	14.7434		69.1945
49.2016	14.6974		64.9711
-48.7488	16.0686		65.6413
50.2116	10.6855		64.2463
51.5609	11.5401		63.4643
20.0164	11.5093		70.1538
32.1893	7.4713		71.9605
20.9734	10.7049		70.5088
44.1106	7.8021		68.5654
26.9098	8.24		71.7179
-22.5391	11.0449		71.5297
-26.2167	9.73175		72.2763
-38.2489	8.36985		71.3722
-43.528	8.99159		69.2604
-19.9467	12.8897		70.7364
-20.8822	12.1268		71.0425
-49.5539	11.9869		64.8306
-50.745	12.9215		63.9987
-47.2747	10.5567		66.6678
38.7024	7.38344		70.7466
22.7864	9.57981		71.0235
51.9846	12.8421		63.2231
47.945	9.29176		65.8917
-50.9948	14.426		64.1481
-31.546	8.57438		72.6032
-17.3497	13.1296		71.7672
-17.217	14.3205		71.2767
