1808
43.0001	-70.0978		-69.7543
33.4856	-69.2772		-77.7603
69.0081	70.4261		-51.4721
68.3359	73.4676		-40.4059
71.0311	63.2785		-46.0217
67.9605	64.5388		-61.6199
64.5988	76.5549		-56.8233
68.9621	76.4148		-29.124
72.6206	69.0524		-24.1012
64.6392	83.1456		-33.2905
69.1148	77.9158		-18.174
68.2648	79.0109		-7.38529
71.0799	71.8252		-2.70948
64.3606	85.816		-9.73569
56.2461	41.8647		-92.0516
57.6006	52.9888		-86.7444
60.8971	39.3287		-87.0517
56.32	29.5197		-95.6163
58.0625	63.9913		-80.1349
59.133	74.1147		-72.0083
62.5654	60.1627		-75.1542
52.5859	-6.26606		-95.3024
54.2822	5.65085		-96.8039
57.0831	-6.89474		-89.7689
50.9127	-18.1702		-92.0061
55.2492	17.4331		-97.0761
59.7614	16.166		-91.9404
50.2535	-29.4967		-86.6435
54.4065	-29.266		-81.5436
49.5751	-40.4301		-79.8605
48.7658	-49.9164		-73.8776
52.1654	-48.4028		-70.0757
47.776	-70.5273		-64.0907
51.988	-72.7566		-57.5437
47.0181	-80.5645		-63.1238
77.0002	35.6174		-47.3947
77.3529	28.9559		-54.5189
76.0541	40.6128		-51.9408
57.4013	87.6392		15.5637
59.0418	91.1542		2.42055
77.0061	44.6562		-6.68663
77.0074	54.1723		-13.1477
68.3434	-7.66798		-73.4933
64.8918	-7.75932		-78.9135
69.6389	1.69944		-75.2618
70.9409	-7.95596		-68.0264
66.1042	-17.4359		-70.8241
70.196	11.27		-76.1001
66.7525	13.2077		-81.7512
70.6485	20.4975		-74.8235
73.2742	9.21276		-69.8848
71.3666	29.6982		-71.5702
68.3269	33.4582		-76.5708
72.6929	38.2374		-64.9792
74.1442	25.9591		-65.6036
60.5421	-42.2864		-59.4381
57.8271	-44.6419		-62.9492
62.0788	-34.7148		-63.3598
63.0668	-40.1098		-55.7811
58.9781	-50.066		-55.7255
69.8244	-22.8433		-58.5004
67.679	-30.443		-55.4357
66.9728	-24.6641		-62.7713
71.6087	-15.4845		-60.9453
56.018	-74.6893		-50.908
56.5299	-66.1732		-52.0348
78.4868	-36.7727		-5.28602
79.0575	-33.1146		-3.36304
76.8999	-39.606		-3.09565
79.0532	-31.2991		-1.76701
84.1957	-4.74914		-2.89763
84.828	0.254696		-4.96522
93.6671	4.03772		-38.3037
93.9027	9.64082		-36.0796
94.324	3.61159		-37.6566
84.1426	-34.5623		-24.8524
82.4842	-36.6469		-21.6461
93.7301	14.0556		-32.7529
92.575	14.2652		-33.304
92.6911	16.8343		-28.8186
94.6221	13.3998		-32.1894
88.5196	10.1648		-12.0715
87.3648	10.2932		-12.5949
92.0873	18.3091		-24.6506
93.0257	17.6084		-23.9123
88.9906	-18.9406		-35.1974
85.718	-35.6284		-17.4695
85.2709	-35.868		-14.7275
83.7064	-37.2172		-18.0645
85.247	2.7945		-6.74752
89.0183	16.8323		-20.1275
87.1813	13.8207		-17.4699
87.9574	15.9753		-21.6817
86.0339	10.5685		-14.0226
84.851	10.7665		-15.6741
91.9072	14.1116		-33.522
83.8081	10.267		-17.1963
84.4779	11.6836		-20.0582
85.9636	13.5203		-23.6384
83.8701	11.4207		-24.7024
88.6901	-27.0974		-28.011
88.7995	-28.9112		-20.5285
82.0313	-38.2786		-18.5753
84.4438	-34.9511		-12.6888
85.5372	-32.1516		-12.835
86.4426	-29.8737		-13.7814
86.9008	-28.3736		-14.684
94.5899	3.36409		-37.3048
94.9603	8.7914		-34.9662
91.8462	15.2401		-16.4639
92.027	14.6461		-16.1972
92.9958	16.8592		-19.5228
92.0343	14.0523		-16.0411
93.235	15.7419		-19.046
91.89	12.9982		-16.1855
94.9856	12.8933		-31.8449
94.0665	15.4349		-27.9157
95.1147	12.4026		-31.6959
93.5681	16.9433		-23.4589
93.8104	16.3536		-23.3222
93.832	15.7886		-23.0634
94.2405	14.4089		-27.544
95.0823	12.0421		-31.3888
93.9715	-1.04109		-36.2936
91.6429	11.7003		-16.7039
89.1969	4.55878		-14.2999
93.1654	11.0007		-25.1431
93.5822	-4.29778		-31.1962
93.5037	-2.49324		-30.9355
93.5354	-0.853972		-30.3761
93.3152	0.647894		-29.4766
92.9935	1.64817		-28.2612
92.0439	2.52139		-26.0085
85.0817	-24.5941		-12.6536
86.0743	-26.4351		-14.2847
87.3976	-1.9593		-11.3373
84.0676	-16.3913		-10.8738
86.9688	-27.6641		-15.2029
34.0961	28.745		73.757
32.6669	94.1887		45.6161
33.4374	100.989		34.0894
8.4946	102.503		47.2715
8.00037	109.18		35.3538
0.109308	103.018		47.2923
34.9133	108.4		19.5769
35.5775	112.044		5.01968
7.87623	115.592		21.1061
-0.290008	116.142		20.9826
22.0014	120.626		-11.5616
29.2306	117.701		-11.0883
36.0219	114.076		-10.9085
36.7249	112.806		-27.0746
64.7898	52.2778		35.143
71.85	62.2865		4.1169
74.7069	63.0243		-7.96063
59.6624	92.6792		-10.9058
60.1792	92.0201		-23.5976
7.2752	118.378		-48.8488
7.51629	112.254		-66.1195
-0.772379	118.747		-48.8561
37.3093	110.528		-43.2771
37.7451	105.852		-59.8701
75.1539	61.5449		-18.6427
75.1075	59.742		-29.2926
59.5709	90.1304		-36.377
60.0363	87.2264		-48.9693
74.2702	56.4402		-39.9921
73.8988	52.3071		-49.6586
73.5909	46.344		-57.8438
70.4717	51.294		-63.8904
46.479	-91.2036		-63.4018
46.3346	-100.804		-64.2978
47.6308	-108.79		-64.4718
47.9188	-117.183		-66.0925
41.7288	-108.193		-69.7584
7.28479	102.845		-82.1378
6.90753	91.1047		-95.6042
-0.128134	103.353		-82.4191
7.09371	78.3165		-105.348
7.55386	65.4799		-112.129
-0.311793	78.6109		-105.52
7.83196	52.4354		-117.003
7.43755	38.7551		-120.272
-0.262263	52.3245		-117.245
7.59342	25.5283		-121.794
0.756187	25.556		-122.134
20.0446	-2.92113		-116.909
26.1161	-3.69506		-114.479
6.38252	-27.1752		-108.131
6.26808	-39.2711		-100.007
0.785273	-27.074		-108.122
6.26269	-47.8482		-93.9346
0.52996	-48.0682		-93.9192
5.59834	-84.6061		-81.9394
0.556687	-84.3979		-82.1037
35.4538	75.1205		-96.2912
36.3923	87.1661		-87.6042
34.2413	62.3725		-104.129
37.5173	97.922		-75.0593
34.0861	48.5628		-109.145
34.1245	35.6873		-112.017
33.6878	22.2241		-113.578
33.1929	8.54978		-113.386
32.0918	-4.31393		-111.615
31.2508	-16.9985		-107.873
30.2182	-29.2318		-102.196
29.3499	-40.3829		-95.4422
29.4823	-49.8273		-89.2952
29.3977	-58.8485		-84.1994
28.4473	-68.3934		-80.8216
27.2264	-78.3381		-79.0482
26.2229	-87.8014		-78.8772
36.2769	-107.589		-73.6454
38.7559	-114.575		-74.1093
59.7707	82.2344		-61.108
66.8935	56.4576		-69.6948
66.0547	46.4483		-76.3985
64.7838	36.8242		-82.0081
64.174	25.5725		-85.7444
63.5079	14.8382		-86.9565
62.5776	3.7865		-86.2545
61.1476	-7.5324		-84.3013
59.4903	-18.3659		-81.1544
57.7996	-28.4077		-77.0317
61.1324	-27.6606		-71.9481
56.5563	-37.991		-71.493
55.0621	-46.5858		-66.6241
57.9631	-58.0778		-52.6928
60.2089	-56.4788		-49.4032
76.4431	22.6613		-59.9718
75.9218	15.044		-63.0904
78.4696	18.7328		-54.1242
73.0853	-7.84005		-63.0664
74.2457	-0.286737		-64.2069
64.1056	-26.281		-67.3653
75.3346	7.57503		-64.5476
65.7817	-37.6842		-52.1608
64.2755	-44.7287		-48.8919
20.5066	-110.468		52.1174
65.7779	-70.5588		5.4458
55.5648	-84.6753		7.89549
14.3183	-44.842		94.446
18.6967	-47.519		89.6182
21.8141	-49.143		86.232
8.1279	-52.673		94.9105
8.48041	-53.5604		94.9573
8.82746	-54.3793		94.8051
25.7755	-60.735		81.1341
25.2591	-59.0886		81.298
24.6652	-57.4489		81.5481
19.6375	-43.2805		88.7085
41.2243	-50.1765		73.4052
31.403	-30.7068		78.6742
33.2354	-35.5799		78.7682
34.4923	-40.4294		78.3982
64.2639	-35.9482		53.7579
19.734	25.4384		72.6285
80.0848	14.8554		-48.0522
82.9065	13.2194		-28.9394
83.6321	11.3327		-26.5855
75.56	-42.3247		0.240556
25.7598	13.5916		71.0691
52.3685	40.0082		64.4205
6.44363	-30.3641		93.7794
47.2816	20.3966		65.6125
10.8578	-28.1024		90.7448
83.5402	11.1556		-25.5836
61.2551	-99.1954		-38.6637
64.6613	-65.0334		-35.4499
63.4127	-58.931		-42.2027
62.9698	-53.2507		-46.076
23.896	-23.3611		80.5459
15.0744	-50.5437		89.9404
28.0159	-52.5636		76.3064
6.93851	-48.6977		92.7002
-75.5153	-43.2416		10.2291
-76.3851	-37.918		11.2389
-75.9365	-41.791		3.47308
-73.9137	-48.7092		9.34773
-74.4507	-44.6245		18.1183
-57.3901	-112.295		-9.55583
-58.0282	-102.77		-6.17323
-59.41	-111.474		-13.5656
-58.1628	-123.975		-9.05545
-54.8785	-113.414		-5.16901
-59.0962	-132.488		-9.09198
-56.6095	-133.984		-4.85527
-60.9066	-131.428		-13.5924
-60.0317	-140.119		-10.0819
-52.6243	-97.1		3.57167
-55.8228	-96.0192		-1.46296
-51.5868	-103.97		-0.302612
-49.2358	-98.6769		8.38931
-53.4714	-90.9112		4.60781
-61.4819	-94.2105		-14.42
-60.1367	-94.7174		-10.132
-61.8324	-88.5547		-14.1031
-62.2206	-92.9875		-19.4548
-61.2943	-101.285		-14.7612
-65.7048	-64.6331		21.5723
-66.4525	-62.5402		14.0423
-63.5479	-67.5447		19.5119
-64.0855	-67.4971		30.0793
-68.3274	-62.1235		23.9105
-72.0378	31.9956		23.535
-75.3345	30.864		11.9957
-71.7936	25.0659		26.315
-67.9074	34.8377		34.3778
-72.478	40.3011		19.4653
-77.9145	42.7635		-29.0973
-79.1348	35.1256		-24.4852
-79.68	43.6402		-18.7719
-76.5416	49.5294		-34.1714
-77.7039	39.337		-38.5965
-6.63832	-115.524		47.3705
-7.4187	-111.786		49.7766
-10.587	-114.833		45.5351
-6.68346	-122.009		43.5908
-3.52964	-115.866		48.4753
-7.59941	-131.952		38.4465
-8.40288	-142.204		33.3754
-4.04058	-132.333		39.798
-11.5136	-130.86		36.6766
-1.17738	-150.043		32.0674
-1.60502	-154.832		30.0429
-0.924328	-142.977		35.2472
-5.00143	-149.706		31.4232
-70.8068	-51.6074		-32.8043
-71.305	-42.5923		-38.3077
-67.4361	-58.8549		-34.2201
-69.7898	-58.9694		-26.7821
-73.385	-43.7603		-32.0216
-71.5822	-38.1405		-40.7331
-74.6351	-33.6499		-37.3605
-70.3144	-33.7509		-42.6424
-68.1552	-43.3877		-44.1166
-62.0736	-124.99		-29.9866
-62.309	-127.873		-23.4581
-61.5728	-122.164		-37.0371
-63.0597	-131.157		-32.5306
-0.7002	-132.697		40.5382
-0.37086	-122.803		45.6294
-72.8977	-47.7144		26.6159
-71.486	-53.9427		26.2552
-70.867	-49.7254		34.1695
-73.7351	-40.804		26.2186
-67.2686	-61.0549		6.77119
-68.9046	-57.0717		7.57066
-67.5579	-60.2197		-1.06334
-65.2385	-64.4292		5.3935
-10.7649	-92.9933		93.5494
-10.6951	-87.8827		94.4503
-15.2046	-92.292		91.0528
-10.8456	-97.3648		91.6637
-6.80657	-93.4145		95.1333
-19.949	-90.3824		87.6336
-19.9619	-85.0271		88.4891
-24.9975	-88.2734		84.2827
-20.1262	-95.286		86.3852
-3.83686	-82.5107		96.1893
-3.54268	-88.3134		96.476
-3.64746	-76.5936		94.7863
-7.07419	-82.3456		95.3358
-11.1305	-100.89		89.0717
-7.45574	-101.199		90.4961
-15.5218	-99.9499		87.0619
-11.5629	-103.32		85.402
-12.1174	-106.446		79.5687
-11.2707	-105.664		72.7207
-7.31537	-106.844		80.6593
-16.9895	5.15831		78.9812
-14.4007	7.31176		81.3939
-16.0143	9.0018		77.1554
-19.7132	3.8389		76.7157
-18.1254	1.27633		80.5545
-52.2433	-25.895		68.815
-53.4721	-30.7434		68.2712
-46.2404	-23.6699		72.4259
-51.0532	-20.5549		68.8797
-58.2039	-26.569		63.3859
-61.9416	-16.4385		57.86
-63.0355	-21.6365		57.0574
-55.9043	-16.4625		64.288
-60.3042	-11.053		58.8655
-67.0293	-15.3973		50.59
-70.1927	3.13815		40.8889
-67.7352	4.87926		45.2571
-68.1054	9.66566		40.3526
-71.9367	1.90364		36.1973
-54.2091	-35.7238		67.5261
-48.4791	-34.0674		72.1168
-59.6093	-36.4179		61.6263
-54.2289	-41.1275		67.1321
-3.06414	5.92802		98.4364
-4.89026	5.34266		97.775
-3.19004	0.893732		101.691
-3.10552	11.8082		94.5236
-30.4476	70.5265		70.1683
-31.464	76.0147		65.7215
-36.0349	68.8472		67.3457
-28.592	65.9853		75.4231
-25.1672	71.4147		72.2708
-2.26182	-108.14		68.0548
-2.93881	-107.433		74.4886
-5.6316	-107.384		67.1349
-1.19982	-108.586		61.1609
-68.7033	-50.7304		41.5743
-69.9494	-42.9377		40.9529
-67.0553	-58.1694		42.2623
-65.8981	-50.8277		48.3504
-3.91792	-101.511		91.24
-3.72261	-105.555		85.9463
-3.83175	-98.2784		94.0634
-3.5006	-107.241		81.2207
-40.7254	-85.9842		65.0537
-40.6559	-82.6003		67.7059
-45.6894	-83.0836		59.3196
-40.0798	-89.1747		62.2876
-35.6288	-88.7202		70.8419
-44.6574	-89.6347		37.5148
-39.8206	-93.0413		43.2888
-46.7141	-86.6688		41.9144
-48.9248	-85.9806		31.4001
-42.2251	-92.8613		32.4892
-0.707366	-109.929		55.1495
-0.811732	-112.329		51.6521
-4.091	-109.743		54.268
-8.1096	-4.79533		102.19
-5.6401	-4.05214		103.897
-7.51813	-0.506447		99.3325
-11.0465	-5.59425		99.3362
-8.88764	-7.98984		104.425
-29.0157	-16.2027		77.8759
-25.2509	-12.7788		79.2963
-26.9541	-10.7406		77.5114
-33.2363	-18.8466		76.6691
-34.2588	-55.023		76.3797
-31.9191	-55.0691		76.4419
-32.6746	-54.245		76.374
-16.9366	-23.5977		90.5657
-18.8639	-23.5656		88.4637
-16.2657	-25.1233		90.4762
-18.3191	-21.9458		90.2859
-16.7232	-28.4923		89.0695
-14.6551	-28.389		90.9545
-16.5249	-27.4877		89.1901
-19.1821	-28.2704		86.8007
-17.1145	-30.1246		89.0577
-5.2553	-27.147		99.8978
-7.25227	-26.4544		98.7172
-5.42754	-28.5809		98.6584
-5.23476	-25.8582		101.59
-21.7876	-27.2667		84.5697
-22.0647	-28.7922		84.3219
-21.3294	-26.356		84.9879
-23.9214	-24.9404		82.4861
-9.89188	-16.807		106.684
-9.87484	-15.3704		107.245
-13.0584	-15.8435		102.425
-9.77213	-18.6677		105.529
-7.04805	-17.6945		109.103
-27.4639	-67.0063		81.5901
-28.3052	-70.987		81.3969
-23.4135	-68.5466		84.7197
-26.706	-63.7916		81.6705
-31.3599	-65.4561		78.8294
-34.2594	-49.4806		78.7
-36.3329	-50.2435		77.3234
-32.1338	-48.606		80.4429
-33.5884	-45.1905		80.6377
-5.76101	-33.3645		96.6787
-5.52837	-31.2068		97.1346
-7.65481	-32.9074		96.0506
-6.12908	-35.0524		96.271
-7.10134	4.16067		96.2046
-7.32658	9.3412		92.5748
-9.88453	2.4807		93.5072
-21.7248	-14.4657		85.3371
-22.043	-13.8562		84.0463
-22.1454	-15.9334		84.65
-20.9844	-13.9262		87.418
-20.7434	-12.9087		87.416
-9.22919	-28.4898		95.9384
-7.54191	-29.0514		96.9394
-9.13623	-27.3226		96.4124
-10.848	-28.4002		94.504
-9.19576	-30.1179		95.4632
-9.06007	-25.9801		97.2955
-8.83232	-25.0447		99.0457
-20.1394	-13.1152		89.4219
-20.7699	-14.7426		88.5247
-19.7548	-12.268		89.7299
-22.4869	-18.838		84.1253
-22.2904	-21.9485		84.2891
-21.5225	-17.5487		86.1536
-6.60553	-41.9645		96.6026
-6.45492	-39.4026		96.3991
-9.53581	-40.9814		96.1954
-6.81462	-43.8383		96.8572
-28.6388	-30.6123		81.3587
-26.7735	-26.1947		81.0288
-31.0599	-30.6375		80.2157
-30.846	-35.1332		81.5797
-26.2047	-30.7717		82.7799
-10.7517	-64.5502		91.8416
-14.8725	-64.3096		90.2322
-10.9153	-67.4142		91.5774
-6.91716	-64.6526		92.9642
-10.9899	-62.6789		92.4844
-29.2111	-50.7826		81.2077
-29.4134	-49.2141		82.4317
-30.9287	-52.0892		78.1815
-29.2559	-51.3363		80.4318
-19.4792	-11.6622		89.6703
-17.8367	-11.0652		92.6884
-19.5109	-10.8177		88.3787
-19.1577	-63.8435		87.7242
-19.0689	-61.814		87.9686
-22.7967	-63.2649		85.0592
-18.9428	-66.0935		87.7594
-3.44959	-64.6454		93.5315
-3.43313	-62.4518		94.0697
-3.0986	-66.6223		93.0472
-59.0964	27.3061		56.595
-59.8954	28.9876		54.6956
-60.8305	22.0335		52.1202
-58.0846	26.0049		58.2855
-40.2369	55.2151		71.1354
-41.1621	60.8367		67.3285
-46.1978	52.3923		66.1424
-39.7587	49.7866		74.2077
-34.1	59.024		75.8292
-52.2338	48.9103		60.2306
-53.2904	54.5608		56.0906
-57.876	44.69		53.1731
-51.6197	43.5487		63.704
-39.6776	43.5354		76.611
-39.4138	46.331		76.3588
-40.0398	40.3867		76.3411
-34.486	45.6937		81.3461
-61.3257	30.0746		51.4796
-64.1628	24.8663		45.3846
-56.761	35.6301		59.5
-62.2007	33.4521		48.4069
-23.3741	33.4327		80.5497
-20.0369	32.4873		81.0022
-22.8818	34.7757		81.8595
-26.7719	34.4543		80.073
-24.0649	31.7321		78.9105
-7.47141	20.1626		85.3537
-7.34005	17.5001		86.8412
-5.00809	21.8023		87.147
-7.6087	22.322		84.371
-9.62567	18.0167		82.7132
-31.3526	-1.6941		72.6647
-25.5209	0.383018		74.343
-29.1467	2.0057		72.3639
-38.7642	-3.34899		70.6488
-34.072	-5.92397		73.0438
-59.2567	7.63843		54.9151
-57.194	5.3507		57.3528
-56.455	9.02343		57.072
-59.3212	10.6567		53.9831
-61.8569	6.67321		52.7309
-7.11792	13.6685		89.5645
-4.74158	15.4274		90.9634
-9.75165	11.6928		87.0323
-40.3929	37.822		75.9866
-40.194	35.7631		75.5662
-34.9611	40.0913		80.1929
-46.0916	33.7905		72.3852
-50.9333	31.6553		68.5491
-54.5937	28.5829		64.1803
-50.206	29.7411		68.8556
-54.5971	14.4872		58.5187
-56.5357	14.4657		56.8158
-54.8166	12.4052		58.0681
-52.859	15.2218		60.1761
-54.6153	17.9554		59.8475
-42.5469	20.9442		69.1565
-40.6458	21.9645		70.3606
-44.1125	19.4172		67.4465
-38.7447	23.0877		71.3909
-36.2801	23.9569		72.0492
-38.6019	23.5458		71.6463
-41.0594	22.6622		70.7239
-36.0841	24.7185		72.5162
-33.4208	24.6145		72.555
-30.3854	24.5115		72.531
-33.0772	25.3296		72.9834
-29.8515	25.1637		72.8955
-28.1766	24.9783		72.2173
-25.8635	24.1768		71.6295
-23.8206	23.6731		70.866
-21.8391	22.7395		70.0225
-22.5847	24.2903		71.1564
-24.6404	24.6755		71.9112
-20.4367	23.0865		70.4903
-20.4246	21.5551		69.5451
-21.223	24.7459		71.5915
-23.5871	25.4009		72.4591
-32.674	25.9818		73.3781
-29.3495	25.9648		73.4841
-48.5151	15.5228		63.0826
-47.649	15.1477		63.7074
-30.8762	34.5461		78.9862
-31.2415	32.6449		77.5468
-30.2173	37.0223		80.5366
-35.3011	34.3476		77.5103
-46.9173	24.7066		69.2989
-45.6705	23.1059		69.4226
-43.7136	26.3213		71.6561
-48.199	26.4451		69.2136
-38.0837	10.081		69.5011
-31.4366	10.8136		70.9153
-43.5273	10.3072		67.0293
-38.6653	8.14092		69.2563
-25.8395	12.2378		71.0754
-25.8291	10.6036		71.3556
-21.9978	13.4983		70.8875
-18.1564	17.2535		70.4654
-19.0397	15.9551		70.6478
-17.5359	17.9399		70.5012
-37.3571	13.4884		69.9084
-31.4103	13.6558		71.0856
-42.0291	13.307		68.1055
-21.2942	16.6867		69.7176
-20.4445	17.2897		69.4603
-22.9507	15.7978		70.1509
-19.7498	17.7941		69.3824
-19.1445	18.4615		69.3738
-14.8911	25.7672		75.1915
-13.9555	26.6734		77.5858
-15.9313	26.1532		75.573
-15.7847	23.8726		72.6832
-17.19	19.4637		70.4728
-26.2392	25.7462		73.1108
-16.5214	22.9228		71.5947
-17.5972	24.131		71.9182
-15.8901	21.5312		71.6373
-37.1817	14.6809		70.1446
-31.4723	14.9741		71.091
-21.5247	17.5193		69.1587
-23.0729	16.9274		69.6406
-20.6768	17.8391		69.0268
-20.2202	18.2208		68.8772
-45.5395	18.3949		65.7989
-4.32784	32.3151		86.561
-4.93568	35.2559		86.3485
-7.10679	31.807		85.8135
-3.71746	30.2293		86.0797
-19.3572	8.58731		73.7524
-22.4134	7.12789		72.8869
-20.3965	6.00747		74.5953
-17.4384	9.99297		74.5869
-19.0436	10.391		73.1122
-15.5008	11.6652		75.9493
-13.6409	13.8812		77.5647
-15.5484	17.0797		72.751
-15.5749	18.4887		72.0982
-13.7722	17.8314		74.6839
-11.1389	25.1995		79.1378
-10.3567	25.5436		80.5089
-11.9851	26.1373		79.0314
-20.0482	14.764		70.8113
-19.4183	13.5877		71.5547
-18.9723	12.0865		72.3447
-21.4981	10.5755		71.9697
-24.0803	-52.4333		81.151
-20.4047	-51.4995		84.645
-27.4095	-53.1908		77.8851
-24.0081	-52.3651		80.8698
-29.117	-53.5984		76.6692
-28.8081	-53.4648		76.6867
-6.57268	-46.9968		97.4306
-6.14404	-47.914		97.2846
-6.61144	-45.8188		97.4613
-10.0697	-46.6569		96.3419
-12.5177	-48.5579		94.9261
-15.641	-48.5935		93.264
-11.9896	-49.1658		94.3648
-9.33699	-48.438		96.0758
-12.8459	-47.7153		95.0972
-18.6384	-48.8478		91.2504
-21.6668	-49.997		87.9311
-18.346	-49.776		90.4962
-19.0424	-48.0283		91.6049
-12.9618	-46.5412		95.4154
-12.9909	-45.2517		95.7583
-15.8389	-46.7032		94.0986
-18.0306	-44.7311		93.3349
-18.7243	-45.9735		92.7519
-15.0168	-44.2848		95.0316
-17.5195	-43.6869		93.5673
-24.5452	-50.9735		84.5906
-25.1431	-50.309		85.1158
-10.9409	-49.8406		93.5471
-14.2073	-49.9235		91.799
-10.2386	-49.9617		92.9047
-8.02949	-49.7591		94.7361
-17.6669	-50.4773		89.1618
-17.2237	-50.7347		88.3123
-30.0154	-52.4415		78.1607
-31.0548	-53.8768		76.6046
-24.2442	-53.3042		81.7291
-24.2665	-53.4809		82.0614
-20.4731	-52.5822		85.6614
-24.2105	-53.2634		81.489
-24.6634	-54.6281		82.601
-21.0141	-54.3596		87.2324
-24.5007	-54.1781		82.5247
-17.9377	-54.3192		89.8383
-18.321	-55.0715		89.7418
-14.6268	-54.4354		92.3335
-17.8479	-53.7473		89.6284
-10.1353	-52.4073		94.0771
-6.98242	-52.1748		95.1753
-10.0396	-51.6263		93.5731
-14.3379	-53.016		91.8068
-10.3448	-53.3219		94.4006
-4.4405	-53.6069		96.3192
-4.34973	-52.6811		96.051
-7.03114	-53.7372		95.7698
-4.51662	-54.598		96.4839
-29.1504	-54.7531		76.06
-29.0476	-54.1798		76.5656
-27.3247	-54.5007		77.5883
-28.4453	-55.5415		75.8594
-3.4115	-50.7645		91.4824
-3.66391	-50.4825		92.7168
-3.09777	-51.6473		90.3578
-6.22483	-51.3225		90.8217
-4.54352	-55.6973		96.5291
-7.23476	-55.8129		95.9703
-4.28442	-56.6692		96.5004
-3.61974	-60.3518		94.9671
-3.97468	-58.9146		95.623
-6.84549	-60.4616		94.4734
-12.7706	-44.0824		95.9155
-10.1451	-44.3128		96.4961
-12.0229	-42.8162		96.0145
-4.30329	-51.694		95.6156
-4.178	-50.9935		95.1535
-4.08017	-50.6761		94.7961
-4.13139	-50.5065		94.3612
-6.83434	-51.0414		94.2999
-9.98519	-51.2853		93.204
-9.93993	-51.1342		92.8571
-13.6459	-51.7132		91.3113
-4.19526	-50.4772		93.6725
-6.60325	-50.5987		93.2
-17.0272	-51.9333		88.6756
-17.317	-52.3813		88.9846
-17.0151	-51.8109		88.2631
-18.9928	-57.6494		89.3987
-19.2334	-58.7532		89.0531
-15.6148	-57.8929		91.8849
-18.959	-56.9203		89.614
-11.2234	-57.9279		94.2679
-11.0393	-59.0465		93.6536
-7.02903	-57.6992		95.7258
-11.0038	-56.9023		94.5442
-4.26441	-57.7471		96.1421
-16.9586	-50.76		87.5984
-16.8503	-50.6794		86.9922
-13.3627	-50.1768		90.224
-29.2088	-54.1777		77.1654
-27.5508	-54.2056		78.6682
-9.30661	-51.6067		89.8282
-9.57384	-51.0648		91.0051
-9.17259	-52.4251		88.8813
-13.2013	-52.0904		88.1315
-9.80863	-51.1136		92.1634
-13.2893	-51.4243		90.3242
-11.0983	-60.6763		93.0826
-15.3396	-60.5619		90.9878
-18.6796	-55.9287		89.7405
-15.3334	-56.2141		92.3141
-18.8816	-60.4299		88.1791
-22.3492	-59.623		85.8744
-16.6079	-50.357		86.6387
-19.7487	-51.0416		84.245
-16.1116	-49.171		86.0098
-13.4361	-49.7192		88.5159
-10.0538	-49.3997		90.0665
-9.86293	-49.8005		91.0955
-10.6781	-48.2592		88.5647
-7.19428	-48.8799		90.6972
-15.542	-46.7708		85.0655
-18.1651	-47.2514		83.4879
-15.3449	-43.5099		84.0486
-13.0305	-46.3563		86.294
-27.6427	-58.3537		75.9253
-25.7476	-58.0074		77.6142
-26.2829	-61.3946		76.5848
-2.75249	-53.9636		89.0132
-2.53967	-57.4654		88.1845
-5.36194	-54.3453		88.7079
-10.5665	-46.0779		87.2051
-10.013	-42.7122		86.1046
-7.7285	-45.5623		87.8615
-8.61069	-54.7717		87.9529
-8.32627	-58.1955		86.7667
-12.1402	-55.1323		86.4978
-31.1265	-54.0398		71.8959
-31.017	-54.1172		71.9811
-11.9727	19.4085		77.0913
-11.6095	17.7492		78.6598
-81.7815	-8.68202		-44.1129
-83.3451	-9.13341		-42.3799
-82.4926	-4.16834		-44.108
-79.7474	-8.10688		-47.3816
-80.4528	-12.6162		-43.0275
-79.6238	11.6804		-6.54056
-78.9397	12.371		-2.12582
-81.6469	13.4677		-11.3673
-80.984	15.555		-16.0122
-81.0783	15.6439		-22.9913
-81.2444	11.0659		-16.9163
-80.6563	20.7528		-17.3594
-75.0157	-31.2317		-34.7058
-76.862	-28.049		-36.7311
-76.2885	-34.8507		-32.5642
-77.4115	-29.1806		-33.119
-77.9041	-24.8014		-38.6521
-79.6572	-23.1332		-36.8596
-79.0029	-20.9384		-40.4563
-74.9875	-26.2892		-41.4659
-85.0075	-9.12831		-41.4882
-85.2446	-4.15507		-41.6964
-83.5668	-12.7574		-40.2273
-86.5587	-8.64791		-41.158
-84.5856	-24.6239		-33.4986
-85.6187	-25.715		-32.3746
-83.25	-23.0854		-34.8858
-86.4351	-26.4508		-31.3398
-87.3267	-22.6383		-33.4258
-84.5025	-29.8152		-28.9518
-87.1999	-27.0114		-30.2153
-90.9343	-17.1693		-31.401
-91.885	-12.4874		-34.4291
-90.9122	-16.5562		-30.6092
-81.1978	-37.7664		-21.2818
-82.4114	-35.8217		-24.2546
-81.3503	-36.2451		-23.5673
-80.8585	-38.2583		-19.3842
-81.7374	-37.9246		-20.5956
-84.046	-29.5825		-9.24136
-83.7662	-30.1162		-9.21702
-82.9161	-31.4456		-9.46028
-90.8693	-16.1198		-30.2182
-88.8771	-15.7467		-29.2819
-93.3946	-1.49727		-34.0388
-93.4419	-0.884379		-35.5473
-93.3571	-2.8349		-32.411
-93.5421	8.80085		-31.5313
-93.8455	10.1015		-31.6806
-93.9261	12.2798		-30.7099
-93.6225	14.4684		-27.6005
-94.0864	12.7391		-31.1018
-93.382	12.0941		-28.4691
-83.2866	-9.26414		-9.23445
-84.1615	-2.15733		-9.21915
-82.4286	-13.273		-8.65822
-82.7557	-8.50547		-7.92125
-81.2204	-22.5465		-2.26866
-81.473	-18.7572		-1.49746
-80.8681	-25.9746		-3.01163
-80.3651	-22.8345		0.504268
-82.0106	-20.3943		-11.2924
-81.9878	-18.4755		-11.3928
-82.348	-22.4517		-11.805
-81.2411	10.5859		-16.96
-81.2746	10.5877		-16.7526
-81.1534	11.9344		-20.5313
-88.8509	18.2679		-17.6497
-89.4827	19.912		-20.7513
-89.6392	17.6021		-16.6652
-87.9081	15.1648		-14.7539
-87.9914	18.6346		-18.813
-89.7362	20.1022		-25.7281
-88.2463	20.2789		-22.7298
-89.0388	19.0103		-27.0973
-90.7095	18.5863		-29.4385
-90.0517	20.2766		-25.246
-91.2919	4.0802		-40.0632
-92.215	4.45521		-39.4959
-91.4391	10.3008		-37.1961
-90.5865	3.60414		-40.2547
-85.6844	2.31398		-9.73543
-86.0065	1.0508		-10.3915
-93.9631	3.7676		-37.0371
-94.3439	8.9242		-34.7707
-94.0081	3.61001		-37.3745
-93.676	0.911924		-37.1476
-92.7316	15.5604		-23.5754
-90.9531	15.5284		-19.5644
-92.6887	16.6357		-23.0159
-92.7871	14.1023		-24.3198
-86.8812	2.83001		-12.275
-87.3985	5.14848		-12.9993
-86.3589	1.06022		-11.6946
-93.555	4.55983		-34.3034
-93.6496	2.4258		-36.165
-84.7112	-3.46852		-13.7517
-85.5321	-2.03383		-12.737
-84.8476	-3.21214		-14.3994
-90.557	-4.1059		-27.6799
-92.4554	-1.3804		-29.5625
-90.4452	-5.20879		-27.7773
-90.259	-3.63046		-26.988
-80.8115	-16.7321		-1.48815
-81.1111	-15.1235		1.15114
-79.919	-12.3411		-2.71075
-85.1821	1.17296		-40.0478
-86.1063	3.7284		-39.0784
-84.9378	5.95553		-37.8498
-84.0989	0.529764		-41.2502
-88.014	9.07231		-36.2126
-88.3751	4.78314		-39.1889
-90.3083	13.8585		-34.3263
-87.7653	12.976		-33.0075
-89.5889	2.6709		-40.2426
-88.7019	-3.05514		-41.1372
-88.4556	-8.15151		-40.8543
-80.7889	-22.1792		-35.8577
-82.3701	-19.6275		-37.4301
-80.1464	-25.2944		-34.1144
-82.9965	-16.3555		-38.9853
-81.2872	-16.6577		-39.9855
-88.3927	-15.6152		-28.36
-79.4217	-28.3618		-32.4167
-78.5644	-31.5095		-30.1971
-81.0367	-37.6496		-16.6501
-80.377	-38.0163		-16.4429
-79.8329	-38.2164		-16.1202
-79.0121	-38.1941		-21.3907
-90.8595	-6.01431		-28.3593
-92.6369	-4.6924		-30.5035
-82.106	-7.84957		-6.82909
-81.4193	-7.46359		-5.5984
-82.3938	-20.0314		-4.91586
-82.3717	-20.7529		-5.52039
-84.052	-25.8545		-11.4617
-83.1321	-24.8833		-12.397
-85.1981	-27.8934		-13.0188
-81.9084	-16.1952		-8.24125
-82.271	-16.4328		-10.4111
-87.1473	14.983		-29.7834
-85.3288	16.0207		-26.4324
-85.0794	11.1449		-32.5904
-84.2735	9.38629		-34.4376
-82.805	12.0212		-30.1278
-83.9905	9.00057		-35.5546
-92.8034	5.82788		-29.2425
-92.6647	4.35894		-28.8679
-85.2606	-2.70437		-15.6693
-86.0696	-1.71198		-18.2971
-90.095	-2.73635		-26.5179
-89.4067	-2.61031		-25.1658
-91.8735	0.962586		-27.6928
-6.59199	86.3302		65.1997
-8.00482	95.6646		56.9789
-14.3932	85.3937		64.7867
-6.39249	79.1543		70.7802
-6.20324	73.4876		75.752
-12.9317	73.7725		75.0983
-6.35593	65.3764		79.8426
-28.4409	59.7752		78.9536
-22.8658	60.2186		80.8594
-28.7403	54.5471		81.8603
-4.70483	-24.6175		103.726
-6.93777	-24.2725		102.215
-4.75511	-23.4104		105.651
-3.94743	-15.0149		111.149
-4.16278	-16.6573		110.925
-4.03146	-12.7461		110.498
-6.75006	-14.6751		109.87
-4.24697	-18.2917		110.411
-4.37441	-19.9251		109.4
-5.57456	-29.6651		97.7401
-6.04478	-37.7753		96.3647
-8.88388	-36.4879		95.7465
-4.44629	-21.6958		107.903
-6.91192	-21.4105		106.304
-3.96953	-10.2993		109.301
-3.87879	-7.13273		107.233
-6.53086	-10.3933		108.205
-6.53302	46.9656		86.5204
-6.7675	51.1186		85.5072
-12.7715	47.8924		86.0196
-5.80945	43.9046		87.3508
-3.1214	22.6185		87.8446
-3.20237	24.692		86.9167
-2.95988	19.8165		89.3885
-3.09492	25.6207		86.4003
-3.33452	27.4222		86.0645
-5.15729	25.1809		85.7188
-4.09418	-48.4664		91.0794
-4.09963	-49.3277		92.4978
-4.53672	-47.2575		89.7486
-4.11017	-49.5694		93.6442
-4.48846	-49.7888		94.6031
-6.79546	-49.8551		93.1869
-5.69537	-48.6154		97.0228
-5.5712	-49.2389		96.3972
-4.93896	-49.5515		95.7101
-6.81385	-44.9784		97.1134
-4.51842	-45.1883		88.3482
-4.46358	-42.1037		86.9124
-20.8123	84.4505		64.0264
-22.5475	93.2075		56.1394
-26.6291	83.4784		62.9333
-20.28	78.2389		69.2152
-16.1578	50.9564		86.2292
-16.2632	53.9651		85.7836
-21.6918	51.8878		85.2042
-17.0351	46.6338		86.1836
-18.2682	42.9774		85.7407
-19.9901	39.5859		84.6822
-23.07	44.3251		84.9594
-21.9006	36.7452		82.9799
-25.8152	37.9471		82.27
-18.1775	35.3208		83.2897
-25.0665	25.9578		73.793
-28.8776	26.7396		74.1471
-22.4765	26.1326		73.231
-24.6497	27.1928		75.0773
-27.0419	24.9957		72.5469
-24.701	29.6057		76.5651
-21.4665	28.5335		76.6545
-28.4808	30.0874		76.2068
-47.1227	87.4698		40.4148
-46.0919	82.8349		47.5876
-41.4032	91.0658		43.0663
-48.2025	92.5777		30.0618
-32.0679	81.8923		60.996
-37.7592	80.1111		58.2997
-34.1575	88.9018		53.6384
-28.3277	51.8373		82.9165
-33.6209	50.5535		81.3761
-28.5569	48.1752		83.4495
-30.0571	39.0516		81.6989
-29.4643	41.5539		82.6514
-28.7666	44.8739		83.3004
-31.8983	30.4512		76.0542
-35.3611	28.7603		75.0372
-31.9252	27.5625		74.6826
-43.7667	77.7754		54.46
-43.0932	71.7018		58.9646
-50.9405	75.8883		47.8886
-39.3404	48.5471		75.7806
-45.226	43.645		71.1241
-39.5258	25.0481		72.4735
-42.394	23.7833		71.0616
-36.0685	26.1179		73.4454
-39.5597	26.2357		72.9837
-40.5603	31.4541		74.7864
-45.4343	29.9089		72.0955
-40.0597	29.5928		74.1786
-39.8	27.6797		73.5534
-42.0774	66.4218		63.2863
-48.313	63.4362		58.1356
-56.9071	72.6818		41.195
-62.0576	69.5708		33.4084
-55.0739	65.7914		47.2432
-42.9782	21.3522		69.2336
-44.682	19.9229		67.623
-44.7565	22.2365		69.2197
-46.1381	20.516		67.399
-43.4909	21.6604		69.256
-49.3692	28.0627		69.0652
-52.1231	25.3694		65.6965
-17.5364	30.9058		80.5558
-16.5688	32.258		82.049
-18.0458	29.2882		78.8414
-15.3338	29.0577		80.0116
-15.3229	33.5627		83.3679
-13.6782	31.3925		82.7692
-18.7346	27.7786		76.1226
-18.9457	26.081		74.0613
-5.20863	40.2982		87.1263
-67.3426	-60.756		-8.33215
-67.2312	-61.2631		-14.6802
-69.2267	-55.9587		-7.15506
-80.1304	23.4955		-37.5308
-80.4182	18.2901		-32.35
-79.43	26.5321		-29.4262
-78.91	29.0242		-42.2985
-79.9731	19.3035		-43.3209
-77.0505	-7.61464		-53.0114
-77.9638	-1.94334		-53.0249
-74.5964	-7.68985		-58.6675
-76.1922	-13.5056		-51.5659
-78.6537	4.08097		-52.764
-81.1158	1.95822		-46.7521
-79.3866	9.48608		-51.0267
-76.4177	6.18297		-58.9936
-70.7022	-29.5343		-45.3804
-72.5237	-24.1776		-47.796
-67.2849	-32.8299		-49.1493
-7.08784	57.5147		83.1795
-12.1471	58.9513		83.1189
-17.2908	59.8205		82.1945
-18.6708	66.9267		78.2057
-21.9325	-102.912		62.3933
-14.9923	-104.729		63.5242
-28.7327	-99.4548		56.0786
-19.5141	-104.122		52.8564
-49.0394	-84.4017		45.95
-50.3736	-82.1011		50.1596
-53.2897	-79.947		39.7317
-43.4272	-88.3266		52.1656
-54.361	60.1221		51.6238
-59.7616	56.788		44.1337
-19.5887	71.9585		73.6839
-67.2199	66.7966		23.8385
-66.5113	61.1834		29.4006
-71.0054	64.7619		13.8722
-23.5913	99.0526		46.9699
-16.6869	100.669		47.5131
-23.7677	106.138		34.8873
-29.833	96.7876		46.3163
-63.2073	38.9369		44.2866
-64.0845	45.8961		39.8735
-47.4775	19.0009		65.7733
-57.0037	24.7093		59.631
-55.498	23.4461		61.0674
-57.8695	19.6952		56.4522
-54.045	22.1554		62.3414
-0.427539	-116.178		49.1347
-60.7925	-70.6983		39.2757
-59.592	-74.0137		35.2145
-55.9614	-74.5031		47.7223
-62.6466	-68.367		41.9862
-11.4507	-40.9398		95.782
-11.121	-38.5285		95.3629
-13.6278	-41.0532		95.0428
-29.1568	-46.9613		83.4389
-26.5058	-45.1176		86.6545
-28.8087	-42.4856		84.5704
-15.018	-36.8921		93.3136
-13.9444	-34.7706		93.2296
-17.9197	-37.2039		91.5325
-15.9377	-38.9045		93.4392
-12.3867	-36.6149		94.6128
-37.9269	-50.7013		76.5548
-38.0671	-46.2543		77.8205
-40.1465	-51.6596		75.3237
-37.1873	-53.7381		76.0107
-62.5464	15.9132		48.7217
-64.2592	17.0923		45.5733
-63.724	9.66928		48.1094
-60.8089	14.7388		51.6338
-66.2978	17.9831		41.7121
-68.7247	18.0843		36.1922
-50.8489	15.6178		61.6922
-51.062	14.0712		61.0009
-58.8858	14.2973		54.1677
-82.8854	9.52595		-37.6408
-82.2661	12.4648		-33.5568
-81.5075	11.3396		-41.7695
-82.8822	5.60639		-40.9386
-79.6105	-16.9783		-42.0046
-77.6281	-17.5237		-45.1994
-71.511	-48.8037		-17.2453
-75.6141	-43.9952		-25.1385
-69.1756	-54.4425		-19.6954
-71.2479	-50.5078		-11.4023
-73.7154	-44.8375		-15.3557
-82.8732	0.805819		-43.1534
-79.607	-23.2316		3.40942
-78.7122	-23.7615		7.65433
-80.0912	-19.1434		3.98512
-79.0334	-27.2931		2.73201
-73.9986	0.36531		28.7194
-75.6292	-0.923854		19.9246
-75.5996	-4.59265		29.5708
-72.7916	8.74305		27.5631
-54.603	10.3274		58.3899
-52.871	8.59156		59.9438
-52.9496	12.031		59.6048
-51.625	13.4343		60.7059
-50.125	12.2342		61.8733
-77.6547	-23.6205		13.8343
-78.1651	-18.6391		14.2484
-77.483	-27.866		12.7181
-76.4339	-23.2836		20.521
-25.7004	-6.57311		77.0518
-22.4913	-4.82823		79.0675
-24.0857	-2.51974		76.5075
-29.6888	-8.27422		75.4291
-36.0205	-10.8693		73.7138
-37.6302	-16.0244		74.4597
-43.1876	-13.2789		71.5941
-19.1607	-3.06821		82.0663
-20.0049	-6.22217		83.2852
-15.9987	-0.880454		85.8205
-23.0432	-12.4515		81.7862
-21.6358	-10.5277		83.0524
-19.5361	-15.7656		91.2122
-20.3201	-16.2021		89.3366
-19.4892	-17.6416		90.7332
-18.3733	-15.1312		93.4639
-21.0163	-16.8022		87.8172
-20.9381	-19.2777		87.3822
-42.6251	-32.3502		75.3771
-41.3707	-27.1013		75.46
-43.5914	-37.9138		75.2258
-37.6576	-31.2628		77.6654
-39.2639	-21.3217		75.0874
-9.29493	-32.3866		95.315
-11.0429	-32.1671		94.3895
-9.77006	-34.6625		95.223
-62.3475	-50.0009		55.2141
-60.4411	-57.2609		56.1182
-58.1082	-48.6797		61.611
-63.6154	-43.2677		54.938
-32.8495	-40.0921		81.3208
-35.1823	-40.8018		80.034
-30.4323	-39.3267		82.8805
-44.0586	-43.3628		74.6847
-40.4272	-42.1035		76.9275
-48.6037	-44.9643		71.4293
-43.7407	-48.6968		74.2589
-10.533	-36.3638		95.1753
-57.6725	-64.3586		57.0331
-53.6508	-69.1097		59.7527
-54.2321	-61.4208		62.9193
-61.0389	-65.6145		50.2904
-63.9504	-26.455		55.9916
-68.3676	-25.3575		48.2458
-64.2821	-31.3968		55.3308
-30.2986	-92.022		76.5809
-24.7781	-95.6328		81.2079
-30.2186	-88.5749		78.3883
-40.4276	-79.023		70.1407
-35.2034	-81.516		74.7687
-39.0185	-75.2253		72.9891
-44.9346	-76.3788		66.7512
-58.2599	-5.32736		59.5079
-52.3461	-5.81901		64.4661
-55.4513	-0.321957		60.4696
-47.7237	11.3761		63.9198
-48.7943	9.62576		63.2044
-53.2781	3.06175		61.1294
-51.3062	5.49785		61.9692
-48.2844	2.25411		64.9182
-45.7145	14.4908		65.4095
-3.59269	-93.8502		95.9011
-50.4485	-58.5597		67.5261
-46.454	-55.7104		71.2839
-52.2677	-52.9475		67.2753
-47.6543	-62.392		69.2656
-37.9935	-71.3979		74.6892
-33.4621	-73.488		77.6977
-35.9516	-67.1379		76.1948
-41.6185	-68.9158		72.4927
-46.1709	-4.96745		67.8803
-43.923	-0.737785		67.9514
-48.3034	-9.88757		68.208
-53.5373	-46.8924		66.9715
-49.7793	-15.2632		68.5697
-10.8359	-82.0124		93.9306
-15.1631	-81.0589		91.5192
-10.7598	-76.0851		92.7191
-19.5471	-79.6786		88.6289
-19.5214	-74.7853		87.846
-24.3423	-78.0723		84.9968
-42.2837	2.0721		68.072
-34.7648	2.97173		70.5546
-40.7869	4.32902		68.4573
-49.9351	7.5586		62.6253
-45.3664	6.29666		66.081
-39.7341	6.51557		68.6842
-32.4827	7.16922		70.7807
-12.7787	0.657514		90.1748
-12.4086	5.08603		87.1708
-13.4883	-3.16268		92.555
-15.4478	-10.5321		97.3487
-15.8594	-11.5685		97.4649
-12.0875	-10.6577		102.76
-14.8388	-9.16967		96.6286
-11.7332	15.9988		79.8501
-11.9169	13.169		81.6739
-22.2128	1.98419		75.5292
-2.86303	16.2398		91.6409
-64.8959	5.95059		49.6173
-12.1313	9.33721		84.2623
-64.3868	-64.9019		43.128
-68.083	-61.3951		33.6333
-71.1027	-13.3565		42.9368
-73.6082	-11.7523		36.1552
-71.3453	-19.329		41.6732
-70.7539	-36.242		40.7289
-72.6193	-35.9773		33.5265
-68.0354	-36.9839		47.7873
-71.0909	-29.9989		40.4804
-71.3098	-24.5641		40.8114
-73.4317	-23.8524		33.9985
-20.0925	-98.5237		84.4917
-11.0457	-71.4518		91.8207
-15.2383	-71.1642		90.1434
-6.82919	-71.1739		92.9979
-19.0741	-69.9463		87.8877
-26.5105	15.928		70.5661
-27.7775	4.88277		71.8684
-26.7407	7.22118		71.6727
-26.1651	8.89307		71.5291
-3.31242	-71.1455		93.6725
-7.47232	28.3683		84.3696
-6.93437	26.097		84.3482
-5.77211	28.8169		85.2841
-8.18	29.1732		84.4213
-8.72072	27.6058		83.2693
-18.6127	19.5495		69.5364
-18.6714	20.8928		69.648
-15.7452	20.0196		71.5955
-9.66158	26.3958		81.8938
-10.9327	28.4682		81.972
-3.62236	29.0323		85.952
-9.00372	-23.7536		100.529
-9.27548	-22.4086		101.934
-9.57991	-14.0599		107.482
-12.745	-13.3013		103.534
-9.50909	-12.3614		106.95
-21.0372	-24.4484		85.4045
-18.708	-26.4456		87.5703
-20.6262	-23.0013		86.3539
-9.13165	-10.5109		106.163
-7.46274	24.0363		84.0365
-9.34874	31.31		84.6493
-10.996	30.5346		83.6416
-19.0725	21.9282		69.9774
-12.2339	29.5689		82.3703
-12.8592	28.3208		80.9771
-13.7322	28.1887		79.3712
-23.7025	-31.5187		84.6073
-25.2366	-35.4823		84.9619
-20.8337	-32.0712		86.8918
-27.5207	-38.7934		84.7582
-24.2633	-38.3484		86.9966
-28.0583	-52.832		77.0172
-26.0915	-52.5438		78.667
-27.8419	-51.7967		76.687
-28.9645	-51.7268		80.001
-27.5319	-50.7161		83.2497
-27.2839	-48.8086		76.2738
-26.3751	-45.5934		76.3467
-24.0703	-48.3802		79.0281
-18.1808	-32.3104		89.0815
-19.5119	-35.0684		89.3754
-15.5303	-32.3875		91.2097
-21.2729	-37.7272		89.28
-22.715	-40.2519		89.0369
-23.3426	-51.9983		81.1546
-21.862	-50.4774		81.7826
-20.97	-47.8012		81.466
-20.7668	-44.4045		80.6821
-13.1441	-32.2595		93.0199
-12.8203	-29.9314		92.7898
-17.0056	-41.5705		93.4921
-20.6558	-42.1772		91.2566
-19.9852	-8.72958		85.2845
-17.2329	-7.57077		89.7697
-3.46033	-3.54923		104.686
-13.8594	-6.80075		95.4112
-9.4821	-20.5513		104.097
-12.4845	-19.7233		100.397
-15.4854	-19.0304		96.1455
-17.6095	-19.1822		92.7952
-15.9028	-16.9587		96.6827
-19.0659	-19.6555		90.3297
-19.7971	-20.5765		88.561
-20.3311	-21.6841		87.2495
-15.9508	-12.6207		97.8195
-16.0431	-13.6682		97.8278
-16.2078	-15.1392		97.2072
-38.4083	-141.429		13.884
-37.2497	-133.343		15.3639
-42.6223	-139.592		10.3106
-39.3727	-147.592		13.0154
-33.7268	-143.144		17.4271
-36.1996	-122.031		17.1641
-31.732	-123.981		21.5398
-35.9992	-111.969		18.6311
-40.367	-120.037		12.9091
-40.3542	-96.4107		27.8457
-39.1473	-100.522		24.1655
-36.049	-99.4416		33.1638
-44.5773	-93.0826		22.3448
-37.1008	-104.934		19.2394
-41.8826	-103.251		17.6369
-32.5106	-107.41		24.8283
-44.9258	-66.0302		70.5738
-42.1032	-62.2045		73.0361
-47.5346	-69.5674		67.1033
-49.9934	-73.3041		62.301
-50.504	-75.9792		58.0926
-50.7686	-78.7808		53.9292
-39.4095	-59.1336		74.6869
-36.9752	-61.3716		75.6433
-37.2742	-57.1399		75.4181
-41.3526	-56.4818		74.1628
-35.7312	-55.9496		75.9469
-34.1606	-57.1377		76.367
-48.3434	-89.9249		17.2767
-51.5988	-87.5958		11.887
-46.8704	-94.7094		14.5687
-50.3158	-85.9717		20.5506
-52.4832	-82.6448		25.0427
-54.8917	-79.3311		28.8319
-55.447	-79.7168		17.7985
-57.0469	-76.0459		32.4478
-59.8218	-72.9374		24.3145
-44.2688	-117.936		8.59805
-45.2359	-129.519		7.62949
-44.1938	-107.538		9.14574
-48.0095	-116.276		4.23038
-46.424	-138.07		6.82115
-49.9842	-136.578		3.10491
-47.8495	-145.16		6.821
-45.5844	-100.812		13.0519
-75.1664	-23.2496		27.1431
-75.4094	-17.5564		28.405
-74.9174	-28.5971		26.4368
-61.5412	-70.8517		17.2812
-62.7046	-69.3148		10.2401
-59.5592	-74.2307		14.3218
-72.0356	17.5072		27.4148
-75.3112	15.4694		16.5164
-70.1828	-58.5648		25.0016
-71.4672	-55.7763		16.7043
-74.1764	-34.718		26.3549
-76.0366	-32.9922		19.0124
-75.7056	-10.7883		29.3833
-77.5411	-11.622		21.6796
-77.1016	-32.571		11.8989
-77.7384	-31.9712		5.79301
-59.2062	-84.2436		-4.14371
-57.0601	-84.9037		0.812616
-59.9357	-79.7541		-2.65519
-60.9041	-83.8562		-8.70613
-58.5576	-89.3582		-5.07675
-58.1499	-95.2681		-5.72129
-60.9896	-75.5491		-0.531108
-62.2063	-71.7379		1.61649
-62.3558	-74.9334		-5.88294
-59.382	-76.4641		5.06779
-77.0586	-1.807		11.2937
-78.4672	-8.13455		13.959
-77.3343	6.00586		8.76419
-77.5807	14.1022		5.84529
-77.5086	22.5459		3.66258
-79.4176	30.0932		0.0566847
-79.3469	37.8425		-3.54511
-80.6692	28.955		-10.7305
-70.9419	-53.7954		9.12817
-70.9715	-52.0745		1.1157
-78.7178	-12.9669		14.4821
-79.4765	-14.7086		8.51042
-51.6303	-114.645		-0.43057
-52.2971	-126.139		-0.942151
-57.6255	-77.8643		11.3806
-55.8598	-81.7127		8.5129
-53.4864	-135.437		-0.529407
-54.8226	-142.368		-0.649924
-60.858	-111.132		-17.1235
-61.4898	-121.882		-16.9164
-62.2977	-83.3881		-13.4461
-62.911	-78.6815		-12.5512
-63.1759	-81.7437		-18.409
-63.7348	-74.0556		-11.3437
-62.0221	-130.087		-18.3151
-62.2846	-135.758		-20.06
-70.8962	-51.4606		-5.70703
-78.6312	-30.9385		1.46495
-78.0001	-34.7049		-0.0821388
-79.1783	-30.011		-1.19692
-80.3766	-14.9656		4.42231
-63.7315	-91.5089		-25.7923
-64.3213	-85.1008		-24.8075
-62.2904	-87.3893		-32.5667
-65.2294	-79.0837		-23.9539
-64.5582	-72.7799		-30.0183
-69.3167	-62.2341		-20.7556
-75.8379	-42.0579		-14.5481
-76.4954	-39.7926		-20.8925
-59.4699	-119.125		-44.7513
-58.9603	-111.441		-43.2938
-56.1626	-116.563		-51.7651
-60.4066	-125.758		-46.3236
-75.5471	-40.1259		-29.0457
-77.8631	-36.6829		-27.2709
-79.4219	-35.3928		-26.3879
-80.3171	-34.7108		-26.2097
-28.8167	-144.647		20.7444
-29.834	-150.252		19.082
-23.8336	-146.029		23.7336
-27.7953	-136.825		22.8917
-27.2947	-109.644		30.8535
-28.8642	-105.086		32.7488
-26.3157	-116.088		29.0766
-21.3655	-111.672		37.3195
-34.7689	-96.1202		49.7347
-36.5728	-93.6255		54.4306
-32.6223	-99.027		44.2381
-30.9906	-102.393		39.3674
-24.6411	-104.203		42.2481
-26.7227	-125.644		26.0836
-21.2918	-127.723		30.4077
-34.1154	-63.3161		77.0007
-33.185	-60.4544		77.0567
-38.4651	-91.6436		58.6868
-32.1217	-58.6953		76.9173
-31.4403	-57.1206		76.894
-29.5554	-60.0203		78.6126
-30.8952	-56.1957		76.9585
-28.8048	-57.2203		78.5282
-29.1799	-76.2311		81.2778
-29.5406	-80.3584		80.5573
-30.1425	-85.0198		79.6327
-24.1341	-53.7669		82.5966
-20.5451	-53.2377		86.9451
-23.8723	-53.054		81.2724
-20.2753	-52.5624		84.7603
-23.9993	-53.3253		80.736
-27.3019	-53.7478		78.0958
-24.0393	-53.7807		80.3788
-23.7434	-54.9473		79.9471
-20.251	-53.1063		83.4869
-22.6141	-57.2417		80.0697
-19.349	-56.6332		82.5081
-21.2727	-60.6266		80.3291
-15.5927	-113.612		42.2174
-15.0916	-119.94		38.619
-17.0322	-109.789		44.4079
-18.7381	-147.418		26.3904
-19.776	-152.569		24.3282
-13.5105	-148.508		28.6998
-17.4957	-140.026		29.3567
-16.1468	-129.423		34.0122
-7.60601	-109.354		53.1029
-8.65619	-107.655		59.2979
-12.043	-108.583		51.1007
-9.06481	-149.244		30.3108
-10.0952	-154.123		28.1099
-10.0329	-106.501		66.2168
-16.8522	-51.8529		87.7121
-16.5961	-51.869		86.9108
-16.5413	-52.4442		86.1852
-16.4883	-53.4369		85.2469
-15.6023	-55.6404		84.7005
-14.8486	-59.3735		84.0144
-74.5858	48.3103		14.3287
-68.779	51.9158		25.6146
-74.6808	55.657		8.89553
-77.4578	46.6083		3.12855
-80.1692	27.8444		-20.1404
-74.2702	-19.0267		-50.1865
-71.0616	-20.5438		-54.9528
-52.6271	-94.5226		-53.0094
-49.4874	-92.4273		-57.66
-52.5353	-104.969		-53.7951
-55.747	-97.5363		-47.5622
-53.3274	-84.2176		-52.0546
-53.0758	-114.413		-56.9789
-49.4338	-113.409		-61.5458
-53.919	-121.992		-58.2924
-59.9397	-81.9371		-39.7873
-61.2798	-73.3631		-38.5586
-57.1836	-77.5722		-46.0668
-59.2718	-91.6047		-40.1604
-23.499	112.432		20.728
-16.3028	114.416		20.9637
-23.2637	116.959		5.20321
-30.3609	109.606		20.55
-23.1353	101.014		-79.6807
-14.856	102.502		-81.1083
-21.4082	90.2472		-92.7258
-30.6197	99.2692		-77.8263
-24.0889	109.679		-63.9075
-21.2515	78.2397		-102.242
-14.4417	78.6192		-104.055
-21.1889	64.466		-109.52
-27.9722	76.5272		-100.241
-24.4113	115.51		-47.0774
-23.2751	118.907		-29.6172
-16.464	117.327		-48.161
-31.6564	113.044		-45.4287
-8.10794	122.549		-12.5542
-7.96506	122.028		-30.839
-15.8244	121.318		-12.2603
-8.23182	120.326		4.94341
-20.9692	51.1056		-114.565
-14.6135	51.8041		-115.973
-20.5613	37.6515		-117.829
-27.1687	50.0242		-112.375
-19.5823	23.8549		-119.465
-13.3017	24.9941		-120.871
-18.0643	11.0446		-119.015
-25.9484	22.8913		-117.272
-16.0828	-26.9602		-106.157
-16.0267	-14.0232		-113.161
-10.6254	-26.936		-107.281
-17.4263	-39.2806		-99.3429
-21.8157	-27.6839		-104.081
-4.32146	-0.261021		-119.67
-4.26571	-13.204		-115.469
-10.6885	-0.830325		-118.851
-4.9717	12.3834		-121.58
-14.683	-85.5671		-80.9332
-9.51998	-85.1349		-81.6557
-14.4467	-95.0555		-80.4569
-20.0584	-86.3138		-79.6352
-15.0276	-76.0274		-82.0174
-14.2963	-104.424		-80.1597
-9.32928	-104.109		-80.6765
-14.531	-114.581		-81.3773
-19.379	-104.949		-79.2583
-16.7107	-48.1981		-92.7841
-10.95	-47.7538		-93.7633
-16.3555	-56.3401		-88.1574
-22.0504	-48.7409		-91.2473
-15.583	-65.7413		-84.4365
-10.2271	-64.9539		-85.3932
-21.2878	-66.8186		-82.7376
-4.85309	-64.6569		-85.805
-4.57189	-75.1242		-83.2577
-5.1004	-55.4438		-89.564
-48.8486	97.461		17.6839
-42.9746	102.09		19.0389
-49.5627	101.072		3.8375
-54.6031	91.9648		16.4218
-47.1777	70.249		-90.4223
-48.2079	81.0444		-81.3162
-41.1303	72.5554		-94.1005
-46.5302	57.5976		-96.7771
-52.3414	66.5809		-85.9864
-49.307	90.7253		-69.3456
-54.3853	86.4046		-65.7528
-50.1712	97.4762		-55.1134
-43.4502	94.1622		-72.5473
-50.5398	101.211		-40.5017
-50.2229	102.862		-25.9744
-44.6845	105.865		-42.1608
-56.4408	95.7022		-38.6797
-50.0127	103.089		-11.0315
-55.8484	97.278		-11.079
-43.9015	108.147		-10.9458
-46.121	45.3024		-101.71
-51.4448	43.2815		-97.2646
-40.2246	47.1383		-105.662
-45.5593	32.578		-104.984
-44.5494	19.6874		-106.712
-38.8649	20.6308		-110.717
-43.0538	7.07401		-106.715
-49.8784	18.3463		-102.388
-40.7416	-4.31641		-104.936
-45.6846	-5.08333		-100.754
-35.493	-4.09257		-108.557
-39.1288	-16.75		-100.947
-38.7248	-29.3519		-94.3964
-33.3698	-28.8523		-98.2881
-38.9699	-40.5744		-87.4932
-43.1223	-28.696		-91.0846
-39.0561	-50.6036		-81.8467
-44.4418	-50.4074		-78.1655
-33.6001	-50.3439		-85.4786
-38.1662	-59.5914		-76.9543
-36.0591	-87.9793		-71.754
-40.7931	-88.8734		-67.7914
-37.0213	-78.3504		-71.7908
-30.868	-87.6177		-75.1035
-35.2789	-98.0444		-72.3786
-24.5436	-105.63		-77.8655
-29.7894	-106.507		-75.8097
-24.8616	-96.5116		-77.7585
-24.8001	-115.694		-79.6791
-37.5931	-69.0451		-73.4843
-32.5569	-68.4855		-77.1832
-42.4149	-69.2882		-69.0119
-68.2411	70.7788		-52.6659
-63.9453	76.5284		-57.823
-66.8162	64.0129		-62.7874
-72.0675	63.7717		-46.5576
-69.789	74.1905		-40.8615
-69.1721	75.8611		-29.4383
-70.0507	76.7123		-18.4051
-64.7886	83.1001		-33.4214
-73.9469	68.2511		-24.181
-69.3636	77.5315		-7.47718
-65.6011	84.4045		-9.82533
-72.3055	70.2281		-2.62542
-56.2881	41.0626		-92.746
-55.7072	29.1088		-95.9553
-60.5499	38.4817		-87.8676
-56.7844	52.2435		-87.9265
-57.0453	63.4519		-81.4364
-61.5786	59.611		-76.4921
-57.8219	73.5797		-73.0854
-50.8126	-5.94612		-95.8609
-48.5736	-17.2931		-92.4575
-55.4536	-6.62729		-90.343
-53.3114	5.32102		-97.393
-54.7328	16.9672		-97.5626
-59.3688	15.6959		-92.396
-47.4155	-28.1218		-86.9889
-48.061	-39.8193		-79.1873
-51.5973	-27.9498		-81.9207
-48.6326	-49.6826		-73.9836
-52.6689	-47.426		-70.42
-47.25	-69.7935		-63.4268
-46.2966	-79.85		-62.4623
-51.3999	-72.1413		-56.9773
-76.9617	35.0579		-47.0546
-75.2201	40.5933		-52.8141
-76.4976	29.1846		-54.6428
-59.7792	85.8993		15.7893
-60.4485	89.4957		2.5147
-78.9562	45.2707		-7.99631
-78.121	52.782		-13.1594
-66.6728	-7.49423		-74.6063
-64.3614	-16.714		-71.6707
-69.6749	-7.62846		-68.9863
-68.6005	1.57428		-76.094
-63.2432	-7.57776		-79.797
-69.2965	10.9649		-76.6076
-72.1917	9.00383		-70.5316
-70.0299	20.0691		-75.1156
-66.4112	12.647		-82.1069
-70.6303	29.2796		-71.8176
-73.234	25.6376		-65.8762
-71.2611	37.6868		-66.3818
-67.3534	32.5545		-77.4877
-61.2555	-40.2806		-60.5986
-59.8396	-48.7291		-56.2207
-62.8855	-38.3744		-56.1848
-60.0101	-33.064		-63.6739
-58.6764	-43.282		-63.8716
-67.9979	-22.1121		-59.5548
-70.4174	-15.2135		-61.9763
-64.9208	-23.5019		-63.5291
-65.8712	-28.9873		-56.1166
-54.5995	-74.6261		-51.3934
-55.9891	-65.5321		-51.5394
-79.6938	-34.0535		-6.96055
-78.0558	-36.9688		-4.92498
-80.0416	-30.7301		-4.70625
-80.0591	-28.845		-3.26574
-80.6212	-6.27523		-4.29916
-81.3664	-0.929666		-6.21018
-93.1789	4.37176		-38.7544
-93.7936	4.02377		-38.0827
-93.3024	10.3259		-36.3434
-83.2456	-33.8686		-25.8556
-84.4919	-35.7121		-22.9775
-82.9027	-33.5206		-26.75
-92.8275	15.0558		-32.7742
-93.7062	14.4488		-32.2597
-92.2508	18.3503		-28.6679
-91.852	15.3591		-33.2658
-86.38	10.9022		-11.9476
-85.0103	10.8831		-12.6245
-90.9716	19.936		-24.3719
-91.8998	19.2745		-23.6517
-88.404	-18.3272		-35.7092
-86.6579	-34.0917		-18.7237
-84.8604	-36.2659		-19.3992
-86.3803	-33.7559		-16.0503
-81.4851	2.30414		-7.50614
-87.3175	18.5762		-19.848
-85.9348	15.4775		-17.243
-86.225	17.6937		-21.4364
-83.6532	10.994		-14.1926
-82.7882	11.5356		-15.5939
-91.2367	15.2213		-33.4786
-82.0232	11.2425		-17.043
-82.9388	13.2778		-19.8088
-84.2138	15.2134		-23.4049
-81.7908	13.1634		-24.4083
-88.1957	-26.5639		-28.7964
-86.9503	-27.19		-21.1266
-83.0605	-37.5616		-19.8973
-85.8875	-32.7813		-13.9294
-86.5905	-30.6768		-13.6478
-85.6277	-29.5723		-15.0284
-85.595	-28.0978		-15.7857
-93.1115	-8.22018		-37.0617
-93.5499	-2.50696		-38.3762
-94.0035	3.74273		-37.6671
-94.334	9.42626		-35.3102
-90.1035	17.053		-16.251
-90.9348	18.6613		-19.2866
-90.3266	16.4241		-15.9443
-90.3159	15.8542		-15.8205
-91.201	17.5402		-18.8148
-90.1657	14.8328		-15.9905
-94.1017	13.9175		-31.9008
-94.2118	13.4509		-31.7748
-93.6264	16.9471		-27.7863
-92.345	18.6186		-23.1751
-92.5609	18.0573		-23.075
-92.5903	17.5048		-22.8226
-93.7938	15.9389		-27.4333
-94.1964	13.078		-31.4577
-93.585	-0.579511		-36.6793
-89.9439	13.4719		-16.4821
