1839
-81.1865	-19.3072		-11.324
-81.6901	-22.8135		-12.2095
-81.6049	9.10826		-21.0919
-88.2896	-3.07876		-40.923
-89.1011	17.5499		-22.741
-90.7996	16.4972		-20.5839
-87.7805	16.6135		-24.8549
-86.5036	0.474097		-12.2184
-93.9402	8.30026		-34.9248
-91.2946	-4.13627		-29.9016
-91.1505	-1.38091		-28.5655
-84.8489	7.47496		-35.5017
-82.3894	4.90474		-38.7833
-79.9075	-27.1394		-34.5176
-80.7645	-4.92226		-7.50367
-83.137	10.3097		-29.4862
-82.3132	9.58523		-31.8089
-90.2991	8.54587		-22.3937
-86.081	-11.0021		-24.9386
-14.92	92.4888		56.2057
-12.4629	79.5481		69.4005
-12.3594	66.4559		78.0739
-23.9512	53.1551		81.2166
-4.66743	-25.5387		106.321
-5.1745	-14.1712		112.109
-11.3137	51.7594		83.9496
-10.9933	42.4212		84.5789
-3.4956	23.4453		83.857
-28.2646	89.2869		54.4744
-24.8673	45.6454		81.8118
-26.19	38.6988		81.0932
-30.9458	26.9185		74.8498
-23.7757	25.2131		74.1669
-40.0404	84.656		49.9667
-42.4962	96.8634		31.5177
-38.6202	26.5325		73.3339
-50.3639	68.7515		51.8489
-47.0163	28.9226		70.2047
-62.6204	62.2581		36.906
-53.3867	24.3039		64.6393
-13.7039	28.7888		80.0086
-67.0427	-60.709		-13.1524
-80.5499	14.434		-37.3925
-77.8045	23.995		-48.816
-74.9392	-1.02952		-58.9687
-73.1349	-14.8809		-56.6022
-79.5265	6.89694		-44.3788
-76.0043	12.5326		-57.2189
-68.9034	-27.1604		-53.9957
-11.7443	-99.9438		53.2657
-23.1406	-97.9547		44.9684
-52.3771	-80.9099		42.0843
-72.0072	56.8317		18.182
-15.9024	108.056		34.9374
-30.1104	103.636		34.0633
-53.2915	17.1563		62.0107
-53.8177	-74.1166		50.5576
-11.7316	-40.6649		96.4424
-24.6413	-42.8102		89.0166
-10.6848	-37.2845		96.235
-15.5612	-37.2513		93.419
-17.7369	-41.4001		93.4471
-39.6723	-48.7796		78.4532
-37.8446	-55.8097		77.3901
-72.661	-45.7864		-20.8777
-73.2509	-32.7921		5.72083
-75.0054	-23.3508		6.04568
-74.5758	5.20688		16.7484
-74.8577	-9.56725		19.2863
-55.662	8.90093		60.3047
-72.6093	-22.9185		18.6745
-70.6274	-34.2103		18.2084
-16.3369	-8.19105		89.7936
-18.801	-22.0715		92.3
-16.3345	-20.7025		96.6947
-38.1249	-38.687		79.5026
-53.8632	-56.8693		63.0758
-46.4232	-52.3589		73.0089
-48.282	-66.7881		64.7859
-64.9418	-33.6671		48.8221
-34.2423	-79.9102		75.1488
-41.9522	-74.9232		68.4875
-53.6117	-2.23767		65.9435
-51.0215	2.84053		66.2874
-42.4905	-60.2427		73.4862
-37.8539	-66.273		75.2116
-15.6402	-76.0395		93.0397
-36.5159	1.89861		71.9024
-11.3128	-14.0558		105.263
-70.6595	-22.5388		34.049
-68.4519	-34.6851		33.1557
-7.94262	26.2264		81.9093
-21.6454	-37.2573		89.3256
-24.9268	-53.1457		82.0314
-23.8152	-46.9551		81.207
-29.8194	-135.65		16.0863
-38.091	-132.904		9.21507
-41.0955	-147.88		7.74996
-32.9261	-150.396		13.6986
-37.5865	-98.122		17.3162
-27.2759	-101.6		23.4101
-34.4466	-110.713		11.6801
-25.9934	-112.708		20.0835
-34.8924	-60.2235		77.9104
-48.5958	-87.426		13.6718
-54.1172	-81.1994		21.1773
-45.3779	-130.299		1.93979
-48.5862	-144.576		0.892864
-57.5346	-77.9852		7.47665
-54.2952	-84.7886		2.01609
-58.5146	-83.5188		-8.21429
-58.6299	-96.463		-34.5683
-74.428	-37.9978		-2.11874
-59.9127	-80.8258		-32.9176
-51.3849	-107.788		-50.9726
-52.6923	-124.675		-53.2068
-23.7274	-152.408		19.0915
-20.6652	-137.796		22.4705
-17.0671	-103.549		33.7289
-16.1926	-114.389		28.9127
-29.3037	-60.6269		81.3309
-20.3099	-55.3072		86.843
-20.2673	-56.9748		85.6479
-14.4743	-153.882		23.2913
-18.5935	-63.71		84.8297
-78.0149	53.2349		-2.55874
-48.54	-81.965		-58.4384
-45.3563	-103.385		-61.1192
-53.8882	-87.7927		-48.1344
-46.1839	-120.406		-63.7371
-56.7101	-67.2861		-46.9383
-16.3822	118.946		5.75234
-30.8942	113.957		5.8014
-16.8158	111.776		-64.4783
-13.7534	91.9359		-93.2602
-29.0562	89.3736		-90.0902
-31.3894	108.304		-61.6598
-13.2922	66.3994		-109.548
-26.6039	64.3305		-106.156
-31.1135	116.112		-27.5472
-16.3562	120.827		-29.3106
-12.8323	40.4556		-117.629
-25.4638	38.1422		-114.128
-13.5859	12.0241		-119.358
-26.3048	10.7432		-115.636
-24.4879	-16.1542		-109.82
-12.7918	-14.6753		-113.63
-11.931	-38.8507		-100.121
-22.94	-39.3525		-97.7133
-10.4028	-75.1838		-83.9652
-10.0727	-94.1162		-82.4437
-19.8702	-95.2883		-80.7246
-20.8645	-76.5581		-81.6045
-9.54847	-112.77		-82.8253
-18.1396	-113.924		-81.449
-11.4526	-55.3578		-89.9288
-22.3233	-57.2508		-87.0994
-44.2154	105.96		4.96466
-56.2064	95.3686		3.22462
-53.0826	77.752		-76.6395
-41.8482	84.9594		-84.8904
-40.1789	60.6431		-99.8346
-51.9198	55.5784		-91.7579
-54.9863	93.4099		-52.5874
-43.8578	102.315		-57.3943
-56.7214	97.1525		-24.5283
-44.6864	108.089		-25.9333
-49.9637	31.8876		-99.6979
-38.4729	35.1917		-107.743
-38.7106	9.01777		-109.317
-49.0936	7.39948		-101.312
-45.7966	-18.3976		-96.0508
-36.223	-17.6454		-103.5
-34.4531	-40.3052		-92.4444
-44.6729	-40.3443		-84.891
-33.1454	-59.119		-81.3874
-39.0898	-98.7189		-70.2259
-40.9087	-78.8563		-68.6762
-31.5173	-77.8552		-76.4988
-29.8432	-96.9829		-76.8269
-27.6713	-115.394		-78.2816
-64.8746	81.33		-45.8642
-62.2839	69.1916		-68.0239
-70.324	58.1147		-56.2234
-72.9145	66.1072		-35.3742
-74.277	68.6714		-13.3876
-66.7387	83.8666		-21.4127
-59.2137	27.9544		-90.3913
-61.3058	49.6806		-82.2641
-54.5715	-18.9211		-86.1207
-58.3143	5.16316		-91.1532
-52.3604	-38.6333		-77.0549
-74.4543	33.3692		-59.9012
-61.9072	-18.4541		-75.7682
-67.9352	-16.8619		-66.1007
-70.8624	0.874539		-69.7768
-65.0715	3.00319		-80.8648
-72.2818	17.4671		-68.8444
-66.6143	23.144		-80.4298
-68.4321	42.3176		-71.7673
-59.9479	-47.9986		-53.0438
-63.8178	-31.6804		-61.5304
-58.4105	-36.0335		-68.8908
-93.5761	9.07394		-35.5366
-91.7639	9.80509		-36.6527
-92.8972	16.5633		-28.2022
-90.9895	17.7786		-29.2413
-88.7032	11.9015		-14.8854
-87.1937	12.8635		-16.7978
-84.6777	12.1773		-19.7573
-89.9893	8.20509		-37.5692
-89.7935	16.4143		-30.3864
-92.3666	-2.92021		-37.586
-91.5783	15.1564		-19.7161
-93.5026	15.2796		-27.771
-37.6394	-117.36		-72.3864
20.3626	-99.0632		77.0184
17.6427	-99.9352		76.572
22.5345	-98.8609		72.9565
20.8363	-97.9367		80.2171
71.4954	-8.45105		45.4494
70.0659	-7.71167		48.8719
71.5583	-11.5944		44.6774
72.2968	-5.07884		42.0492
68.5457	-6.08679		51.1665
68.4317	-1.99047		49.9282
66.2155	-7.14661		54.5154
15.5809	35.9227		85.4257
15.626	36.0633		83.0472
17.8622	39.8697		83.562
12.6469	37.1365		86.2123
12.2982	32.7998		84.3678
8.67098	17.9891		78.6451
9.26256	16.9094		77.795
9.0967	19.5664		77.8453
8.12307	18.5177		79.4695
11.5559	18.0829		74.1342
13.0543	16.4493		72.0143
12.2809	19.6435		73.6792
10.49	20.0298		75.9754
11.1336	16.5248		74.7834
48.1351	12.0034		65.8183
44.6195	9.64812		68.4759
49.8654	13.6969		64.2049
14.7914	10.571		72.6537
14.5169	11.6032		72.3523
14.4226	9.64565		73.7109
18.0644	6.57002		73.4989
28.3704	-54.9782		78.5113
28.2774	-54.8599		78.7385
28.4755	-55.1124		78.0557
28.2922	-54.9179		78.8023
27.2132	-53.7145		81.1983
27.6425	-54.3702		79.7125
28.3008	-54.1801		79.8594
27.2894	-53.2921		81.752
27.295	-53.7315		82.822
31.0386	-54.9385		78.5811
31.2743	-52.563		80.0081
28.7276	-55.333		77.2393
28.349	-54.5688		77.828
29.2344	-55.3936		75.8765
28.5622	-55.6338		77.6103
25.8564	-59.1296		84.8745
26.5954	-60.0079		84.5024
26.7982	-56.9846		81.4545
25.7097	-58.4949		84.8857
22.7414	-60.5121		88.7551
22.3114	-48.9508		89.8255
21.6534	-47.644		90.4096
18.8659	-47.5737		92.4627
22.7223	-49.7935		89.4994
25.3166	-50.6065		87.1025
27.6481	-54.9675		79.6354
27.72	-55.0041		79.6175
27.7565	-54.9638		79.499
26.1749	-55.0728		80.9862
78.3098	-37.8708		-7.63315
77.6489	-38.3082		-6.79532
77.7889	-41.1598		-10.5177
78.9126	-36.9267		-7.57786
87.3212	-27.8786		-19.1635
87.7364	-25.7863		-21.9421
86.2048	-26.4355		-18.0394
86.6375	-29.1727		-16.771
87.6623	-29.1149		-19.8374
81.7335	-34.7125		-9.50743
81.9148	-32.0411		-8.82231
80.9586	-34.9916		-8.70831
82.2608	-35.8151		-10.9701
82.4409	-22.1626		-13.0311
82.4002	-21.0479		-13.8264
82.4806	-20.3077		-12.8304
82.645	-22.5725		-11.6879
82.7825	-23.6226		-13.2919
88.6592	-1.98097		-14.2282
88.0537	-4.02261		-14.9182
88.9552	-1.18642		-14.7917
88.7376	-1.46051		-13.3826
92.2855	9.07878		-18.3429
92.3414	9.64788		-17.4149
91.8696	8.12038		-18.3042
93.4504	10.268		-21.3497
85.1534	-19.4758		-19.6423
84.2798	-18.1719		-18.4857
84.4846	-23.4753		-17.0348
87.3053	-22.3917		-22.3277
87.557	-16.7205		-23.525
90.482	-0.520442		-20.5049
90.8913	0.640849		-20.8656
89.276	-1.05755		-16.799
90.4376	-1.79624		-21.5014
92.9282	-10.4034		-32.2182
92.9311	-10.2884		-31.6431
91.9639	-13.5183		-31.7766
93.3232	-9.27724		-33.1807
93.5762	-7.55407		-34.843
93.8252	-5.36645		-33.8207
93.4568	-8.21892		-35.8732
93.885	-4.48626		-36.1227
88.1202	-23.9636		-23.9301
88.6641	-21.6669		-25.7602
88.5306	-24.9958		-24.7355
90.8507	-10.1564		-28.0536
89.9071	-12.3132		-26.8882
92.017	-10.3574		-29.9228
90.8667	-8.76628		-27.8055
80.1156	-29.824		-5.65553
80.0512	-32.1135		-6.31528
80.7609	-29.3874		-6.49167
79.8903	-29.0524		-5.01531
79.8588	-27.4129		-4.43024
80.2445	-25.464		-4.56646
79.3725	-27.6716		-3.64685
81.6002	-18.2058		-5.30412
81.316	-18.7711		-4.89714
82.0821	-18.5915		-6.11789
82.2735	-14.9544		-5.5258
80.9363	-19.5678		-4.37002
80.3176	-19.502		-3.69196
80.787	-22.0044		-4.46268
84.3869	-25.0954		-15.7825
84.2208	-26.1889		-14.0728
84.7028	-13.0531		-13.456
83.3799	-17.0057		-13.1329
84.5157	-13.5579		-15.0213
86.0047	-9.16355		-13.7283
85.0955	-11.9613		-12.2667
94.6656	5.51189		-30.0216
94.8071	6.26452		-30.2807
94.5125	5.08904		-29.4766
93.8672	4.58441		-31.977
94.2332	1.06627		-32.6458
93.7924	-0.116323		-31.2647
93.6956	-0.616685		-33.6333
94.2324	2.36503		-33.5261
93.9584	2.8004		-30.7967
91.6588	7.48269		-18.4775
92.4689	7.63287		-21.0496
91.0584	6.60547		-17.4024
93.5227	7.67616		-24.1912
93.0571	6.52271		-23.5463
94.5647	7.67407		-28.0954
94.1088	8.99344		-25.0526
43.0605	23.0862		71.2846
45.5343	22.0487		70.0532
40.1806	23.7577		72.0898
25.9759	-98.2673		67.159
24.7105	-98.4577		63.0632
28.2471	-97.4171		67.0412
50.7605	17.5175		65.1266
49.5207	19.2359		66.7542
51.6928	15.9589		63.7844
54.9354	19.709		63.2684
57.3769	21.233		61.7996
53.7618	22.3267		65.2848
52.7983	18.8215		64.5098
55.6343	17.2088		61.6607
71.4453	-51.1064		-2.93256
72.4124	-49.0872		-7.58809
71.7652	-49.4969		-1.59725
70.6613	-53.1557		-3.27821
18.6115	12.5617		70.0269
19.1274	11.8182		69.8604
18.5975	13.5402		70.1115
17.2577	15.3173		71.1686
18.9797	17.3982		71.272
16.9335	13.7973		71.1072
7.4938	19.7097		80.2851
6.92622	19.7882		81.143
7.62362	21.7852		80.0547
23.4428	-54.0873		85.4648
24.3194	-54.5105		83.8806
23.8022	-53.7401		85.7697
19.9208	-53.5136		88.4967
61.1537	-70.8616		-10.4278
60.6005	-71.4847		-4.48008
60.3287	-73.228		-12.586
62.1627	-68.4103		-10.9367
80.3906	-7.23949		-0.542891
78.8956	-14.5065		2.07254
81.1215	-7.93674		-3.04708
81.4551	0.872876		-4.01851
79.4597	-6.25102		3.84285
61.7888	-72.9555		-24.1327
61.0707	-75.0395		-26.0366
62.663	-68.6826		-24.4657
60.9239	-75.2899		-19.4855
58.3542	-109.569		-25.5615
58.6782	-118.45		-27.554
57.4765	-106.124		-34.0709
57.5488	-100.918		-25.6188
58.9492	-111.63		-20.2909
27.9758	-55.356		79.6672
28.1091	-55.4949		79.6246
26.4563	-55.9223		81.3904
28.3227	-55.7238		79.59
25.3797	-58.09		85.1535
25.5427	-57.4816		84.8187
22.1051	-58.8685		89.0859
29.8771	-96.5827		66.9046
33.5671	-94.7709		60.7519
29.8886	-95.5151		70.4156
48.5058	-60.5642		-65.9295
47.4065	-56.7785		-69.9161
51.3004	-59.7595		-62.244
47.852	-63.7947		-65.7689
56.408	81.8263		31.8924
57.4435	82.8121		26.1167
52.5346	85.0637		34.63
57.6593	76.7959		36.5728
89.8796	-20.1334		-32.9959
91.2512	-14.8721		-35.8256
90.4223	-19.3538		-31.9926
88.5665	-24.3805		-30.4384
89.189	-20.0564		-34.2116
85.6653	-1.09916		-9.2092
84.6243	-5.50162		-8.03423
86.7718	-1.16942		-9.72479
86.5987	3.26324		-10.8125
84.195	-0.960789		-8.62032
82.4313	-22.6363		-7.93934
81.9473	-23.3135		-6.83857
82.7308	-25.1515		-9.05713
82.7684	-22.711		-9.38828
82.5441	-20.8283		-7.64922
81.8961	-29.1709		-8.13164
81.6123	-26.3108		-6.96972
82.7941	-28.8142		-9.52462
92.5039	-9.15406		-38.2888
91.7277	-9.14335		-39.096
92.9981	-2.91298		-39.416
92.9641	-9.16973		-37.4443
90.6291	-9.00441		-39.7861
89.6605	-14.5229		-37.784
89.4914	-8.61827		-40.1845
91.0115	-2.90886		-40.7129
82.9734	3.05521		-10.0752
83.4448	5.36481		-11.6246
82.8288	4.15145		-9.92615
82.9684	1.44436		-8.96064
86.506	-18.2202		-37.1403
84.8154	-17.6473		-37.9389
87.3888	-13.825		-38.9632
87.5681	-18.8301		-36.4249
85.2727	-22.121		-35.237
88.6651	-26.0445		-25.5095
89.2739	-22.8132		-28.048
88.2675	-28.2688		-23.3165
88.3133	-26.809		-26.7522
85.2002	-34.6492		-23.9685
84.5845	-36.5738		-20.9263
83.5249	-35.8712		-25.1842
86.4861	-31.5813		-26.1259
87.2914	-32.2816		-21.9267
86.5809	-33.4316		-16.8344
85.9008	-35.1406		-17.1305
87.2333	-32.2236		-18.1816
86.3027	-32.906		-15.4986
75.3241	-44.4242		-12.7069
74.6973	-45.3194		-13.1759
76.5069	-43.2472		-14.4181
75.2069	-43.6467		-8.47062
80.3538	-40.7098		-13.8132
80.6135	-41.3284		-16.1564
81.6429	-39.4604		-13.3608
79.853	-39.1516		-10.7751
79.2592	-41.5658		-14.062
89.8424	5.5657		-11.7657
89.951	7.05981		-11.9144
88.2478	2.031		-11.0899
90.1251	5.56567		-12.1161
89.9262	8.02812		-12.0878
91.4086	11.493		-13.7827
89.465	8.0012		-12.2104
93.1939	-9.01967		-36.7152
92.1459	-13.7397		-34.1744
93.6385	-3.31717		-38.1767
94.2157	5.14408		-34.9524
94.1087	4.17318		-34.6439
94.4462	4.55462		-35.7685
94.3081	6.48521		-33.4534
90.8718	6.72008		-13.6397
90.7483	6.49649		-13.0767
90.361	5.14042		-13.86
91.4032	8.34343		-14.5523
90.3824	5.64542		-12.2839
89.4255	2.38218		-12.2094
91.5432	9.87458		-13.6906
92.6166	-10.209		-31.0681
93.4092	-7.26474		-31.3847
91.3121	-13.933		-29.9838
89.9519	3.55115		-15.3336
90.438	5.23122		-15.9018
89.8706	3.40345		-14.8882
90.1581	2.66717		-17.0368
90.8136	6.03802		-17.0194
91.2243	5.63914		-18.9234
88.9051	-15.4624		-25.9323
89.2554	-17.0678		-27.0595
85.3575	-11.0886		-11.1839
86.78	-6.61216		-11.1472
85.1703	-10.9822		-10.0069
83.9887	-15.8482		-11.1163
89.0984	-0.794656		-15.1512
89.4367	0.969502		-14.5857
52.9551	-57.8479		-60.3346
53.1176	-53.2273		-62.859
54.3226	-58.1406		-57.6344
27.2328	-27.3612		82.1328
28.7027	-30.598		82.0818
27.9316	-25.8735		81.7153
25.0046	-26.8882		82.6613
21.9612	-25.3438		84.7145
22.4418	-26.3182		84.2088
22.3665	-22.5014		84.5581
20.801	-25.894		86.0778
53.1119	37.483		65.7373
53.1197	35.3761		66.2664
57.9841	33.1786		60.7574
53.3307	39.1774		64.8567
47.7288	39.6674		69.9832
6.57869	-30.8249		96.1066
5.78572	-30.1623		96.9426
6.27613	-31.6926		96.0214
7.97186	-30.6065		95.0635
8.87135	-26.2497		97.7973
7.27498	-26.8795		98.5716
9.84292	-27.525		96.1275
9.84402	-24.7179		98.2685
50.5434	14.6823		63.8813
50.2012	15.4017		64.2037
17.5084	-19.3441		96.0603
17.5986	-20.2279		95.901
17.925	-19.2383		95.073
16.3483	-18.6669		98.0985
84.1213	-26.3335		-33.1125
82.8043	-28.8317		-31.7046
82.7811	-24.6264		-34.5306
85.0235	-27.3942		-32.0156
66.3899	78.8764		11.9766
63.9607	82.4136		13.2259
65.8805	72.9547		17.8067
68.0896	79.2098		2.65822
29.5573	-61.0646		74.937
30.0744	-59.235		74.1501
29.6377	-62.223		74.6101
28.6997	-60.6393		76.2247
29.3044	-50.3235		74.331
28.1923	-50.4151		75.7827
29.2213	-49.3983		73.9692
29.9216	-52.1093		73.8589
-18.0576	-98.6228		77.5912
-18.9408	-97.1814		80.8618
-20.2711	-98.2276		73.2562
-15.1503	-99.5573		77.829
-70.5506	-6.95945		45.5079
-71.3085	-4.01382		41.7834
-70.5779	-10.199		44.6559
-69.0357	-5.98974		49.3004
-67.3526	-4.16234		51.9873
-64.8925	-5.21966		55.6033
-66.7012	-0.665484		51.0921
-10.665	36.2828		83.8431
-12.6496	33.9495		82.8078
-8.25056	32.4901		83.6986
-7.6314	37.5467		84.5183
-14.2021	38.9505		83.7269
-10.0205	17.6387		78.9342
-9.25514	17.8572		79.826
-10.3469	18.9484		78.2786
-10.8541	16.4914		78.1875
-13.7994	17.901		74.5341
-16.0244	16.3606		72.4223
-13.2851	16.2136		75.2561
-12.0167	19.4506		76.4654
-14.4769	19.4711		74.145
-49.0244	13.2945		65.029
-45.9256	11.5368		67.8336
-50.9821	14.787		63.0631
-17.4969	9.93923		73.5485
-19.3063	8.91379		72.8726
-16.9313	8.99824		74.6553
-17.2818	11.0681		73.1564
-29.7757	-55.4791		78.8498
-29.6956	-55.3639		79.0843
-29.712	-55.4215		79.1413
-29.6849	-55.6278		78.6416
-28.9865	-54.3603		81.5973
-30.0006	-54.8145		80.086
-27.5112	-53.994		83.2834
-29.256	-53.9607		82.0121
-33.4774	-53.2001		80.0063
-29.8942	-55.8479		77.7972
-29.7351	-56.1233		78.1445
-30.3086	-55.8871		76.4667
-29.7279	-55.0523		78.2387
-24.7246	-58.7757		86.0164
-25.0136	-59.5467		85.6496
-21.855	-59.9344		89.3171
-24.8398	-58.1365		85.8109
-27.9375	-57.4386		82.075
-24.1168	-48.773		90.3277
-23.6548	-47.6742		91.3408
-27.3015	-51.2069		87.0019
-24.4302	-49.8005		89.9826
-20.856	-47.0847		92.7728
-29.0301	-55.4794		80.003
-27.4171	-55.5266		81.4017
-29.1508	-55.4799		79.872
-29.1154	-55.5125		79.9817
-77.3338	-36.8592		-8.12262
-78.1246	-35.4108		-8.79423
-76.7489	-40.3677		-10.9337
-76.7097	-37.189		-7.3336
-85.9387	-26.5768		-21.0149
-86.1443	-25.1221		-23.2946
-86.3788	-27.8635		-21.6683
-85.5157	-27.4919		-18.7199
-84.8057	-24.9466		-19.7718
-81.4072	-32.9844		-11.228
-82.1208	-34.0772		-12.7928
-80.8501	-33.2862		-10.5673
-81.1863	-30.2745		-10.5598
-81.0523	-20.4065		-14.6706
-80.7584	-19.4602		-15.5108
-81.6705	-21.5967		-15.3404
-81.2258	-20.7641		-13.6462
-80.8449	-18.6276		-14.5089
-86.4176	-2.27546		-15.3626
-86.2797	-1.69951		-14.5015
-86.568	-1.52563		-15.7262
-85.6397	-4.26864		-16.2445
-89.6381	8.78498		-19.0759
-89.6946	9.40432		-18.112
-90.6909	9.96438		-22.0847
-89.2414	7.86003		-19.0774
-82.4434	-12.4311		-18.833
-85.2302	-8.64836		-21.7738
-82.0417	-14.1064		-19.4989
-81.9135	-12.962		-16.4339
-83.8467	-8.73116		-17.9782
-88.5367	1.86591		-21.8816
-88.1056	0.265268		-21.7095
-87.3811	2.38074		-17.8013
-89.121	3.59306		-22.6925
-90.5983	2.32521		-26.036
-80.6657	-28.9843		-33.2292
-81.3689	-28.0857		-33.5031
-79.4378	-28.7687		-33.7488
-80.5035	-31.1		-31.8602
-90.9639	-10.2191		-32.3465
-91.3545	-9.05336		-33.2817
-90.5982	-13.6809		-32.7625
-90.8691	-10.0165		-31.8027
-91.6842	-7.39824		-34.9728
-92.0885	-5.22641		-33.8341
-92.1293	-4.2514		-36.1285
-91.5763	-8.08878		-36.0084
-86.0526	-23.3471		-25.7438
-86.5589	-21.5534		-26.9132
-86.4412	-24.5329		-26.5456
-85.0698	-21.702		-23.7031
-88.3663	-9.93496		-28.4528
-87.1992	-13.0865		-28.1602
-88.5631	-8.57683		-28.1375
-89.8828	-10.0371		-30.1185
-86.3884	-16.1103		-27.0305
-86.9358	-17.8497		-28.1275
-84.816	-16.8896		-24.5549
-79.1003	-27.9425		-7.53778
-78.8023	-27.0768		-7.12072
-79.7874	-27.5017		-8.42319
-79.2516	-30.3188		-8.11112
-78.6417	-25.3422		-6.39592
-78.2305	-25.6004		-5.47263
-79.0428	-23.1229		-6.58886
-79.9229	-16.7288		-6.69584
-80.2626	-13.8118		-6.7112
-80.2609	-17.0252		-7.63095
-79.8552	-17.0815		-6.4409
-79.7137	-17.5875		-6.20085
-79.3844	-19.9818		-6.46376
-79.2844	-17.5316		-5.26898
-82.9523	-23.3341		-17.5743
-82.5684	-22.2932		-18.4558
-82.9348	-24.0894		-16.1181
-81.8514	-12.4802		-14.745
-81.2333	-15.8291		-14.6933
-82.2766	-11.4044		-13.5909
-83.091	-9.18465		-14.7312
-80.9171	-17.5167		-13.9846
-81.1458	-17.46		-13.1503
-92.5106	6.1219		-30.1917
-92.6879	4.97304		-31.8753
-92.3553	5.69672		-29.6393
-92.6716	6.86521		-30.5254
-92.5437	1.2702		-32.684
-92.3061	0.148498		-31.2671
-92.3899	3.05148		-30.7633
-92.673	2.6351		-33.5018
-92.4274	-0.387133		-33.5381
-89.0401	7.25738		-19.2428
-88.2897	6.28217		-18.1818
-89.7204	7.28741		-21.8762
-91.0304	7.91122		-24.5729
-90.5182	6.69858		-23.9729
-91.7305	9.45053		-25.355
-92.4142	8.23921		-28.3462
-89.6469	4.96303		-23.4454
-91.5404	5.54473		-26.8352
-88.5921	5.44307		-19.6232
-42.2405	23.6767		71.5776
-39.2048	24.5413		72.5296
-44.9091	22.6405		70.155
-23.3901	-97.8109		67.0868
-25.7615	-96.9506		66.7408
-21.9942	-98.1235		62.943
-50.5839	18.0297		64.2595
-51.634	16.3489		62.7289
-48.9453	19.6427		66.408
-53.3476	20.0975		63.2574
-51.9529	22.6361		65.5014
-55.142	21.2339		62.0854
-54.1653	17.172		61.3993
-52.0147	19.0751		63.9902
-70.2936	-50.6073		-3.00456
-69.6154	-52.7534		-3.3475
-70.6952	-49.0915		-1.6124
-71.3716	-48.7989		-7.60368
-22.1286	15.4319		68.7006
-22.5557	14.718		68.5995
-22.3383	16.3732		68.8114
-20.1496	18.2286		70.0452
-21.3214	19.599		70.7555
-19.6022	16.6276		70.035
-8.52216	19.0088		80.7849
-8.3668	20.9615		80.6268
-7.8502	19.1295		81.6197
-23.3844	-54.0469		86.3656
-20.2497	-53.2599		89.5693
-24.2775	-54.0014		86.1825
-23.9623	-54.3702		84.8025
-62.4906	-72.5079		-8.47029
-63.4669	-70.044		-8.9923
-61.8443	-75.0343		-10.382
-61.6101	-72.6535		-3.05982
-78.4312	-6.03872		-1.23752
-77.6054	-12.826		1.18942
-77.473	-5.06505		3.00374
-78.3585	0.534222		-4.34495
-79.065	-6.81695		-3.76572
-63.0206	-75.01		-21.6418
-62.2818	-77.2667		-17.0682
-63.5635	-69.9236		-22.403
-62.1665	-76.2976		-23.7277
-58.1951	-109.766		-29.0737
-57.9375	-118.099		-30.4321
-58.2078	-112.175		-23.0505
-58.0508	-100.892		-28.9369
-56.334	-106.19		-36.6169
-29.3538	-55.8722		80.0084
-27.6699	-56.4159		81.7677
-29.2106	-55.7291		80.0497
-29.4742	-56.0093		79.9629
-30.8972	-55.5284		79.2477
-30.2811	-56.8822		79.9895
-24.7447	-58.0565		85.8156
-21.5045	-58.3495		89.6226
-24.7634	-57.2569		85.668
-27.6659	-96.0308		66.6324
-28.0892	-94.7857		69.9837
-31.2197	-94.696		60.2827
-48.1461	-60.7559		-65.5192
-47.1856	-63.8278		-65.329
-50.6773	-59.8188		-61.843
-46.9844	-56.9205		-69.477
-57.0987	80.2389		33.0572
-58.0372	76.0096		35.7739
-53.1563	83.4867		35.846
-59.0041	82.1943		26.0794
-88.643	-20.0419		-33.7503
-90.0378	-14.9748		-36.6384
-88.0106	-20.0082		-34.9869
-86.87	-24.3131		-31.3296
-89.1486	-19.5185		-32.7815
-83.1219	-1.21629		-9.89734
-81.5214	-5.51688		-8.51675
-81.9205	-1.16285		-9.37782
-84.7917	3.23195		-11.1592
-84.5027	-1.31696		-10.4371
-81.163	-20.4707		-10.12
-80.6888	-21.2526		-9.06024
-80.7658	-19.2661		-9.66896
-81.2907	-20.9173		-11.4754
-81.4578	-23.0712		-11.367
-80.9151	-27.3295		-9.91501
-80.4471	-24.3246		-9.01079
-81.7055	-26.7638		-11.5148
-90.3746	-9.0199		-38.5247
-90.8831	-9.02026		-37.672
-91.4861	-2.75886		-39.4157
-89.5857	-9.00218		-39.3245
-88.5723	-8.86136		-39.9827
-88.3645	-14.4613		-38.5307
-89.4548	-2.78576		-40.7017
-87.4282	-8.6554		-40.3783
-81.0728	3.02615		-10.591
-80.9479	1.25255		-9.56449
-80.9297	4.10417		-10.4152
-81.4947	5.38986		-12.0573
-85.4443	-18.0851		-37.6754
-83.82	-17.3739		-38.369
-84.0491	-21.9382		-35.8876
-86.447	-18.695		-37.026
-86.1908	-13.6596		-39.5016
-86.5773	-25.5176		-27.2754
-87.037	-23.2086		-28.989
-86.5503	-26.4129		-28.4773
-86.27	-27.4253		-25.176
-84.493	-33.186		-25.9711
-86.349	-31.0487		-23.5746
-85.111	-30.5845		-28.1693
-83.3269	-34.2579		-27.2182
-84.1523	-35.8312		-21.7466
-85.5853	-32.1469		-18.4558
-85.2183	-31.3934		-17.2902
-86.1485	-30.9134		-20.1891
-85.0099	-33.818		-18.7643
-74.1533	-44.057		-12.7852
-74.1549	-43.0345		-8.62208
-75.3877	-42.751		-14.7724
-73.5736	-45		-13.2736
-79.8016	-39.494		-14.3428
-79.7732	-40.5526		-16.7371
-78.2671	-40.8495		-14.4452
-79.6951	-37.7439		-12.02
-81.3519	-38.0022		-14.3496
-88.0318	5.62017		-12.5294
-88.3261	5.63012		-12.8078
-86.2758	2.02232		-11.5332
-88.4878	7.18772		-12.5205
-88.4223	8.08948		-12.683
-88.0787	8.08321		-12.6823
-89.0243	11.4336		-14.5859
-93.2376	5.39402		-34.8017
-93.2626	6.92996		-33.3061
-93.3349	4.76574		-35.6396
-93.0071	4.39175		-34.5518
-88.3173	6.34439		-14.458
-88.8673	7.97947		-15.3001
-87.9074	4.79445		-14.6981
-88.4696	6.42066		-13.9792
-88.4398	5.56742		-13.1169
-89.0173	9.53493		-14.4384
-87.3288	2.32187		-13.2953
-90.6073	-10.0015		-31.243
-89.7485	-13.9126		-30.9666
-91.4165	-6.99529		-31.4957
-88.0347	5.67734		-17.7776
-87.6393	4.8564		-16.7341
-87.4477	3.21243		-16.1634
-87.4585	3.09636		-15.7531
-82.3598	-10.8416		-12.288
-83.804	-6.94321		-12.2908
-81.7295	-14.7371		-12.5922
-82.4592	-10.5394		-11.3387
-86.645	-1.14001		-15.9881
-86.9915	0.631696		-15.4208
-86.4685	-1.44336		-17.6053
-52.3314	-57.9029		-59.9556
-53.6573	-58.1452		-57.2852
-52.6958	-53.349		-62.4972
-28.8317	-24.9021		81.6194
-26.7554	-24.5977		82.4095
-29.289	-23.3473		81.2788
-30.6329	-28.7433		81.3377
-23.401	-22.834		84.6929
-22.1893	-23.4838		85.9674
-23.2998	-19.6915		84.6865
-23.8698	-23.8908		84.1398
-52.2644	37.2725		65.5379
-52.5129	35.3111		65.9264
-46.2879	39.8272		69.9889
-52.2836	39.1376		64.5769
-57.1577	32.9351		60.3847
-9.34489	-28.5082		96.8227
-9.56841	-27.9238		97.3208
-10.2596	-28.9235		95.7077
-8.08684	-29.1289		97.609
-9.59324	-26.9359		98.5147
-10.569	-26.1703		98.1836
-8.12298	-26.7006		100.443
-50.734	15.2254		62.7978
-50.354	15.9819		63.1672
-17.8654	-16.8846		95.5944
-16.5589	-16.2789		97.4186
-18.3773	-16.7774		94.6012
-18.0275	-17.836		95.4187
-67.1762	76.8345		13.409
-69.1434	77.3675		3.95455
-67.8269	72.2795		17.7891
-64.7357	80.4008		14.6331
-29.8235	-61.6294		75.6935
-29.125	-61.1839		76.9223
-29.6288	-62.9245		75.4544
-30.5516	-59.7645		74.8253
-30.5936	-50.9014		75.2005
-31.1352	-52.8877		74.5556
-30.4204	-50.0172		75.0784
-29.5875	-50.9466		76.613
-11.9973	-25.5243		97.4188
-12.4281	-24.3507		98.2399
-13.5235	-26.1956		95.1497
6.0721	-27.6568		98.9896
5.00388	-27.4526		100.668
5.68536	-28.7996		98.0496
4.84816	-29.9517		98.1596
3.80671	-30.5145		98.7324
-11.354	-29.5996		94.6988
-12.6577	-29.3655		93.738
-11.2378	-30.4792		94.5735
80.6275	-36.1865		-26.7261
78.8823	-36.6928		-26.5111
81.24	-32.6936		-29.3324
81.5725	-36.4623		-26.309
79.0384	-39.355		-23.8154
70.1207	-50.6398		11.8535
68.7585	-52.2875		19.5653
68.9995	-55.2905		10.9285
71.3786	-48.5586		5.0383
70.8904	-45.7046		12.6083
52.0792	-114.028		-9.89017
53.4172	-103.098		-10.1423
50.4371	-114.192		-6.32313
53.2941	-126.069		-8.81392
54.9228	-113.607		-13.2799
56.8776	-132.6		-9.39583
57.7354	-138.604		-9.856
58.8652	-130.721		-13.7062
52.0659	-135.229		-5.83594
46.6819	-97.1764		-0.137249
47.1849	-91.8552		1.06535
42.9425	-98.1773		4.57752
46.9106	-104.5		-1.08133
50.3187	-96.6041		-5.01469
57.1636	-95.2471		-18.1943
55.8576	-103.159		-16.595
57.0298	-95.1517		-21.968
57.5947	-89.9991		-17.6191
55.595	-95.6518		-13.768
62.575	-71.1627		23.5312
64.1189	-67.6846		25.2883
60.8573	-73.1626		31.6083
60.5552	-74.611		20.7779
63.6332	-69.4484		15.287
72.5602	31.3442		22.5551
73.2579	40.3423		17.5904
68.8634	34.5482		33.3212
75.2318	23.2269		24.797
78.6375	29.211		10.4441
79.3919	42.4568		-30.1244
78.5486	39.5711		-39.8656
77.8892	49.4234		-35.068
79.2607	44.988		-20.1884
80.0971	35.4743		-25.747
8.89295	-107.711		38.9784
6.27006	-107.755		39.7443
9.16834	-115.907		36.6764
12.1915	-107.449		37.6381
8.92682	-103.924		41.5021
10.1796	-128.389		32.9192
11.2159	-140.654		28.9532
13.4581	-127.476		31.3803
7.19592	-128.556		34.0587
4.88796	-149.499		28.0652
8.37098	-149.179		27.5331
4.61548	-141.269		30.5379
1.53782	-149.484		28.2646
5.28321	-154.974		26.5746
66.0122	-54.0442		-33.2492
68.9544	-48.1572		-30.8532
64.6577	-59.5303		-29.2102
62.8529	-60.4151		-34.9791
67.8554	-46.7616		-36.7256
68.8566	-41.2049		-39.7138
65.1436	-46.8446		-43.0769
69.8	-36.3606		-42.1319
71.9978	-36.636		-36.5796
58.9765	-125.275		-29.9456
59.186	-131.694		-31.988
57.511	-122.338		-36.7007
59.4522	-128.325		-23.3057
4.39775	-128.88		34.6434
4.17129	-116.371		38.2992
1.75402	-128.874		34.8424
67.1934	-53.5941		27.7769
68.329	-47.7276		27.7386
65.7223	-54.0792		35.2978
66.4473	-58.7669		27.5208
64.6199	-67.4698		7.31024
62.7729	-70.8633		5.62174
65.3431	-65.9421		-0.734206
66.2448	-63.7227		8.64986
10.0063	-89.695		96.1558
5.99824	-90.1192		97.7021
10.0412	-93.4839		94.0933
14.7135	-89.6933		93.2589
9.97283	-86.0809		96.9235
22.6434	-89.1924		87.3595
22.306	-92.9295		85.3726
27.3769	-88.0727		82.6039
23.2575	-84.8764		88.3335
2.55978	-82.2709		98.9325
6.00306	-82.0878		98.2376
2.42466	-77.555		97.8559
-0.728542	-82.2178		99.1122
2.72434	-86.7726		99.2146
10.1889	-96.7993		90.6418
10.5336	-99.1195		85.7599
14.7614	-96.2686		88.0098
6.33066	-97.0782		92.1575
13.2512	-100.714		77.9167
8.80449	-101.351		78.5986
12.8772	-101.449		69.6839
16.973	-1.21858		80.7202
16.4306	-4.6212		83.2394
19.8162	-3.13674		78.7655
14.6547	5.51393		76.754
12.8981	4.33105		80.8647
52.3805	-27.6188		70.253
58.6945	-27.916		64.115
52.1626	-22.702		70.1838
45.313	-27.2058		75.011
52.2471	-32.3798		70.1732
64.6048	-18.0954		57.4237
68.3172	-17.7432		51.0755
63.8624	-12.9528		58.2964
58.8399	-17.5588		64.145
64.336	-23.262		57.3366
72.6804	0.0806641		39.3753
73.9049	-0.894156		34.7778
71.9504	8.07803		38.9795
70.9646	1.87424		43.5294
52.0081	-37.0733		69.6176
51.3863	-42.0432		69.0377
57.2332	-37.9811		63.5543
46.1722	-36.1503		74.4987
1.59075	3.42121		98.5517
1.17039	8.59583		94.2237
-0.125938	3.72431		98.6931
1.91173	-1.34146		102.613
3.50221	2.78851		97.8149
32.7097	70.9031		68.4479
27.5082	71.9814		70.8227
32.4021	64.7168		72.3322
38.1559	69.2218		65.3334
33.1919	76.4862		64.3968
5.50918	-101.799		63.1173
5.09881	-101.263		54.9277
8.74845	-101.578		62.5426
5.3936	-102.129		71.0396
2.40375	-101.851		63.3026
63.7759	-53.8344		42.4505
61.3486	-52.9114		49.3199
62.0959	-60.5581		42.3531
65.2697	-47.1906		42.5677
2.69828	-97.407		92.7554
2.56407	-94.3872		96.0976
-0.600152	-97.5844		92.7596
5.05232	-100.382		85.3417
5.25147	-101.663		79.0682
1.87799	-101.754		78.8442
40.6467	-88.6261		60.7747
35.5328	-91.2821		66.8122
39.559	-90.8387		57.9616
45.4263	-85.2303		56.1225
40.9024	-85.5277		63.8851
42.482	-90.0784		35.0453
38.5942	-92.6446		29.4481
46.105	-87.8272		29.6777
45.7903	-88.0062		40.05
37.9598	-92.5218		40.0153
4.59598	-101.461		47.6618
7.15791	-101.486		46.9984
2.16486	-101.465		47.7755
3.59586	-103.748		42.4954
6.72571	-6.69575		103.86
7.24303	-9.87029		106.725
9.5153	-7.70415		100.634
6.42374	-2.62042		99.8773
4.22581	-6.04396		105.727
27.7851	-23.1254		81.4854
31.4268	-24.9996		80.3227
26.1426	-18.4037		80.7893
23.9638	-20.2854		82.8145
30.4771	-55.9035		78.6655
32.629	-55.6291		78.3261
11.0217	-28.7408		94.5437
12.7529	-26.751		94.3902
10.5331	-29.8973		94.3526
13.3254	-28.6084		92.7605
10.9684	-32.929		92.6615
12.0866	-34.1669		93.0732
14.1749	-32.5518		91.1412
10.879	-32.0673		92.861
8.67159	-33.0582		94.6624
-0.248678	-30.6665		100.918
0.317013	-28.8978		102.778
-1.36851	-30.496		100.885
-0.406482	-32.1554		99.779
1.32271	-30.7446		100.419
18.8312	-32.3399		87.2584
21.0981	-30.7941		85.7055
18.4563	-31.4415		87.6684
19.2225	-33.7496		87.2021
7.46974	-18.4219		109.546
4.9028	-18.9427		112.093
7.2296	-20.4383		108.27
10.3651	-18.131		105.272
7.74288	-16.7562		109.958
28.3775	-69.3553		82.4853
31.0226	-67.2653		79.7791
29.7048	-66.4011		82.5032
26.8014	-71.1783		85.4569
29.3505	-73.1224		81.5953
31.1104	-49.5144		81.4442
31.7892	-46.6833		81.7266
30.4371	-49.1047		82.901
33.0206	-50.2307		80.1743
-0.836216	-37.2629		98.6259
-0.821852	-38.9131		98.5757
0.991804	-37.0832		98.6063
-0.741311	-35.1547		98.6104
-2.91435	-37.1116		98.4397
5.85197	1.77283		96.1654
8.58267	0.291381		93.4272
5.48762	6.41974		92.2057
19.876	-21.1404		89.2628
19.0437	-19.355		91.453
19.2264	-20.3932		91.3994
20.1181	-22.5604		88.4238
20.326	-20.6967		87.8051
2.54983	-33.0396		98.3697
2.34412	-34.9385		98.2373
4.24669	-32.8321		97.2556
2.54629	-31.8461		98.6765
1.05153	-33.391		98.8554
2.83479	-30.4902		99.3804
2.9248	-29.1463		100.657
18.3874	-19.4999		93.5819
18.1009	-18.6928		93.9316
18.9039	-21.0765		92.5938
19.8488	-25.321		87.8135
19.2659	-23.9887		89.9489
19.0864	-27.8222		87.8074
-0.637679	-43.3943		98.6158
0.0739803	-45.1664		99.1844
2.35959	-42.7672		98.7365
-0.776346	-41.575		98.4676
-3.38725	-43.9099		98.6641
25.5681	-34.6744		83.9173
22.926	-34.9923		85.3427
27.9114	-37.973		83.2272
27.7503	-34.4122		82.1317
23.9079	-31.361		83.9954
9.98906	-67.1556		95.2034
9.74458	-65.4414		95.6762
6.04617	-67.5425		96.1036
10.0819	-69.3536		94.9065
13.8069	-66.8133		93.5921
28.1136	-51.8155		83.8235
28.54	-52.3882		83.1363
29.1184	-52.694		81.0055
27.8794	-50.1066		84.798
17.8495	-18.005		93.8667
17.9346	-17.2642		92.4133
16.2857	-16.9483		96.7791
21.4208	-66.8836		89.1351
21.8708	-69.0565		88.7114
24.9542	-66.0662		86.5043
20.8089	-65.1767		89.7273
2.83913	-67.376		96.6665
-0.454021	-67.4141		96.7469
2.65647	-69.6053		96.4045
2.66475	-66.021		96.9865
64.3246	27.4704		54.4464
63.3615	26.4627		56.1875
66.3113	21.6253		49.8231
65.1311	28.7519		52.4898
42.4885	55.0253		68.6869
36.9355	56.8919		72.7738
41.9321	49.3087		71.597
48.3779	52.2734		64.0767
43.3534	61.1556		64.871
54.3708	48.7559		58.5043
53.7196	43.887		61.9306
60.034	44.369		51.5513
55.2291	54.4638		54.1854
42.126	41.1305		73.8822
41.8887	43.5829		73.5358
36.5029	42.4475		78.2685
42.5371	38.7814		73.7547
63.3387	30.5729		50.1796
64.0843	33.7576		47.1741
58.893	36.4013		57.9014
68.991	23.7455		43.4232
23.7825	30.7888		79.7027
27.2784	28.9786		77.2827
28.0724	31.3541		78.604
23.3874	32.6446		81.4623
23.1833	29.6846		79.2491
5.81838	16.4828		83.9557
8.14853	14.1876		81.5393
5.97465	18.41		82.8176
3.40256	18.0409		85.5702
5.60978	14.0842		85.641
31.6399	-8.04285		75.2514
33.5747	-12.1798		76.2215
39.2825	-8.6455		73.3258
29.778	-4.35504		74.4844
25.5533	-6.53811		76.9203
63.5779	5.48367		53.9101
66.0442	3.91002		51.3565
64.2225	10.0004		52.4055
60.9931	7.24744		56.2072
61.4611	1.84841		57.2133
5.55436	10.76		88.2586
8.11661	8.64039		86.0276
3.142	12.2925		89.7189
42.9844	36.6207		73.5685
48.1087	35.5131		70.404
37.7645	36.52		76.7093
42.9855	34.474		73.4148
52.871	33.4855		66.7384
52.2766	31.5203		67.2323
59.7097	29.5708		61.8247
60.0829	14.8622		57.0615
59.733	18.6195		58.4888
57.7396	14.7643		59.1271
59.8646	11.5532		56.8433
61.955	14.8777		55.1294
46.5081	19.1111		68.1664
48.3201	17.8952		66.6018
44.6171	20.2015		69.585
42.559	21.1464		70.6489
40.2901	21.7995		71.3108
42.7695	22.0936		70.9745
40.1418	22.7607		71.6948
45.0491	21.1238		69.8329
37.4692	22.1922		71.6777
34.4806	21.9784		71.7704
37.1462	23.0747		72.0367
33.91	22.7665		72.0839
31.4012	21.1822		71.6478
28.427	19.8738		71.3031
25.1556	18.3366		70.8099
21.836	16.5757		70.4086
23.7257	19.0276		71.13
20.5335	17.1621		70.7938
27.1216	20.594		71.5621
19.4819	14.9394		70.1872
22.271	19.5861		71.6007
25.9679	21.4169		72.0114
36.9135	24.0712		72.4678
33.389	23.7301		72.5262
52.1175	13.408		62.9428
52.5779	14.4717		62.8026
51.0133	12.3889		63.6364
32.8758	31.9982		77.2567
37.7374	32.4363		75.5103
32.888	33.5819		78.1901
35.9512	29.9652		75.4388
51.466	24.7442		67.7533
49.6739	22.8632		68.2761
53.0896	26.9301		67.2847
48.0463	25.9998		70.1191
40.6535	4.24225		70.434
46.8599	5.30934		67.7334
33.4154	4.10488		71.9604
41.2112	2.8143		70.3923
27.109	5.09033		72.0807
22.6257	6.59704		71.8438
27.0468	3.53198		72.4461
18.3572	9.9716		71.3647
17.6908	10.9537		71.2051
19.3348	8.99608		71.469
39.7065	7.09604		70.4452
45.1291	8.33112		68.3175
33.4953	6.97409		71.6067
21.3928	9.89849		70.4119
23.5268	9.01161		70.8156
20.2819	10.4592		70.2103
19.5051	10.905		70.1685
18.7889	11.5093		70.1918
13.4365	21.9853		73.7922
13.0866	24.5197		75.5925
13.9134	19.4503		71.8218
16.9868	21.6853		74.964
17.0193	12.3701		71.217
29.6826	22.8595		72.3874
14.6052	18.5694		70.881
14.1444	17.0386		70.8398
17.4811	17.8683		72.0971
39.4979	8.39508		70.4271
33.3957	8.25894		71.4624
21.366	10.7254		69.8728
20.3591	10.9709		69.8304
23.5449	10.2179		70.2857
19.6234	11.4049		69.7856
49.5288	16.5694		65.1731
4.56829	30.8785		84.7229
1.23923	30.9774		84.8499
3.64704	28.2206		84.2819
7.15938	30.5646		83.9354
6.3094	33.7657		85.789
19.7841	1.81848		75.2657
19.6015	3.68942		74.1127
17.7755	3.33846		75.9346
20.7105	-0.986975		76.5193
22.9764	0.158158		74.6551
14.2212	7.99212		75.2239
12.3916	9.88847		76.6217
14.3067	12.7916		71.9126
12.676	13.726		73.5162
14.423	14.2836		71.0505
9.74936	21.6821		77.3466
10.8817	23.7581		77.013
9.08778	22.7324		78.492
20.499	7.864		71.6684
19.8791	6.72785		72.4512
19.5116	5.34908		73.2698
22.2877	3.64794		73.0565
24.49	-54.6028		83.236
24.373	-54.5194		82.959
26.0273	-54.3491		80.5318
20.6259	-54.1519		86.3525
27.6736	-54.4879		79.1478
27.4134	-54.3954		79.1247
0.686447	-48.3318		99.238
3.85934	-48.1289		99.0885
0.615304	-47.1592		99.3836
-2.89601	-48.727		99.3216
0.928685	-49.6553		99.1916
7.21455	-50.1817		97.8171
7.12709	-49.1162		98.4216
4.33812	-50.1728		98.465
7.18591	-51.0446		97.1879
10.1627	-49.992		96.7718
13.3449	-50.0552		95.5107
13.2012	-48.9171		95.9092
13.4835	-51.1466		94.5767
19.7586	-51.6683		90.4611
6.78143	-47.9341		98.6467
9.81873	-47.7483		97.8316
6.34933	-46.7284		98.689
11.6991	-45.7888		97.1548
12.5967	-46.6987		96.7072
11.0501	-44.7461		97.1238
8.42222	-45.8631		98.3589
23.7317	-52.959		86.6276
23.365	-51.828		87.9988
6.87532	-51.8853		96.3862
3.87059	-51.8794		97.2682
6.69124	-52.3681		95.7499
10.3985	-51.9118		95.3231
13.9135	-52.2545		93.1262
13.8763	-52.8237		92.1592
28.3413	-53.2172		80.6663
24.734	-55.5389		83.802
24.6618	-55.4554		83.5638
20.8732	-55.4419		87.4096
24.7335	-55.7708		84.1414
25.3095	-57.0139		84.7364
25.0679	-56.5798		84.6798
21.7809	-57.5047		88.869
18.5918	-57.708		91.6494
18.2831	-56.9793		91.4256
12.2803	-56.8619		96.1571
19.0206	-58.4951		91.6338
7.42618	-55.0377		97.0027
7.92441	-55.8992		97.3363
11.3714	-55.0843		95.651
7.00783	-54.2252		96.5331
3.95415	-54.9736		97.7072
1.5036	-57.4339		98.7487
1.65433	-58.5507		98.8743
4.70378	-56.9294		98.358
1.30928	-56.4423		98.5217
-1.43811	-57.6631		98.7976
27.9356	-55.8849		78.4447
27.821	-55.3118		79.0214
27.8792	-57.2683		77.8636
26.1996	-55.8273		80.1511
0.900113	-54.7428		93.775
0.780885	-53.8767		95.0098
3.52098	-54.8995		93.5894
1.06591	-56.0101		92.864
-1.47978	-54.6676		93.78
1.79717	-59.7601		98.8535
-1.428	-60.0476		98.9194
1.88679	-60.804		98.6818
5.41142	-59.1429		98.5686
2.50405	-64.592		97.5737
6.16466	-64.0201		97.2606
2.23743	-63.1922		98.1913
-0.882336	-64.849		97.5771
5.93589	-45.885		98.8172
4.93181	-44.4963		98.6237
3.3843	-45.7165		99.0331
1.08553	-55.3037		98.0516
-1.50226	-55.5317		98.1464
0.882626	-54.4454		97.551
0.776372	-53.9404		97.0898
3.42973	-53.8124		96.8863
0.806721	-53.6991		96.6003
-1.52808	-54.1033		97.1469
6.80787	-53.8316		96.1284
10.7212	-53.9691		94.8836
6.6831	-53.6571		95.7061
0.857624	-53.6506		96.0254
3.31456	-53.5901		95.7172
-1.53684	-53.7587		95.9954
14.0264	-54.4225		92.5981
13.7888	-54.285		92.133
14.2756	-54.7642		92.9524
19.8279	-61.2561		91.2534
20.1026	-62.3035		90.8447
19.5076	-60.285		91.5289
12.9999	-60.8421		95.7284
9.71043	-60.8369		97.4214
9.86932	-61.9628		97.0106
9.53099	-59.8643		97.665
5.85262	-61.3043		98.3269
2.09718	-61.8602		98.4669
-1.19073	-62.1439		98.4398
13.6486	-53.0995		91.455
10.4193	-52.614		93.6841
13.4914	-53.039		90.7948
30.4339	-54.7739		78.7868
29.4367	-55.0314		78.9436
27.7942	-55.0809		79.652
26.2429	-55.3742		81.2979
6.88667	-54.8921		92.8849
6.60334	-54.1044		94.0888
10.2056	-55.026		91.5761
6.86631	-56.1289		91.7907
6.63071	-53.8089		95.1422
10.4177	-53.8039		93.7552
9.68072	-63.6965		96.3061
13.5383	-63.3375		94.6842
19.2311	-59.3704		91.6666
12.7615	-58.8463		96.1085
20.3676	-63.6356		90.3318
24.0494	-62.8484		87.7896
13.245	-52.6186		90.3373
10.0972	-52.1249		91.8992
12.634	-51.4785		89.5557
19.8278	-53.6849		85.8391
6.71749	-51.9762		93.1572
3.86368	-51.7444		93.4179
7.17379	-50.792		91.699
6.57458	-52.5363		94.1833
12.0412	-48.9112		88.3344
9.50195	-48.7661		89.4454
11.7271	-45.7702		87.175
14.592	-49.2777		86.9492
27.5577	-60.6213		77.5873
26.7573	-64.2474		78.093
25.7138	-60.5897		79.389
1.23846	-58.4466		91.7143
3.56941	-58.5201		91.3531
1.3357	-62.0444		90.8773
-0.876013	-58.4538		91.8004
6.99026	-48.5638		90.2727
4.42497	-48.5218		90.7469
6.58205	-45.2943		89.0092
6.76215	-58.5171		90.7985
6.89567	-62.2554		89.8786
10.22	-58.7133		89.5971
30.567	-55.705		73.1256
30.6973	-55.898		72.7422
10.7479	15.1875		75.8397
10.4227	13.683		77.3672
80.973	-9.08204		-43.6567
80.5249	-13.5313		-42.821
79.1327	-8.32747		-47.0306
81.3359	-4.47836		-43.7304
82.5298	-9.63145		-41.9188
81.878	8.22557		-7.7332
82.2516	11.18		-11.8648
81.0336	10.3701		-2.9724
82.4811	13.4045		-16.7831
82.1084	18.9206		-18.2135
82.9834	8.35141		-17.6775
83.4895	13.1507		-23.084
74.7567	-33.7877		-34.2599
77.2398	-31.4873		-32.6371
73.6096	-38.0924		-31.7347
75.9685	-29.7156		-36.068
77.1705	-26.1243		-38.1337
74.5505	-28.0811		-40.9823
78.4234	-22.1219		-39.9802
79.3963	-24.9269		-36.2806
84.0915	-9.62161		-40.9732
85.8969	-9.05669		-40.5732
83.614	-13.7648		-40.0241
84.3091	-4.61225		-41.2951
85.7891	-28.2223		-30.9713
87.1387	-24.1827		-33.0359
86.4712	-28.668		-29.8091
84.5534	-32.4816		-28.503
90.7143	-18.3422		-31.1072
90.7195	-17.7843		-30.3489
78.8476	-41.3478		-20.4187
79.3375	-41.5765		-19.74
78.6773	-42.2873		-18.1771
78.301	-40.6036		-22.3344
80.3679	-34.8753		-7.89764
79.9967	-35.5178		-7.85731
79.5271	-36.4805		-8.0479
90.6733	-17.4116		-29.9443
90.2472	-18.0815		-28.9507
93.8083	-2.67805		-33.8025
93.8004	-1.95923		-35.3648
93.9517	-3.99245		-32.1044
94.5651	7.2869		-31.4988
94.9868	8.57765		-31.696
95.6734	10.7106		-30.361
95.1082	10.4845		-28.1498
95.8602	11.1778		-30.7537
95.382	12.7121		-27.3093
84.6212	-11.3809		-8.80913
86.2041	-5.95793		-9.44271
83.9397	-10.7279		-7.74462
83.4589	-15.656		-8.31037
78.5756	-28.0905		-1.82884
77.4766	-28.583		0.697934
77.8465	-31.897		-2.04543
79.0807	-23.694		-1.65755
82.7877	-22.7983		-10.4944
83.0009	-24.8497		-11.0442
82.8724	-20.7837		-10.6372
82.9296	7.82695		-17.6454
83.6611	9.29231		-20.6504
82.9663	7.82573		-17.4547
91.7628	15.6764		-17.7481
92.7086	17.3763		-20.8083
90.8933	16.091		-18.9069
90.2855	12.519		-14.8404
92.5381	14.9558		-16.765
92.2752	18.1217		-25.7071
91.4382	17.8158		-22.8292
92.5105	18.2158		-25.2392
92.695	16.9129		-29.2082
91.4061	17.0537		-27.0843
91.117	3.44283		-39.984
90.3042	2.96354		-40.1674
91.464	9.11427		-37.3114
92.3532	3.70164		-39.4176
87.211	-1.25253		-10.1139
87.5889	-2.49436		-10.7095
94.1645	2.79956		-36.9252
94.5905	7.75515		-34.7819
93.8645	-0.0656926		-37.0645
94.2082	2.71666		-37.2927
94.9368	13.3531		-23.5355
93.9424	12.7237		-19.6479
94.7054	12.0446		-24.1982
95.0672	14.3545		-22.936
88.904	-0.281888		-12.601
88.2904	-2.09066		-12.031
89.5373	2.07885		-13.2733
94.0025	3.35681		-34.1518
93.9203	1.3554		-36.0614
92.4751	5.24945		-22.6518
91.9573	3.87544		-21.8768
93.7369	5.02748		-26.6116
86.6953	-7.20668		-13.7532
86.8717	-6.89817		-14.488
87.2884	-5.58055		-12.6434
91.5164	-5.88237		-27.3092
93.3425	-2.91545		-29.2892
91.2832	-5.45762		-26.7268
91.301	-6.92286		-27.4802
79.5878	-19.6804		-1.92875
80.4676	-15.0638		-2.92317
78.5332	-19.9992		0.264346
84.6973	0.481416		-39.8082
83.6031	-0.0204693		-40.9325
84.9122	4.94845		-37.8212
85.6577	2.82853		-38.8694
88.6297	7.72611		-36.3971
89.4599	11.5037		-32.7393
92.0489	12.4124		-34.0205
88.2896	3.94704		-39.072
89.2194	1.96777		-40.1427
88.2326	-3.53558		-40.8533
88.076	-8.58114		-40.3845
81.2129	-24.236		-35.4065
79.9857	-27.2915		-33.6274
82.1784	-21.0232		-37.0974
82.992	-17.6032		-38.7072
81.3374	-17.8865		-39.7582
89.7325	-18.1263		-27.9267
78.9276	-30.3215		-31.8905
77.8713	-34.2448		-29.5771
80.2523	-30.1652		-31.4639
77.9064	-38.4703		-25.0732
77.4722	-38.496		-25.4008
77.2266	-42.0589		-20.3668
78.5354	-42.0861		-15.3111
78.0226	-42.3458		-15.1533
77.4791	-42.5717		-14.883
91.4033	-7.57533		-27.9683
93.1335	-5.95148		-30.1946
83.1617	-10.1133		-6.80287
82.2	-9.73781		-5.82225
80.6416	-24.1211		-4.84827
80.9506	-24.1474		-5.38181
83.4337	-28.4352		-10.7838
84.3472	-30.3575		-12.1714
83.7347	-27.2717		-11.585
82.7827	-18.6226		-7.72103
83.2092	-18.6868		-9.72635
89.2536	13.0974		-29.6797
86.7146	9.54686		-32.3666
88.2352	13.5962		-26.4785
85.7398	8.03311		-34.1637
85.2949	7.73669		-35.2552
85.18	9.8824		-30.1011
82.8942	-18.7782		-12.5295
83.0474	-18.7681		-11.7943
94.311	4.12143		-28.9318
94.0993	2.58607		-28.5835
87.3015	-6.20757		-15.8353
86.5573	-8.55242		-16.8646
88.3348	-4.93757		-18.4571
91.2697	-4.59531		-26.2096
93.1475	-0.922196		-27.3922
90.7444	-4.67163		-24.8754
11.0144	86.7566		64.1255
12.9433	79.8103		69.5855
15.1636	86.3593		64.1808
10.9704	93.413		56.5827
2.91735	87.0023		64.4465
11.8568	73.4687		75.1802
3.85946	73.4624		75.8837
12.4006	66.2216		78.931
15.4978	73.3005		74.0844
31.3445	58.338		76.0671
31.4514	52.1738		78.7677
27.4649	58.6693		77.8969
0.626685	-27.2793		105.615
1.2017	-25.5272		108.056
-0.764634	-27.2385		106.023
2.54347	-27.359		103.977
2.51233	-15.8789		113.889
5.02131	-15.6605		112.544
2.48018	-14.0423		113.333
0.0841227	-16.0794		114.396
2.52757	-17.6235		113.875
2.45512	-19.2901		113.414
0.126772	-19.4984		113.895
2.28491	-21.2077		112.39
-0.798222	-33.868		99.385
-2.46858	-33.7504		99.1899
-0.803734	-40.3613		98.3781
1.41768	-39.7577		98.1522
-3.24944	-40.6126		98.4566
1.89315	-23.3016		110.475
4.07613	-23.226		108.95
-0.249598	-23.3931		111.034
2.39619	-11.9842		112.092
4.90295	-12.0086		110.87
2.25999	-9.27788		109.939
0.0239005	-11.9616		112.434
10.9104	46.1729		85.9464
3.23695	46.6653		86.3805
10.152	42.4692		86.5627
16.0933	47.247		83.4134
11.2685	50.9633		84.7908
1.68567	18.5792		86.3618
1.36092	16.4788		87.7001
1.7992	20.5062		85.3107
0.0449297	18.8385		86.5278
2.13927	22.2032		84.7077
3.79668	21.6733		83.9222
2.46466	23.9909		84.3025
0.552526	22.2697		85.0273
1.27232	-51.5461		93.4924
-1.52319	-51.6416		93.5727
1.45239	-50.5234		92.3007
0.813069	-52.4199		94.9432
0.783507	-52.5518		95.9752
-1.60408	-52.703		96.0215
3.2787	-52.4674		95.704
0.873317	-52.4174		96.8561
0.956216	-50.5396		98.7382
1.18231	-51.289		98.2816
-2.35436	-50.7058		98.9188
1.13674	-51.9769		97.8278
-1.9724	-52.18		97.4741
0.281081	-46.2788		99.2906
-3.32965	-46.8074		99.0574
1.41824	-48.3055		90.8444
1.39666	-44.8964		89.4105
-1.64668	-48.1472		90.8326
21.7749	85.1939		63.1633
21.9097	79.0387		68.3892
27.7384	83.6024		61.6407
22.2543	92.8402		55.5042
22.8705	48.0445		82.2597
22.1968	44.7698		82.8056
28.0141	48.9652		81.6552
22.8671	52.6384		81.2034
23.347	40.8362		82.9089
24.4066	37.5595		82.4431
29.04	41.1868		81.6982
26.033	35.3259		81.5998
20.6244	35.566		82.1258
27.9385	34.5832		81.511
28.733	23.7181		72.945
28.314	25.2168		73.9467
24.7541	22.2687		72.6391
32.9191	24.7183		73.0537
30.5354	21.9637		71.9484
27.5139	26.8645		75.4099
31.8155	27.6257		74.9718
23.7438	25.8434		75.544
46.7253	88.8717		38.3573
48.5601	94.6118		27.9646
40.944	92.6087		40.958
46.1867	83.1889		45.9397
33.173	82.1936		59.2723
34.1671	88.8696		52.4784
39.1772	80.2902		56.311
31.3059	47.9318		80.8103
31.7541	45.7397		81.216
36.0628	47.5821		77.7347
32.034	36.7253		80.2578
32.3955	38.4804		80.8103
31.9775	42.2199		81.2649
35.8918	28.0058		74.3983
36.3618	26.3686		73.5125
40.4428	27.6505		73.3287
45.391	77.6635		52.1311
51.5875	74.8163		46.5604
44.6888	71.8816		57.1781
41.9478	45.9516		72.8184
47.6483	43.8478		68.5803
43.5791	23.9599		71.4526
43.8693	25.3303		71.7497
40.4114	24.7343		72.412
46.2894	22.8977		70.073
42.7607	32.3398		73.2396
45.2574	29.5592		72.1992
47.433	31.3389		70.6513
44.4358	27.1219		71.9773
44.0471	66.7038		61.2718
50.1598	63.5588		56.2096
57.2587	72.4059		39.5951
56.3388	66.2374		45.2268
62.0785	69.6044		32.1321
47.0156	19.9042		68.3613
48.8278	18.626		66.7652
48.7571	21.5482		68.2782
50.694	20.078		66.5193
47.5739	20.7449		68.5344
54.3973	29.2405		66.8535
57.4846	26.1523		63.4996
19.8868	28.2706		78.9003
16.6273	26.2725		78.4848
19.9838	26.5406		77.2875
19.3983	29.4675		80.1976
16.5832	33.2082		81.2359
15.1601	30.2109		80.9337
20.0817	23.903		75.1252
20.4812	21.9031		73.4208
9.10921	37.9944		86.6428
2.66266	38.7871		86.2302
64.1182	-64.8537		-10.0997
67.1068	-60.9619		-7.04802
63.8224	-64.3928		-17.2257
81.9824	22.1397		-37.3697
81.0188	18.3864		-43.4186
80.8535	28.0702		-41.9209
82.4066	24.3274		-29.4085
83.0687	16.2592		-32.3568
76.2077	-8.02697		-52.9101
75.486	-14.0821		-51.3199
74.0124	-8.08984		-58.38
77.0114	-2.23887		-53.0538
77.3765	3.66162		-52.6048
75.4629	5.54252		-58.9022
78.0034	9.1682		-50.8185
79.8296	1.76521		-46.47
71.0057	-31.6444		-45.0595
67.7931	-34.8743		-48.9021
72.8701	-25.911		-47.4984
11.8499	58.4615		82.2164
3.82073	58.0367		82.9882
15.5994	58.2525		81.1594
21.6786	58.3312		79.7968
22.3321	66.001		76.4295
22.5478	-98.6244		57.2257
20.3027	-98.8771		49.3793
28.3511	-96.5884		51.2276
14.6155	-99.8826		62.1729
48.1279	-86.0062		44.2658
43.1273	-89.4183		49.3899
52.1797	-82.9309		39.3438
49.3318	-83.9545		48.0711
56.0682	60.0886		49.9117
61.1211	56.6047		42.585
21.9014	72.8519		72.6022
67.0986	66.9461		23.4143
70.1882	64.692		13.2463
66.6438	61.0048		27.7618
