1849
-22.325	-57.5609		87.4919
-22.7805	-58.3509		87.3878
-19.9568	-58.9939		90.0092
-22.1347	-56.8304		87.5494
-24.278	-56.208		85.3461
-20.6989	-47.5031		89.9436
-20.3489	-45.8881		90.617
-22.7873	-49.4489		87.9859
-20.7891	-48.3872		89.3607
-17.9736	-45.3404		92.2979
-24.9655	-54.8436		83.8276
-23.4548	-54.7735		84.7507
-25.0588	-54.8445		83.6707
-25.0554	-54.8881		83.7782
-78.7256	-36.1175		-6.07531
-79.4171	-35.1776		-6.04182
-78.3237	-39.3923		-9.27024
-78.1562	-36.4356		-5.26116
-85.7984	-26.8974		-18.1618
-86.752	-24.9124		-21.0096
-86.17	-28.1972		-18.8131
-85.6859	-28.0818		-15.749
-85.0542	-25.3177		-17.0786
-82.4605	-32.9598		-8.11855
-82.9962	-34.1822		-9.69512
-81.9894	-33.2058		-7.47384
-81.9481	-30.3952		-7.35689
-81.8939	-20.7146		-11.6621
-81.879	-19.69		-12.6055
-82.3133	-22.2108		-12.0753
-82.3153	-21.2408		-10.3724
-82.0924	-18.9419		-11.5054
-87.3747	-1.41274		-13.0094
-87.4401	-0.88955		-12.0745
-87.6278	-0.637918		-13.5906
-86.8533	-3.31817		-13.7953
-90.4436	9.94148		-17.6065
-90.4869	10.5305		-16.6164
-91.4616	11.1686		-20.6903
-89.9934	9.08262		-17.528
-84.5279	-11.4172		-16.7249
-86.7647	-7.55503		-19.9202
-83.8146	-13.6795		-17.0323
-83.8698	-12.5157		-13.6954
-85.51	-7.73092		-15.8129
-89.8357	2.83877		-20.2651
-89.4472	1.22134		-19.9643
-88.7575	3.27141		-16.1933
-90.2437	4.54837		-21.2047
-91.2338	2.38051		-25.0869
-80.9376	-30.1387		-30.0327
-82.0462	-28.5577		-30.8297
-79.7031	-29.9306		-30.5364
-80.7997	-32.4425		-28.4031
-91.7879	-10.2065		-31.7088
-92.123	-9.05269		-32.6961
-91.069	-13.3106		-31.2724
-91.665	-10.0022		-31.1241
-92.2202	-7.39384		-34.3672
-92.7487	-5.38462		-33.3446
-92.5837	-4.26402		-35.6589
-92.1196	-8.08732		-35.432
-87.371	-23.248		-23.1043
-87.8015	-21.0221		-25
-87.6376	-24.3054		-23.8936
-86.1258	-21.5315		-21.576
-89.7185	-9.85975		-27.4775
-88.6484	-11.9353		-26.2819
-89.7895	-8.44155		-27.222
-90.9243	-10.1056		-29.3894
-87.7929	-14.9698		-25.3116
-88.2744	-16.6917		-26.4111
-86.4984	-16.1006		-22.8403
-80.0132	-28.1442		-4.02565
-79.988	-27.3786		-3.45024
-80.6934	-27.7532		-4.91105
-80.3207	-30.3176		-4.78593
-79.8722	-25.7843		-2.70027
-79.5034	-25.9491		-1.81734
-80.3599	-23.7769		-2.79411
-81.637	-16.8135		-3.36753
-82.0554	-13.7496		-3.58527
-81.9696	-17.1377		-4.28131
-81.3978	-17.3574		-2.93744
-81.1353	-18.1364		-2.43862
-80.9698	-20.4993		-2.71001
-80.7505	-18.0384		-1.47991
-83.6064	-23.7973		-14.7206
-83.7035	-22.2148		-16.0921
-83.4298	-24.8869		-12.8008
-83.9989	-12.0028		-12.141
-82.9213	-15.7838		-11.7447
-84.3956	-10.9766		-10.867
-85.0546	-8.26539		-12.4545
-82.484	-17.5816		-11.2448
-82.7393	-17.5342		-10.3525
-92.7857	6.09948		-29.709
-92.9839	4.90984		-31.3966
-92.5619	5.54695		-29.0817
-92.8988	6.83357		-29.9783
-92.8379	1.17051		-32.1498
-92.6501	0.0322732		-30.6915
-92.6613	2.94518		-30.2017
-92.9919	2.55052		-32.9742
-92.8692	-0.494885		-33.0505
-89.8082	8.4653		-17.69
-89.5021	7.33169		-16.771
-90.5828	8.56371		-20.3626
-91.4853	8.47221		-23.7005
-91.0964	7.41024		-22.9821
-91.9804	9.76163		-24.6049
-92.5801	8.35955		-27.742
-90.5386	6.15184		-22.055
-91.8841	5.50785		-26.1801
-89.639	6.49033		-18.214
-38.8744	23.0179		72.773
-35.2913	22.2147		75.8788
-41.385	21.9412		71.3928
-27.9739	-94.8096		64.6731
-31.2792	-92.3032		64.3312
-26.2583	-96.9302		60.747
-46.2369	17.7904		66.038
-47.1877	16.5284		64.4783
-45.1572	19.4481		67.674
-50.629	20.3705		65.7157
-49.5305	23.2819		68.091
-53.0341	22.1664		64.3308
-50.5916	17.1488		63.8778
-48.5793	19.3247		65.9519
-73.7333	-47.836		-2.6129
-72.9892	-50.1547		-2.90205
-74.0522	-46.6328		-0.655104
-74.3935	-46.4123		-6.91745
-19.619	17.0208		67.4426
-20.0498	17.3057		67.4236
-19.8497	17.8395		67.4714
-18.2443	19.2636		68.9478
-19.088	20.372		69.9524
-17.8615	18.6914		68.9382
-7.79403	20.644		80.2953
-7.84868	22.7432		80.3976
-7.09961	20.8756		81.0981
-20.1162	-52.5434		86.9259
-17.4245	-51.8331		88.5938
-20.5138	-52.533		87.0036
-20.6636	-53.2064		85.8666
-67.3435	-67.6222		-9.81127
-67.8328	-65.8605		-9.85881
-66.7961	-70.1144		-12.2452
-66.8607	-67.3451		-4.8177
-80.3974	-5.77136		1.95274
-79.5717	-12.9744		4.76
-79.7633	-4.01814		5.44774
-81.28	2.23948		-2.22568
-81.2079	-6.52565		-0.806393
-66.8142	-71.8391		-23.1299
-66.5018	-73.4719		-18.8175
-67.3927	-67.8139		-23.4204
-66.2369	-74.1287		-24.8576
-63.0917	-109.221		-29.0299
-63.0001	-117.399		-29.6384
-63.1217	-111.374		-22.4831
-63.5438	-98.3511		-28.7769
-61.7635	-105.734		-36.4673
-25.2707	-55.2768		83.8503
-23.7718	-55.6517		85.0581
-25.1427	-55.1327		83.8697
-25.4002	-55.4389		83.8755
-26.9819	-55.5694		83.1093
-26.2373	-56.3343		83.9202
-21.7368	-56.3612		87.6715
-19.477	-57.2512		90.1498
-21.8494	-55.8553		87.3746
-34.0683	-90.7652		64.6415
-33.7276	-88.8434		68.7242
-37.7552	-89.0482		59.0258
-48.8011	-60.3322		-66.4332
-47.7373	-63.3452		-66.425
-51.5887	-59.3594		-62.6575
-47.4818	-56.5175		-70.4085
-56.9866	77.87		36.1121
-58.2281	73.7075		39.1531
-53.3934	81.3947		38.0024
-58.3332	80.2339		28.7399
-88.8733	-19.9717		-32.3143
-90.576	-14.751		-35.4938
-88.2962	-19.9507		-33.6269
-87.7491	-23.9721		-29.6337
-89.4146	-19.1072		-31.3651
-85.0329	-0.157592		-7.58257
-84.167	-4.55628		-6.35652
-83.8058	0.0943055		-6.8787
-85.6989	4.18487		-9.34135
-85.9873	-0.354072		-8.35647
-82.3299	-21.213		-6.47761
-81.9205	-21.8767		-5.43593
-82.3526	-19.57		-6.15458
-82.5671	-21.3901		-8.05177
-82.2413	-23.8241		-7.5221
-81.5595	-27.5848		-6.5778
-81.4493	-24.873		-5.44566
-82.272	-27.3027		-7.98785
-91.4336	-8.95521		-37.9384
-91.7647	-9.05819		-37.0583
-92.0788	-2.7507		-39.0207
-90.6433	-8.95906		-38.7577
-89.5902	-8.82519		-39.4167
-88.8756	-14.4343		-37.463
-90.0921	-2.77828		-40.3138
-88.554	-8.59985		-39.7804
-82.5634	4.15304		-8.30999
-82.6436	2.50042		-7.04575
-82.2711	5.02786		-7.92876
-82.6642	6.25178		-10.0114
-85.7208	-18.044		-36.6361
-84.0862	-17.5101		-37.4178
-84.5488	-22.069		-34.6072
-86.7865	-18.6305		-35.9449
-86.5774	-13.5499		-38.6116
-87.6062	-25.41		-24.602
-88.4678	-22.2772		-27.2223
-87.3085	-26.3678		-25.8063
-87.07	-27.4996		-22.3192
-84.9514	-34.1821		-22.4152
-86.3532	-31.4884		-20.9963
-85.9916	-31.0629		-25.1958
-83.5746	-35.577		-23.5049
-84.4852	-35.9848		-19.4651
-85.7848	-32.4146		-15.6189
-85.4539	-31.7245		-14.2271
-86.061	-31.3157		-17.2336
-85.3678	-34.1135		-15.8925
-76.6351	-42.2725		-12.1474
-76.7297	-41.3016		-7.67179
-77.4803	-41.4247		-13.6955
-76.1061	-43.1248		-12.6629
-81.2449	-38.7432		-12.4008
-81.3266	-39.6847		-15.0887
-79.9009	-39.8695		-12.9688
-80.9985	-37.1062		-9.68359
-82.5014	-37.4436		-12.1268
-88.4262	6.40238		-10.6212
-88.6555	6.35843		-10.9703
-87.248	2.80117		-9.66761
-88.3948	7.86485		-10.7257
-88.3921	8.76982		-10.9717
-88.077	8.75379		-10.9733
-89.5921	12.0624		-12.9397
-93.4679	5.31525		-34.4052
-93.5084	6.97516		-32.9681
-93.5764	4.67239		-35.2884
-93.2445	4.27511		-34.0507
-89.3304	7.38493		-12.7216
-89.7892	8.97733		-13.7174
-88.8868	5.84363		-12.9583
-89.2094	7.14501		-12.1665
-88.8357	6.314		-11.3647
-89.8537	10.5207		-12.8647
-88.2392	2.98127		-11.2083
-91.5261	-10.0463		-30.556
-90.2475	-13.5538		-29.4634
-92.1205	-7.14579		-30.8102
-89.2402	6.66595		-16.2152
-88.9173	5.83372		-15.0973
-88.5529	4.22348		-14.4898
-88.4783	4.06637		-14.005
-84.5965	-10.1633		-9.70256
-85.7114	-5.84353		-9.84646
-83.5081	-14.7101		-9.72387
-84.4586	-10.1528		-8.57543
-87.7512	-0.221841		-13.9058
-88.1172	1.61362		-13.4806
-87.9201	-0.505262		-15.7003
-53.6828	-57.4134		-60.8464
-55.1969	-57.7182		-58.1801
-53.9041	-52.9207		-63.2888
-29.7667	-25.0996		81.0295
-27.8571	-24.7134		81.939
-30.5057	-23.8015		80.7389
-30.1928	-28.1484		81.2996
-24.7239	-22.8521		83.4022
-23.4607	-22.9957		84.3859
-25.4461	-20.3838		83.3924
-25.2057	-23.7782		83.0323
-52.2771	37.9284		69.7368
-52.2497	36.0552		70.0645
-46.5075	38.487		75.7526
-52.6634	39.4649		68.8359
-57.2793	32.927		64.7399
-9.45089	-23.8612		93.4032
-9.7741	-23.3078		94.0942
-10.1442	-24.4483		92.3274
-8.40992	-23.9078		93.9668
-10.2492	-22.5921		95.2161
-11.2839	-22.2678		95.0567
-9.26331	-22.1562		96.8705
-46.0486	15.3982		64.2836
-45.7213	16.1106		64.7116
-20.0816	-14.8595		94.1115
-18.7733	-13.8843		95.8109
-20.4968	-14.8563		93.1683
-20.1732	-15.7124		93.8185
-66.2953	76.1483		14.5224
-67.6035	76.0188		5.52382
-66.4997	70.4935		20.6093
-63.8917	79.9221		15.5891
-28.4176	-58.4175		79.6059
-27.3048	-58.5661		80.7135
-29.0326	-59.1529		78.8242
-28.7267	-58.1641		78.4481
-27.6822	-49.9913		77.7645
-28.3128	-51.8581		77.5134
-29.1277	-45.6279		76.003
-26.2185	-50.3147		79.1654
-12.869	-22.0811		94.5511
-13.7501	-20.9828		95.5178
-13.9454	-23.1118		92.4384
5.87791	-22.1425		95.8621
4.78074	-21.8736		97.3937
5.60801	-22.8121		94.7839
5.33367	-23.3149		94.1848
4.01426	-23.6633		94.7478
-10.6508	-25.2171		91.3374
-11.6915	-25.5237		90.5873
-10.4296	-25.8279		91.0747
81.4447	-34.6489		-26.6884
79.61	-35.2384		-26.4615
81.9201	-31.8742		-29.0879
82.5389	-35.0667		-26.0478
80.1671	-38.0048		-23.2419
71.1947	-47.049		13.2573
70.9872	-49.6093		20.7716
71.1533	-52.7842		12.4239
72.5972	-45.7586		6.11722
72.5363	-42.2333		14.0198
58.6828	-116.352		-6.12794
58.5643	-106.228		-5.49126
56.4208	-117.481		-1.86724
59.2283	-126.544		-7.42911
60.8413	-115.163		-10.3595
60.3723	-134.05		-8.27596
61.2479	-140.078		-9.13865
62.4738	-132.48		-12.3518
57.4944	-135.74		-4.26658
53.2444	-100.579		4.59046
53.943	-94.712		5.86367
49.6165	-101.266		9.47745
53.1911	-109.122		4.07044
56.3376	-99.5054		-0.493921
61.7367	-96.4775		-13.5864
61.707	-103.856		-14.1861
62.9349	-95.1071		-18.7676
62.1422	-91.4842		-13.1947
60.5964	-98.1884		-9.11185
63.8048	-64.9261		27.2899
66.0707	-61.5997		29.6138
62.6527	-67.0516		35.4142
61.7301	-68.1337		24.5135
65.6131	-67.1125		16.215
75.1658	31.635		23.8358
75.7199	40.1265		17.9363
70.9941	33.3036		34.2113
75.0722	23.1404		26.7003
78.2758	29.6637		11.8959
79.5855	41.9937		-29.2898
78.8784	38.8602		-38.737
77.8892	49.0409		-34.2796
80.3262	42.5248		-17.7384
80.8681	34.5988		-24.5223
9.33629	-116.287		35.865
6.6568	-116.416		36.4618
7.47705	-119.865		35.3317
12.8698	-115.65		34.7985
9.37198	-112.259		37.6477
8.83822	-129.8		32.5715
10.4043	-142.25		29.9119
12.7943	-128.689		31.1735
5.61273	-129.954		33.4441
3.9665	-152.593		30.2165
7.79782	-151.794		29.6341
3.3082	-143.411		31.3673
0.426753	-152.511		30.316
4.631	-157.526		29.4038
68.3004	-53.6364		-31.7335
70.3961	-47.1137		-29.6783
66.9858	-58.6775		-26.202
65.7289	-60.7905		-33.8305
68.9304	-46.0854		-36.2287
69.9402	-40.7514		-39.6068
66.6753	-46.816		-42.7064
70.5409	-35.6276		-42.1539
72.8189	-35.7646		-36.5754
63.0577	-125.003		-29.175
63.0117	-131.829		-31.5317
61.5896	-122.82		-35.9878
63.407	-127.04		-22.7715
2.4132	-130.293		33.8767
1.91685	-120.096		36.5075
-0.564475	-130.282		33.9543
70.0573	-48.6646		32.7355
70.6405	-42.4439		32.7132
68.9294	-51.7846		40.3212
69.0317	-53.6483		32.0354
66.9435	-65.5059		8.45164
64.9256	-68.8343		6.72005
68.096	-64.7994		0.57062
68.7242	-61.6921		9.82034
6.6378	-87.0171		89.9246
2.25143	-87.2235		90.9624
7.48708	-91.869		88.0172
11.4143	-86.3333		88.191
6.58509	-82.2122		91.3565
19.0812	-84.8921		84.0968
19.5626	-89.102		82.3556
23.7593	-82.1739		81.0037
18.5996	-80.2982		85.1955
-1.20488	-78.1823		93.104
2.47166	-77.7705		92.818
-1.06439	-73.2668		92.7563
-4.54733	-78.2713		93.3011
-1.19755	-82.9823		93.0762
8.00093	-95.2792		84.9373
8.79054	-97.9905		80.8227
12.9337	-94.3497		83.0435
3.73045	-95.5811		86.0927
11.3149	-100.568		79.4558
7.31874	-102.302		80.0193
11.6875	-103.813		70.0038
18.2224	2.61262		78.7892
18.6213	-1.80049		81.6008
21.2346	0.570091		77.185
17.9623	6.47637		76.0868
15.4377	5.33846		82.1839
48.091	-25.2849		71.4291
54.6041	-25.7032		65.4171
48.1179	-19.8058		71.6214
41.713	-24.2818		75.9243
48.2556	-30.2496		71.1049
60.1299	-15.1512		58.6442
64.5631	-15.4825		52.721
59.7822	-9.54024		60.4166
54.5341	-13.9986		66.094
60.533	-21.1487		58.2
70.8929	1.14223		40.7896
72.8221	-0.216426		36.2209
70.3506	8.67932		39.622
68.6627	3.49954		44.6981
48.4023	-35.8054		70.4535
47.8716	-41.906		70.1588
53.7464	-38.0223		64.4266
42.3191	-34.4192		75.0659
-0.229839	4.57001		94.9536
0.368063	9.34915		91.2811
-2.19292	4.67533		94.8592
-0.811181	0.600938		98.4902
1.99279	3.9781		94.5873
32.872	69.4692		69.9248
27.3965	70.3216		72.1086
32.1021	63.3421		73.8117
38.8452	68.0087		67.131
33.7459	75.1261		65.8442
3.46711	-106.423		63.4222
3.33605	-107.68		54.5793
7.36256	-105.944		63.0567
3.0956	-105.323		71.1977
-0.0873501	-106.656		63.4644
65.811	-51.6742		46.702
62.5956	-53.1035		51.8299
64.2668	-55.8482		46.8988
67.0619	-46.6822		46.4764
-0.273107	-95.6821		86.6249
-1.31253	-91.6188		89.4833
-3.56032	-95.8678		86.6723
3.24563	-102.059		84.3589
3.43426	-103.104		80.0738
-0.0629378	-104.149		79.6594
41.1792	-86.2596		64.1618
35.8859	-88.7207		70.1077
40.5134	-87.5332		62.4493
46.3654	-82.254		59.8405
41.2876	-82.8319		67.3728
45.9261	-87.6937		41.1494
41.9366	-90.637		35.6404
48.4169	-83.4979		34.8643
48.3159	-84.2999		45.2077
40.8227	-90.7694		45.752
3.28009	-108.984		44.722
6.02157	-108.834		44.1026
0.599992	-109.098		44.7457
3.56462	-112.308		38.0386
4.83218	-4.24461		100.482
4.82084	-6.72565		102.67
8.51447	-5.44265		98.3807
4.89348	-0.972982		97.1858
1.48249	-3.36942		101.235
28.4101	-20.7129		81.026
30.8383	-22.2394		80.1496
27.4039	-16.0197		80.5388
25.2491	-18.1348		82.1119
25.0539	-53.1048		82.5137
26.9484	-52.661		81.9812
11.9512	-22.7228		91.5085
13.9628	-21.4331		91.8709
11.0821	-23.6966		90.8993
14.1475	-23.6079		89.5184
11.2266	-26.7435		89.8275
11.7654	-28.2231		89.7513
13.8997	-27.6692		87.6258
11.0512	-25.7791		90.028
8.8842	-26.3122		90.8543
-1.10786	-24.0115		97.0717
-1.18446	-23.0765		98.8618
-2.69682	-23.9899		97.282
-0.787033	-24.8764		95.5722
0.876703	-23.7123		96.4805
17.3575	-27.7638		85.7091
20.2788	-26.6706		84.9725
17.0021	-26.7558		86.014
17.7816	-29.0715		85.7639
5.41371	-14.7518		105.23
2.10603	-15.3664		106.704
5.11553	-16.588		104.254
8.86423	-14.7776		102.532
5.52704	-13.1383		105.672
23.1554	-63.6784		83.3024
26.165	-61.6406		82.0398
21.616	-60.7851		84.2215
19.6436	-65.3385		85.0648
25.1088	-66.991		81.7249
26.3097	-48.0606		84.5928
25.5205	-44.2723		85.6243
23.9925	-47.0271		85.6426
28.3482	-47.9984		83.2735
-0.255541	-28.978		93.8578
0.193094	-30.747		94.2741
1.97107	-28.6708		93.9738
-0.633949	-27.1855		94.057
-2.41208	-29.0906		93.7119
4.88783	2.84739		93.9044
8.18902	1.10167		92.3101
5.21977	6.96681		90.3214
20.6729	-17.7838		87.6531
19.5963	-15.3563		89.4625
19.7452	-16.3964		89.6338
20.7719	-19.2143		86.9456
21.2559	-17.7097		86.3566
3.13459	-25.4911		94.1058
3.0217	-26.9562		93.5855
4.61881	-25.6735		93.0127
2.95643	-24.5589		94.6385
1.33812	-25.5625		94.7149
2.71484	-23.779		95.7052
2.47078	-22.588		96.9187
18.3975	-14.7806		91.5236
18.1059	-13.928		91.7659
19.2088	-16.6522		90.6484
20.2907	-21.597		86.1854
19.6889	-20.0744		88.063
19.0115	-23.6804		86.0557
1.41181	-38.224		96.3409
1.8755	-40.1941		96.9451
4.27889	-37.8033		96.5526
0.94226	-35.8055		95.1358
-1.59908	-38.7769		96.469
23.395	-31.4409		84.4206
21.1514	-31.4028		85.3816
24.0826	-35.8457		85.3693
25.5624	-31.7533		83.5788
23.0599	-27.6768		83.6818
6.33703	-62.8926		92.9964
6.93703	-61.0693		94.0137
3.28726	-63.4421		93.7312
5.87582	-64.9987		92.2211
10.3039	-62.3024		92.1211
21.5992	-49.3161		85.1829
21.7328	-49.8916		84.7648
23.7612	-50.3636		83.8384
21.7449	-47.6484		86.4119
17.8242	-13.3473		91.5941
18.1626	-12.9069		90.1602
15.1815	-11.4822		94.973
14.6983	-61.9077		88.6152
15.0839	-64.2008		88.0868
17.5722	-60.6041		86.9165
13.9813	-60.4309		89.0194
0.894001	-63.7427		94.104
-1.78617	-63.7407		94.0441
0.494292	-65.6261		93.4581
0.588094	-61.9911		94.4536
61.5178	28.6895		56.6448
60.3204	28.0351		58.4263
63.8457	22.7619		51.5626
62.6586	29.584		54.8323
43.1537	54.5469		70.1392
37.109	56.1244		74.4405
42.7544	49.1814		73.2825
49.3494	51.8756		65.291
44.2583	60.2259		66.3413
55.3733	48.2225		59.9001
53.8595	44.2328		63.654
61.2222	43.3331		52.8853
56.6335	53.5685		55.5735
43.0117	41.6936		77.3444
43.151	43.8278		76.9459
36.5951	46.2572		79.7731
43.0149	39.7162		77.088
64.3599	30.4692		51.567
65.2076	32.6348		47.7933
58.6069	36.7796		59.4244
67.4385	23.9048		45.1327
24.6031	35.5731		79.7367
25.9245	31.2435		79.7285
28.811	35.6242		79.4971
24.466	37.1571		81.6792
21.8973	31.9942		81.4329
6.86724	17.023		83.3017
9.79502	14.5359		81.5535
7.06644	18.9693		82.3929
4.25566	18.8377		84.7546
6.39538	14.5232		84.7122
32.0837	-4.31248		74.1779
34.144	-8.54539		75.1234
38.6583	-5.19561		72.5971
30.5443	-0.450033		72.9141
27.0131	-2.81047		75.5083
60.5236	8.13165		55.2681
63.1941	6.31969		53.1904
61.2744	12.794		53.5743
57.745	10.1781		56.7538
58.1093	4.77073		58.4576
5.97809	11.0756		87.4112
9.03062	9.03899		85.9141
3.11813	12.7318		88.1981
43.1422	37.6772		76.9074
47.1024	36.9995		74.5662
38.3091	37.7343		79.8285
42.9056	35.5723		76.6663
50.8503	35.1972		71.992
49.8431	33.2116		71.9032
55.6296	31.8553		66.3486
57.1275	17.4045		57.3082
56.5818	20.6772		59.1882
54.8751	17.1007		58.8546
56.6307	14.2844		56.948
59.0918	17.3548		55.867
44.7001	19.9704		67.9971
46.5408	19.097		66.3356
42.9294	20.7425		69.69
41.0448	21.4874		71.0875
39.1382	22.053		72.0752
41.2758	22.4091		71.6623
38.9519	22.9392		72.6511
43.335	21.6861		70.2389
36.5196	22.3226		72.5491
33.7178	22.386		72.5561
36.2197	23.1848		73.057
33.2031	23.2584		72.9922
30.9104	22.3015		72.2147
28.3593	21.6237		71.2825
25.4716	20.6769		70.2727
22.3868	19.7877		69.92
24.1168	21.3888		70.5575
21.5408	20.2335		69.6634
26.9758	22.4726		71.8248
20.8889	18.5874		68.6571
22.8011	21.9426		70.9701
25.8797	23.3108		72.3519
35.9693	24.2846		73.7243
32.7236	24.3449		73.6319
49.8602	15.4551		61.9278
50.3256	16.4991		61.9369
48.9254	14.6549		62.3054
33.5909	33.7496		80.3944
38.2507	33.503		78.3188
33.1788	36.8114		80.0996
33.7439	31.5408		78.3951
47.9841	26.5331		70.8918
47.3379	24.0998		69.8486
48.7577	29.0877		71.3051
45.0776	27.3827		72.7386
39.2855	7.51291		68.0042
44.87	8.43619		65.6945
32.8858	7.95785		69.5432
39.8746	6.01576		67.9819
27.8111	9.35187		69.8393
23.7942	11.1498		69.7371
28.1017	8.05278		70.1218
19.8492	14.0851		69.2348
19.3005	15.0027		69.0825
20.7601	13.2714		69.2943
38.3718	10.5763		67.9516
43.1888	11.5512		66.0379
32.8918	10.8604		69.2287
22.3718	14.0257		68.4371
24.2772	13.202		68.7621
21.4538	14.5835		68.2766
20.7343	15.0216		68.2217
20.1973	15.5479		68.2091
16.3379	22.5517		73.9445
15.7166	24.8322		76.9013
17.2996	20.3859		71.3903
17.9761	24.2524		74.4375
18.8248	16.3383		69.1366
29.3866	24.0311		72.9942
17.9463	19.5112		70.4076
17.6827	18.0275		70.0939
19.0378	21.073		70.8593
38.1729	11.7074		68.0094
32.7993	12.0154		69.1723
22.2987	14.8216		68.0064
21.5211	15.1708		67.9771
24.2269	14.3043		68.3802
20.8636	15.4731		67.885
47.5873	18.1095		64.2105
4.01713	32.644		84.68
0.837246	33.199		85.4313
3.43042	30.1734		83.9448
6.60926	31.8443		84.2335
4.90212	35.4707		86.1293
21.9512	6.08612		72.739
21.568	8.04438		71.8161
19.8866	7.46812		73.3316
22.8158	3.27407		74.1652
25.0135	4.53456		72.2104
17.7618	8.98359		74.3673
15.6394	11.1273		77.4738
17.7278	13.789		71.1785
16.0539	14.5669		72.7965
17.7778	15.3048		70.3659
12.0627	23.0765		77.1816
13.3503	24.0439		77.8159
11.0486	24.2969		78.0258
21.8296	12.2827		69.5854
21.5316	10.9658		70.1933
21.4757	9.69087		70.9048
23.9875	8.18668		70.794
18.4325	-52.6467		85.0978
18.2625	-52.5853		84.9595
21.0022	-52.2919		83.4067
15.4241	-52.3052		86.6413
22.5811	-52.4514		82.8538
22.2462	-52.3254		82.8292
2.05236	-43.3452		97.6552
5.40358	-42.9975		97.2785
1.95829	-41.9661		97.8291
-1.61376	-43.7841		98.092
1.88382	-44.737		97.6481
7.84419	-45.2383		96.5563
7.95515	-44.3488		96.8607
5.08901	-45.6453		96.8951
7.5039	-46.6033		96.0692
10.2116	-45.6032		96.2524
12.3889	-45.8977		95.001
12.5055	-44.4931		95.6291
12.1744	-47.0073		94.0378
14.9659	-45.6729		93.4576
8.03526	-43.2873		96.9235
10.3681	-42.7488		97.1453
7.86245	-41.8341		97.0921
11.8193	-42.1312		96.1286
12.4752	-43.0145		95.9599
11.5624	-40.946		96.1068
9.54326	-40.5615		97.1808
18.2475	-50.8512		87.7423
18.0824	-49.4242		88.809
6.98399	-47.3669		95.3781
4.1311	-48.007		95.3416
6.57393	-47.8248		94.4021
9.4693	-47.1666		94.1489
12.2066	-47.3425		92.9346
12.082	-47.4111		92.2142
23.3466	-50.9431		83.8259
18.5956	-53.47		85.4901
18.5083	-53.3564		85.2712
15.4853	-53.4003		87.2688
18.6426	-53.1924		85.645
19.0265	-53.8598		86.386
18.8404	-53.6411		86.2799
16.5401	-54.7786		88.5212
13.2237	-52.423		94.1299
13.3108	-51.839		94.215
10.6732	-53.0778		96.032
13.4135	-53.0181		93.8468
6.86681	-51.1083		96.3095
7.43312	-52.7427		96.9816
10.1565	-51.3464		95.3927
6.53881	-50.0417		95.5331
3.928	-52.2554		96.7332
1.90434	-55.1687		98.3403
2.08591	-56.5249		98.6142
4.55978	-54.3155		98.1365
1.72582	-54.1474		97.7598
-0.569747	-55.8371		98.0792
22.9292	-53.6721		82.0064
22.6002	-52.9183		82.7366
22.9837	-55.0336		81.2903
20.97	-53.4045		83.2991
0.887547	-49.5165		92.9505
1.0405	-49.9421		93.7517
3.19324	-49.5762		92.8835
0.979053	-51.2257		91.9133
-0.995638	-50.6836		92.893
2.14228	-57.2366		98.7182
-0.487919	-57.8618		98.4999
2.13677	-57.7684		98.6004
4.95148	-56.2873		98.5347
1.51992	-60.8123		96.1102
4.27529	-60.1232		95.7192
1.59134	-59.4024		97.1843
-1.37598	-60.9166		95.8628
7.4891	-40.8446		97.055
6.67809	-39.4152		96.9652
5.1725	-40.4458		97.3995
1.50851	-52.474		97.0451
-0.772629	-52.6633		97.0226
1.26889	-50.9333		96.2347
1.11613	-50.1628		95.6056
3.49503	-49.9522		95.1763
1.1432	-49.8677		95.0224
-0.939152	-50.7564		95.5188
6.33479	-49.3252		94.9377
9.35961	-49.4044		94.0736
6.17965	-49.0708		94.5476
1.14646	-49.7623		94.4845
3.34249	-49.636		94.3011
-1.06302	-49.828		94.5739
12.2068	-49.2647		92.8254
12.0399	-49.0235		92.3943
12.569	-49.8621		93.3737
14.3268	-58.1989		90.1606
14.1358	-58.6621		89.8165
13.9555	-54.9791		93.9184
11.3093	-56.5862		95.3286
8.11704	-57.3472		97.0105
7.87984	-58.1123		96.1039
8.30404	-56.7145		97.5115
4.99292	-58.1598		97.9754
1.89637	-58.639		98.0117
-0.753727	-58.8719		98.1402
12.0458	-47.5868		91.7682
9.21899	-47.5519		92.9794
11.8697	-47.417		91.2875
25.497	-52.6613		82.6545
24.4259	-52.9106		82.5115
22.5418	-52.6152		83.2754
21.1459	-53.0039		84.3761
5.96929	-49.6749		92.4896
5.87668	-48.8871		93.3298
8.50508	-49.1367		91.5351
5.64325	-50.4394		91.2829
5.91959	-48.662		94.0428
9.01062	-49.0529		93.1695
7.6651	-59.5995		95.504
10.8832	-58.7891		93.959
13.7148	-54.0189		93.9729
11.1772	-54.9904		96.0453
13.9825	-59.2831		89.4701
16.814	-58.0195		87.8427
11.5153	-47.0177		90.8969
8.9742	-46.9665		91.7662
10.9089	-45.541		90.0324
13.8283	-47.1476		89.1409
6.22307	-47.196		92.3433
3.84882	-47.2689		92.4462
6.45147	-45.6931		90.8174
6.13108	-47.5878		93.1379
10.6723	-42.9842		88.614
8.44	-43.0291		88.8114
10.7266	-40.2976		86.9838
12.8837	-42.9514		88.0686
21.928	-55.9183		80.3633
21.5845	-58.8968		80.1151
20.413	-56.5142		81.4746
0.357107	-53.7018		90.4895
2.16474	-53.2452		89.9552
0.0663379	-57.4397		89.5871
-1.52833	-53.7808		90.4345
6.60323	-43.7954		89.2203
4.38453	-43.2879		89.5935
6.33632	-40.3454		87.8453
4.98925	-53.2631		89.6713
4.15472	-57.1351		88.4331
7.89764	-53.3455		88.9518
27.3005	-56.4607		77.233
27.9024	-56.2345		76.2203
12.0339	19.9269		73.8412
13.1861	14.6264		78.0964
81.7633	-9.13286		-42.8092
80.9556	-13.6463		-42.0214
79.904	-8.47448		-46.1411
82.2039	-3.51112		-43.6734
83.1847	-9.70422		-41.105
82.2423	8.82975		-6.22295
82.351	12.1266		-10.817
81.4724	10.4331		-0.83495
82.375	14.3142		-15.9502
81.9564	20.0088		-17.3705
82.8618	9.28952		-16.9422
82.8392	14.0991		-22.9702
75.5606	-33.0437		-34.1168
78.0886	-30.8471		-32.4681
74.2689	-36.808		-31.7297
76.8392	-29.2668		-35.8392
77.8066	-26.0544		-37.4218
75.271	-27.7484		-40.522
79.0245	-22.1463		-39.0584
80.1012	-24.8362		-35.5329
84.676	-9.66544		-40.1999
86.2064	-9.1434		-39.8494
84.0965	-13.8772		-39.2212
84.9665	-3.61255		-41.1468
86.4759	-27.9287		-30.3315
87.7178	-24.1437		-32.1315
87.208	-28.3868		-29.0854
85.1618	-31.6897		-28.0432
91.1331	-18.2914		-30.2174
91.1275	-17.7346		-29.4746
80.4257	-40.6385		-19.5918
80.9072	-40.8796		-18.8541
80.0169	-41.3459		-17.5366
78.9335	-38.7445		-22.131
81.0478	-32.457		-7.46029
80.5454	-32.9841		-7.26302
80.1261	-33.9574		-7.43545
91.0776	-17.3766		-29.093
90.6694	-18.1498		-28.0566
94.1325	-1.44565		-34.0334
94.2409	-1.05184		-35.4934
93.9533	-2.70451		-32.3957
94.4983	7.97122		-31.4478
94.7644	9.25105		-31.4716
94.9293	11.3948		-30.5101
94.3722	11.1529		-28.2677
95.1022	11.8712		-30.9184
94.5976	13.4713		-27.4235
85.4647	-11.7239		-6.55123
86.0521	-4.61115		-8.13022
84.9113	-11.0347		-5.29416
84.582	-15.8441		-5.83396
79.8174	-26.7995		-0.244735
79.0016	-27.2431		2.34782
78.6608	-29.651		-1.1777
81.2762	-23.7236		1.20218
84.034	-22.9557		-7.70718
84.3566	-25.0707		-8.34291
84.0597	-20.9318		-8.04478
82.8585	8.78592		-16.9121
83.0996	10.2694		-20.5694
82.8962	8.7845		-16.7141
90.8774	16.6377		-17.7029
91.808	18.3606		-20.7845
90.0048	17.0339		-18.869
89.5534	13.3051		-14.5848
91.6325	15.9528		-16.7469
91.296	19.0326		-25.7684
90.5656	18.7835		-22.8073
91.5807	19.1742		-25.2696
91.7347	17.74		-29.3319
90.4684	17.9468		-27.0832
92.1308	3.82841		-39.9416
91.3778	3.3728		-40.1078
92.3818	9.71325		-37.1294
93.2062	4.09314		-39.5682
87.1315	-0.0708412		-9.02114
87.3004	-1.1682		-9.668
94.9173	3.15068		-37.0407
95.302	8.1798		-34.6667
94.7003	0.445018		-37.206
94.9532	3.06608		-37.4034
94.0562	14.3253		-23.5138
93.1734	13.7541		-19.5244
93.8795	12.9586		-24.205
94.1528	15.345		-22.9268
88.4787	1.18479		-12.3478
87.8137	-0.367137		-11.8712
89.2294	3.00151		-12.9802
94.4628	3.85459		-34.3387
94.6261	1.88906		-36.1773
91.9139	6.29783		-22.6271
91.433	4.91915		-21.8297
93.17	5.82246		-26.7575
86.0923	-5.15979		-13.563
86.3306	-4.91011		-14.269
86.6959	-3.41648		-12.5398
90.8797	-4.05583		-27.535
93.0806	-1.46595		-29.6694
90.8942	-3.76496		-26.8042
90.6683	-5.19371		-27.7038
81.7673	-19.6743		0.951067
82.4174	-15.0197		-0.0459454
80.8657	-19.9493		3.4417
85.4895	1.42093		-39.5832
84.1784	0.715499		-40.4409
85.5778	5.70033		-37.5938
86.7253	3.57373		-38.7558
88.9637	8.52414		-36.286
88.6848	12.1482		-32.9351
91.279	13.0632		-34.1363
89.1421	4.47993		-39.0536
90.4167	2.44038		-40.0056
88.8417	-2.73855		-40.7057
88.3335	-8.62575		-39.6918
81.9722	-24.3908		-34.5806
80.8451	-27.2528		-32.9469
82.7835	-21.0939		-36.2546
83.4755	-17.6178		-37.8504
81.7831	-17.8507		-38.8836
90.1779	-18.2764		-26.9406
79.769	-30.0194		-31.3607
78.7377	-33.2346		-29.49
81.0101	-29.7236		-30.9051
78.5982	-36.7855		-24.9395
78.1493	-36.7951		-25.2863
78.5484	-41.171		-19.717
79.7627	-41.0694		-14.7272
79.3535	-41.3045		-14.5621
78.7781	-41.2909		-14.2351
90.8564	-5.86073		-28.1299
92.8816	-4.48075		-30.3675
84.5592	-10.4223		-4.17553
84.0392	-9.8862		-2.96431
82.2231	-24.1636		-2.11414
82.5686	-24.2883		-2.68208
84.4541	-27.8539		-8.72518
85.2498	-29.6929		-10.5478
84.7685	-26.9308		-9.33892
84.0128	-18.8977		-5.19555
84.3985	-18.9308		-7.11722
88.4503	13.9583		-29.6606
86.0587	10.3162		-32.5997
87.5232	14.5626		-26.4126
85.1311	8.84557		-34.5542
84.7183	8.55552		-35.6529
84.4825	10.8287		-30.1166
83.9209	-18.9856		-9.94293
84.1723	-18.8853		-9.12543
93.7579	4.94966		-29.2007
93.6184	3.52305		-28.9335
86.7495	-4.1291		-15.6178
86.1353	-6.48236		-16.5699
87.865	-3.07573		-18.2582
90.8496	-2.96971		-26.3429
92.5063	0.780985		-27.8421
90.3004	-2.92404		-24.9678
8.22187	87.0072		64.661
8.16916	79.8458		70.4203
16.1713	84.5529		65.2298
8.41723	94.2304		57.3035
0.000135019	87.014		65.0264
7.61869	71.3198		76.3568
-0.153405	70.5943		77.0874
8.07761	63.6375		80.9357
15.5104	70.9319		75.0523
31.1526	57.0465		78.1272
30.7694	55.1669		79.9293
26.0144	60.6333		78.9365
-1.41668	-22.0832		101.078
-1.30516	-20.8175		103.146
-3.1352	-21.9249		101.392
0.881454	-22.073		99.8739
-0.986731	-12.0852		107.961
1.99595	-11.898		107.14
-1.0012	-10.2379		107.39
-3.72646	-12.2508		108.135
-0.907624	-13.9227		108.083
-0.863294	-15.743		107.745
-3.68422	-15.7999		107.861
-0.901676	-17.5388		106.813
-0.781216	-25.9174		94.7431
-2.56845	-25.9806		94.6124
0.479961	-33.3195		94.513
2.9527	-33.0617		94.8235
-2.03908	-33.5603		94.4911
-1.06198	-19.1823		105.318
1.53386	-19.1601		104.145
-3.5405	-19.0662		105.567
-1.1835	-8.22799		105.997
1.71107	-8.36722		105.261
-1.29196	-5.9435		104.36
-3.95981	-8.21423		105.906
8.03117	46.2458		87.7286
0.883816	47.0543		89.4084
7.39619	43.2938		88.1773
13.5177	46.5759		85.8291
7.95874	50.331		87.2958
2.23811	19.9494		85.1167
1.79962	17.3036		86.4277
2.59694	22.1046		84.2887
0.585567	20.2741		84.9673
2.97847	24.0347		83.8287
4.81634	23.0397		83.1448
3.01699	26.0439		83.3118
1.14463	24.4228		83.8583
1.28551	-47.7389		92.1169
-1.17488	-47.8336		92.1066
1.57124	-46.2771		90.8612
1.06564	-48.4903		93.3979
1.0632	-48.6341		94.236
-1.11364	-49.2385		94.2323
3.40095	-48.5612		94.0771
1.15702	-48.4958		94.7252
1.84826	-45.5894		97.4525
1.68727	-46.9217		96.7057
-1.53822	-46.4076		97.2877
1.40185	-47.8802		95.6806
-1.28054	-48.1027		95.7617
2.09855	-40.8991		97.5724
-1.67748	-41.9108		97.7709
1.752	-43.3504		89.4083
1.43952	-40.575		87.7592
-1.2701	-43.8006		89.0824
22.676	83.6449		64.3031
22.3194	77.297		69.5324
28.6939	82.2054		63.0475
23.2187	90.3719		57.457
20.5917	49.6561		83.9112
19.962	47.3029		84.3234
26.1967	50.1206		82.9834
20.0784	53.1155		83.1515
21.6755	44.1674		83.6317
22.9969	41.1447		83.1324
26.6422	44.5769		83.6641
24.3054	38.928		82.768
20.2918	38.0747		83.5477
28.6846	39.5617		82.673
28.4888	25.0095		73.6961
27.8396	26.591		75.0364
24.738	24.1886		73.0194
32.147	25.4691		74.3455
30.1434	23.0661		72.4253
26.7871	28.5694		76.9432
30.6325	29.1129		77.048
23.4886	27.6442		76.3669
47.5373	86.1107		41.0543
48.5011	91.4531		31.0316
41.6646	89.6188		43.5931
47.1869	80.6557		48.5948
34.377	80.6884		61.0412
34.996	86.4532		54.7312
40.2186	78.5683		58.1049
30.7433	50.8518		81.9521
31.4364	48.8126		82.0108
36.2624	50.5587		78.9307
32.5964	40.2674		81.5634
32.6041	41.9995		81.8265
31.944	45.4653		82.1953
34.1549	28.9879		76.6987
35.2171	26.9082		75.2852
38.3808	28.4958		75.6943
46.6591	75.8479		54.1554
52.7856	72.6731		48.7857
45.8868	70.8782		58.5823
43.0045	45.9846		75.3833
48.1927	44.1519		70.4858
41.8139	24.5418		72.8545
41.8703	26.0639		73.6259
38.9484	25.1277		73.9873
44.3237	23.7058		71.2264
42.6175	33.3328		76.27
42.3004	30.9142		75.4154
45.8433	33.129		74.4371
42.0105	28.1485		74.4736
45.0866	65.7106		62.8628
51.4132	62.6265		57.5746
58.5277	69.9936		42.0184
57.9683	64.7393		47.0084
63.5114	67.7812		33.9976
45.2278	20.7261		68.3911
47.0099	19.7822		66.7319
46.9023	22.6009		69.212
48.6532	21.2251		67.4202
46.0858	21.5695		68.9604
49.4107	31.7831		71.5787
53.454	28.3732		67.1449
19.2105	30.4487		80.3715
16.9197	28.5332		79.0593
19.9398	28.621		78.1309
18.3792	31.942		82.1974
16.8626	35.1328		82.6514
14.2846	31.2701		82.1184
20.4947	26.0436		75.3393
21.0616	24.0917		73.2781
6.88877	39.6703		87.9215
1.60445	40.6607		89.111
68.5352	-65.5656		-7.21523
70.0249	-60.5473		-5.45938
68.8142	-65.6862		-13.8169
81.0385	22.9382		-37.434
80.6985	19.153		-43.2001
79.7624	28.5865		-42.2179
81.4675	25.2012		-29.4126
82.2911	17.1747		-32.299
77.4065	-7.25436		-52.7489
76.4973	-14.1867		-50.4179
75.2192	-8.15302		-57.6413
78.1812	-1.79741		-52.312
79.1003	4.13667		-51.9501
76.9502	5.87945		-58.3824
79.6753	9.68587		-50.165
81.2272	2.05375		-45.7813
71.8042	-31.1325		-45.0709
68.9808	-34.7572		-48.7962
73.6298	-25.7887		-46.9575
7.90621	56.6014		84.816
0.426596	55.474		85.4742
14.4622	57.0658		82.8551
20.4399	58.9253		80.6374
21.251	63.874		77.8575
23.6083	-101.193		60.5497
22.104	-102.194		54.6799
30.1994	-98.3788		55.2221
17.3284	-101.969		66.6983
50.1151	-81.2996		48.8642
44.6151	-87.269		53.8479
54.4993	-77.7464		43.7168
51.0219	-79.8986		52.2758
57.4931	59.1535		51.1318
62.7005	55.5732		43.7265
21.7117	70.867		73.7509
68.1283	66.7417		22.8004
71.9314	64.5306		13.0356
67.9587	59.9932		29.6385
24.1342	97.8099		48.2843
30.1956	95.4459		47.2224
23.9496	104.993		36.3392
17.4386	99.3394		48.6917
66.3683	37.6776		43.3689
67.03	44.7404		39.4769
49.4787	19.4402		64.8824
59.1588	27.168		59.8135
60.3861	22.0519		55.9624
57.4196	26.198		61.4284
55.9556	24.8418		62.5125
3.96244	-116.767		36.8214
1.46131	-116.886		37.2937
59.4828	-69.1941		43.0621
61.0802	-66.0137		45.6751
56.1876	-72.4377		50.4232
58.3098	-72.172		40.0498
6.0251	-37.9763		96.172
7.94566	-38.0289		96.0863
5.22489	-35.8137		95.1329
21.5738	-45.5583		87.5134
21.054	-42.3522		88.3977
19.1085	-44.1747		89.8018
8.98919	-33.9109		94.4445
6.2196	-33.7459		93.9651
9.8309	-36.2421		95.2934
11.6289	-34.9092		93.318
8.03937	-31.5973		93.3281
30.0676	-48.197		82.0561
28.8678	-50.5511		82.1335
31.6925	-48.1422		80.9764
30.1642	-45.8914		83.3506
65.7251	16.4737		48.2393
63.4485	16.8197		51.274
66.3913	10.3698		47.5312
67.4698	16.416		44.8524
69.1416	16.5363		40.5928
71.5684	16.1532		35.1173
53.3032	16.9788		60.0197
53.2182	14.8738		59.3958
61.3597	17.2049		53.5387
83.5378	9.32065		-37.5333
83.4371	5.57346		-40.4987
82.0576	11.3779		-41.5152
83.6112	11.7635		-33.5919
79.945	-18.0809		-40.8529
77.8324	-18.5741		-43.9884
72.565	-52.5578		-16.2443
74.322	-48.3996		-13.9615
72.0409	-54.7782		-9.85913
70.7994	-57.9234		-18.7458
71.9426	-47.5701		-22.3603
82.8286	1.13674		-42.2047
77.8086	-27.999		5.17424
76.4622	-30.9671		4.45799
79.3364	-25.0972		6.7145
76.2496	-27.7072		9.45358
75.7052	-1.24503		29.9241
75.841	6.67612		28.7034
75.0366	-8.46001		31.1914
77.943	-3.361		21.2858
55.828	11.2398		57.7046
54.0129	12.3005		58.8149
53.9083	8.74458		59.8068
52.4778	13.1956		59.8149
51.2405	11.7334		61.111
74.9368	-27.651		15.4393
73.5111	-26.5901		22.8744
73.937	-31.567		15.4845
77.1598	-25.6179		16.8679
25.9869	-11.0882		79.7343
30.0134	-12.558		78.3796
24.7528	-6.10739		78.4476
22.7704	-8.85017		81.4218
34.8285	-13.7679		77.0265
40.6811	-14.5078		74.6818
35.0475	-18.5606		78.0891
19.1598	-6.27111		83.86
15.5893	-2.54668		88.5826
19.522	-9.93402		84.9249
22.6718	-17.3468		84.5115
21.3358	-14.9266		85.1454
17.2445	-16.5431		92.9046
15.0682	-15.3378		96.2621
16.9438	-18.4217		92.1654
18.3538	-17.6623		91.2494
19.0619	-18.7481		89.7128
18.3223	-20.9566		88.9881
36.3436	-33.7499		79.2753
31.6666	-32.927		81.5486
36.7991	-38.8165		79.3611
36.0337	-28.7728		79.159
35.2882	-23.5209		78.8457
3.37074	-28.7815		93.293
3.89806	-30.7733		93.8046
4.92839	-28.9562		93.0703
58.402	-51.4709		58.4745
59.2318	-45.1189		58.7361
53.4044	-49.512		65.1501
57.1602	-57.7971		58.3197
24.4851	-40.1591		85.9117
22.3191	-39.4087		86.9206
27.1799	-41.0999		84.9939
37.0076	-44.1662		79.4632
36.5773	-49.5153		79.5211
41.8372	-45.9666		75.6285
32.6691	-42.738		82.2458
4.66394	-33.2379		94.5704
55.6513	-63.7247		58.3671
59.3832	-64.1345		53.0513
51.3272	-60.4106		65.7214
52.9729	-68.4976		59.9525
59.5934	-27.2231		58.5568
59.4466	-33.2856		58.7157
64.7805	-28.4469		52.741
30.6181	-91.3892		75.9175
31.0591	-88.2913		77.4895
25.4169	-94.3884		79.3625
40.9841	-78.9014		70.3801
45.2513	-75.6538		66.696
39.3505	-75.0203		74.1324
36.1027	-81.9779		74.9323
58.2651	-4.70722		62.1664
56.5187	-0.28902		62.4457
52.0622	-4.59151		67.8124
48.5878	10.1356		63.4452
49.8414	8.51271		63.5016
54.6946	2.57165		62.3784
49.4185	1.56618		66.5876
52.6347	4.80973		62.9107
46.7374	13.1174		63.9324
-1.01369	-87.7656		91.9239
-3.96936	-87.9307		92.7049
46.2912	-58.1386		70.971
44.7418	-62.1149		71.7759
47.0998	-53.5677		70.5245
41.1124	-55.7639		76.3577
37.2701	-71.8875		76.4932
40.0529	-68.9575		74.532
34.0129	-68.5936		79.5415
33.1192	-74.5648		79.1816
45.2038	-5.47455		70.2922
46.431	-9.61433		70.8392
44.1605	-1.81988		69.7634
47.856	-47.9152		70.1866
47.3885	-14.1782		71.283
6.62851	-77.396		91.8274
6.24932	-72.4144		91.7948
11.0591	-76.293		90.1353
18.0203	-75.6579		86.1607
22.5166	-73.2101		83.0197
16.6016	-71.1013		86.7721
43.2065	0.786313		68.8505
41.8685	2.76569		68.517
35.8957	1.04099		70.5418
51.0979	6.68796		63.1531
46.8307	5.31269		66.8876
40.8428	4.51305		68.1773
33.9843	4.77224		69.5112
11.7385	-0.865207		90.366
11.838	-4.19753		93.0461
11.7511	3.03465		87.168
12.2018	-10.3959		98.624
12.1594	-9.05019		97.4546
8.9107	-9.42928		102.075
12.4209	-11.3281		98.9275
12.8596	12.8092		79.5365
12.5682	10.4276		81.6299
23.7757	-1.48246		76.476
1.06071	13.6624		88.4047
-0.677239	13.9302		88.4111
66.0206	4.4305		49.8152
12.1204	7.00652		84.1415
62.408	-61.5558		47.0352
66.1149	-61.8716		39.0577
69.647	-15.956		46.5819
69.978	-23.0827		47.7196
72.4853	-15.2842		40.1717
67.8489	-40.7692		46.5016
68.4857	-35.1697		46.4924
64.3118	-40.5889		52.3763
70.2033	-38.5647		40.7002
69.5708	-29.6626		47.4561
71.9907	-28.9256		40.6356
19.0393	-92.4555		81.2188
5.78241	-68.1802		91.7385
2.658	-68.891		92.756
9.90441	-67.4653		90.7028
15.6298	-67.3441		87.6097
28.2083	13.2868		68.9583
29.9001	2.38513		71.2233
29.2935	4.56889		70.3304
28.7976	6.1087		69.8182
-0.411523	-69.0393		92.9253
-2.87779	-69.2235		93.2674
6.95481	26.5176		82.154
8.55812	25.5321		81.1399
7.69371	28.5506		82.4785
5.23402	27.2341		83.0101
6.76567	24.0898		82.0297
19.6505	16.4194		68.4457
19.4234	17.5279		68.687
17.6665	16.6197		70.1318
10.0113	24.2195		80.0183
10.8371	26.3998		79.8998
3.14052	28.0615		83.3789
1.08634	28.4713		83.7689
2.94191	-21.62		98.6649
3.57438	-20.4297		100.527
5.49272	-11.6499		105.743
5.55294	-10.2072		105.375
9.0199	-11.8327		102.704
16.9796	-25.3686		86.4386
16.6505	-24.0982		87.5057
13.5579	-25.7473		88.2622
4.96615	-8.67012		104.004
7.01333	20.9808		81.679
8.96985	30.9933		83.3092
10.774	29.8819		82.1119
19.2664	19.0737		70.0928
12.2737	28.8321		80.7948
13.7649	27.7226		79.6689
14.671	26.3054		78.2016
18.9595	-31.4577		86.2025
15.3207	-30.7861		88.2804
19.5612	-34.7185		87.3555
20.4194	-38.6444		88.2185
17.506	-37.492		89.3973
21.5825	-52.0024		82.5513
21.5039	-51.8906		82.2787
19.7695	-52.6447		83.9223
21.8415	-50.2362		84.1278
20.6261	-50.2555		87.4581
21.4347	-49.3969		81.3184
18.3563	-48.8544		83.1213
21.3755	-45.8252		80.1521
12.6154	-30.3767		90.0871
9.79891	-29.6762		91.6287
13.5958	-33.0561		90.9971
14.6558	-35.9177		91.764
15.4334	-38.6663		92.483
17.5821	-52.3377		84.9025
16.2501	-51.2324		85.167
15.5833	-48.1805		84.3682
15.6401	-44.4967		83.09
7.25355	-29.6219		92.5256
6.61873	-27.9415		91.5581
10.9258	-38.9655		95.7798
13.6814	-40.0791		94.6163
19.151	-11.8821		87.1016
15.6235	-8.87029		90.6032
-1.19821	-2.98069		101.84
-3.59649	-2.91005		101.636
11.8565	-6.93879		95.5402
4.36577	-18.5668		102.724
7.69124	-18.5369		100.475
10.989	-18.5483		97.5437
11.8668	-16.6212		98.4732
13.8735	-18.7292		94.5961
15.9997	-20.2776		91.378
16.6631	-21.631		89.7807
16.6602	-22.968		88.4504
12.4159	-12.2538		99.3917
12.2962	-13.4354		99.5902
12.1646	-14.9537		99.2574
40.5217	-142.768		15.5189
34.9586	-143.155		18.191
41.4766	-148.538		15.0011
44.7371	-141.125		12.9752
39.0572	-135.122		16.4242
36.8776	-124.053		19.4507
41.1761	-121.871		15.0874
33.6819	-111.595		20.1132
29.8732	-122.814		21.1184
37.7746	-93.9432		29.142
41.5584	-91.5525		25.3351
35.1172	-97.3381		34.7194
35.7832	-98.7255		25.365
34.222	-104.273		22.5191
29.2437	-105.888		25.7403
40.1543	-104.805		19.2069
42.9429	-65.7459		72.8268
46.7551	-68.667		68.4329
38.6224	-62.7428		77.3171
49.8263	-72.4177		62.4213
51.2388	-75.547		58.2797
51.6761	-77.7816		55.4166
35.0385	-60.3222		80.1121
35.9461	-57.3729		79.9349
29.6876	-53.0451		81.5839
30.9049	-57.3108		80.6396
27.9797	-52.6619		81.9073
26.5256	-53.7936		81.9816
46.5416	-91.451		20.9176
47.7026	-85.8325		24.4494
45.6921	-96.7198		17.849
50.6999	-89.5193		14.482
51.5855	-81.3293		29.4792
53.7353	-80.2038		21.8032
54.1796	-77.7581		32.9415
55.3708	-74.0559		35.6287
58.3896	-72.9417		28.8546
45.891	-120.439		10.986
47.1453	-131.57		11.1658
49.8146	-119.874		8.18292
44.8691	-109.863		12.5846
48.2812	-139.752		10.175
49.4747	-145.969		9.09018
51.8308	-139.03		5.98938
44.4015	-102.585		15.2032
73.034	-28.5452		32.059
72.5615	-32.6504		32.7574
74.1684	-23.4713		32.2225
60.5407	-73.9671		19.4963
59.2285	-77.7637		16.1798
62.2069	-73.7737		11.8523
75.2729	15.679		27.8661
78.0327	13.9365		16.9882
67.7877	-58.0965		31.1169
68.9747	-59.4582		19.1206
71.9588	-38.0665		33.0216
71.6315	-37.1581		22.1938
74.5488	-16.093		32.3612
76.3412	-18.3526		23.2864
73.4628	-36.9765		15.239
74.3332	-35.7205		8.46631
59.2903	-88.327		-2.83215
58.8596	-93.2924		-4.09004
61.1763	-87.8316		-7.51307
59.8816	-83.9455		-1.19322
57.2871	-88.8157		2.12681
58.6637	-98.7216		-4.95147
60.8453	-80.0061		1.0913
59.3119	-80.4903		6.71465
62.3624	-78.8845		-4.75487
62.0463	-76.3386		3.09346
79.5932	-4.48213		13.2305
79.9024	3.36989		9.94866
78.6553	-12.6202		15.4477
80.3414	11.8164		7.17118
80.5123	19.7801		4.69022
80.3802	27.6818		1.02656
81.286	27.9055		-10.3094
80.623	35.8086		-2.56153
70.0193	-57.5159		11.2255
70.9987	-56.5347		3.1817
77.8692	-19.4474		16.6621
79	-20.198		10.88
53.5665	-118.966		2.90986
54.0604	-129.821		1.75505
57.441	-81.3323		13.2854
56.1145	-85.3658		10.3178
54.7287	-137.493		0.379488
55.6482	-143.277		-1.22059
62.0767	-113.487		-14.7758
62.5942	-122.692		-15.9744
62.504	-86.5218		-12.4603
64.1273	-85.2365		-17.5047
63.3301	-82.1376		-11.4508
64.4322	-77.9753		-10.3463
63.0054	-129.003		-17.4447
63.9506	-135.765		-19.0625
71.4953	-56.0573		-3.98561
75.6914	-34.5422		4.36709
76.6964	-32.9396		0.834113
75.0001	-39.0148		2.58889
79.9268	-20.2831		6.67792
63.3585	-93.7402		-25.2176
62.1614	-89.5955		-32.2921
63.8607	-87.1978		-24.1714
64.5506	-80.1397		-22.2663
64.3426	-74.9877		-29.8321
68.9595	-64.133		-20.5371
75.4898	-45.6309		-12.7151
76.7052	-42.8392		-19.3813
58.7008	-119.884		-44.0761
58.8739	-127.4		-45.5751
55.5347	-117.057		-51.4224
58.7474	-111.895		-42.5569
72.886	-42.6147		-27.4585
75.4835	-39.155		-25.9937
77.2354	-37.4901		-25.4656
30.1961	-144.983		20.398
28.3373	-137.575		23.2821
25.1544	-146.744		23.6853
31.3062	-150.144		19.5749
24.0601	-107.85		30.2436
20.2011	-109.952		34.1292
23.1529	-114.154		27.7791
27.3969	-103.899		33.8152
35.8523	-94.4067		50.7068
33.6991	-96.6411		44.6048
37.7163	-92.893		55.5651
31.4237	-100.416		39.3766
25.5362	-102.138		42.9606
24.373	-123.852		25.1476
19.2863	-125.243		28.2095
28.3009	-59.1739		80.7782
26.221	-56.5989		82.0182
39.2822	-90.2534		59.6905
24.6731	-54.6754		82.6293
22.9948	-56.5642		83.6317
24.2841	-54.5587		82.5337
23.8188	-54.0581		82.8144
22.1718	-55.1228		83.6304
26.6851	-71.0844		80.5768
28.2905	-75.222		79.3108
31.2413	-84.9798		79.0134
18.5197	-53.4216		86.0989
15.9046	-54.2781		87.9249
18.2917	-53.3781		85.1268
20.9483	-52.8308		83.9906
18.2943	-53.6369		84.8611
14.2791	-48.6971		89.3288
18.245	-53.6269		84.4668
18.2615	-54.6044		84.052
13.8896	-49.1742		88.4714
17.87	-57.0163		83.1375
17.261	-59.4521		82.3637
15.136	-57.2034		84.4473
16.1154	-111.435		37.438
17.9671	-107.867		40.205
13.6106	-116.619		33.3293
20.2561	-147.94		25.8669
16.3622	-137.535		27.1314
13.784	-147.69		27.1798
21.6732	-152.852		23.4508
14.4971	-126.256		30.6075
9.33008	-109.148		44.2141
13.7041	-108.709		43.3333
10.3508	-106.683		53.3695
11.713	-151.417		28.7878
13.2438	-157.019		27.8003
11.4678	-104.982		62.5562
11.6206	-48.8122		91.7078
11.5662	-49.0212		91.1699
11.1175	-49.1445		90.2896
11.1646	-50.2856		89.1281
10.2189	-53.3217		87.4823
9.34323	-57.2403		86.4838
75.8009	47.8069		13.5325
78.7231	44.3998		4.05143
75.6386	54.6986		9.08927
72.4082	49.6129		25.3108
81.4885	27.0553		-20.2605
75.0136	-20.1128		-49.0342
72.3701	-21.7345		-54.5154
53.3979	-95.4822		-53.7775
53.7944	-85.3169		-52.8848
56.1638	-98.64		-48.3385
53.0852	-105.792		-55.1614
50.1165	-92.9095		-59.1252
53.0477	-114.648		-56.5404
53.0145	-123.052		-58.0265
49.9125	-112.727		-61.3955
59.9965	-83.6215		-40.1706
59.3625	-93.1446		-40.6424
57.3675	-79.0815		-46.6762
61.2975	-75.2053		-38.8259
23.3643	111.671		21.3757
30.2926	109.234		20.9347
23.3609	117.379		5.06847
16.2417	113.592		21.5653
22.7773	101.839		-79.173
23.3447	110.584		-63.2506
29.8301	99.817		-77.2287
22.1826	90.9408		-92.2638
15.0818	103.067		-80.814
21.9087	78.9418		-101.869
28.6785	77.3271		-99.7483
21.7872	65.7983		-108.994
14.4338	79.6746		-103.655
23.426	116.488		-46.1367
30.6214	114.018		-44.462
16.0086	118.31		-47.2204
23.5086	119.442		-29.088
7.85124	122.268		-11.9284
-0.148069	122.721		-11.9999
7.76958	119.727		5.53288
15.5006	121.121		-11.4467
7.7204	122.246		-29.904
21.4615	52.8589		-113.825
27.7879	51.5228		-111.779
21.1058	39.4297		-117.085
14.3119	53.3649		-115.54
20.3731	25.2476		-118.711
26.5821	24.2826		-116.513
19.9169	11.4479		-118.85
13.9346	26.1019		-120.405
17.4978	-27.1009		-107.737
23.3393	-27.8767		-105.485
17.4974	-38.7535		-100.21
11.9713	-26.879		-109.391
18.4393	-14.4282		-113.62
6.67811	-0.650058		-120.524
0.466253	-0.693672		-120.728
7.02779	12.3093		-121.702
12.9125	-0.994125		-119.33
6.30193	-13.4213		-116.77
14.9041	-85.4722		-83.274
15.5009	-76.2701		-84.3018
21.5553	-86.1785		-81.3397
14.5768	-94.6489		-82.8728
9.73767	-85.4673		-84.049
4.87784	-103.922		-83.4728
9.66339	-104.495		-83.2026
5.02176	-113.455		-83.3402
0.180444	-103.629		-83.6563
4.8284	-94.2628		-84.0095
17.7431	-48.0299		-94.0033
23.2126	-48.5683		-92.4416
17.5965	-56.2915		-89.4617
12.1679	-47.0922		-96.2388
16.7132	-65.7595		-85.85
22.294	-66.889		-84.1448
10.6463	-65.1993		-87.8432
5.45376	-64.8047		-88.3649
6.22252	-55.0045		-92.1678
4.94413	-75.5458		-85.7968
0.370062	-64.7465		-88.5114
49.0761	97.5342		17.6554
54.9456	92.104		16.2136
49.7595	101.473		3.71057
43.0757	102.049		19.1477
47.5278	70.2664		-89.6033
52.99	67.1572		-85.3134
47.316	58.305		-96.4545
41.7182	72.9336		-93.4622
47.8011	81.1933		-80.4615
48.0192	90.6854		-68.4908
42.3887	94.3239		-71.7506
48.6613	97.7376		-54.3441
53.5419	86.1401		-64.928
49.6087	101.389		-39.8417
55.3564	95.6673		-38.1492
43.7116	106.158		-41.4138
50.24	103.583		-24.9907
50.16	103.578		-10.7693
44.0367	108.602		-10.9105
55.9093	97.6577		-10.4903
46.7821	46.1726		-101.281
46.0371	33.6671		-104.61
40.8581	48.1406		-105.314
52.2002	43.9305		-96.9684
44.803	20.8236		-106.163
50.1263	19.3678		-101.795
43.8117	7.92087		-106.249
39.1673	21.9499		-110.048
42.457	-4.66849		-104.802
41.1212	-17.5945		-101.08
37.3127	-4.21771		-108.484
47.2304	-5.48761		-100.581
40.6865	-30.0025		-95.2488
45.6328	-29.674		-91.3867
40.0563	-41.007		-88.6955
35.0863	-29.4735		-99.0377
39.5826	-50.349		-83.2107
39.13	-59.6192		-78.5408
34.2979	-50.2262		-86.6503
44.4135	-50.398		-79.1578
37.1666	-87.9603		-73.6667
36.1438	-97.8853		-74.6562
32.069	-87.5408		-77.0045
37.9748	-78.5087		-73.4051
41.7422	-89.01		-69.5812
25.8987	-105.279		-80.2785
26.0421	-114.083		-80.541
20.8567	-104.655		-81.4868
26.1946	-96.2897		-79.784
30.9399	-106.225		-78.2417
38.5903	-69.0979		-75.2177
43.2581	-69.5711		-70.5372
33.5937	-68.5103		-78.7877
67.6217	69.7783		-51.3449
68.8536	73.5904		-40.1396
72.0222	63.0083		-45.7187
66.8276	63.6637		-61.7666
63.3191	75.742		-56.5765
69.784	75.3506		-28.5996
74.0168	67.4879		-23.6166
65.2807	83.0113		-32.8105
70.2641	76.075		-17.5339
69.6834	76.9143		-6.95559
72.7121	69.0179		-2.14991
65.7854	84.0912		-9.22201
56.8627	41.6602		-92.5106
57.5232	52.9176		-87.4286
61.2086	39.0292		-87.5295
55.938	29.8249		-95.4657
57.7295	63.8322		-80.8084
58.0778	73.3668		-72.1211
62.1639	59.9471		-75.8235
51.9658	-6.28615		-95.5789
53.7514	5.78518		-97.0077
56.6041	-7.13493		-89.9043
50.6669	-18.1843		-92.0558
54.8951	17.6548		-97.1325
59.3544	16.2287		-92.0441
49.7094	-29.4111		-86.9718
53.7981	-29.4647		-82.0158
49.0913	-40.4515		-80.5322
48.5442	-49.7653		-74.8853
51.8743	-48.5262		-70.6202
48.1875	-70.1787		-64.9183
52.1569	-72.9091		-58.1107
47.0654	-80.2804		-63.9536
78.0473	34.6103		-47.3058
77.2468	28.7111		-54.4784
75.9298	40.05		-52.9518
60.2385	86.0875		15.4308
60.7763	89.8119		2.44259
80.5848	43.627		-6.35634
79.0636	51.3045		-11.6003
67.6409	-7.43599		-74.5079
64.143	-7.87927		-79.355
68.8897	1.76832		-75.6608
70.486	-7.86245		-68.7371
65.5506	-17.6554		-71.3582
69.5181	11.0627		-76.0448
66.5518	12.9598		-81.6498
70.312	20.1748		-74.6514
72.4637	9.14096		-69.9516
71.1588	29.3955		-71.2962
68.2413	32.9725		-77.0888
72.2097	37.8813		-65.9458
73.9814	25.5916		-65.3108
60.2081	-42.8886		-59.9195
