1848
-63.3207	-0.338055		51.9643
-12.0345	34.8795		84.1161
-13.8947	32.4537		83.4896
-10.7717	31.188		83.9975
-8.87237	36.1168		84.3833
-13.9974	36.9695		83.47
-13.7785	15.7846		79.8246
-13.1399	16.0271		80.4863
-14.2541	17.3763		79.0782
-14.5904	15.1356		78.8304
-18.1996	17.302		74.7869
-20.1846	16.3205		72.6089
-17.5187	15.8701		75.3481
-16.3027	18.3969		76.942
-18.7883	19.0171		74.3958
-45.4852	14.8653		65.7291
-42.7934	13.2647		67.499
-46.6291	15.8294		64.6133
-20.9432	10.5244		73.835
-22.288	9.7437		73.2633
-20.4577	9.58313		75.0362
-20.7704	11.5395		73.4762
-29.054	-56.7638		81.8212
-28.9829	-56.6601		82.0856
-29.0033	-56.7161		82.1446
-29.406	-57.0383		81.8183
-28.1177	-55.4778		84.5723
-28.9355	-55.882		83.1
-26.4664	-55.2008		86.1864
-28.2168	-54.9753		85.1255
-31.8884	-54.1196		82.8594
-29.7609	-57.3943		81.2327
-29.4132	-57.5231		81.2886
-30.0029	-57.4461		79.3929
-29.2515	-56.5028		81.5679
-25.2412	-61.627		88.2499
-25.7667	-62.4465		87.8872
-22.934	-64.0416		91.5058
-25.1345	-60.8949		88.2922
-28.4049	-59.0365		85.2011
-22.2325	-49.6421		92.188
-21.7399	-48.2957		92.7456
-24.6215	-51.343		89.7665
-22.7204	-50.3507		91.9112
-19.4178	-47.9741		94.6107
-28.358	-56.7669		83.1243
-26.9181	-56.9914		84.4512
-28.4818	-56.762		82.9766
-28.4324	-56.8118		83.0948
-78.0453	-37.3214		-8.23375
-79.9263	-36.165		-7.93217
-76.0454	-40.8915		-11.6788
-77.3516	-37.6429		-7.26512
-86.681	-26.9752		-21.7238
-87.3178	-25.024		-24.5247
-87.7696	-28.1638		-22.2608
-86.7225	-28.1296		-18.9249
-85.5543	-25.3594		-20.3872
-83.1925	-33.492		-10.6587
-85.315	-34.6144		-11.6082
-82.5625	-33.8264		-9.87716
-82.9956	-30.8525		-9.8459
-80.1476	-20.9748		-15.256
-80.1056	-19.8875		-16.1264
-82.0223	-22.2883		-15.1471
-80.3171	-21.3394		-14.1186
-80.1453	-19.1687		-15.0656
-86.1773	-1.11232		-17.0774
-86.0407	-0.463831		-16.2658
-87.4404	0.234231		-17.4089
-85.8526	-3.12133		-17.7521
-86.0093	9.84623		-22.7557
-88.7566	11.0867		-20.9777
-85.1114	10.2886		-26.6512
-85.5255	8.84561		-22.7296
-80.8336	-11.8172		-20.7081
-80.9941	-8.68581		-25.1945
-80.9761	-13.9682		-20.7412
-80.0401	-13.0499		-17.674
-82.2585	-7.96351		-20.1013
-83.2876	1.92909		-26.0959
-82.7844	0.282351		-25.733
-85.386	3.57301		-20.8069
-83.2703	3.48527		-27.1842
-84.3158	1.47179		-31.5914
-76.2963	-29.7793		-35.7642
-77.8804	-28.4472		-36.1223
-75.0422	-29.5831		-36.2926
-75.8995	-32.1785		-34.2181
-86.8689	-10.6776		-36.7654
-87.7356	-8.98205		-37.5618
-85.8287	-14.5055		-36.826
-85.4318	-11.4983		-37.1402
-88.0516	-7.34896		-39.183
-87.5767	-4.76938		-37.9304
-87.6683	-3.84612		-40.1552
-87.9193	-8.00809		-40.1938
-83.1556	-24.0465		-28.2064
-83.757	-21.6271		-30.095
-83.5924	-25.0365		-29.0232
-86.6861	-21.3849		-24.8062
-83.3848	-11.2177		-33.7547
-84.1465	-12.9809		-31.4412
-83.4796	-9.86873		-33.3813
-84.618	-11.4967		-35.5802
-84.5127	-15.885		-29.6336
-87.3187	-17.2353		-30.1601
-82.4051	-16.4407		-27.4736
-79.4617	-28.767		-7.05196
-79.1501	-27.9661		-6.35742
-80.0812	-28.2746		-7.93951
-81.0539	-31.026		-7.10229
-79.0839	-26.3539		-5.62619
-78.6962	-26.5798		-4.72369
-78.0424	-24.335		-6.44345
-77.0392	-17.2451		-7.88256
-77.8859	-14.186		-7.80086
-78.2251	-17.4987		-8.63901
-76.754	-17.819		-7.4224
-77.2424	-18.668		-6.61419
-76.9033	-21.0575		-6.83304
-76.8587	-18.5719		-5.58401
-83.6448	-23.7915		-17.9484
-83.79	-22.3523		-19.0999
-83.3751	-24.8509		-16.0417
-80.1528	-12.6068		-16.2279
-79.717	-16.046		-15.7709
-80.5839	-11.4652		-14.927
-80.4027	-9.11676		-16.9919
-80.5315	-17.6696		-14.7686
-79.2646	-17.7241		-14.4487
-85.604	4.89188		-36.2138
-85.731	3.5673		-37.8367
-85.5445	4.45392		-35.606
-85.761	5.64337		-36.4576
-85.4877	-0.0901493		-38.564
-85.3766	-1.17084		-37.3481
-85.5116	1.79001		-36.9299
-88.577	3.35847		-36.2307
-88.2333	0.278295		-36.8849
-85.3169	8.23247		-22.8692
-87.749	7.93432		-20.7264
-84.0662	7.69697		-26.1297
-84.6397	7.38671		-29.8871
-84.1152	6.33222		-29.075
-85.2744	8.64837		-30.9295
-85.6694	7.05271		-34.3156
-83.5237	5.0856		-28.1089
-84.9552	4.54049		-32.7116
-85.2489	6.12499		-23.1334
-39.3939	24.2666		70.0011
-36.9872	24.6463		70.5434
-41.4421	23.3304		69.0546
-24.4681	-104.801		62.1008
-26.4259	-103.925		61.7996
-23.3972	-104.563		58.4245
-47.0415	19.4441		66.1581
-47.9521	17.8123		64.8382
-46.1911	21.1872		67.3884
-50.6946	21.6458		64.9171
-49.7625	24.336		66.6646
-52.4864	22.6649		63.7708
-50.8119	18.7773		63.5686
-48.9068	20.6939		65.7514
-66.4859	-51.4442		-3.80993
-66.2511	-53.8254		-3.81419
-67.2015	-49.9516		-2.29756
-67.8588	-49.456		-8.66998
-23.7008	15.7506		68.8155
-23.9029	15.0414		68.7412
-24.0815	16.4691		69.1443
-22.9154	18.2107		70.3711
-23.751	19.9943		70.6897
-22.5291	16.7239		70.29
-12.1641	16.9818		81.3983
-12.102	19.1379		81.3021
-11.4568	16.8962		82.1938
-23.1231	-55.7928		88.5718
-20.5203	-55.395		91.1375
-23.5229	-55.3356		88.8957
-23.8082	-56.3308		87.2739
-59.4588	-73.2058		-9.53638
-60.357	-70.8404		-10.0622
-58.8593	-75.8292		-11.6305
-58.5289	-73.303		-3.87835
-75.1402	-6.75638		-2.05082
-73.9549	-13.7159		0.447028
-74.4325	-5.69137		2.37039
-77.1036	1.39977		-5.63231
-76.2453	-7.36862		-4.62409
-60.0848	-75.8704		-23.4079
-59.3875	-78.1727		-18.74
-60.8522	-71.5427		-23.6895
-58.5317	-75.2065		-28.1825
-56.3673	-109.594		-31.0885
-55.2619	-119.493		-34.4344
-56.829	-111.635		-25.3028
-56.7251	-99.3496		-32.8343
-53.072	-107.3		-40.2661
-28.7447	-57.2208		83.1328
-28.1121	-58.0364		85.4311
-28.5763	-57.0376		83.231
-28.8293	-57.3738		83.0167
-30.1832	-56.7886		82.1401
-29.4594	-58.1329		82.722
-24.8516	-60.4419		88.5515
-22.5639	-62.3414		91.8742
-25.0407	-59.719		88.1094
-28.0448	-102.999		61.6361
-28.533	-102.285		64.8738
-31.7188	-100.373		56.0891
-43.862	-59.8086		-70.6272
-43.0142	-62.8551		-70.3459
-46.5504	-58.8982		-66.7458
-42.6646	-56.1239		-74.4618
-56.1759	81.2838		32.4091
-56.7388	77.4711		35.2473
-52.6383	84.4893		35.2789
-57.8991	82.9071		25.436
-88.8878	-20.1012		-36.0186
-89.0244	-14.7967		-39.258
-89.1967	-19.9896		-36.8762
-83.7202	-24.3544		-34.7022
-89.2413	-19.4821		-35.0775
-80.8863	-0.392008		-11.4701
-79.6871	-5.05166		-10.2817
-80.0946	0.02512		-10.5671
-82.2969	4.97807		-13.4458
-82.2266	-0.291319		-12.3917
-80.0861	-21.4868		-10.202
-79.5431	-22.1848		-9.0969
-78.5509	-19.8758		-10.6072
-80.4219	-21.6148		-11.8329
-80.5297	-23.9974		-11.6321
-81.1973	-27.9508		-9.70461
-80.2493	-25.2119		-8.82724
-82.248	-27.585		-11.2693
-86.9168	-9.00103		-42.6225
-87.363	-9.01463		-41.8418
-87.1365	-2.385		-43.3656
-87.1843	-8.84302		-43.0854
-86.5124	-8.43023		-43.0255
-87.4314	-14.417		-41.1014
-85.7443	-2.66719		-44.7886
-85.7109	-7.75572		-42.9397
-79.3124	4.48726		-11.9218
-79.0637	2.42285		-10.6989
-79.3363	5.70965		-11.5493
-79.4861	7.09336		-14.0609
-87.1443	-17.9381		-39.4624
-84.5472	-17.5856		-40.4575
-80.4363	-22.3279		-39.5309
-87.3148	-18.6693		-39.1433
-85.9508	-12.842		-41.4997
-83.6971	-25.8487		-29.9119
-84.486	-22.7513		-32.3369
-83.5316	-26.6936		-31.0963
-83.2422	-27.6476		-27.8887
-80.2947	-33.8833		-28.5055
-88.8595	-31.2169		-23.7726
-81.6507	-30.8689		-30.8668
-78.7911	-35.1697		-29.5233
-86.23	-36.1073		-22.0343
-87.3953	-32.5137		-18.5652
-87.0196	-31.8669		-17.1615
-88.0055	-31.2823		-20.376
-88.2326	-34.2113		-18.1373
-72.0784	-44.4871		-13.9499
-72.0835	-43.7272		-9.59981
-73.2664	-43.4165		-16.0143
-69.8905	-45.926		-14.6943
-79.9908	-39.9445		-14.8296
-80.0373	-40.8111		-17.4943
-77.6339	-41.2345		-15.4035
-81.0819	-38.1808		-11.8332
-82.7223	-38.4399		-14.4119
-86.5785	6.95515		-14.6918
-86.9029	6.92291		-15.0645
-84.4013	3.44819		-13.8332
-85.901	8.59295		-14.8617
-85.8898	9.5077		-15.1247
-85.523	9.48594		-15.1264
-84.6831	11.3997		-17.14
-89.2295	6.08858		-37.4073
-89.2515	7.45466		-35.8855
-89.324	5.39517		-38.2232
-88.8986	5.06391		-37.2732
-88.5285	8.03957		-16.6612
-89.9211	9.94231		-17.4579
-88.0337	6.45498		-16.8625
-88.3973	7.795		-16.1198
-87.0972	6.87832		-15.44
-89.2223	11.2929		-16.8391
-86.1786	3.64735		-15.2811
-85.2127	-11.4685		-36.698
-85.1213	-14.92		-35.0885
-84.7715	-8.60907		-37.3567
-88.2285	7.5182		-20.1718
-88.9567	6.76504		-18.679
-88.4709	5.11042		-18.0749
-88.3836	4.93709		-17.6122
-80.0533	-10.6414		-14.1701
-81.4667	-6.51619		-14.3395
-79.4051	-15.057		-13.9233
-79.8869	-10.6984		-13.1088
-87.5829	0.653707		-17.7158
-87.9329	2.48718		-17.1891
-84.493	-0.197232		-20.5327
-48.2568	-56.8386		-64.9514
-49.5362	-57.1926		-62.1514
-48.5776	-52.3902		-67.433
-28.6833	-25.6534		84.3992
-26.6308	-25.3538		85.0942
-29.278	-24.1781		84.2622
-29.5507	-29.5154		83.4722
-23.5641	-23.5446		87.09
-22.5822	-23.8065		88.0089
-24.1547	-20.8811		87.3981
-24.0833	-24.6238		86.3447
-52.0169	38.8818		66.505
-52.2878	36.824		66.929
-43.7898	39.8613		68.7991
-51.9833	40.777		65.5714
-56.0382	34.5424		61.7354
-10.6063	-26.5933		96.0414
-10.8522	-26.0132		96.72
-11.1928	-27.1458		95.0522
-9.64455	-26.9557		96.6881
-11.4023	-25.2538		97.8384
-12.3505	-24.8566		97.6736
-10.49	-25.0219		99.4396
-47.0965	16.7117		64.4481
-46.7371	17.466		65.1215
-19.6238	-16.7021		96.2479
-18.6221	-15.9913		97.6563
-20.0054	-16.6791		95.5496
-19.714	-17.676		96.1329
-64.7736	77.4994		12.4426
-63.7516	77.2292		1.13805
-65.6285	73.0114		16.8921
-62.2025	80.8708		13.5167
-30.3887	-64.1958		78.0641
-29.4696	-63.4229		79.4003
-30.5571	-65.6004		76.9174
-30.6836	-61.7719		77.1205
-29.8252	-51.6666		77.4432
-30.6024	-53.9175		77.1021
-29.7243	-50.515		76.551
-28.659	-51.8852		78.976
-13.671	-24.4274		97.1571
-14.3459	-23.4516		97.9743
-14.6596	-25.1602		95.1483
2.99004	-25.4379		98.7044
1.9011	-25.2049		100.162
2.73783	-26.1154		97.6853
2.49699	-26.7136		97.1525
1.35962	-27.0515		97.6811
-11.6614	-27.7986		94.1816
-12.7016	-27.839		93.528
-11.4936	-28.4946		93.9361
79.394	-38.4007		-23.4461
77.2768	-38.8844		-23.4478
79.8894	-35.0558		-25.9321
80.6775	-38.7992		-22.7945
77.6148	-41.7425		-20.1218
66.2618	-53.2088		15.8139
64.7246	-55.197		24.0429
65.1406	-57.6417		14.6533
67.9829	-51.0206		9.0128
67.2881	-48.474		16.9713
54.1725	-116.245		-7.05695
52.4383	-106.095		-5.73342
50.7638	-117.416		-2.48045
55.0478	-125.964		-8.0546
56.1985	-115.055		-11.2251
55.8718	-133.677		-9.01811
56.3625	-140.026		-9.26665
57.218	-132.355		-12.728
53.876	-135.191		-5.12181
44.7072	-100.33		4.44328
44.9507	-94.5714		5.97233
40.7859	-101.615		8.71611
45.148	-108.002		2.87684
48.5849	-99.4925		-0.284999
56.7831	-97.7029		-13.5533
56.8302	-104.643		-14.7064
58.4444	-96.4453		-18.933
56.6114	-92.5631		-12.7144
54.5225	-98.3687		-8.99422
58.2088	-72.4864		26.6974
59.7899	-68.9888		28.7157
56.3668	-74.548		34.3088
56.3256	-75.8547		24.1457
59.4521	-70.9831		18.9066
71.1465	29.2303		25.0147
68.2877	40.388		21.5159
61.2713	35.1792		37.3195
70.2073	21.2775		28.0657
75.5067	27.6704		13.6867
78.7513	42.2077		-26.5292
78.8525	38.7874		-35.8472
77.7445	49.3513		-31.5094
78.389	43.9834		-16.2124
79.3801	34.6694		-21.9268
3.089	-108.478		38.5957
0.771594	-108.408		39.3293
8.06677	-119.243		34.7244
5.8958	-108.53		37.4261
3.54821	-104.778		41.5779
8.04344	-130.657		31.6557
8.00494	-141.673		29.2004
11.2628	-129.781		30.4349
5.11144	-130.835		32.5334
1.85252	-150.535		27.9687
5.3084	-150.208		27.6711
1.47217	-142.324		30.2755
-1.46612	-150.533		27.9578
2.26639	-155.993		26.6142
66.056	-55.5161		-30.2369
68.6043	-50.6262		-27.34
63.8575	-61.286		-24.9141
63.6847	-61.2216		-33.0553
67.6476	-48.5632		-34.1768
68.672	-42.7609		-37.2574
65.4148	-48.5213		-40.8248
69.9618	-37.813		-39.9106
71.6049	-38.4792		-33.884
58.4458	-128.253		-26.4879
58.9173	-135.436		-28.226
57.1864	-126.075		-32.5929
58.6484	-130.326		-20.8186
2.44714	-131.167		32.8974
3.27032	-119.62		36.0095
-0.103716	-131.18		32.935
63.4245	-56.2856		32.4691
64.494	-50.8045		32.7445
61.9627	-56.6865		40.1171
62.3621	-60.9547		31.5918
60.495	-69.1819		11.1101
58.5352	-72.4967		9.14653
61.389	-67.7003		2.71036
62.5079	-65.5451		12.4189
5.59193	-101.565		88.8613
1.9432	-102.444		89.7227
5.52788	-105.148		85.9383
12.9527	-99.834		85.2923
5.14198	-96.7531		91.4557
17.3879	-98.5232		82.6821
16.7441	-102.469		80.07
21.3819	-96.4714		79.6097
14.9139	-92.2146		86.9891
-3.07416	-92.6795		95.0911
0.31175	-92.2727		94.692
-3.24448	-87.7696		96.2048
-5.96179	-92.9326		95.137
-2.42196	-98.2224		93.2603
9.98841	-107.326		79.8237
9.53259	-108.443		76.005
12.6197	-106.351		78.7584
6.72765	-107.847		80.7454
9.36509	-108.694		70.8558
5.858	-109.242		71.4086
4.45529	-105.883		66.3377
16.4243	-0.118566		82.7225
13.766	-3.76785		87.5797
18.8616	-1.85101		81.9862
16.3943	3.53242		79.7481
13.7769	1.8642		83.7801
46.8099	-32.5557		78.5541
52.5182	-33.8698		73.093
46.5961	-26.9614		78.5651
40.6149	-30.1721		82.466
46.6553	-37.5265		78.3618
57.7352	-22.661		66.578
61.5382	-21.9582		59.9253
56.9012	-16.4754		66.8852
52.3657	-21.8529		72.963
57.6946	-28.9519		66.5948
66.404	-1.35756		44.7578
68.0832	-2.95592		39.8299
65.7799	6.44653		43.1497
64.4202	0.773136		48.8893
46.4876	-42.2426		77.4757
46.0747	-46.7556		76.5148
51.508	-43.9067		71.8584
41.1319	-40.0169		81.7622
-2.86318	1.20602		97.1374
-2.85926	5.89878		93.1868
-4.78003	1.25127		97.1628
-3.13502	-3.25647		101.264
-0.845843	0.855913		96.6094
26.3858	72.0674		69.2998
21.3016	72.7834		71.4342
25.3876	65.5943		73.2605
31.6211	70.6793		66.6437
27.7724	78.049		65.0915
-2.19916	-105.72		60.4049
-2.12512	-106.305		54.9452
0.544099	-105.466		60.161
-2.20544	-106.823		67.4915
-4.69914	-105.784		60.3552
60.0236	-56.572		47.5817
57.3411	-56.1673		55.1505
58.4079	-62.5909		46.9436
61.2538	-50.7101		48.3185
3.27073	-108.277		81.1864
-1.74915	-106.46		87.2877
0.0622833	-108.51		81.1945
3.10314	-109.344		76.8422
2.81672	-109.49		71.7156
-0.0217582	-109.623		71.6051
34.5689	-94.2519		60.0615
29.6781	-97.4611		65.0855
33.4455	-96.3091		57.1073
39.4583	-90.2811		56.2204
35.1345	-91.3511		63.6833
38.0438	-93.9716		36.4258
34.6816	-96.3126		30.8246
41.944	-90.689		31.8486
40.6174	-91.8866		41.0929
33.2941	-97.1469		40.4872
-1.67431	-105.527		48.6088
0.710196	-105.47		47.9886
-3.95092	-105.553		48.5938
-1.56757	-104.658		42.7526
1.6543	-7.47312		102.991
1.82746	-10.2037		105.628
4.72932	-8.16582		100.614
1.73824	-3.94403		99.3724
-0.989306	-6.96954		104.277
20.312	-22.0153		89.5336
24.2417	-23.57		88.3272
18.7254	-17.3922		89.9858
16.9004	-19.8523		91.3499
22.5456	-58.0228		87.5788
24.3532	-57.7492		86.9971
8.03691	-25.7993		94.8847
8.38253	-25.4574		97.8579
7.2927	-26.6982		94.3756
8.80465	-26.9603		96.0596
7.37067	-29.5945		92.9526
7.4785	-31.2026		93.2398
8.96854	-31.1813		94.0684
7.27647	-28.7746		93.1099
5.22443	-29.3597		94.0894
-2.89143	-27.3869		100.027
-2.90071	-26.2759		101.871
-4.36811	-27.3386		100.139
-2.81353	-28.5191		98.6402
-1.27121	-27.2347		99.4292
11.5214	-30.4915		92.9407
13.899	-29.0092		91.918
11.1308	-29.3943		93.217
11.9991	-31.9183		92.8897
2.26537	-18.4354		108.055
-0.356847	-18.5349		109.857
2.1824	-20.2482		106.972
5.26495	-18.3171		105.193
2.36661	-16.7573		108.499
20.353	-73.7173		87.4948
26.076	-72.9385		83.25
19.1878	-70.04		89.5551
16.8514	-75.8386		89.9035
24.0898	-79.9476		83.0042
22.5286	-50.6403		90.3726
22.1486	-46.3053		91.7925
20.673	-49.5232		92.0938
24.5198	-51.6073		88.9908
-2.45505	-32.7477		96.8659
-2.38695	-34.6346		96.9968
-0.831432	-32.3761		96.6245
-2.54571	-31.0832		97.1254
-4.36295	-32.8866		96.8559
1.62997	0.189935		95.5801
4.50621	-0.792639		94.141
1.83186	4.64997		91.7042
13.2586	-19.8102		95.9213
12.309	-17.9131		97.4548
12.4471	-18.9162		97.3949
13.3894	-21.231		95.154
13.724	-19.4288		95.009
0.267333	-29.0496		96.8698
0.237527	-30.5551		96.4368
1.7285	-29.2354		96.0369
0.276343	-28.1311		97.4227
-1.02042	-29.3781		97.3526
0.0903862	-27.1733		98.4309
0.124083	-26.2497		99.9656
11.4401	-18.01		98.8823
11.2034	-17.1746		99.0978
11.9984	-19.6306		98.1389
13.2644	-23.6024		94.1445
12.5565	-22.3454		95.9638
12.4701	-25.9683		93.6238
-2.09784	-42.2034		99.4515
-1.8611	-44.2753		100.112
0.0372028	-41.674		99.2991
-2.42368	-39.3632		98.4464
-4.40747	-42.7037		99.4766
18.7422	-33.4042		91.0181
15.7113	-34.0117		92.0431
19.9551	-37.4849		91.6022
20.9557	-33.3294		90.2819
16.676	-30.4028		90.8457
3.33297	-74.9144		98.1934
3.30224	-72.1254		98.8947
0.0286852	-75.0434		98.0991
3.53869	-78.1073		96.9735
9.2651	-72.9492		96.3758
18.2409	-52.881		92.7305
18.6503	-53.66		92.1757
20.7515	-54.4857		89.9151
18.3041	-50.9508		93.5235
10.9868	-16.5036		98.9259
11.2643	-15.7725		97.773
9.40846	-15.4538		100.722
12.4531	-71.8102		94.9503
12.8909	-74.1507		93.6031
15.4124	-69.9738		93.271
11.9966	-69.9036		96.2042
-3.04339	-75.7255		98.1307
-5.87257	-75.9858		98.0487
-3.15214	-78.8717		97.7818
-3.28952	-73.7565		99.387
57.9757	26.7997		57.4694
57.1405	25.8953		59.3256
59.7396	20.7491		53.153
58.6566	28.0171		55.4115
35.1861	56.9441		70.576
29.7866	58.3669		74.3384
35.0108	51.5975		73.6774
40.9283	54.2191		66.2764
36.0585	62.8025		66.8998
46.5993	50.577		61.0466
46.059	46.0401		64.4365
51.7893	45.7709		54.7621
47.6497	56.0884		56.9926
35.6513	43.969		76.4682
35.1409	46.2621		76.0876
30.1302	45.3003		80.9948
36.0865	41.529		76.4713
59.7992	29.2462		52.0835
55.5376	34.8937		50.6491
50.7164	38.4446		60.9214
62.5198	22.3787		46.3922
19.8676	33.8543		81.9831
25.1699	29.6417		78.7702
23.3642	34.6038		81.2894
15.5591	35.2825		84.8309
16.3426	32.6888		82.1712
2.6412	13.7917		85.1871
5.71823	12.4336		82.8683
2.75957	15.4807		84.3291
-0.177333	14.8138		86.4569
2.36761	11.6281		86.4869
29.4983	-6.92691		80.0185
31.1063	-11.6946		81.8144
36.7159	-8.61816		78.2921
27.754	-3.0188		78.4939
23.4609	-5.13902		81.5784
57.364	4.70944		58.3518
59.6415	3.06833		56.1752
57.8865	9.45695		56.4664
54.8042	6.6573		60.3086
55.3977	0.898998		62.0213
2.07426	8.69511		88.6929
4.95248	7.40833		87.0727
-0.772778	9.57647		89.6612
36.5976	39.3443		76.3475
41.5271	37.8456		73.0155
31.6561	39.6372		79.5983
36.5682	37.2564		76.18
45.9173	35.313		69.5402
45.4338	33.2467		69.9989
54.1454	29.0476		64.516
53.8075	14.5237		60.7267
53.5969	18.3203		61.9625
51.564	14.6379		62.5949
53.5648	11.066		60.636
55.6123	14.5092		58.9168
41.901	19.7235		69.5784
43.249	18.4158		68.4219
40.4546	20.8185		70.5939
38.84	21.7245		71.2668
36.8084	22.2891		71.5917
38.9101	22.634		71.6778
36.5211	23.1901		72.0396
40.74	21.7225		70.9606
34.1902	22.5584		71.7356
31.491	22.3274		71.8045
33.8026	23.3801		72.1792
30.9631	23.073		72.2294
28.9004	21.4921		71.7228
26.4944	20.1297		71.4582
23.9978	18.5125		71.1222
21.7831	16.8614		70.9092
22.6839	19.1059		71.3864
20.8338	17.3905		71.3105
25.4264	20.7461		71.8387
20.2791	15.3674		70.7613
21.3774	19.5534		71.8879
24.2293	21.4995		72.4004
33.4873	24.3817		72.694
30.4703	24.0018		72.8155
46.1544	13.6795		65.7841
46.5579	14.7809		65.7074
45.206	12.7813		66.2726
27.391	35.2975		79.8856
31.5109	35.4931		78.1398
27.5794	36.9469		80.9972
27.5714	33.3571		78.5095
46.6115	24.6089		69.7184
44.8726	23.0512		70.0856
48.3523	26.6319		69.3065
43.4839	26.2508		71.7896
37.3818	5.29082		71.47
42.1358	6.04824		69.4502
30.9407	5.42284		73.1305
37.9404	3.69704		71.8747
25.2452	6.18229		73.9603
22.2786	7.61528		73.2855
25.2828	4.74618		74.7397
19.3594	10.7081		72.0797
18.9403	11.5848		71.7568
19.6489	10.0124		71.7385
36.4558	8.38915		70.8407
40.5114	9.41657		69.4167
30.6546	8.33364		72.2598
21.4411	10.7013		71.274
22.9424	10.0725		71.4033
20.7044	11.2098		71.0088
20.1961	11.6227		70.8887
19.7353	12.1349		70.8437
15.8969	18.7271		75.0678
14.6288	20.7308		77.0317
17.0955	16.798		73.0869
17.3324	20.9403		75.256
18.5397	12.8781		71.5488
27.2949	23.0517		72.6227
17.8059	16.0935		72.2921
17.4299	14.5667		72.2628
18.6884	17.9738		72.344
36.3572	9.69329		70.6042
30.9043	9.60965		71.6784
21.4468	11.4773		70.6667
20.7703	11.711		70.585
23.033	11.0107		71.0551
20.2921	12.0904		70.4855
44.1229	17.0416		67.3793
0.173096	28.8898		85.136
-2.55609	28.6132		84.8803
-0.656012	25.9457		84.9023
2.79723	28.7136		84.9418
1.52231	32.4279		85.603
19.9185	3.19925		77.1461
19.9165	4.87416		75.8442
18.3872	4.557		77.1507
20.4795	0.53023		78.9627
22.7414	1.63486		76.9554
16.5961	5.89007		77.6607
14.5005	7.39548		78.6486
17.3746	10.3442		73.9063
15.6423	10.9069		75.1281
17.576	11.7931		72.8906
7.68562	19.2452		79.4133
8.6195	21.5206		79.2305
6.60945	20.2559		80.5112
20.5203	8.76033		72.809
20.0938	7.76696		73.6952
19.9277	6.44126		74.578
22.0278	4.96587		74.8671
15.0219	-56.2936		91.8148
14.9469	-56.2275		91.553
17.9012	-56.2371		89.3128
11.8681	-56.1233		94.0454
19.6032	-56.4493		88.1553
19.3768	-56.3648		88.1101
-1.82822	-47.7833		100.521
0.524282	-47.5372		100.358
-1.8226	-46.3428		100.527
-4.69024	-47.9907		100.428
-2.02264	-49.229		100.367
2.68156	-50.9532		99.5685
2.77243	-49.4278		99.8847
0.378726	-50.7671		99.9261
2.37851	-52.6056		99.093
4.81578	-51.2583		99.101
6.8081	-51.781		98.7985
7.05998	-50.1439		98.9886
6.73625	-53.4744		98.2474
11.1164	-52.6423		97.8599
2.69564	-47.799		100.225
4.96485	-48.1201		99.6381
2.58344	-46.3689		100.305
6.50859	-46.2473		99.2265
7.02568	-47.4208		99.1664
6.00074	-45.1035		99.2248
4.21981	-45.7165		99.8819
14.5694	-54.2029		94.7216
14.3691	-52.8783		95.8907
1.48873	-54.2063		98.9126
-0.566049	-53.796		98.8958
1.06135	-55.0213		98.4616
4.11568	-54.541		98.3548
7.02739	-55.0008		97.0755
6.84783	-56.2475		96.6883
20.1663	-55.1528		89.7962
15.5131	-57.6482		92.4416
15.4207	-57.446		92.1702
12.2457	-58.023		95.054
15.5556	-57.8935		92.7517
16.0061	-59.4362		93.4136
15.7767	-58.8728		93.2879
13.034	-61.0668		96.6125
10.071	-61.7323		99.013
9.81556	-60.7603		98.7177
5.4056	-61.8115		100.076
10.467	-62.6808		99.0323
1.46567	-59.0503		100.1
1.70385	-60.7978		100.942
4.64159	-59.3208		99.3113
1.22435	-57.7374		99.4054
-0.981169	-59.0646		100.031
-3.14042	-62.8873		101.286
-3.02144	-64.2519		101.426
-0.520934	-62.1928		101.076
-3.2516	-61.3339		100.928
-5.58884	-63.1913		101.204
19.8388	-57.9635		87.2068
19.7497	-57.364		87.893
19.6989	-59.5732		86.3857
18.2594	-58.0702		88.9084
-4.06982	-57.8498		96.8927
-3.94719	-56.8818		97.662
-1.91448	-57.8578		96.7638
-3.90541	-59.5		95.229
-5.74744	-57.5744		96.4687
-2.90048	-65.5425		101.364
-5.53277	-65.8504		101.237
-3.23488	-67.0097		101.772
-0.537504	-64.9869		101.921
-3.11567	-70.9528		99.8068
-0.0980349	-70.3902		100.14
-3.19315	-69.3841		100.933
-5.84395	-71.3451		99.5408
2.64188	-45.2436		99.9773
1.9566	-43.8039		99.8521
0.513263	-44.9184		100.222
-3.32938	-59.6095		100.319
-5.56114	-59.7851		100.26
-3.42625	-58.0119		99.5504
-3.47104	-57.0706		98.8932
-1.17471	-56.8395		98.7218
-3.3982	-56.678		98.3941
-5.51053	-57.2577		98.8522
1.11381	-56.9969		98.851
4.08794	-57.4306		98.1836
0.925004	-56.9433		98.6763
-3.34681	-56.5302		97.8437
-1.77129	-56.6686		98.358
-5.42295	-56.6204		97.6937
6.97154	-58.2216		97.2197
6.90102	-58.0001		96.8059
9.09316	-58.5002		97.7085
11.1244	-65.6637		98.5883
11.3515	-66.762		98.0715
10.9413	-64.7202		98.8658
6.20362	-66.8604		100.418
3.07734	-66.5076		100.951
3.04736	-68.2451		100.847
2.88403	-65.4888		101.3
-0.316013	-67.2715		101.638
-3.29555	-68.1612		101.59
-5.93129	-68.3894		101.156
6.86161	-56.4155		96.1576
3.97132	-55.5051		97.1277
6.75459	-56.3348		95.5276
22.4607	-56.7097		87.7863
21.4677	-57.0319		87.923
19.7734	-57.1569		88.735
18.2241	-57.8147		90.3959
0.948699	-57.834		96.1925
0.806704	-57.082		97.3107
3.69198	-58.5293		95.8936
0.814599	-60.0643		95.5384
0.827255	-56.8711		98.1226
3.87286	-57.0436		97.2198
3.07636	-70.1815		100.162
6.5477	-69.5461		98.9489
10.675	-63.7028		99.0445
6.05947	-64.216		100.308
11.6041	-68.2809		97.259
14.3767	-66.8194		95.3287
6.44926	-55.9486		94.9332
3.83798	-54.8924		95.4613
5.88845	-54.4019		94.0257
11.124	-55.576		93.4503
0.872505	-54.8712		96.4725
-1.2749	-54.3646		96.2445
1.32951	-53.211		94.6563
0.857353	-55.1417		97.2673
5.41602	-50.9999		92.6876
3.43584	-50.2982		92.8848
5.64416	-46.3229		91.0386
9.22735	-50.933		91.872
22.4082	-65.2581		83.1377
22.0089	-69.4901		82.4093
17.615	-63.3507		87.2058
-4.11979	-63.6734		94.5766
-2.10496	-63.9602		94.9436
-3.76519	-68.5035		94.5909
-5.88573	-63.8989		94.6024
1.33156	-49.8453		93.0416
-0.800516	-49.611		93.1594
1.37637	-45.1646		91.381
0.635059	-63.6824		94.4946
0.677097	-69.2044		94.7436
3.45493	-64.2678		94.3553
25.6679	-59.8568		78.7567
26.0308	-60.1247		77.777
9.91982	14.1756		77.4238
9.05571	12.7792		79.01
81.7985	-9.03701		-40.5074
81.2252	-13.9189		-40.2066
80.7335	-8.12031		-43.7008
82.904	-4.72458		-40.3312
83.4693	-10.0574		-39.242
80.7124	6.7413		-3.92172
81.6375	9.64068		-8.0495
79.3007	8.76689		0.739296
82.3531	12.0038		-13.2636
82.3969	17.7692		-14.8718
82.7406	6.9039		-14.2163
83.7286	11.6895		-20.2597
73.9153	-35.7104		-31.4215
76.0203	-33.4449		-29.5267
72.4448	-40.2463		-28.5998
75.6011	-31.6278		-33.3363
77.0843	-27.6107		-35.3582
74.8558	-29.5329		-38.5204
78.9762	-23.4526		-37.3881
79.1164	-26.7287		-33.4924
84.7715	-10.0549		-38.3021
86.3445	-9.54904		-37.8702
84.4374	-15.033		-37.457
85.369	-4.94324		-38.0928
85.0928	-30.5489		-27.2916
86.5163	-26.2326		-29.5853
85.9462	-31.027		-26.0665
83.8084	-34.7428		-25.0348
89.951	-20.4898		-27.5106
89.8455	-19.8489		-26.8109
76.6217	-43.4279		-17.0995
76.9485	-43.629		-16.2965
76.1846	-43.9623		-15.1475
76.1554	-42.604		-19.2864
78.3806	-37.0225		-4.32049
77.9934	-37.6941		-4.29767
77.3648	-38.6456		-4.43695
89.8851	-19.3002		-26.5944
89.1488	-20.1135		-25.4837
93.3954	-3.668		-30.3506
93.6552	-2.99154		-31.865
93.2803	-5.41609		-28.8407
94.159	6.03141		-28.1085
94.5033	7.40964		-28.2323
94.914	9.52738		-27.4995
94.5928	9.27484		-25.2978
95.1575	9.99999		-27.8933
95.0754	11.5962		-24.3666
82.8571	-13.5209		-5.00114
84.5966	-7.75401		-5.69506
82.2175	-12.8084		-3.7288
81.7568	-17.6861		-4.47038
76.0082	-30.4177		2.17209
74.7259	-31.0136		4.94663
75.2896	-34.2093		1.71516
76.7488	-26.0108		2.60907
81.2945	-24.8915		-6.9119
81.592	-26.9066		-7.39326
81.4076	-22.8365		-7.08954
82.7166	6.37546		-14.1913
83.461	7.77188		-17.7066
82.7326	6.37026		-14.0008
91.5293	14.0987		-14.5561
92.962	15.9103		-17.6359
90.8024	14.5616		-15.7537
89.6169	10.822		-11.6553
92.1836	13.3443		-13.5248
92.6617	16.8289		-22.5362
91.8842	16.3972		-19.6824
92.9087	16.9356		-22.0424
93.0751	15.8523		-26.3475
91.6829	15.8758		-23.8661
92.6919	3.11932		-36.2954
91.9099	2.66462		-36.508
92.2872	8.4252		-32.8093
93.7238	3.27905		-35.9144
85.841	-3.01568		-6.3884
86.1693	-4.34972		-7.03236
94.976	2.09812		-33.4265
95.2811	6.54075		-30.9508
94.3905	-0.895563		-33.5176
94.6071	2.26982		-33.6762
94.8026	11.9973		-20.0645
93.8132	11.2382		-16.1921
94.4327	10.6677		-20.8092
94.8855	12.9978		-19.4574
87.7676	-2.13134		-9.15019
87.0368	-4.01574		-8.57287
88.5538	0.285533		-9.91189
94.4283	2.25845		-30.9373
94.2491	0.51965		-32.5578
92.1022	3.77612		-19.2089
91.5852	2.31698		-18.4897
93.1864	3.80654		-23.6587
85.6128	-9.12676		-10.3459
85.8991	-8.72945		-11.0953
86.1218	-7.3826		-9.23236
90.4775	-7.11729		-24.5148
92.4775	-4.56987		-26.3125
90.5597	-6.72194		-23.8248
90.2571	-8.46642		-24.618
77.5066	-21.9268		2.51908
78.6096	-17.0168		1.59159
76.401	-22.1201		5.08527
85.5813	-0.234822		-36.5474
84.6857	-0.592982		-37.7059
85.3685	3.84578		-34.988
86.1499	1.7864		-35.6325
88.9314	6.67201		-33.3004
89.3085	10.5236		-30.2913
91.8244	11.3013		-31.3999
89.2406	3.22188		-35.7566
90.5737	1.69198		-36.7165
88.722	-3.98422		-37.7478
88.757	-9.10196		-37.5587
80.8594	-26.2303		-32.5022
79.2466	-29.2683		-30.4801
82.2096	-22.7621		-34.3546
83.3773	-19.1083		-36.08
81.8998	-19.1804		-37.1908
88.466	-20.0605		-24.6808
77.7849	-32.5437		-28.6332
76.4611	-36.5255		-26.3017
79.0722	-32.2926		-28.1295
76.1401	-40.4885		-21.7874
75.7095	-40.4921		-22.1349
74.8581	-43.8307		-17.5355
76.2491	-43.8912		-12.2083
75.6063	-44.219		-12.0551
75.0002	-44.4236		-11.7633
90.2635	-9.21218		-25.0411
92.4196	-7.64336		-27.2161
81.6403	-12.1836		-2.65898
80.7692	-11.8947		-1.44076
78.4387	-26.3041		-0.92555
78.6883	-26.3993		-1.5342
81.8861	-30.6245		-6.9717
82.6068	-32.4143		-8.43015
82.1833	-29.3841		-7.83582
80.939	-20.8076		-3.90435
81.6125	-20.8329		-6.17493
89.4184	11.9401		-26.6507
86.8457	8.45025		-29.9071
88.4563	12.3281		-23.4233
85.8481	7.09362		-31.8328
85.2931	6.7609		-33.0055
85.5049	8.70972		-27.1864
81.6218	-20.7973		-9.02953
81.7753	-20.7451		-8.13877
93.5787	2.84912		-26.1297
93.306	1.32993		-25.7845
86.508	-7.99336		-12.4876
85.8556	-10.2972		-13.5645
87.8794	-6.68466		-15.1395
90.4949	-5.90634		-23.301
92.3578	-2.16792		-24.5382
89.9884	-6.00173		-21.8549
5.94663	87.8388		65.6752
5.53454	80.4595		71.1534
12.1664	87.859		63.9247
6.27703	95.8503		58.661
-1.93035	87.9944		65.5946
7.69029	71.4715		73.2539
0.422754	71.1805		73.3426
7.46369	63.7646		77.2775
10.398	73.7193		74.0487
24.3582	58.9407		77.3582
24.8552	53.8189		80.1458
20.6267	59.304		78.7889
-3.07385	-25.2202		104.042
-2.84856	-23.9983		106.044
-4.58737	-25.1502		104.331
-1.14183	-25.1964		102.963
-3.11003	-15.3943		111.296
-0.615256	-15.3841		110.46
-3.10693	-13.5898		110.688
-5.35242	-15.3228		111.42
-2.90755	-16.9375		111.24
-2.83049	-18.6213		110.8
-4.98041	-18.586		111.014
-2.71874	-20.4363		109.754
-2.63509	-29.7249		97.6989
-4.27891	-29.8167		97.7355
-2.22792	-37.0034		97.4893
-0.435858	-36.5474		97.4325
-4.15246	-37.3949		97.4966
-2.70975	-22.2764		108.095
-0.530305	-22.2948		107.061
-4.85624	-22.2639		108.36
-3.20022	-11.8024		109.626
-0.802725	-11.97		108.91
-3.29701	-9.62938		107.807
-5.56527	-11.7403		109.788
5.79937	45.9999		84.131
-0.663013	45.1766		85.3823
5.35419	42.4519		85.0677
5.27788	47.5702		86.2412
6.30988	49.8776		83.1329
-2.10713	15.4081		86.849
-2.45665	13.2538		88.0703
-2.14638	17.1088		86.1371
-3.90112	15.3845		87.0743
-1.95516	19.0289		85.5428
-0.049968	18.3201		85.1363
-1.84094	21.0886		85.2443
-3.69364	19.307		85.6073
-3.54814	-54.2478		96.1572
-5.29155	-53.938		95.1637
-3.18818	-52.6127		94.5664
-3.3727	-54.7305		96.8853
-3.45719	-54.8857		97.8071
-5.34946	-54.9435		97.5311
-1.29935	-54.7745		97.6486
-3.38487	-54.7183		98.2535
-2.29128	-50.8519		100.151
-2.4474	-52.3617		99.619
-5.03217	-50.7807		99.898
-2.94528	-53.7152		98.9839
-5.23074	-53.8254		98.7003
-1.76687	-45.3891		100.391
-4.51415	-45.9		100.369
-3.03285	-49.0641		92.7236
-3.18849	-44.9838		91.476
-5.55121	-49.047		92.5568
19.1858	86.7915		62.7056
17.1744	80.2532		68.3123
25.3036	85.0934		61.3575
20.975	93.0129		55.8156
12.382	48.1192		85.3315
11.9011	45.6551		86.1347
20.8994	48.3998		83.8579
12.3514	52.0161		83.7895
13.2107	42.5627		86.4376
14.8582	39.2752		86.1588
20.26	43.1128		85.1633
15.9096	36.923		85.5594
11.5651	36.0251		86.3837
19.9914	37.9438		84.7553
26.5926	23.8751		73.2958
25.8809	25.3404		74.6711
23.0382	22.2628		73.1411
29.9062	25.0054		73.525
28.1659	22.1686		72.1204
25.3003	27.1049		76.4859
29.0337	28.0674		76.1359
22.0142	25.7399		76.3628
44.8187	88.7751		40.5404
46.5052	94.1563		30.7349
39.2597	92.4299		43.0162
43.6962	83.2389		47.5882
30.7684	83.4213		59.4195
32.1976	89.0171		53.4341
36.3162	81.2573		56.7897
24.887	49.6963		82.6657
25.5229	48.1049		83.122
29.3477	49.6663		80.105
26.3077	39.8978		83.2859
26.3632	41.4052		83.5244
26.0852	45.1669		83.4341
32.5118	28.593		75.5636
32.9805	26.7215		74.2896
35.9868	28.1886		74.6841
42.2497	78.5071		53.0344
48.2311	75.4063		48.1297
39.019	73.8278		58.7693
35.2881	48.4358		75.1169
40.7483	46.281		70.8968
39.4907	24.5501		72.4315
39.7035	25.8518		72.9029
36.6554	25.2173		73.0391
41.8382	23.4369		71.4593
36.6145	35.0896		75.6365
35.9757	32.6515		75.2626
40.9756	33.4861		73.1194
40.2113	27.605		73.3505
37.449	68.5099		62.8895
43.4195	65.4681		58.2667
54.0363	72.4623		41.734
51.0019	67.7626		47.8077
59.1867	69.8923		34.0583
42.3435	20.5025		69.8692
43.729	19.0337		68.6145
43.9026	21.956		70.0558
45.4668	20.2975		68.646
42.9271	21.2128		70.0626
49.6974	28.6868		68.8819
52.0789	25.7709		66.1934
18.4686	27.8998		80.1933
15.6356	25.4198		79.4343
18.9615	26.0586		78.2763
17.7184	29.3542		81.7354
6.95218	33.0974		86.0507
13.6093	28.4641		82.5571
18.8314	23.4876		75.9135
19.5922	21.6085		73.9205
4.92506	37.6066		85.507
-0.158765	38.5199		85.3853
61.6181	-68.3578		-5.32238
64.1641	-63.2918		-3.35116
61.9444	-67.0915		-11.9252
83.0637	21.2825		-35.2507
81.7304	17.8921		-40.7476
81.7777	27.3968		-40.3862
83.4714	23.2354		-27.0962
83.9497	14.9896		-29.6761
78.5317	-7.44553		-48.8034
77.3845	-13.3607		-47.8543
76.4378	-7.24296		-53.4906
79.4967	-1.5605		-48.5321
80.0285	4.4312		-47.7633
78.3068	6.80097		-53.1135
80.2292	10.4658		-44.8446
81.7927	1.56409		-42.7775
71.6974	-32.6228		-43.0619
68.5767	-35.1007		-46.4962
74.0582	-26.5318		-45.4528
6.76412	56.5478		80.5553
-0.0776683	55.3704		81.326
9.58657	58.7026		81.2538
14.9422	58.8769		80.4397
15.5672	66.2061		76.8476
17.3116	-104.605		54.0596
15.9871	-104.256		46.7318
23.3422	-102.108		49.3162
7.85766	-105.957		59.9847
42.7026	-89.8927		45.0677
37.2405	-94.2698		49.2625
47.3005	-85.8382		40.6816
43.8561	-87.9698		48.8455
49.3883	62.0096		52.2563
54.6459	58.36		45.3709
16.0321	73.4376		72.8395
64.3522	67.5048		24.8944
68.9	65.6053		15.3093
63.3953	60.808		30.4189
21.936	100.599		46.4539
28.0046	98.272		45.965
22.4868	107.975		35.2319
15.2229	102.246		46.773
56.7589	39.9667		46.423
57.956	47.1341		42.0925
46.0182	18.4866		67.4909
56.2638	24.9051		60.7825
57.0553	19.5389		58.0526
54.9308	23.6353		62.3621
53.4981	22.4636		63.6302
-0.958128	-108.658		39.8645
-3.03551	-108.693		39.9016
53.5331	-76.9148		42.1966
54.7574	-73.123		45.0398
49.4062	-80.626		48.259
52.2166	-80.081		38.6873
1.63684	-41.7246		99.21
3.10881	-42.1589		99.1164
1.18908	-39.1213		98.3221
17.9567	-48.6904		94.0849
17.1564	-44.8592		94.8101
15.0153	-47.0119		96.5543
4.69389	-37.6828		96.9326
2.31457	-36.761		97.1974
4.70795	-40.3517		98.1558
6.77586	-38.3571		96.5573
4.06201	-35.0209		96.0422
26.2114	-52.1871		87.9218
26.02	-55.9625		86.8754
31.3204	-55.6834		84.2102
25.9745	-48.0315		89.0136
61.2693	14.1615		50.581
59.5286	14.222		53.6614
62.1695	7.81266		50.4985
62.8266	14.4262		47.2681
64.4741	14.6992		43.4565
66.6873	14.2286		38.2423
49.7638	14.8141		63.9094
49.7757	12.4804		63.4945
57.7642	14.2112		56.3256
84.1238	7.45639		-35.1283
83.4723	3.84506		-37.8403
82.6585	9.75583		-38.8688
84.8149	9.5883		-30.6465
80.2664	-18.8013		-39.1705
78.5768	-19.0636		-42.5707
67.4381	-55.3375		-14.1298
69.7492	-51.0369		-11.8235
66.9566	-57.5402		-7.73927
64.8461	-59.2719		-16.7677
68.8162	-51.3854		-20.017
83.4019	-0.11586		-39.3751
73.3333	-32.0903		8.22812
72.456	-36.3704		7.74341
74.2536	-27.4305		8.48216
71.7608	-33.2159		12.5565
70.2326	-4.77178		32.1931
70.3226	4.15347		30.5864
69.7251	-13.0437		33.6179
72.5529	-5.94581		23.3599
52.9445	8.00029		61.5507
51.0455	9.43235		62.7482
51.2285	5.53997		63.7374
49.2154	10.7145		63.881
47.7941	9.396		65.0891
69.9476	-34.0951		18.9684
68.3482	-34.7321		26.0355
69.0667	-38.9584		18.4078
71.036	-28.7196		18.8755
17.704	-12.6188		89.0491
21.8556	-14.0724		87.4636
18.8172	-7.6062		86.0196
15.7574	-10.5194		89.9032
32.3468	-17.0739		83.274
39.0415	-19.3028		81.415
33.1987	-22.2507		84.302
13.3457	-8.13601		90.7841
10.6866	-5.94572		92.1957
12.8305	-11.5871		93.2798
14.7384	-18.8734		93.624
13.5857	-16.4175		94.4405
10.508	-20.3025		99.8944
9.00652	-19.6402		101.827
10.1983	-22.0339		99.3188
11.3082	-20.8699		98.7041
12.0043	-21.4712		97.365
11.5286	-23.5513		96.6246
35.4557	-38.0588		84.5765
27.2015	-34.6237		88.5603
35.5765	-43.1334		84.2998
31.5607	-30.8783		87.0075
30.3058	-25.3061		86.9284
0.373486	-32.2627		96.368
0.648325	-34.3152		96.6711
1.78844	-32.4601		95.9556
53.9528	-55.2205		62.5385
55.2089	-49.5858		63.6722
49.8154	-53.6755		69.5294
52.3205	-61.137		61.5461
21.1496	-41.8513		92.0461
18.7669	-41.2948		93.3
23.3663	-42.2137		90.9858
35.3867	-48.1343		83.5772
34.8262	-53.1891		82.8217
39.9548	-49.8864		80.3138
28.2701	-44.4717		88.2161
0.875396	-36.3343		97.3266
50.308	-67.4581		60.5282
53.2031	-68.8387		53.8512
46.5641	-64.8583		67.7023
47.3073	-73.3678		60.9347
57.2012	-34.4982		66.4642
56.6865	-39.7997		65.7749
61.053	-34.4366		58.65
24.621	-100.254		70.913
25.2848	-97.647		73.0968
19.817	-102.929		74.5888
35.2022	-87.5434		67.4782
39.4959	-83.3053		64.7646
34.0924	-83.0456		71.729
30.5896	-91.1303		71.2606
55.6592	-10.7993		66.7852
53.8749	-5.49974		66.4794
50.0339	-11.0043		72.128
45.5747	7.69646		67.0121
46.9286	5.59465		66.8524
52.1582	-1.71218		66.3037
47.314	-2.62718		70.398
50.1409	1.16337		66.5751
43.5015	11.1964		67.5271
-1.77912	-103.301		90.1296
-5.15037	-103.668		90.0621
42.4473	-62.2389		73.6303
40.606	-66.8475		73.3324
43.7471	-57.1654		74.5725
37.9251	-59.6602		78.5619
32.7055	-78.6485		75.4471
35.5974	-75.1282		74.2541
30.4545	-74.1086		79.2607
29.011	-81.7404		77.7959
43.5186	-10.265		75.9025
44.7912	-15.5356		77.2721
42.1053	-5.61989		74.634
45.1164	-51.7409		75.4752
45.9195	-21.0703		78.0148
4.04658	-91.6187		93.5859
3.59914	-86.6016		94.8937
10.6262	-88.7918		90.8124
14.5682	-87.4025		88.6769
21.0912	-87.124		83.7185
13.9119	-82.1089		90.3812
41.2086	-2.42578		73.4369
39.9211	-0.131048		72.8657
33.857	-1.61376		75.7821
48.5154	3.4664		66.642
44.5218	2.20412		69.718
38.8673	1.93122		72.2794
31.5621	2.27687		74.4908
7.37501	-2.20445		92.2696
7.57156	-6.01059		95.2327
7.61618	2.02899		88.71
8.06641	-13.345		101.379
7.97621	-11.838		100.174
5.17338	-12.6111		104.515
8.27606	-14.4761		101.789
8.65939	11.1754		80.4459
8.2281	9.05543		82.5182
21.2007	-3.65237		81.6766
-2.70323	10.1202		90.1201
-4.23191	10.3779		90.0721
62.0522	1.68974		53.1353
7.80198	5.86718		85.4567
56.2765	-68.4472		46.8056
59.2686	-66.8069		38.4806
65.0342	-20.4261		51.374
64.5553	-27.5167		50.7556
67.1577	-20.0572		43.0344
62.288	-45.0458		48.971
63.1643	-39.4293		49.5812
59.7384	-44.8743		56.8713
64.042	-45.2034		41.1385
63.9513	-33.6011		50.1423
65.752	-33.8094		41.8825
15.9988	-104.892		77.3173
3.51115	-82.2547		95.9541
-0.0372527	-82.6969		96.6578
9.77616	-79.4909		93.5778
13.4041	-77.8021		91.9279
26.5164	10.2911		71.5746
26.8795	-0.445541		77.1585
26.1387	1.69235		76.1387
25.5325	3.27696		75.4637
-3.17643	-82.9873		96.9104
-6.04277	-82.7392		96.5898
1.88079	22.9675		84.1597
3.60079	22.3682		83.139
3.20032	25.4906		84.0794
0.410088	23.093		84.7079
1.76026	20.1825		84.0497
19.2679	13.0035		70.9228
19.1239	14.2032		70.9924
17.4091	13.0662		72.4885
5.18044	21.1872		81.9135
6.04332	23.8404		82.1689
-1.41266	23.5223		85.0231
-3.45923	23.4711		85.0395
0.6006	-24.9965		101.716
1.07785	-23.808		103.516
2.27437	-15.2387		108.518
2.09335	-13.7912		108.173
5.49089	-15.253		105.55
11.0007	-27.8782		93.8288
10.591	-26.6476		94.8988
8.59466	-29.197		94.6558
1.8701	-12.1938		107.361
2.62606	17.2124		83.855
4.82985	28.3704		84.5383
6.52643	27.555		83.7284
19.4967	15.7004		71.1541
8.00435	26.5205		82.5271
9.07439	25.3151		81.2987
13.7031	22.4156		78.654
13.3231	-34.2987		93.0936
10.3781	-34.7255		94.4819
14.6594	-37.3232		93.8259
16.0165	-41.3069		94.493
12.8821	-40.5519		96.0963
18.5176	-55.7131		88.0457
18.2569	-54.5724		87.5293
16.5711	-55.7924		89.7233
18.7036	-54.1601		91.6814
16.8136	-53.2229		93.9296
17.6695	-51.5223		86.5737
14.6814	-51.4546		88.9082
20.5848	-50.115		83.4829
8.16921	-33.3269		93.6882
5.99407	-33.1176		94.5297
8.92237	-36.9822		96.4649
9.97601	-39.9548		97.2729
10.821	-42.8418		98.0657
14.1171	-55.8635		91.4847
12.7949	-54.3914		91.4626
11.7792	-51.2996		90.6531
11.6803	-47.0342		89.275
3.58538	-32.7934		95.4475
3.28344	-30.8295		95.1428
5.47057	-43.1777		98.8166
8.76873	-44.6835		99.7502
11.9953	-14.0074		95.4245
9.73527	-12.4783		97.7074
-3.4132	-6.74276		104.88
-5.36853	-6.62708		104.991
7.7524	-9.23508		98.04
1.78976	-22.0665		105.522
4.15591	-21.871		103.185
6.95868	-21.8727		100.299
7.62744	-20.045		101.329
8.10289	-23.1532		100.355
9.57275	-23.766		98.5633
10.1692	-24.6487		97.2289
10.4658	-25.6339		95.9297
8.30312	-15.5048		102.192
8.18589	-16.8173		102.355
8.02326	-18.4144		102.063
36.5554	-143.86		12.1606
31.8052	-145.063		15.1346
37.9206	-149.989		11.4687
40.4772	-142.496		9.42451
34.0359	-135.388		13.939
31.0107	-123.636		15.8946
35.5528	-122.288		12.4779
28.8622	-113.738		18.0953
26.8892	-124.803		18.8334
31.6452	-99.7479		25.7611
35.3823	-97.6791		21.9429
27.6795	-101.634		29.2463
29.5353	-102.046		21.9555
28.5916	-106.751		20.2154
24.1725	-108.364		24.3974
32.6532	-105.332		16.5994
38.5027	-71.3246		73.2696
41.4108	-74.9984		68.1372
34.9357	-67.6575		77.924
43.9157	-78.5354		62.1396
44.741	-82.125		57.0821
44.6864	-85.272		52.6851
32.0662	-64.5393		81.0085
33.204	-61.1741		81.316
29.8356	-61.9069		83.0333
30.3711	-67.2805		81.3692
28.4007	-60.5522		84.0811
27.3917	-62.4626		84.2021
39.0626	-95.3834		18.2554
42.0293	-91.3711		21.9863
37.3174	-98.0992		14.8161
42.3016	-92.3218		13.383
45.0683	-88.0619		26.6699
47.5907	-85.8401		20.5957
48.0486	-85.2108		30.9382
50.5628	-82.7728		35.0815
52.6813	-80.4494		28.059
39.608	-120.74		9.29977
42.1146	-132.36		7.42447
43.058	-119.841		5.64711
38.5183	-110.667		10.3587
44.3412	-141.198		6.4931
45.7719	-146.874		5.54525
47.7458	-139.508		3.26052
36.7722	-103.353		12.6388
67.0863	-34.2792		33.8219
66.2475	-39.7711		33.4076
68.0198	-28.1424		34.053
54.0254	-78.704		21.4186
51.7	-81.3562		17.88
55.2482	-77.0191		14.1331
69.9714	13.4547		29.7548
73.7974	11.3078		19.0523
61.147	-65.2191		30.3543
62.4203	-63.7304		22.1125
65.3864	-45.2796		33.177
66.5901	-45.0827		25.3862
68.8596	-20.7944		34.6916
70.4959	-22.1731		26.13
68.153	-43.8334		17.9332
69.9851	-42.0797		11.3903
51.7814	-88.4796		-2.04708
51.6603	-93.3478		-3.59676
54.3851	-88.1459		-6.86384
52.1926	-84.415		-0.191369
48.8399	-88.9806		2.85375
51.8122	-98.847		-4.64029
52.9278	-81.5451		2.38539
51.1806	-83.2268		7.87787
55.1372	-80.0306		-3.49409
54.5863	-78.8618		4.56658
74.8502	-6.66174		14.8641
75.9365	1.6748		11.9507
73.5039	-15.2212		17.363
77.0381	10.3071		8.62178
77.896	18.492		5.86964
78.7968	26.8066		2.53414
81.1842	26.0408		-7.9762
77.1186	37.5224		-1.47655
63.8866	-61.7272		13.6642
65.2838	-60.0777		5.6661
72.1892	-22.5307		18.7179
73.8301	-22.8706		12.4534
47.1553	-118.49		1.82293
49.479	-130.01		0.249565
49.9574	-84.2437		14.2564
47.3063	-87.6512		10.9006
50.9555	-137.305		-0.576979
52.2383	-143.207		-1.84951
57.4745	-113.513		-15.0172
57.6205	-123.634		-16.0821
56.7349	-87.636		-11.7482
58.5456	-85.9666		-16.907
56.9805	-83.162		-10.5163
57.5108	-78.7512		-9.00594
58.7512	-131.017		-16.7941
59.7961	-136.912		-18.8351
65.9036	-58.9217		-1.5453
71.579	-40.4676		6.97287
73.195	-38.3234		3.67024
70.8866	-44.0215		5.58236
75.133	-22.5839		8.46738
59.214	-93.2611		-25.6607
58.0492	-88.3507		-32.5786
59.5513	-87.1705		-24.471
60.1016	-81.3331		-23.0812
60.5987	-74.6721		-29.7404
62.9837	-64.7895		-18.851
71.2432	-48.5316		-10.3301
72.804	-45.5891		-17.2158
55.8779	-122.368		-40.9255
57.3375	-130.459		-42.8357
55.818	-119.513		-49.8857
55.1998	-114.242		-39.0531
71.0799	-46.5562		-24.7854
73.0653	-42.9457		-23.1188
74.7159	-41.2542		-22.4147
27.2286	-146.162		17.8362
25.4101	-137.671		19.487
22.9543	-147.08		19.7943
29.0376	-152.465		16.3592
19.4144	-109.281		28.5924
14.535	-109.669		32.4188
20.2459	-115.635		25.8307
20.3538	-106.646		30.5957
28.5506	-99.8158		44.9922
26.0655	-100.887		38.795
30.1898	-98.8446		49.7274
23.4205	-103.312		33.0418
19.2471	-104.326		36.8958
22.4868	-125.765		22.4215
18.0269	-127.035		25.1997
28.5107	-70.235		81.934
27.0036	-66.7078		83.8379
31.8371	-97.8539		53.8763
23.0563	-62.5145		87.1749
21.2594	-64.7791		88.5869
22.2163	-60.8482		87.825
21.482	-59.4444		88.2549
19.8596	-61.1273		89.7245
25.1547	-84.9286		80.5694
25.7013	-89.651		78.1063
25.9327	-94.0972		75.3436
15.3659	-58.42		93.3328
12.4462	-59.2837		96.0036
15.269	-57.4848		91.9568
18.2513	-57.264		89.6257
15.3993	-57.7303		91.5259
12.0415	-57.75		94.1671
15.4016	-58.2311		91.1023
15.2019	-59.8276		90.1327
12.1366	-58.4006		93.1169
14.8237	-63.4907		89.2606
14.6592	-67.7803		88.5113
11.6492	-63.3814		91.0513
9.45536	-108.804		35.352
11.4252	-107.739		37.8607
10.9018	-116.993		32.4989
18.0237	-148.419		22.0196
16.1687	-140.061		24.1856
13.4596	-149.225		23.6264
19.5699	-154.25		20.2316
13.4529	-128.027		27.9735
3.13988	-105.462		47.1175
6.3434	-105.387		45.6889
3.28635	-105.807		53.9948
8.9747	-149.824		26.9678
10.1316	-155.428		25.4527
3.9991	-105.007		59.8193
6.76482	-57.9492		96.2597
6.62068	-58.4719		95.7869
6.56812	-59.0258		94.8896
6.68349	-60.7039		94.1982
6.39966	-64.692		93.5148
6.37662	-69.3015		92.9848
71.5177	47.9381		15.6059
75.062	46.5685		4.91392
72.4826	56.0675		10.4836
66.8196	50.6647		26.0289
82.5441	24.9583		-17.7986
75.5362	-19.804		-47.225
73.1702	-21.2864		-51.5516
52.8901	-97.7677		-52.6139
53.6694	-87.5516		-51.538
52.5247	-101.043		-45.1371
53.1027	-108.171		-54.1286
48.6953	-95.0546		-57.4301
53.2002	-117.25		-55.459
55.5084	-126.085		-57.5076
52.7619	-115.388		-61.7655
55.6934	-83.0943		-39.121
55.2638	-93.0079		-39.4519
54.7526	-79.2863		-45.4771
57.7081	-74.7576		-38.0069
22.9428	114.156		21.6176
29.6667	111.266		21.6365
23.3956	118.789		6.66913
15.8576	116.199		21.5894
24.1863	103.322		-77.4468
22.5053	111.858		-60.47
31.3808	101.281		-75.2361
23.4985	92.436		-90.3339
15.9639	104.905		-78.7771
26.1843	80.1003		-100.315
29.962	78.6827		-97.2975
28.162	66.7216		-108.053
21.4876	80.9304		-102.665
24.1261	117.573		-44.2353
28.9008	115.271		-41.3648
16.321	119.47		-45.3609
25.9712	119.842		-27.6587
12.4386	122.655		-11.4755
4.40192	123.142		-12.0054
11.425	120.269		5.82796
16.9122	123.001		-10.3989
8.95699	124.65		-28.6763
27.748	53.4903		-114.191
34.5117	52.1405		-110.895
27.11	40.2316		-117.653
20.7985	54.704		-116.067
28.4075	24.3496		-118.968
34.9083	23.2675		-116.496
27.8105	10.2745		-119.164
21.8059	25.2908		-120.934
24.4331	-28.4489		-107.599
29.773	-29.0837		-104.896
23.2554	-40.1394		-100.146
17.2604	-26.1061		-110.758
25.7358	-15.6872		-113.413
12.2866	-1.62476		-119.818
5.27385	-1.28612		-120.511
9.48096	12.5428		-120.905
18.6213	-2.02333		-118.549
11.5326	-13.6193		-117.238
19.5988	-86.1573		-83.2255
19.1843	-75.8373		-81.928
24.8642	-87.0808		-82.1505
20.1759	-97.0106		-84.3108
13.5066	-84.7955		-85.7626
12.0961	-106.3		-86.3224
16.9095	-106.792		-85.7578
10.068	-115.132		-86.221
7.46477	-105.983		-86.6164
8.55334	-93.6454		-86.0406
22.7679	-49.4351		-93.9816
27.8497	-49.9353		-91.7437
21.952	-57.6543		-89.0911
15.9265	-46.8895		-97.1079
20.3044	-66.6641		-84.7713
25.3154	-66.9398		-82.1043
14.5239	-64.4216		-88.998
9.35833	-64.0641		-89.7522
9.87486	-54.6917		-93.3463
8.88756	-74.6534		-87.4458
4.14722	-64.1848		-90.0921
47.8002	98.9605		19.1339
53.3009	93.3059		18.014
49.167	102.573		5.88469
42.0258	103.643		20.3924
51.1666	72.0752		-88.4581
56.9439	68.9771		-84.2317
49.6184	59.5274		-94.5265
44.901	74.6231		-92.1624
51.2021	82.6196		-78.8324
48.7466	91.5317		-65.2934
43.4618	95.1769		-68.8123
48.4075	98.4242		-50.6732
54.4402	87.1572		-61.7148
50.548	102.507		-37.2745
57.528	96.6537		-36.0131
41.9819	107.92		-37.8515
51.6752	104.313		-23.0182
50.4897	104.678		-8.3566
44.5503	109.811		-8.34071
56.1444	98.7218		-8.35003
47.9547	46.9136		-98.2708
49.9106	33.7564		-102.378
44.7196	48.6706		-102.939
53.7834	44.7259		-94.4425
51.9489	20.1528		-104.106
56.9471	18.6463		-99.4465
50.8552	7.08257		-104.326
47.2249	20.8293		-109.337
49.2855	-5.59054		-102.996
47.5087	-18.5998		-99.5687
44.3339	-5.20292		-106.969
53.4574	-6.14494		-98.0604
44.9664	-30.4816		-92.2634
49.3147	-30.194		-88.1706
43.6315	-41.5147		-85.8609
41.0438	-30.8201		-97.8558
42.1521	-50.454		-79.6877
41.2979	-59.4078		-75.6545
37.6677	-50.6916		-84.2124
46.3005	-50.1137		-75.2221
39.9381	-90.069		-74.0477
33.1093	-99.4582		-73.3071
35.3545	-89.6196		-77.7195
40.5591	-80.1582		-73.6483
40.744	-90.877		-68.7753
19.3946	-106.324		-78.1941
20.645	-115.263		-78.6884
14.0979	-105.7		-79.7273
29.9156	-98.4951		-81.043
24.6659	-107.315		-75.9666
40.8717	-69.6016		-74.0177
44.9159	-70.1902		-69.8737
35.9142	-68.0959		-76.4403
67.5233	70.3737		-47.9372
70.7854	73.5653		-37.8057
73.5928	63.1747		-43.251
69.4474	64.8653		-59.7803
63.5055	76.4774		-53.1519
70.3433	76.415		-26.1743
73.6305	68.796		-21.3264
66.7082	83.6488		-30.4361
70.1184	77.7156		-15.3824
68.6192	78.5154		-4.65997
70.9799	70.9447		-0.125498
65.3501	85.5863		-7.11979
58.9787	42.7998		-90.229
60.7822	54.4551		-85.8634
63.648	40.1265		-85.5044
62.1788	29.3099		-92.7003
61.3866	65.6289		-79.5221
61.5192	74.6996		-70.3616
