1826
15.8783	-78.9973		90.184
20.5058	-78.6401		82.9947
25.2089	-76.9653		80.0715
20.1261	-74.1574		83.3339
41.3152	1.45939		70.0947
40.2422	3.7705		70.126
34.6408	2.02318		72.5843
48.6748	6.76011		63.7407
44.8565	5.86387		67.1483
39.3819	5.78905		70.1807
32.5797	6.17631		72.3345
8.28978	0.169797		91.1457
8.83051	-3.48239		93.4688
8.36688	4.28284		88.0344
9.72328	-10.3359		98.5844
9.52709	-8.90943		97.5641
7.41346	-9.45598		102.084
9.86866	-11.5752		99.1321
8.86356	13.5232		80.2995
8.70314	11.1761		82.3435
21.6007	-0.57726		78.5507
-0.209572	13.6719		92.2281
-1.876	13.8938		92.3414
62.2334	5.15112		50.372
8.68465	7.92369		84.9464
63.3552	-63.3913		42.1292
66.8264	-61.1636		33.8226
67.5905	-15.2692		46.7648
68.0123	-21.8484		46.0306
70.6663	-13.8812		38.9481
67.7518	-38.9388		43.6884
68.063	-33.1659		44.3852
64.498	-38.7917		51.2628
70.2724	-38.7182		36.0988
68.209	-27.5548		45.1576
71.0546	-27.1139		37.3089
21.0938	-95.2324		77.8484
10.9858	-71.8767		92.4877
7.50764	-72.1455		93.2793
15.4186	-70.8352		90.7252
19.6377	-70.2723		83.6363
27.1142	14.8461		70.5554
27.8562	3.0813		74.0024
27.0977	5.31847		73.5207
26.5569	7.02209		73.1347
4.51663	-72.2234		93.7092
1.43332	-72.3552		93.939
4.89774	24.7491		86.4573
6.66374	24.1723		85.1103
5.74281	26.5157		86.508
2.81816	25.2506		87.4081
4.30996	22.7966		86.3095
18.9158	17.3141		70.0538
18.8234	18.5587		70.2148
17.0936	17.526		71.88
7.18408	23.5687		83.0626
9.12672	25.1217		83.5819
0.643865	25.7649		87.9353
-0.919815	25.4965		88.3936
2.01477	-22.3444		101.022
2.59171	-21.0938		102.094
5.05841	-12.0101		106.19
5.04721	-10.473		105.73
7.57926	-12.1492		103.164
17.3181	-24.2599		88.1019
16.8031	-23.2035		89.2663
12.2935	-25.506		91.4793
4.92094	-8.85643		105.068
4.33579	20.1934		85.7368
8.17576	27.9318		87.1148
8.73551	27.6745		85.6359
19.2178	19.9487		70.5144
10.3413	26.9148		84.1467
11.4822	26.1562		82.3812
11.531	25.5204		80.3177
20.7721	-31.0296		86.4104
18.0115	-31.2708		88.2131
22.9823	-34.6895		86.4027
25.049	-38.773		86.119
21.7331	-37.8935		88.2347
27.3424	-52.5977		77.3456
27.1556	-51.5979		77.024
25.3143	-52.5223		78.8028
27.7151	-51.345		80.7398
25.6425	-50.4882		83.9182
26.6515	-48.6828		76.6908
23.3989	-48.5251		79.1108
25.7817	-45.339		76.8271
13.4397	-30.6522		92.5703
10.3447	-30.8717		93.6135
17.0379	-34.1658		89.9417
18.7646	-37.2515		89.8709
20.1166	-40.0627		89.6063
22.5209	-52.293		80.8128
21.0544	-50.8707		81.3355
20.3142	-48.2145		81.15
20.1782	-44.3484		80.6671
7.25732	-30.6718		95.3623
6.50462	-28.5976		95.3209
12.8147	-40.3114		96.329
18.0769	-42.0054		91.2083
17.5818	-10.5716		88.8609
15.3653	-9.12301		92.599
-0.0527046	-3.11817		103.924
-2.07647	-2.92785		104.057
9.08076	-6.58031		95.9662
3.51463	-19.3113		103.937
5.61902	-19.1824		101.208
7.99315	-19.4695		98.4166
8.67008	-17.5732		99.1554
10.6593	-19.9875		95.9086
15.9218	-20.653		92.8564
16.432	-21.4312		91.4052
16.6701	-22.3197		90.1983
9.85778	-12.5495		99.4925
9.77375	-13.8231		99.6537
9.34211	-15.4904		99.567
38.6237	-145.96		16.941
32.9367	-147.692		19.5162
39.7717	-152.017		16.0688
43.1765	-143.998		13.8148
35.7099	-137.909		17.9521
35.03	-126.088		19.1882
39.6527	-124.222		15.4801
36.9142	-116.105		20.089
31.2155	-127.642		22.5858
41.7641	-98.9856		26.9086
45.7983	-95.654		22.32
36.9	-102.219		31.4775
38.7385	-102.758		22.531
37.2061	-109.174		20.9354
33.0421	-111.8		26.2787
41.4471	-106.529		16.6738
45.0832	-64.0559		68.3014
48.0712	-67.5878		63.9144
41.7304	-60.8078		71.8489
50.873	-71.2779		58.436
51.9205	-75.2789		54.0055
52.2595	-78.7611		50.0297
38.8428	-58.169		74.231
40.0697	-55.1317		74.4707
36.5543	-56.276		75.5409
36.8002	-60.7886		74.551
34.8107	-55.1056		76.3607
33.5902	-56.7363		76.3094
48.7633	-92.6291		17.7711
52.6585	-89.1925		21.5659
46.3844	-97.2023		14.3925
51.5232	-90.2491		12.1992
55.0766	-85.294		25.2944
57.6909	-83.062		18.9083
57.2601	-81.7824		28.6028
59.0648	-78.4658		32.1744
61.7685	-76.2064		25.3745
43.853	-122.308		11.9172
44.872	-134.218		10.9409
47.7791	-120.779		8.0614
44.7109	-111.792		12.3749
47.1313	-142.342		10.7013
48.5702	-148.078		9.21862
50.5166	-140.547		7.31107
45.3048	-103.515		12.4335
73.4416	-26.2209		29.5255
72.9467	-31.9433		28.8657
73.6277	-19.9027		29.9266
63.562	-74.4292		18.4661
61.6215	-77.8361		15.3744
64.7954	-72.9133		11.1283
72.3361	19.0566		27.793
75.9384	16.785		16.9061
69.4897	-58.9254		25.8592
71.3015	-56.7584		17.7913
72.5519	-37.6499		28.1819
74.3326	-36.5948		20.6453
73.4447	-12.7763		30.7233
75.725	-13.6528		22.5656
75.7077	-36.0197		13.6398
76.9297	-35.0009		7.41579
58.6388	-86.7658		-4.47231
57.6817	-92.0087		-5.38043
59.9411	-86.5077		-9.0382
59.2413	-82.2356		-2.95787
56.4654	-87.4545		0.624935
57.3488	-97.8018		-5.81473
60.6242	-78.2714		-0.629285
60.2628	-79.6474		5.48944
61.6681	-77.3228		-6.57444
63.1337	-74.6711		1.72379
78.0306	-0.59767		11.9215
78.3573	6.79536		9.37671
77.6646	-8.27644		14.1988
78.6674	14.974		6.28651
78.9282	22.688		3.60486
75.5121	30.2815		1.64788
77.0558	29.201		-9.3359
75.6998	38.0842		-2.3423
72.1982	-55.1418		9.86824
72.7018	-54.0723		2.09993
77.3674	-14.8662		15.3088
78.6627	-15.9322		9.05969
51.0964	-119.484		4.2218
53.1515	-130.823		3.75027
59.6475	-81.5806		12.2843
56.1945	-84.6497		8.97968
54.48	-138.258		2.32715
56.8278	-143.445		0.870103
63.3049	-113.25		-12.7862
64.7763	-121.476		-12.1968
61.2715	-86.1476		-13.5841
61.8284	-84.785		-18.3058
62.0305	-81.2399		-12.9968
62.6297	-76.5229		-11.9206
65.2057	-128.876		-14.5409
66.0423	-135.119		-15.6399
72.6468	-54.3383		-5.21283
77.8763	-33.8354		2.98408
78.9243	-32.2039		-0.138682
77.3839	-37.7318		1.58766
79.5919	-16.271		4.92825
62.9589	-92.8005		-24.6637
62.8774	-87.4424		-30.7047
62.7146	-86.7977		-23.8697
62.3695	-80.441		-24.1028
62.7667	-74.2262		-29.4185
66.1814	-62.4781		-21.7962
76.3613	-44.3893		-13.9921
77.6475	-41.7976		-20.4073
60.6421	-120.002		-38.4288
61.0925	-127.438		-40.186
57.9583	-116.735		-46.5767
60.5585	-112.268		-36.4675
73.7391	-42.7853		-27.9481
76.8013	-39.1827		-26.2298
78.7868	-37.558		-25.6289
27.541	-149.188		22.4114
26.5472	-140.721		23.91
22.3905	-150.438		24.8901
29.9408	-154.612		21.8634
26.9547	-114.624		31.2641
20.4825	-117.305		36.5115
25.9398	-120.777		29.2515
28.7225	-109.462		33.3663
36.3503	-97.5723		47.226
33.9268	-101.594		42.0567
38.3893	-94.2999		51.3337
31.2819	-106.131		36.9336
24.4639	-109.452		42.6706
26.0022	-129.373		26.4503
20.4878	-131.411		30.1104
34.5871	-63.2141		75.2184
32.3086	-60.5073		75.9433
39.7903	-91.5406		54.7015
31.3503	-58.8173		76.3892
28.9978	-60.4184		77.5586
30.8695	-57.0101		76.9135
29.4973	-56.3163		77.4509
28.213	-57.1412		78.3817
30.2588	-75.1799		76.5734
30.7102	-79.2483		75.5673
31.3102	-83.4908		74.0524
23.3198	-53.9875		82.047
19.8397	-53.6617		85.1668
23.2493	-53.5263		80.8757
26.7003	-53.8325		78.4091
23.3664	-53.7498		80.3949
19.4061	-52.9714		83.7407
23.4117	-54.2685		79.986
23.4239	-55.4875		79.3463
19.5789	-53.7059		82.4611
22.9276	-58.4875		78.7764
22.0284	-61.9139		78.5368
19.2566	-57.6108		80.9692
13.6514	-119.43		40.6623
14.9498	-114.969		43.521
13.7469	-124.93		37.506
17.2379	-151.791		27.2441
16.1419	-143.712		29.609
12.0977	-152.858		29.263
19.6622	-156.94		26.4533
15.0541	-133.209		33.3014
6.93049	-113.253		51.8517
10.7284	-112.401		50.3731
7.89042	-109.795		57.4159
13.3444	-153.884		28.6708
14.4577	-158.399		26.7002
9.57206	-106.768		63.3336
15.4747	-51.7317		91.579
15.4725	-52.0858		90.9087
15.4055	-52.6401		90.1542
15.6298	-53.8825		89.007
15.3533	-56.4754		88.0722
15.3275	-60.3725		87.0033
70.8403	48.5779		15.5
73.7268	46.9094		4.23454
71.2363	56.0093		9.95677
68.1122	51.5677		25.3596
81.4597	27.9798		-20.4484
74.8744	-19.2993		-49.6081
72.2937	-21.179		-54.3926
54.772	-95.3812		-48.7336
55.3201	-85.2825		-48.7271
57.8093	-98.6485		-42.9292
56.3158	-104.751		-51.7316
52.0951	-93.1882		-56.2181
56.9752	-113.342		-53.6131
57.5825	-121.502		-55.27
53.8127	-111.299		-59.0475
60.9583	-81.867		-37.2072
60.4091	-91.878		-37.1659
59.1117	-78.5636		-42.6817
62.0233	-73.3469		-36.9179
19.841	113.285		19.9453
26.6114	110.489		19.7859
21.5261	117.48		4.7481
12.7303	115.24		20.134
24.0129	102.289		-78.5752
24.8167	111.267		-62.3341
30.9952	100.413		-75.6112
21.3481	91.0727		-92.5241
16.1713	103.383		-80.3245
21.4962	78.839		-102.148
28.0163	77.6401		-99.4072
21.3509	65.458		-109.265
14.9931	78.8383		-104.354
24.4563	116.803		-46.3439
31.6027	114.346		-44.4497
16.9929	118.737		-47.4985
22.1543	119.66		-29.9528
8.86221	122.922		-12.5367
0.938181	123.298		-12.7356
8.70655	120.453		4.95064
15.0102	121.665		-12.4926
6.65655	122.84		-30.9087
20.9977	52.3992		-114.125
27.6836	51.0875		-111.975
20.9039	38.7227		-117.276
15.287	52.6284		-116.433
20.2678	24.5204		-119.235
26.5617	23.6127		-117.029
19.8373	10.5641		-119.237
15.5892	25.7088		-120.016
16.7346	-27.8649		-107.731
22.5769	-28.5719		-105.531
16.4556	-39.5697		-100.235
10.9334	-26.955		-108.237
17.4122	-15.3191		-113.755
8.57593	-0.379001		-117.377
2.1705	-0.324994		-117.725
8.89575	12.8137		-119.963
14.7473	-0.88938		-115.97
6.89659	-13.7995		-112.714
15.5292	-86.5967		-82.2437
16.0674	-76.803		-83.1903
20.7947	-87.5333		-80.9859
15.2178	-96.5333		-82.0039
10.3409	-85.1891		-81.0851
6.07269	-105.232		-82.9863
11.6765	-105.522		-82.8003
5.22648	-115.151		-82.4059
0.434521	-105.29		-83.0911
5.23807	-94.1146		-80.8749
17.7402	-48.6428		-94.0473
23.1365	-49.204		-92.4742
17.3287	-57.0212		-89.5747
11.7288	-47.2501		-93.2468
16.6175	-66.5052		-85.731
22.198	-67.5076		-83.8516
11.0122	-64.7875		-84.8084
5.63712	-64.5487		-85.2626
5.8787	-55.1569		-89.0419
5.37	-75.1653		-82.7156
0.234451	-64.784		-85.3094
45.1503	98.6117		16.7147
50.7158	93.1429		15.5777
47.5585	101.721		3.42152
39.2565	103.147		18.1132
46.4119	70.8978		-89.2319
52.1614	67.8819		-84.8338
46.4049	58.9425		-95.8327
40.5693	73.5016		-93.1118
48.5681	81.8888		-79.0819
49.3797	91.5391		-66.7922
43.7241	95.129		-70.061
49.9418	98.3389		-53.8035
54.8982	87.1771		-63.1435
49.9733	102.426		-39.7602
54.0013	96.9063		-39.0735
44.1635	107.079		-41.3701
49.7096	103.339		-26.1059
48.8554	103.558		-11.1836
42.8004	108.596		-11.1055
54.6366	97.7652		-11.234
45.7727	46.6206		-101.293
46.0331	33.6775		-104.05
40.4316	47.9733		-105.679
51.0501	44.5257		-96.8864
44.1932	20.4476		-106.652
49.425	19.0979		-102.257
43.1015	7.50761		-106.623
38.8627	21.4862		-110.6
41.6566	-5.13391		-104.881
40.6374	-17.9947		-101.153
36.3921	-4.86027		-108.56
46.4814	-5.8104		-100.656
40.6326	-30.4326		-95.0595
45.5626	-29.9857		-91.2155
40.3035	-41.2245		-88.6167
34.6207	-30.0452		-99.0826
39.8165	-50.7051		-82.9199
39.1355	-60.108		-77.794
34.644	-50.6064		-86.6216
44.4814	-50.7535		-78.4981
37.1292	-89.5007		-73.1296
37.4923	-99.2978		-73.3305
31.6241	-88.9884		-76.4236
37.6369	-79.7128		-72.9525
42.8566	-90.2924		-68.5531
27.2359	-106.864		-78.5653
27.3323	-115.662		-78.607
22.2479	-106.265		-80.037
26.2888	-97.9958		-79.1892
32.5138	-107.672		-76.2964
38.4398	-69.8962		-74.4738
42.9222	-70.4255		-70.0804
33.2211	-69.395		-78.2923
68.8915	70.8781		-49.9645
67.1934	74.3107		-41.4653
70.4034	63.835		-46.3149
67.3755	64.6096		-60.0096
64.5426	76.7958		-54.9266
69.0636	75.9904		-29.7084
72.3964	68.4894		-24.5877
63.9759	83.6265		-34.1572
68.8937	77.262		-18.5375
67.5796	78.3675		-7.73369
68.8722	71.6159		-3.18709
64.3886	85.0274		-9.93506
55.8203	42.2861		-92.2464
56.8096	53.7514		-86.5715
60.1627	39.6958		-87.2058
55.3151	30.4467		-95.253
57.1331	64.6597		-80.1766
58.6384	74.1949		-70.4086
61.5784	60.8033		-75.1332
51.3177	-6.39919		-95.7041
53.0371	5.6472		-97.2321
56.0958	-7.09653		-90.0919
49.9236	-18.4207		-92.2385
54.237	17.5326		-97.4792
58.6534	16.2442		-92.3208
49.7741	-29.4158		-87.0859
53.8785	-29.3185		-81.9506
49.4277	-40.4025		-80.1811
48.6027	-50.0168		-74.209
52.2253	-48.3935		-70.337
47.8086	-71.132		-64.3334
52.3448	-73.6677		-57.9873
47.4235	-81.3724		-63.6273
75.9332	35.5328		-48.4628
75.9897	29.9877		-53.6498
75.0416	41.3287		-51.6479
55.5399	86.1468		16.7369
57.5037	90.5871		1.88358
75.0783	45.8058		-6.94867
75.2848	53.9919		-13.6858
67.696	-7.42465		-73.9194
64.6132	-7.61055		-79.0644
68.3821	1.96699		-75.6529
70.622	-7.61115		-68.3465
66.0279	-17.14		-71.0061
68.7321	11.4241		-76.4961
65.797	13.1341		-82.0516
69.3879	20.4852		-75.1396
71.5549	9.42275		-70.336
70.4398	30.4444		-70.8663
67.3066	33.7703		-76.7975
71.3591	38.9495		-65.2155
73.0105	25.9032		-65.8438
60.428	-42.4012		-59.7442
57.7425	-44.76		-63.2595
62.3282	-34.5367		-63.5785
63.0601	-40.1711		-56.0016
58.8923	-50.3793		-55.9954
69.7713	-22.8314		-58.9295
67.5995	-30.4169		-55.7761
67.2447	-24.4693		-63.0004
71.7149	-15.2788		-61.2673
56.2148	-75.9908		-50.0479
56.8606	-67.0343		-52.4512
79.1602	-36.6245		-5.48504
79.873	-32.8334		-3.5445
77.7007	-39.5308		-3.35365
79.8045	-31.0859		-2.1797
82.4847	-5.31937		-3.48514
83.0627	-0.222723		-5.55224
93.0834	4.17649		-38.5791
93.4311	10.0044		-36.3743
93.7617	3.87007		-37.8413
83.8051	-35.1866		-25.2674
82.302	-37.6882		-22.305
93.3418	14.8428		-33.2559
92.4228	15.1304		-33.7305
92.6502	17.8384		-29.2839
94.1332	14.1272		-32.7355
87.7985	10.5182		-12.2733
86.4782	10.4899		-12.9466
92.063	19.3822		-24.7218
92.9236	18.6605		-24.0013
89.149	-18.9824		-35.2855
86.1612	-35.8887		-18.4571
85.5347	-35.7494		-15.8879
83.5652	-37.674		-19.023
83.448	2.27139		-7.31285
89.423	18.0658		-20.1524
87.5186	15.0061		-17.4396
88.3133	17.0921		-21.6451
85.1443	10.7617		-14.4591
84.3242	11.1521		-15.9765
91.7574	14.9826		-33.9297
83.6515	10.9494		-17.5505
84.8718	12.7976		-20.0724
86.1971	14.4971		-23.5878
84.1446	12.36		-24.6949
88.9352	-27.2275		-28.1727
88.8743	-28.5597		-21.533
82.4818	-38.9579		-19.3844
84.7605	-34.8803		-13.6405
85.8991	-31.9322		-13.4954
86.7798	-29.5696		-14.4526
87.1053	-28.1056		-15.4342
93.9732	3.5782		-37.4114
94.7964	9.12558		-35.4237
92.0962	16.4373		-16.3899
92.2876	15.8302		-16.1196
93.0382	17.9285		-19.3622
92.2741	15.2544		-15.9879
93.2723	16.801		-18.8925
92.152	14.1965		-16.1238
94.5371	13.5845		-32.3621
94.0673	16.4113		-28.35
94.5967	13.0519		-32.2568
93.5078	17.9549		-23.5117
93.7247	17.3898		-23.4013
93.7565	16.8117		-23.1194
94.2081	15.4305		-27.9919
94.5556	12.7038		-31.9476
93.4578	-0.689647		-36.4739
91.9352	12.8821		-16.6219
89.4664	5.64284		-14.2776
93.1426	12.0151		-25.4994
93.4125	-3.99076		-31.5568
93.258	-1.94444		-31.3338
93.3866	-0.164705		-30.8985
93.2965	1.30584		-30.2258
92.858	2.55979		-28.9777
92.0672	3.36803		-26.479
85.4739	-24.2167		-12.6576
86.2253	-26.0089		-14.6367
87.7372	-0.87818		-11.3348
84.5072	-15.8628		-10.9061
87.1894	-27.4019		-15.8734
34.7831	28.7062		74.2421
31.4541	93.5887		45.5796
32.1243	100.322		33.9254
9.24177	101.103		45.6314
8.82288	108.893		34.73
0.890337	101.49		46.0198
32.9618	107.21		19.0449
35.1587	110.986		4.58857
8.6916	115.545		20.8085
0.488109	115.969		20.7762
22.2808	119.642		-12.022
29.4634	116.736		-11.5469
36.2269	113.092		-11.3329
37.2533	112.732		-27.6479
63.3109	54.7987		34.7514
69.9487	63.3951		3.79042
72.7611	62.8488		-8.46966
59.6437	91.7417		-11.192
60.1235	91.498		-24.1724
6.89127	119.694		-48.8979
7.40233	112.931		-66.2638
-1.05278	120.028		-49.0018
37.9877	111.317		-42.5891
38.2299	106.224		-58.4873
74.6969	60.9258		-19.01
74.8646	59.228		-29.8616
58.8687	90.6671		-37.2999
60.6075	87.769		-47.823
73.2858	56.8298		-40.9715
73.2613	52.8599		-49.0511
72.437	46.9308		-57.6236
69.5571	51.896		-63.6589
47.8135	-91.9691		-63.3842
47.7041	-101.701		-63.6804
47.9558	-110.374		-62.8988
47.4074	-119.21		-65.6448
42.6087	-109.149		-68.9884
7.63125	103.373		-82.4317
7.62091	91.789		-95.6999
-0.324201	103.853		-82.5624
7.8907	79.2222		-105.419
8.22467	66.1964		-112.373
0.0816158	79.1622		-105.548
8.36012	53.1185		-117.371
8.263	39.7705		-120.507
0.237548	52.9725		-117.191
9.03894	26.2674		-121.068
2.16939	26.2246		-121.593
18.6295	-2.49724		-117.48
24.8007	-3.41882		-115.082
4.99173	-26.8996		-108.888
6.00046	-38.6113		-99.643
-1.50996	-27.258		-109.45
5.98111	-47.3958		-93.5212
0.2385	-47.64		-93.4837
5.31016	-84.7613		-81.4902
0.252436	-84.5994		-81.6161
34.2074	75.8905		-96.4964
36.0062	87.4137		-86.9216
34.1625	62.7351		-104.407
37.4619	98.0558		-73.0092
34.4443	49.5293		-109.109
33.9243	36.3735		-112.127
32.8691	22.6883		-114.185
31.6721	8.98979		-113.966
30.6243	-4.16546		-112.085
29.5568	-16.9852		-108.336
28.8082	-29.367		-102.586
29.166	-40.4613		-95.9646
29.0201	-49.9753		-90.0447
28.7732	-58.9592		-84.9506
28.1917	-68.322		-81.474
27.2363	-78.3703		-79.5177
26.3021	-88.3275		-79.0305
37.5288	-108.461		-73.5466
37.7884	-116.579		-73.2464
59.7583	82.4495		-59.2918
65.9096	56.8937		-69.2532
64.8256	47.1705		-76.63
63.9056	37.0903		-82.1857
63.147	25.6124		-86.104
62.3312	14.8399		-87.3457
61.3972	3.60538		-86.5848
60.4663	-7.61965		-84.5819
58.9653	-18.3607		-81.491
57.5451	-28.3023		-77.2762
60.9928	-27.5307		-72.2386
56.3605	-38.0129		-71.8385
55.0749	-46.5916		-66.8845
57.8641	-58.6854		-53.0062
60.0906	-57.2368		-49.6615
75.0782	22.8106		-60.3622
74.3124	15.3438		-63.299
76.9207	19.1345		-54.2016
73.0791	-7.47903		-63.2788
73.8149	0.241642		-64.4398
64.2254	-26.1342		-67.5916
74.1246	8.08964		-64.6838
65.6844	-37.7914		-52.3679
64.1255	-45.1047		-49.0957
19.3332	-112.515		48.1358
65.8364	-71.5046		3.98752
53.9434	-88.3849		6.4541
16.8692	-46.7082		91.5586
19.9338	-47.8348		89.4099
22.7019	-49.4121		86.8098
8.86377	-54.2494		96.0081
9.13216	-55.2094		96.0535
9.63502	-56.2526		96.3503
26.0655	-61.8739		80.2674
25.4962	-60.2496		80.8153
24.9643	-58.7795		81.3329
21.3214	-43.3419		89.0848
40.8901	-51.699		75.1283
31.3687	-31.2953		80.2583
33.4303	-36.4222		80.0565
35.0089	-41.2944		79.1093
60.3234	-38.1363		58.7621
20.7898	24.4267		72.9514
78.752	15.4739		-47.6281
83.0484	14.0488		-28.9469
83.7888	12.1811		-26.5179
76.3934	-42.34		-0.0111535
27.1954	13.5693		70.4458
48.7328	42.2989		66.6413
6.22495	-26.9071		95.2501
46.8556	20.5836		65.9094
9.61916	-25.5572		93.5304
83.8055	12.0548		-25.5858
61.0395	-102.035		-36.3732
64.3133	-65.4271		-36.3438
63.7	-59.7979		-42.1528
62.9185	-53.9983		-46.3413
22.9871	-22.383		83.6673
16.2344	-53.4669		87.4328
28.4426	-53.8441		77.3018
8.44488	-49.7185		93.6741
-73.4877	-45.2791		11.398
-75.8314	-40.3047		12.0827
-73.6608	-44.1028		4.88111
-71.6638	-50.5059		11.1121
-73.8094	-46.4155		18.5527
-58.6934	-120.224		-6.89106
-58.4633	-109.996		-7.32298
-60.912	-118.669		-10.7514
-59.9256	-130.423		-7.16617
-56.0714	-121.58		-2.91914
-60.741	-137.676		-8.47551
-58.2328	-139.615		-3.77331
-61.9099	-135.413		-13.2934
-60.6327	-142.735		-9.75226
-52.9679	-105.106		2.99032
-55.8604	-102.157		3.71866
-52.6966	-112.858		2.1829
-49.6235	-107.03		7.9163
-53.4342	-97.3311		9.99656
-61.5114	-98.9343		-9.84264
-60.2041	-99.7609		-5.45359
-61.8257	-93.3136		-9.60857
-62.2578	-97.4066		-15.0321
-61.9496	-107.869		-14.9435
-65.147	-66.6174		23.5484
-66.1634	-64.7423		16.4655
-63.2116	-70.5923		22.7053
-63.3524	-68.2821		29.9826
-66.5523	-62.4338		24.4579
-70.3641	32.7092		23.3024
-74.007	30.9928		11.6635
-69.8162	25.2535		26.492
-65.9111	35.8797		34.0966
-70.8685	40.5661		18.3525
-77.0558	42.129		-29.901
-78.237	34.8269		-24.963
-77.2963	44.0558		-19.2121
-75.4591	49.3261		-35.1269
-76.4238	39.1138		-39.9859
-9.2693	-122.667		44.4164
-10.436	-117.332		47.8076
-12.7275	-122.112		42.8484
-8.8795	-128.64		41.6322
-6.64501	-122.847		45.346
-8.97486	-138.107		36.1286
-9.6008	-147.782		31.5337
-5.57729	-138.115		37.2866
-12.8349	-137.282		34.6335
-2.18812	-155.002		30.2516
-2.40552	-159.42		28.5457
-2.10987	-148.234		33.129
-6.06929	-154.787		29.7009
-70.9874	-53.8342		-32.1539
-71.3589	-46.0582		-37.288
-67.0904	-59.6945		-33.0695
-70.0258	-60.1082		-26.3146
-73.4617	-47.5585		-30.7815
-72.123	-40.409		-40.8228
-75.083	-35.7369		-37.7505
-72.7889	-35.7563		-43.3319
-68.0944	-46.5601		-42.8309
-62.2368	-127.87		-29.1763
-62.8911	-131.326		-22.8845
-60.5589	-124.814		-36.3809
-61.9552	-134.277		-31.8659
-2.26346	-137.893		37.9901
-3.11666	-129.013		43.6497
-73.4036	-48.5686		26.7865
-71.0313	-54.25		26.5951
-71.7115	-49.3483		33.8912
-74.7776	-42.5448		27.0562
-67.1049	-63.0681		9.12681
-68.4873	-58.7196		9.81156
-67.3373	-62.3593		1.89118
-65.2544	-67.4023		8.43819
-9.53333	-90.6097		90.6295
-9.41412	-86.0252		91.6721
-13.9924	-90.4658		88.4094
-9.67341	-94.6524		88.7561
-5.72733	-90.4899		92.0575
-18.5338	-89.6218		85.6809
-18.3619	-84.5964		86.905
-23.2871	-87.8807		82.2787
-18.5541	-94.1409		83.9202
-2.1105	-81.7615		94.1006
-2.22313	-86.5069		93.8969
-2.03454	-76.838		93.898
-5.61213	-81.4011		93.1986
-9.59785	-98.0306		85.7109
-5.90612	-97.9567		87.2635
-14.1938	-98.3828		83.9598
-9.57404	-100.822		81.5887
-10.7252	-104.238		73.0045
-13.222	-105.749		68.1597
-6.36854	-104.601		74.0324
-17.5271	4.37057		79.7436
-15.2032	6.13486		81.9019
-17.284	8.13553		77.3906
-19.8633	2.90183		77.9072
-17.9581	0.545053		81.74
-50.1491	-25.4752		70.7084
-51.2082	-30.1228		69.9919
-44.4161	-23.8708		74.4461
-49.1754	-20.3574		70.832
-55.8518	-26.4692		65.4998
-59.0409	-16.4803		59.752
-60.5807	-21.7911		59.3418
-53.7182	-16.0759		65.9369
-57.5753	-10.7554		60.0933
-64.3734	-15.7222		52.0818
-66.7824	3.22364		41.7015
-64.1834	4.72693		45.6378
-65.6633	10.6166		41.6702
-68.9977	2.25153		37.0199
-52.25	-35.022		69.3234
-46.4574	-33.6588		74.0086
-57.8687	-36.2484		63.3671
-52.2751	-39.9983		68.6652
-3.11633	4.41104		98.2156
-4.86051	3.96609		97.5671
-3.33368	0.0140082		101.364
-3.28814	9.54528		94.6693
-30.2877	68.9246		68.2529
-31.2875	74.778		63.8826
-35.4965	67.6266		65.2356
-28.4277	62.6023		73.1639
-24.871	69.9481		70.5603
-5.5481	-108.481		64.4189
-4.87567	-106.384		69.8771
-9.28877	-108.307		63.8004
-5.8041	-110.926		59.0058
-69.1133	-49.3666		40.8039
-70.036	-42.924		41.3397
-67.0573	-56.7313		41.498
-65.4984	-49.5593		48.1218
-2.32239	-97.9876		87.9636
-1.48356	-100.574		83.1148
-2.45203	-94.4775		90.9322
-2.56991	-104.68		74.6305
-39.1619	-87.0893		61.8072
-39.7027	-83.5512		65.1758
-44.5767	-83.8271		56.8841
-38.0752	-89.9547		58.7903
-33.9453	-90.0383		67.4718
-44.1686	-93.3954		39.8072
-39.4106	-96.215		44.8288
-46.2847	-89.4964		42.76
-48.5409	-90.3398		34.6326
-41.6764	-97.7145		36.4839
-5.00567	-113.938		53.0647
-4.61072	-117.697		49.3735
-7.51068	-114.008		52.3943
-8.39686	-4.35541		101.419
-6.07208	-3.58197		103.06
-7.68248	-0.920206		98.836
-11.0633	-5.43751		98.5456
-8.81544	-7.15768		103.491
-27.313	-17.8119		80.5544
-23.6194	-14.478		81.8374
-25.6053	-12.4101		80.2309
-31.5713	-20.0408		79.2463
-30.6755	-53.472		78.7783
-28.5232	-53.5309		79.6318
-29.1132	-52.4012		79.6717
-14.7506	-23.2111		91.8787
-16.3989	-23.2488		90.066
-14.1915	-24.1657		91.4598
-16.0903	-21.6248		91.5754
-14.0307	-27.358		90.362
-12.0388	-27.0251		91.998
-13.7395	-26.3824		90.5852
-16.2935	-27.3067		88.438
-14.3898	-28.9829		90.4341
-4.99161	-24.1833		99.9955
-6.64449	-23.9479		99.0552
-5.12814	-25.0893		98.6644
-4.91934	-23.2247		101.239
-18.01	-26.484		86.5338
-18.6681	-28.1243		86.4592
-17.3642	-25.5459		86.8834
-21.3528	-24.6326		84.7276
-9.48513	-14.928		105.667
-9.6447	-13.3396		106.162
-12.4128	-14.6		101.893
-9.72308	-16.7252		104.604
-6.98716	-15.4159		107.756
-25.1634	-66.2997		82.5442
-26.4803	-70.7182		81.6183
-21.1524	-67.913		85.2077
-24.155	-63.0695		83.3028
-28.8611	-64.1201		79.8638
-30.2311	-48.248		82.2184
-32.4985	-48.9149		81.0375
-27.9742	-47.5662		84.2276
-29.7895	-44.6133		83.9796
-4.67248	-29.6858		97.0365
-4.58268	-27.5837		97.488
-6.3124	-29.4867		96.4732
-4.40486	-32.2885		96.9114
-7.29221	3.0144		96.0084
-7.34065	7.37781		92.8083
-10.3935	1.74195		93.4041
-19.8393	-15.2113		87.4857
-20.2483	-14.8323		86.3207
-20.4169	-17.0429		87.1818
-19.2123	-14.5288		89.4212
-18.9544	-13.3304		89.2483
-8.19416	-25.5921		96.1981
-6.62737	-25.7545		97.1857
-8.22237	-24.5812		96.6377
-9.26291	-25.9369		94.8017
-7.71379	-27.2857		95.6981
-8.03761	-23.8411		97.711
-7.99442	-22.81		98.9524
-18.3321	-13.5516		91.2
-18.8594	-15.244		90.3918
-18.1017	-12.7656		91.502
-20.5567	-19.5663		86.4595
-19.8355	-22.081		86.6084
-19.5921	-18.2226		88.4341
-3.34333	-41.9496		97.4805
-3.54542	-38.6539		97.4201
-6.03369	-41.1341		97.3942
-2.93138	-43.7433		97.5432
-25.7513	-30.6788		83.8886
-24.4321	-26.0398		83.2219
-28.5314	-30.8635		82.6491
-27.7635	-35.4238		84.3342
-23.1559	-30.6781		85.2541
-8.14435	-64.7835		92.4552
-12.1077	-64.0507		91.2844
-8.05876	-67.6415		92.3766
-4.24278	-65.4031		93.7166
-7.74635	-62.6892		93.4118
-24.6084	-49.5741		84.0813
-24.9169	-48.3242		85.4664
-27.303	-50.6726		81.1987
-25.0113	-50.1124		83.5114
-17.902	-12.0461		91.3957
-16.608	-11.085		93.6941
-18.144	-11.3535		90.1732
-16.0453	-63.0969		89.271
-15.9035	-60.6616		89.5782
-19.7595	-62.0459		86.8317
-16.4359	-65.65		88.5897
-0.970605	-65.6287		94.2568
-0.907829	-63.5621		94.8743
-1.15418	-67.9643		93.5628
-57.4657	28.9614		56.0736
-58.2108	30.4687		54.0188
-59.2102	23.388		51.594
-56.5008	27.7908		58.0072
-39.5238	54.0764		69.0962
-40.3375	60.0406		65.0417
-45.1946	51.9123		64.0942
-38.4627	49.0254		72.7352
-33.8725	55.6729		73.3402
-50.8571	49.0591		58.314
-51.9431	54.7367		53.9776
-56.1463	45.4612		51.6544
-49.9176	44.0911		62.5273
-38.8897	40.5176		76.1804
-38.5897	43.3115		75.4814
-39.196	37.5066		76.4608
-34.1948	41.0652		80.5768
-59.4785	32.1223		50.6222
-62.26	25.7688		44.975
-54.6143	37.1292		59.0309
-60.283	35.3205		47.5402
-21.897	29.4221		81.513
-19.2486	28.4184		82.232
-21.2016	30.2446		82.6493
-26.0067	30.3134		80.6166
-22.9357	28.5812		79.9844
-8.42727	16.5838		86.5083
-8.04892	14.4183		87.8679
-5.28023	17.5008		89.0271
-8.42638	17.9839		85.9082
-10.7134	14.9355		83.5276
-31.2312	-1.88513		73.9055
-25.3351	-0.116666		75.6786
-29.4492	1.87844		73.3204
-38.0151	-3.33811		71.8535
-33.1116	-6.29244		74.7809
-56.9066	7.3878		54.2431
-55.0687	4.66931		57.2797
-54.6867	9.24642		56.2261
-57.0997	11.2093		53.1997
-58.9971	6.14982		52.3061
-7.54544	11.367		90.0543
-5.21679	12.8576		91.5334
-9.75219	9.35794		87.8394
-39.3814	35.204		76.3749
-39.2039	33.4204		76.1315
-34.6306	36.0248		80.1398
-43.8132	35.0074		73.1559
-48.4581	33.4309		69.7551
-52.479	30.39		65.0153
-47.3892	31.7772		70.0724
-52.8692	16.3301		58.1965
-54.4706	16.0954		56.4374
-52.8013	13.1724		57.5216
-51.2167	16.8656		59.9315
-53.1883	20.4264		59.8886
-42.7381	23.321		68.8348
-41.2449	24.5522		70.0604
-44.0826	21.8651		67.1825
-38.979	25.8818		71.0339
-36.5554	26.4901		71.7396
-38.9232	26.4741		71.5705
-41.441	25.1376		70.5585
-36.246	27.0652		72.3092
-33.4783	26.6709		72.1154
-30.7012	26.3098		72.219
-33.1151	27.2104		72.5419
-30.1406	26.7391		72.7113
-28.1463	25.5374		72.0779
-26.028	24.5666		71.6017
-24.5347	23.4956		70.6131
-23.343	22.4132		69.6198
-23.4173	23.9349		71.0278
-24.8392	24.7829		71.9522
-22.3527	22.8557		70.0013
-22.3985	21.3001		69.0267
-22.3785	24.1108		71.4908
-23.8853	25.1585		72.5791
-32.8006	27.7757		73.3733
-29.4248	27.2219		73.4323
-47.3601	16.882		62.9814
-46.6871	16.2367		63.4845
-30.5078	31.0563		79.4354
-30.8251	30.1467		78.2797
-30.2908	32.4817		80.5666
-34.9418	31.4457		77.8372
-45.9607	26.8411		70.1936
-44.9483	25.724		70.0756
-42.816	28.5344		72.2668
-46.0257	28.401		70.3948
-38.9685	10.7184		69.3617
-32.219	10.8897		71.1353
-43.4881	10.7133		67.0058
-39.2253	8.76915		69.3003
-26.9724	11.936		71.247
-26.8141	10.3176		71.6605
-23.5169	13.2405		70.8406
-20.4647	16.8273		69.9107
-21.0571	15.6213		70.2331
-20.1961	17.7088		69.63
-37.9722	13.7209		69.779
-31.9987	13.7927		71.1258
-42.4003	14.1588		67.6911
-23.2935	16.6859		69.1194
-22.6203	17.2447		68.782
-24.7361	15.8097		69.7081
-22.1185	17.7032		68.6276
-21.6659	18.3227		68.5554
-16.6972	23.1566		75.0396
-15.4785	24.0605		78.0005
-17.767	24.3787		75.6383
-18.2848	22.3314		72.0565
-20.1101	19.2129		69.5417
-26.6175	26.2366		73.2245
-19.1325	22.0173		70.9538
-20.1766	23.2184		71.2393
-18.5596	20.7538		70.8374
-37.891	15.0667		69.8069
-32.0152	15.1177		71.002
-23.6083	17.4842		68.5208
-24.9668	16.9801		69.1152
-22.8915	17.7719		68.3154
-22.5376	18.1275		68.1302
-45.0433	20.3502		65.6481
-3.82382	29.3363		88.6082
-4.26784	32.2997		88.7321
-6.47156	28.5406		87.4531
-2.98579	26.9622		88.0847
-20.7397	7.79677		74.1933
-23.4544	6.42635		73.5575
-21.2158	5.18502		75.4455
-18.5584	9.10819		74.9094
-20.3124	9.69938		73.3029
-16.756	10.7203		75.936
-14.8916	12.2885		77.5901
-17.8134	16.3016		72.1728
-18.4437	18.0176		71.1434
-16.1677	16.8373		73.9217
-12.4154	21.4406		79.9035
-11.6272	22.1053		81.4136
-13.2179	23.0628		79.7631
-21.8596	14.4042		70.5305
-21.1364	13.1626		71.384
-20.4791	11.5615		72.3244
-22.7159	10.1032		72.2046
-19.8881	-51.2813		84.2469
-16.3641	-50.6703		86.7407
-23.3518	-51.5158		81.7194
-19.8005	-51.1998		84.0074
-25.2241	-51.7529		80.4675
-24.9172	-51.648		80.456
-3.00017	-47.047		97.3891
-2.67547	-47.8299		97.2218
-3.00001	-45.8518		97.4854
-5.81878	-46.4296		96.8101
-8.2928	-48.3355		95.0298
-10.9489	-48.2795		93.6498
-7.73557	-48.9615		94.3169
-5.42752	-48.2976		96.0745
-8.35317	-47.387		95.5577
-13.6386	-48.5472		92.0357
-16.4467	-49.3268		88.6638
-13.2515	-49.1715		91.5351
-13.9669	-47.606		92.9874
-8.75537	-46.4226		96.1949
-9.05795	-45.3655		96.6524
-11.8138	-46.5193		95.2058
-13.9346	-44.6357		94.9198
-14.6271	-45.6511		94.3956
-11.0974	-44.4709		96.3068
-13.4983	-43.568		95.1822
-19.9083	-50.33		86.7992
-19.7834	-49.6368		86.2332
-6.70615	-49.1709		93.9106
-10.0696	-49.48		92.4114
-6.29569	-49.5196		92.9825
-4.15763	-49.2588		94.8502
-13.2539	-49.8627		90.5915
-12.9574	-49.9894		89.7957
-26.387	-51.1823		81.3206
-27.5272	-52.149		80.0205
-20.1198	-52.146		84.7798
-20.1719	-52.299		85.0463
-16.5052	-51.6504		87.6217
-20.0592	-52.0925		84.5505
-20.708	-53.3767		85.515
-17.1211	-53.0645		89.1924
-20.5172	-53.0043		85.4463
-14.1833	-53.368		91.2971
-14.6155	-54.0566		91.2747
-10.8018	-53.8377		93.2415
-13.9195	-52.6849		91.1085
-6.31837	-51.967		94.1972
-3.35328	-51.7655		94.9709
-6.09436	-51.1519		93.7155
-10.1153	-52.1186		92.7045
-6.52331	-52.9961		94.5911
-1.23703	-53.7114		95.9987
-1.18208	-52.692		95.7194
-3.37511	-53.7716		95.7205
-1.26604	-54.7658		96.1083
-25.3314	-52.9532		79.8042
-25.3352	-52.5732		80.3345
-23.4089	-52.8768		81.2759
-25.1904	-54.4059		79.3989
-0.460205	-51.2649		92.236
-0.833773	-50.7249		93.1229
-0.44433	-52.6587		91.2156
-2.9438	-51.4456		91.6135
-1.21007	-55.8614		95.9732
-3.53021	-55.943		95.8221
-1.1367	-57.2012		97.0031
-0.905977	-61.2652		95.3678
-0.890193	-59.6178		96.1514
-3.51054	-61.0814		95.3776
-8.92002	-44.5532		97.0463
-6.42922	-44.5102		97.3783
-8.24528	-43.2308		97.2062
-1.13971	-51.6571		95.2915
-1.05977	-50.8955		94.7718
-1.03513	-50.6089		94.4349
-1.08034	-50.4496		94.0566
-3.30158	-50.624		94.0688
-6.02844	-50.8044		93.3604
-5.98822	-50.6408		93.0001
-9.62351	-51.0625		91.9023
-1.13421	-50.5991		93.846
-3.1532	-50.4198		93.1033
-13.0105	-51.1799		90.0853
-13.2396	-51.4928		90.4184
-12.9293	-51.0803		89.714
-15.1772	-56.286		90.2601
-15.4698	-57.3643		89.8815
-11.8966	-57.3701		92.8562
-15.0203	-55.6325		91.2055
-7.52727	-57.877		94.4384
-7.67691	-59.1809		93.7497
-3.45165	-58.0432		95.5772
-7.29226	-56.9034		94.732
-1.20287	-58.3384		96.6409
-12.8196	-50.0989		89.0676
-12.6969	-49.9927		88.4914
-9.43785	-49.7212		90.8528
-25.3074	-52.3304		80.9672
-23.4886	-52.4917		82.4621
-5.69458	-51.4929		90.9151
-5.7638	-50.8438		91.6077
-5.65338	-52.816		90.172
-9.16773	-51.6137		89.4496
-5.89024	-50.6042		92.3617
-9.23718	-50.6619		90.9786
-7.73696	-60.8498		94.0928
-12.0869	-59.9774		91.6661
-14.8696	-54.8698		91.2864
-11.3814	-55.4068		93.2947
-15.5586	-58.983		90.4968
-18.7793	-58.3061		87.763
-12.3071	-49.5178		88.2517
-15.6586	-50.2159		86.3168
-11.863	-48.3403		87.6516
-9.28753	-49.0565		89.5767
-6.16629	-48.8546		90.6205
-5.96663	-49.2692		91.4489
-6.77855	-47.7481		89.6129
-3.70033	-48.8596		91.4658
-11.5988	-46.0403		86.7199
-14.1135	-46.4626		85.5616
-11.7973	-42.583		85.6997
-9.24185	-45.6669		87.585
-24.7921	-57.4496		79.1534
-22.7302	-57.3064		80.8519
-23.8338	-61.1502		79.6967
-0.0785088	-55.2328		90.6114
-0.244105	-59.1251		90.1622
-2.18674	-55.2787		90.4473
-6.84418	-45.2536		88.2945
-6.8557	-41.662		87.4435
-4.3791	-45.1589		88.9605
-5.44594	-55.4265		89.605
-5.56068	-59.2458		88.9736
-8.90928	-55.3338		88.1615
-28.3627	-52.6156		74.9357
-28.6206	-52.7543		74.384
-14.1232	17.3698		76.7169
-13.2204	15.631		78.5921
-80.5258	-8.60609		-43.4191
-82.3826	-9.23322		-41.9256
-81.6607	-4.12829		-43.7027
-78.5276	-8.04189		-46.7485
-79.5865	-13.06		-42.5478
-81.2671	10.6785		-6.7404
-77.9638	12.3578		-1.94416
-79.3588	13.1804		-11.2291
-79.6272	15.1559		-16.3982
-80.2426	14.6339		-23.4536
-81.1376	10.8449		-17.7074
-79.2631	20.5934		-17.7678
-77.6179	-32.6211		-35.344
-75.3421	-29.0836		-35.3883
-76.9526	-36.6574		-32.7826
-78.1637	-30.5515		-32.5719
-76.1964	-25.4277		-37.471
-78.5844	-24.1757		-35.7529
-77.4046	-21.4311		-39.425
-73.6207	-27.4178		-40.1026
-84.182	-9.21834		-41.1186
-84.5369	-4.04839		-41.2737
-83.1597	-13.3229		-39.9276
-85.6133	-8.62504		-40.6748
-83.6589	-25.5021		-32.805
-84.9256	-26.6282		-31.7368
-82.2744	-23.9484		-34.263
-85.714	-27.4281		-30.698
-86.8774	-23.3932		-32.8778
-84.5064	-31.4022		-28.0899
-86.44	-27.8489		-29.4842
-90.9633	-17.4732		-31.0942
-92.217	-13.053		-34.2759
-90.9055	-16.8515		-30.2854
-79.1331	-39.6626		-19.5581
-83.0103	-37.4986		-24.6207
-81.822	-38.2433		-23.6656
-78.7581	-40.2639		-17.5709
-79.5862	-39.8707		-18.8863
-82.7251	-31.4749		-8.51188
-82.4692	-32.0133		-8.49463
-81.5447	-33.3624		-8.53049
-90.8394	-16.4605		-29.8751
-90.3987	-17.0305		-28.9875
-93.4344	-1.69324		-33.9398
-93.5091	-1.07126		-35.4508
-93.2867	-2.96054		-32.3025
-93.5196	8.65493		-31.5248
-93.7696	9.94918		-31.6405
-93.9837	12.0764		-30.6551
-92.0015	13.9396		-28.5565
-94.1602	12.5304		-31.0567
-91.8458	11.6579		-29.5347
-83.7513	-8.34715		-9.31152
-84.804	-2.8603		-9.82997
-82.8443	-12.2791		-8.40617
-83.4848	-7.46895		-7.6973
-80.7018	-24.0297		-2.26139
-81.4434	-19.5636		-1.90545
-80.0305	-27.829		-2.5847
-79.8748	-24.204		0.53765
-83.1541	-20.0893		-10.6763
-82.1738	-18.0816		-10.7791
-83.4582	-22.314		-11.3315
-81.1434	10.347		-17.7505
-81.1703	10.349		-17.5432
-81.3175	11.5537		-21.3167
-88.1079	17.2245		-18.1003
-89.147	18.8618		-21.2799
-88.884	16.5534		-17.0974
-86.7268	14.1489		-15.1531
-87.2914	17.5841		-19.2624
-88.7301	19.3578		-26.4148
-87.9073	19.1808		-23.3282
-87.9882	18.3345		-27.7218
-89.161	18.1262		-30.4041
-89.0447	19.5424		-25.8929
-91.4679	4.06413		-39.9037
-92.3543	4.33209		-39.444
-91.529	10.1466		-37.158
-90.6718	3.61067		-40.0866
-85.7507	1.69605		-10.2258
-85.6312	0.390745		-10.7476
-94.0815	3.55646		-36.9665
-94.4774	8.76418		-34.7566
-94.127	3.4606		-37.3325
-93.7304	0.738453		-37.075
-91.5816	14.7509		-24.1338
-90.625	14.2841		-20.0342
-91.6587	15.8178		-23.5262
-91.3971	13.3734		-24.8658
-86.8471	2.4067		-12.9822
-87.3471	4.66712		-13.7512
-86.4271	0.635458		-12.3256
-93.6823	4.30496		-34.2193
-93.6425	2.30082		-36.0933
-85.2997	-4.4036		-14.1627
-85.6439	-2.73824		-13.2287
-85.333	-4.14946		-14.9284
-88.9481	-4.50784		-28.5509
-91.0412	-1.99372		-30.3045
-88.8481	-5.60531		-28.7211
-88.6559	-4.05276		-27.9771
-80.6543	-16.1867		-1.414
-80.4404	-15.9763		0.925414
-80.6592	-12.2395		-1.63492
-84.6983	1.47702		-39.7578
-85.7185	3.97256		-38.7606
-83.062	5.83022		-38.7106
-83.6657	0.780899		-40.9635
-88.1437	8.9299		-36.1208
-88.3878	4.78559		-38.9951
-90.375	13.636		-34.3096
-86.2138	12.5558		-34.0089
-89.6521	2.66923		-40.041
-88.5143	-2.86496		-40.8018
-87.8162	-7.98973		-40.4667
-80.5665	-23.6003		-35.0705
-81.4684	-20.3526		-36.8368
-79.3367	-26.6867		-33.2046
-82.4354	-16.99		-38.5521
-80.5875	-17.2263		-39.5395
-88.3468	-17.1163		-28.8139
-78.4073	-29.5404		-31.189
-80.6032	-32.9919		-30.5279
-78.5838	-39.8242		-14.7383
-78.0699	-40.0778		-14.5132
-77.5553	-40.2643		-14.2076
-77.3089	-40.1805		-19.6365
-89.1027	-6.42389		-29.151
-92.4847	-4.75503		-30.3108
-83.0382	-6.74734		-6.63125
-82.4363	-6.57174		-5.4288
-82.1569	-20.4248		-5.21587
-82.4701	-20.605		-5.93055
-84.8495	-25.2856		-11.2856
-84.3747	-24.596		-11.9276
-85.6927	-27.3254		-12.7181
-82.5344	-15.639		-7.74683
-82.6598	-15.7208		-9.92962
-85.9913	14.3143		-30.4294
-85.0184	15.0119		-27.0138
-83.4412	10.9584		-33.5968
-82.585	9.14434		-35.5872
-82.0265	11.7048		-30.8876
-82.1438	8.8752		-36.7143
-91.3347	5.3555		-30.1535
-91.1719	3.78349		-29.9148
-85.4444	-3.47065		-16.3578
-85.9116	-2.49504		-18.8476
-88.5856	-3.17667		-27.4456
-88.1104	-2.93694		-25.8423
-90.3335	0.453769		-28.7829
-7.77733	84.9667		64.1697
-6.96299	92.8661		55.2438
-15.1228	84.1984		63.623
-7.87429	77.462		69.7096
-7.1504	70.4596		74.36
-14.1212	70.4442		73.2954
-7.00512	62.683		78.7697
-28.4624	55.9601		76.9037
-23.4611	56.4746		78.9747
-28.7151	50.2622		80.3605
-4.51327	-22.2899		103.14
-6.4408	-22.1388		101.864
-4.47018	-20.9842		104.622
-4.52812	-12.3336		109.288
-4.74462	-14.0051		109.383
-4.53133	-10.4641		108.756
-6.79882	-12.1972		108.213
-4.87824	-15.7645		108.989
-4.84869	-17.4289		108.087
-5.01814	-26.0953		97.9462
-4.07644	-35.6919		97.1098
-6.28398	-35.2681		96.7822
-4.7133	-19.2336		106.604
-6.86007	-19.1441		105.147
-4.36759	-8.61284		107.805
-4.26611	-6.26573		106.195
-6.57544	-8.77723		106.855
-6.10998	43.9928		87.5602
-6.0051	48.686		85.7984
-11.5789	44.1543		86.3834
-5.86585	40.1617		88.5007
-3.33405	18.2178		89.814
-3.62288	20.1331		88.9375
-3.51066	16.2849		90.6685
-3.44478	21.7637		88.3715
-3.69269	23.5641		87.9696
-5.73018	21.0623		87.5646
-1.12955	-48.7305		92.0948
-0.857995	-49.4528		93.3134
-1.47316	-47.5457		90.8714
-1.07219	-49.5537		93.4216
-1.27319	-49.5351		94.3345
-3.27457	-49.458		93.0448
-2.62065	-48.6471		96.6297
-2.09096	-48.8173		96.5579
-1.70595	-49.3456		95.4535
-3.12968	-44.9625		97.5753
-1.54461	-45.0326		89.7073
-1.69973	-41.2659		88.4313
-21.1801	83.219		62.7261
-20.8452	90.4099		54.2278
-26.7522	81.8784		61.4265
-20.7972	76.5856		67.8461
-17.483	44.9453		85.3578
-17.971	48.7021		84.2832
-22.9663	46.1828		83.7506
-17.1377	40.7187		85.7596
-18.2466	36.5819		85.378
-19.6228	33.1402		84.4225
-23.6034	37.8461		84.0029
-20.5786	31.3299		83.5637
-25.0894	32.5523		82.4622
-16.9127	30.5102		84.4275
-25.8108	26.4815		74.011
-28.9211	27.6201		74.2291
-22.8964	25.3723		73.3849
-25.2663	27.0521		75.457
-27.4026	25.8001		72.4817
-24.2441	27.7846		77.5898
-21.3756	26.6025		77.3169
-27.6054	28.8501		77.2408
-44.764	86.9132		38.8265
-43.4998	81.4064		45.2433
-39.1602	90.4046		41.4717
-46.2227	92.1572		29.0889
-31.855	80.499		59.3229
-37.1977	78.5682		56.1529
-31.9637	86.69		51.3571
-28.4729	46.9969		81.7448
-33.1811	46.4127		79.9093
-28.7314	43.1977		82.5139
-30.283	33.8897		81.3352
-29.736	36.3543		82.0418
-28.9568	39.8718		82.5908
-31.28	29.2938		76.7984
-35.4357	29.6172		75.7038
-32.099	28.6431		75.2418
-42.2055	76.3722		50.6081
-42.2475	71.0641		56.8794
-48.2354	73.6429		45.1862
-38.4943	45.706		74.4453
-43.4449	43.9928		70.167
-39.3536	27.6296		72.7245
-42.0954	26.6271		71.2608
-36.2003	28.1994		73.7705
-39.3083	28.3786		73.4643
-39.4835	31.6397		75.5717
-43.2753	31.4046		73.2256
-39.2848	30.436		74.9199
-39.3353	29.325		74.1548
-41.2818	65.6968		61.0133
-47.3035	63.135		55.8329
-53.9676	71.2314		38.8693
-59.1526	69.0819		31.6707
-53.8065	65.7806		45.2942
-43.1531	23.9194		69.1172
-44.5047	22.3129		67.4451
-44.5528	24.9935		69.7066
-45.9664	23.3227		67.7616
-43.6624	24.4141		69.4722
-46.7687	29.9787		70.3205
-50.3188	27.0958		66.7943
-17.1232	27.4081		82.048
-16.1124	28.1701		83.5171
-17.8947	26.4865		79.9217
-15.1064	25.9589		81.3588
-14.5081	29.1754		84.9867
-13.2654	27.8055		84.5748
-19.0256	25.501		76.7178
-20.3899	25.0929		74.2391
-5.05267	36.8652		88.5763
-67.212	-63.7389		-5.37169
-67.0393	-64.3702		-11.3632
-68.9472	-57.8912		-4.3226
-78.6418	23.2583		-38.3107
-79.906	17.4904		-33.0456
-78.9889	25.5361		-30.0464
-77.2941	28.8348		-43.5092
-78.9623	19.308		-43.8651
-76.2805	-7.95176		-52.6637
-77.0458	-1.98139		-52.7637
-73.531	-8.14041		-58.1008
-74.9477	-13.988		-50.9739
-78.0592	4.31193		-52.494
-80.4007	2.22052		-46.3342
-79.0919	9.98611		-50.6682
-75.8456	5.98133		-58.9872
-69.936	-30.7059		-43.6818
-71.6209	-25.1877		-46.3334
-70.0175	-33.97		-49.8038
-7.09498	55.2808		82.7328
-13.1418	55.4249		82.0122
-18.6478	55.9375		80.5628
-19.4796	63.3397		76.2845
-23.4963	-105.115		57.391
-17.7516	-106.823		60.6921
-29.8042	-102.539		51.3388
-21.6627	-108.235		52.1333
-47.9534	-85.6007		45.2038
-49.0534	-82.6516		48.3768
-52.7521	-81.9386		40.4898
-42.3905	-89.6107		50.386
-53.0184	60.2404		49.6235
-58.1011	57.1918		42.6173
-19.823	70.3368		72.1518
-64.349	66.7268		22.7367
-63.3918	60.4723		27.6018
-68.4209	64.6915		13.0238
-21.898	98.2145		45.4204
-15.121	99.8404		45.8597
-22.5559	105.562		34.2016
-27.9211	95.9798		44.6933
-61.3829	40.4389		43.2728
-62.3435	47.0568		38.7782
-46.8726	21.4295		65.817
-55.4915	26.6194		59.6053
-54.1089	25.3445		61.2214
-56.3447	21.6304		56.1461
-52.6335	24.1859		62.6103
-3.87518	-122.971		46.0577
-60.3601	-71.0726		38.9293
-58.5527	-74.6609		35.7768
-55.5106	-75.0447		46.4769
-62.1663	-66.4574		40.6126
-7.82151	-41.058		97.0789
-7.89267	-38.4189		96.6198
-9.69621	-41.3337		96.5719
-24.9392	-46.5163		86.7025
-22.0923	-45.0022		89.4493
-24.4239	-42.751		87.6323
-11.7391	-36.5426		94.8821
-11.0009	-33.544		94.2777
-14.4449	-37.0115		93.418
-12.3391	-39.2272		95.0737
-9.21385	-35.7928		95.803
-34.1608	-49.3086		80.0922
-34.0566	-45.7596		81.1941
-36.4207	-50.229		78.5428
-33.0459	-52.0924		78.5291
-60.3715	16.9411		48.7154
-62.0379	17.7501		45.6249
-61.2873	10.7861		48.1787
-58.4287	16.3788		51.514
-63.9764	18.5811		41.8539
-66.3571	18.558		36.5734
-49.5829	17.5246		61.5804
-49.7783	15.5557		60.7092
-56.7163	15.8679		53.8358
-81.0117	9.48248		-38.6257
-81.2519	11.938		-34.1515
-79.6469	11.3728		-42.4621
-82.1374	5.8665		-40.8361
-78.4578	-17.4477		-41.3423
-76.1954	-18.081		-44.3736
-70.9915	-50.6654		-15.2695
-75.4448	-48.0569		-23.6444
-68.851	-56.3082		-17.153
-70.7286	-52.5198		-9.11399
-72.9247	-46.3245		-13.4168
-82.1619	0.994369		-42.7588
-79.0124	-24.8687		3.69639
-78.5653	-25.3461		7.86392
-79.7621	-20.4761		3.87666
-78.1987	-29.188		3.29482
-71.8179	1.10725		29.6002
-74.4369	-0.34113		21.062
-72.9825	-5.67715		30.2354
-71.9742	9.25726		28.696
-53.1615	10.7957		57.6081
-51.6181	9.0747		59.4562
-51.2606	12.4316		59.0626
-49.7457	13.8116		60.4833
-48.9304	12.9613		61.4407
-77.3496	-25.3472		14.4604
-77.6232	-20.203		14.6176
-77.1926	-30.2329		13.5163
-76.018	-25.1855		21.4805
-24.6674	-7.57343		79.4085
-21.7032	-5.5036		80.9763
-23.5594	-2.8679		78.0807
-28.479	-9.50218		77.952
-35.0057	-11.3544		75.7374
-36.2557	-16.5451		76.614
-42.0355	-13.2625		73.3701
-18.6825	-3.57367		83.4392
-18.9074	-7.24216		85.0192
-15.4604	-1.75558		86.9671
-21.4259	-13.9844		84.3046
-20.3645	-11.9362		85.5124
-17.7447	-16.0353		92.8307
-18.3039	-16.5413		91.1159
-17.4325	-17.7924		92.2349
-16.4391	-15.2258		94.9592
-18.7817	-17.0972		89.6336
-18.6888	-19.5908		89.4003
-40.4006	-32.5642		77.6291
-39.6425	-27.4221		77.4949
-41.0662	-37.5537		77.258
-35.5144	-31.6972		79.9399
-37.585	-21.7861		77.2005
-7.56342	-29.686		95.8386
-8.96535	-30.0655		95.0093
-7.38606	-32.3726		95.9733
-61.3732	-48.5161		55.472
-59.611	-54.9466		55.5922
-56.6586	-47.2109		62.2607
-62.5163	-42.3417		55.6526
-28.9662	-40.248		84.6951
-31.3129	-40.8533		83.4143
-26.5005	-39.5246		86.1553
-40.8587	-42.8668		77.0736
-36.7715	-42.0017		79.8415
-45.7561	-44.1607		73.4221
-40.5061	-47.6796		76.7445
-7.56286	-35.3344		96.3872
-56.9865	-61.0141		54.6969
-53.7255	-65.6439		56.8799
-53.2902	-58.2419		62.0777
-60.6155	-62.7065		47.9407
-61.7454	-26.7665		58.2077
-66.5889	-26.3033		50.2493
-62.4264	-31.6829		57.1178
-28.4201	-92.6645		73.5965
-22.6564	-95.4679		78.3227
-28.8826	-89.4454		75.941
-39.721	-79.1713		68.2341
-34.2421	-82.6026		72.8374
-38.4196	-74.2679		71.0048
-44.5072	-74.9102		64.1795
-55.3536	-5.30781		60.3755
-50.5878	-5.23125		65.0814
-52.9914	-0.367452		60.9968
-47.1669	12.0149		63.6527
-47.9118	9.73434		63.2048
-51.6731	3.01788		61.1338
-50.252	5.60138		61.8042
-47.0211	2.28725		65.4019
-45.1823	15.3148		65.0717
-2.54359	-90.301		92.8308
-48.8556	-55.7855		68.0287
-44.0731	-53.3636		72.7883
-49.9828	-50.9896		68.4585
-46.5081	-59.4474		67.7817
-37.0707	-69.8774		73.167
-32.1873	-72.802		76.9651
-34.5063	-65.5895		76.197
-40.6983	-66.4365		70.9499
-45.1401	-4.44826		68.6521
-43.0022	-0.604982		68.6106
-46.5357	-9.42248		69.4487
-51.4913	-45.6064		68.1908
-47.9785	-14.9516		70.2086
-9.40023	-81.0509		91.968
-13.4595	-80.1632		89.9623
-9.17641	-75.7487		91.7132
-18.0406	-79.1761		87.2697
-17.3546	-73.8998		87.7765
-22.6083	-77.3896		84.0311
-41.7486	2.33663		68.6749
-34.9017	3.10618		71.2896
-40.6622	4.7438		68.8791
-48.9469	7.67172		62.5465
-45.2179	6.89847		65.9865
-39.8842	6.90597		69.0304
-32.9342	7.35162		71.2851
-12.8051	-0.127714		90.5128
-12.5604	3.83854		87.6143
-13.2382	-3.71423		92.8693
-14.3478	-10.1273		97.6228
-14.6117	-11.1282		97.8124
-11.862	-9.22632		101.343
-14.1954	-8.76373		96.6239
-12.8222	13.5706		80.289
-12.5658	11.0736		82.2806
-22.1844	1.27414		76.871
-3.45435	13.5476		92.1853
-61.5574	5.20269		49.5631
-12.2036	7.48308		84.9385
-64.2768	-62.6417		41.2531
-67.776	-60.3537		33.3966
-68.3558	-13.9427		44.7389
-71.0286	-12.8227		37.6918
-69.2245	-20.1832		43.5976
-70.0439	-36.7828		41.6316
-72.6286	-36.7158		34.6397
-66.994	-37.026		48.7787
-70.1885	-31.2933		42.2113
-69.9292	-25.6149		42.616
-72.2308	-25.314		35.6895
-18.3381	-97.5192		81.7598
-8.52989	-71.533		91.9141
-12.4036	-70.7706		90.6004
-5.06106	-72.0045		92.9265
-16.8225	-69.6935		88.3344
-27.6616	15.9829		70.2701
-28.4714	4.58953		72.6921
-27.4282	6.68552		72.3756
-26.992	8.55851		71.9891
-1.51372	-72.5384		93.9279
-7.13768	24.2435		86.4994
-7.38582	22.3532		86.1213
-5.45746	24.723		87.3923
-7.40974	25.6674		86.4619
-9.12327	23.7674		84.9426
-21.3344	19.3283		68.6548
-21.1193	20.3773		68.919
-18.7912	19.5387		70.6523
-10.5379	22.8841		83.1204
-11.0626	24.6192		83.5776
-3.31808	25.2796		88.0798
-8.10164	-21.8685		100.353
-8.38552	-20.5202		101.464
-9.26943	-11.8861		105.873
-12.3728	-11.6287		102.38
-9.23761	-10.4581		105.444
-18.4959	-23.8745		87.1835
-16.2656	-25.2012		88.8987
-18.1568	-22.9397		88.3983
-8.86687	-9.09985		104.801
-8.00668	19.504		85.7944
-8.48397	27.7393		86.7101
-10.1682	26.8622		85.606
-21.343	21.5716		69.4437
-11.7641	26.1373		84.0618
-13.2633	25.4824		82.368
-14.1673	24.6858		80.471
-20.3444	-31.0304		86.493
-21.7166	-34.8685		87.3792
-17.3447	-31.359		88.477
-23.4379	-38.9143		87.5808
-20.2914	-38.2232		89.6282
-24.1509	-51.2417		80.684
-21.9738	-51.145		82.2571
-23.9269	-50.0734		80.214
-25.1333	-50.6802		83.0137
-22.8408	-49.9697		85.6104
-23.7056	-47.502		79.2631
-22.9591	-44.1585		78.9407
-19.9944	-47.167		82.0748
-15.4479	-31.4085		90.5536
-16.3287	-34.4563		91.2405
-12.9645	-31.2064		92.3027
-17.3744	-37.6584		91.4395
-18.5566	-40.5138		91.4348
-19.1258	-50.8722		84.1547
-17.7502	-49.485		84.3994
-16.8721	-46.8608		84.0357
-17.0703	-43.333		82.9426
-10.8003	-30.6821		93.8598
-10.3211	-28.3147		93.6657
-12.7947	-41.6943		95.2797
-16.5292	-42.2281		93.2333
-18.7944	-9.68484		87.3487
-16.4353	-8.07447		90.8357
-4.02161	-3.15673		103.772
-13.7797	-6.59857		95.1435
-9.29725	-18.6826		103.304
-11.6621	-18.5762		100.438
-13.5348	-18.6462		96.971
-15.5421	-19.1022		93.9438
-14.2251	-16.6438		97.65
-16.8837	-19.8223		91.9867
-17.777	-20.8734		90.3902
-18.0641	-21.7617		89.0769
-15.0263	-11.928		98.0433
-14.8905	-13.2203		98.1337
-14.6568	-14.8978		98.2848
-39.4358	-148.013		14.3665
-38.3271	-140.571		15.7621
-43.7647	-146.353		11.4172
-40.4342	-153.263		14.1283
-34.6874	-149.518		17.2805
-37.3924	-130.283		17.9404
-32.8771	-131.978		21.7411
-37.1401	-120.902		19.9257
-41.5896	-128.463		14.1276
-40.7909	-102.94		28.6224
-39.2633	-108.715		24.3798
-36.4149	-105.373		33.0511
-43.8964	-99.4131		28.3616
-38.0904	-113.921		22.1965
-42.0015	-111.683		17.5595
-33.655	-116.05		26.8797
-43.9773	-62.734		69.2661
-40.0374	-59.6789		73.4261
-47.2256	-66.2996		64.5012
-50.139	-70.4141		59.3644
-50.4554	-74.9543		56.5327
-49.9313	-79.3983		51.3713
-36.6258	-57.2108		75.8841
-34.3749	-59.382		77.0097
-33.8339	-55.2335		77.6181
