1904
94.6611	16.7825	-18.4762
95.8846	15.7132	-27.2289
-0.277108	109.129	35.4965
0.0665016	113.644	-65.1589
40.9427	-118.109	-73.7193
0.133347	93.0092	-94.6744
0.154289	67.3443	-111.34
0.171732	41.1625	-119.52
0.160028	-39.0963	-102.125
-76.9386	-41.2706	20.597
-79.0542	-39.0419	5.86968
-75.2544	-51.6558	17.9345
-60.286	-105.898	-15.9829
-54.9676	-107.943	-7.81701
-58.1774	-142.51	-9.30676
-56.1678	-129.063	-8.14279
-60.892	-125.686	-16.9628
-62.0849	-138.638	-18.9142
-56.0059	-94.7622	-6.12377
-46.9122	-110.575	1.03708
-48.0811	-97.8561	3.36677
-61.2051	-93.1319	-14.7662
-63.9301	-90.7801	-23.6324
-62.7914	-103.661	-24.66
-72.6733	-60.7837	14.4876
-68.2997	-69.7089	9.83835
-65.7743	-73.0034	24.6568
-69.5082	-64.0257	30.8068
-78.9303	39.7312	8.80126
-79.0853	24.5258	16.0261
-70.2965	29.1144	40.0799
-71.4137	43.8259	30.9753
-81.1254	33.0938	-33.448
-81.6195	37.3547	-13.5191
-78.9132	52.0998	-23.0098
-77.2702	46.1374	-43.9028
-3.1071	-111.019	39.6185
-10.0707	-110.732	37.5322
-9.88991	-121.216	33.6492
-3.42853	-122.212	36.7179
-13.3891	-143.373	27.536
-5.54199	-144.564	30.4593
-7.21422	-157.184	26.6012
-74.4476	-40.215	-35.4397
-67.7102	-51.7115	-41.6017
-72.7129	-52.8984	-27.4382
-76.315	-30.9422	-39.8152
-69.0406	-39.9078	-47.3036
-63.2466	-134.549	-29.6164
-60.9222	-129.915	-42.2985
-71.2628	-54.9783	34.7485
-73.1655	-43.1711	36.8056
-73.4043	-58.3214	-1.57167
-3.8984	-87.1634	98.2672
-12.8584	-86.6011	94.279
-12.4601	-95.2989	92.1254
-3.44574	-95.5367	96.2074
-22.5122	-84.5956	87.2252
-22.2782	-93.3436	84.6563
-5.07875	-75.7268	95.526
-4.30951	-101.832	88.3931
-5.06969	-104.838	74.6848
-13.6509	-1.05468	86.0503
-13.2514	5.74644	80.2622
-18.4007	2.77545	77.8405
-19.2432	-4.49223	83.3239
-56.0087	-35.2837	74.8413
-44.3982	-32.2646	83.0362
-41.9671	-23.1342	83.9843
-54.0041	-26.3051	77.4021
-67.1717	-23.9917	60.0566
-51.8313	-14.8361	75.9378
-69.156	12.2242	47.0463
-74.3256	11.5304	37.272
-44.6741	-40.6775	80.2592
-56.1054	-43.5922	71.2962
-3.67938	5.09029	92.0666
-3.67535	-3.6395	99.6563
-27.3407	75.4477	66.1298
-37.9997	72.6197	61.5458
-36.2516	60.9858	69.9371
-26.402	62.5508	74.3822
-4.18421	-106.521	54.8956
-66.2361	-43.9341	54.7485
-63.6654	-56.3471	52.4234
-34.483	-88.8424	73.181
-47.5181	-81.7265	61.824
-46.9815	-88.1754	53.5693
-35.8947	-97.9888	31.904
-43.2665	-92.6358	45.1277
-53.3603	-86.2089	32.0797
-44.292	-93.8501	20.2886
-4.53851	-9.87372	104.662
-9.01237	-5.58172	96.0709
-9.93611	-11.7318	100.632
-21.1094	-12.6805	86.5613
-29.6085	-17.2721	84.8014
-27.2728	-55.8048	78.7491
-15.1876	-26.2878	91.2803
-14.3167	-28.3762	89.3548
-10.6028	-32.2368	89.4831
-14.2838	-30.4672	87.9596
-15.0987	-32.4666	87.3938
-3.17891	-27.2513	96.7831
-3.0907	-29.2597	93.6344
-20.6164	-30.4781	85.0321
-5.18175	-17.322	107.302
-10.5183	-17.8731	102.545
-9.99546	-21.296	101.2
-5.00117	-20.9161	105.703
-30.2646	-70.6142	80.1646
-21.9003	-74.5471	86.2598
-19.5557	-65.8704	85.6786
-26.056	-62.7728	80.6292
-30.2168	-45.4644	80.954
-25.6128	-43.5452	83.1781
-3.285	-31.4184	92.3055
-4.40673	-34.2746	92.2658
-8.50224	2.37817	89.6263
-18.503	-16.805	90.9631
-18.7937	-20.1724	91.2052
-18.0484	-17.9951	92.559
-6.752	-31.5564	91.1171
-18.1	-24.56	89.4988
-5.68109	-36.5718	93.5861
-6.34012	-39.8814	97.0661
-28.0473	-36.6013	82.8569
-23.3358	-36.2735	84.1015
-11.7405	-64.4717	91.4782
-12.3234	-67.4552	90.7693
-5.07611	-67.6452	94.2766
-4.6821	-65.364	94.9251
-20.6108	-49.8601	87.4522
-23.6945	-52.4286	81.5003
-15.1467	-14.3687	94.7529
-18.4313	-61.7082	86.361
-58.5359	36.4258	60.7615
-65.987	25.7053	49.9132
-62.8826	24.0647	54.6793
-48.0036	56.8005	61.7232
-47.0804	47.5037	68.0685
-36.1836	50.644	77.1458
-60.4501	50.7945	49.2155
-59.3351	40.6524	56.9552
-37.0768	46.4095	79.2949
-47.0628	43.4224	70.4199
-22.2579	29.2622	77.9988
-21.2483	32.8387	80.4293
-29.5992	35.2748	79.461
-29.8314	31.6388	77.6177
-8.79599	8.98185	83.4248
-4.16652	12.3002	86.0281
-4.61424	16.3564	83.5745
-26.3531	-7.70786	81.9073
-24.0014	0.498478	76.9407
-35.8294	-3.04607	76.6412
-39.3062	-12.0598	80.884
-55.4059	6.45003	62.6381
-58.3974	13.999	57.8421
-63.7262	12.6258	53.5204
-48.3985	35.6536	71.1982
-38.4314	36.1412	77.4191
-38.1225	41.3234	79.1416
-56.2173	30.4773	64.1361
-59.359	22.3477	58.3521
-38.0729	31.8045	75.7926
-49.5523	22.795	67.0701
-45.0913	26.2253	71.1456
-12.1023	19.0065	76.3846
-15.9508	24.4473	76.9411
-17.6005	20.4368	73.3259
-7.68208	32.4382	83.4661
-5.76678	25.9501	82.5443
-22.8766	4.61388	74.3334
-10.8288	21.7266	78.5676
-22.3866	7.41581	72.937
-13.5173	-52.0463	84.3168
-18.7578	-53.052	81.8094
-6.76975	-44.3964	98.9014
-6.72313	-41.7534	98.406
-10.6086	-46.3222	97.184
-10.2542	-49.037	95.6268
-6.68742	-47.4971	97.9026
-16.0532	-48.8883	92.3416
-10.5847	-43.5577	97.0602
-15.9504	-46.4919	93.0558
-9.25576	-51.7332	91.1881
-5.5615	-51.1025	93.8349
-14.2637	-54.0047	87.7016
-13.7391	-53.4775	86.5898
-15.3446	-55.2856	88.4459
-10.3233	-58.1255	94.3201
-9.65483	-55.8913	93.853
-4.33009	-57.2493	97.5038
-4.389	-54.5994	96.0674
-8.97122	-53.9723	92.6686
-4.37001	-59.5	97.7737
-19.2176	-54.4958	81.5673
-4.74092	-52.8356	90.0027
-4.64298	-61.4814	97.1504
-4.68739	-63.3641	96.0756
-9.74683	-41.0345	96.0716
-4.77198	-53.1276	93.9646
-8.85156	-53.1507	90.8213
-11.1124	-61.9496	93.0663
-10.7611	-60.0759	94.0345
-9.04817	-51.7869	87.4279
-8.69355	-53.2276	87.1629
-13.3063	-50.603	83.0565
-9.63176	-49.9433	84.5909
-18.717	-56.5863	80.4595
-4.59375	-54.6549	86.8509
-5.46867	-51.4805	89.9907
-5.83793	-49.4256	86.0385
-9.21599	-54.5706	84.6272
-27.0527	-46.0568	74.0063
-30.2859	-50.7799	72.3913
-15.783	-43.5964	79.8536
-10.869	-42.7033	81.7334
-25.9808	-62.0993	76.9643
-20.3726	-62.0662	80.2067
-4.35791	-59.0157	86.059
-0.174308	-58.301	86.7132
-6.09254	-41.8234	82.7419
-9.20293	-59.8839	84.5558
-29.8917	-58.2366	73.564
-84.3142	-12.4324	-41.5368
-85.3469	-3.6355	-42.2512
-81.8775	-2.30307	-47.3016
-80.589	-12.2122	-46.5704
-83.1332	5.8176	2.40151
-82.8406	21.0588	-6.50815
-83.3541	20.2566	-25.3582
-84.6187	12.4187	-21.3139
-81.5954	-26.5838	-35.2922
-79.8467	-33.6016	-31.353
-83.1161	-19.8712	-38.8063
-78.4148	-21.9884	-43.8848
-88.1311	-1.71282	-40.873
-87.7051	-12.2684	-39.9259
-86.9752	-29.7844	-30.4511
-89.114	-21.5998	-34.9062
-84.5441	-37.5681	-23.7474
-82.3877	-39.3788	-20.5424
-93.975	-12.0756	-31.1958
-95.7697	2.13079	-35.1943
-83.2593	-19.9729	1.70746
-82.2116	-28.3231	0.484097
-86.7	-17.4362	-9.41404
-87.0052	-21.4657	-10.007
-84.6241	11.7173	-19.8755
-91.962	-1.89466	-41.1316
-92.1989	20.1637	-21.445
-94.0008	19.1039	-19.2691
-90.888	19.2024	-23.7576
-90.3468	3.72326	-10.6435
-96.6318	9.55059	-34.8916
-94.9476	-2.60391	-29.9837
-94.6695	0.173361	-28.6099
-87.816	8.77723	-35.6139
-85.758	6.17643	-38.8207
-84.7736	-25.896	-33.7067
-86.4671	-1.3178	-5.88791
-86.5636	12.9443	-28.5161
-85.6541	11.9042	-31.1552
-93.9256	11.4258	-21.215
-90.9551	-7.99303	-24.2253
-16.4124	91.5009	56.516
-15.6405	77.1144	68.3795
-14.945	62.6162	76.6915
-25.7941	51.2704	80.6006
-4.03708	-24.7925	101.409
-5.0749	-13.94	106.919
-14.8109	49.1153	82.5195
-14.0408	41.4549	83.497
-4.83622	20.5846	82.5042
-28.8986	88.2012	54.9828
-26.4587	45.0785	81.7623
-28.9082	39.2417	80.7985
-30.5834	27.3679	75.0853
-23.2122	24.9135	74.7136
-40.0708	83.7252	50.9382
-42.242	96.2079	32.1871
-38.0835	27.4858	74.0948
-50.2186	67.6641	53.0857
-47.2528	31.12	71.2403
-62.019	62.8778	39.3427
-53.3721	26.7383	65.6961
-14.7181	27.8332	79.731
-72.825	-58.2153	-15.5006
-83.2086	15.6624	-37.3953
-79.6618	24.7628	-49.0915
-77.0436	-0.360338	-59.4053
-74.9001	-14.2741	-57.3146
-82.6606	7.96307	-44.5218
-78.3025	13.22	-57.4223
-71.7267	-27.4772	-53.0223
-12.4867	-105.213	51.6808
-25.2298	-101.897	43.438
-58.4214	-79.5597	40.7338
-72.008	58.0204	20.4101
-16.5403	107.355	35.3807
-30.1754	102.893	34.5384
-51.5122	18.5947	63.5261
-59.3423	-70.6806	50.7104
-9.08665	-37.154	92.6653
-20.291	-41.0581	86.6815
-7.81872	-34.5509	91.3741
-12.1905	-35.3233	89.7231
-14.0992	-38.8775	90.6267
-34.9616	-47.4298	79.6449
-34.0192	-54.9111	77.8344
-77.9589	-43.237	-22.5033
-80.5484	-30.0414	8.14865
-81.7569	-20.9029	9.24162
-79.9071	8.86783	19.6996
-80.3077	-6.64372	22.6333
-52.5938	10.1053	62.8713
-79.7619	-19.7416	22.5771
-78.4806	-30.4785	21.7561
-14.5721	-8.72967	91.0425
-17.1425	-23.2876	92.4691
-15.0209	-22.1646	95.7945
-34.0073	-37.7247	82.403
-53.7233	-54.1228	68.8459
-43.4631	-50.4635	77.1629
-50.1574	-64.6793	68.3225
-67.7912	-33.8031	56.9321
-33.0089	-80.0672	78.4042
-43.0879	-73.2597	71.7016
-49.4273	-3.94082	72.2283
-46.9353	1.80599	70.5119
-41.2461	-58.8638	75.9136
-36.8188	-65.3713	76.8219
-13.5625	-75.8244	91.8367
-33.4435	1.78405	74.3981
-10.5439	-15.0714	102.203
-75.7147	-20.3895	39.7958
-74.7464	-31.8384	38.5726
-9.01039	24.3703	80.8559
-17.7562	-36.1276	86.8314
-18.2592	-51.1249	80.4003
-21.4465	-44.5152	77.015
-32.747	-138.404	15.3857
-41.4965	-135.216	8.11975
-44.6111	-149.434	7.04079
-35.6632	-152.214	13.5733
-39.7027	-102.034	11.6622
-31.5222	-105.483	20.7895
-38.5054	-113.752	9.29158
-29.7725	-116.511	17.9381
-30.8135	-59.1898	78.1114
-51.9445	-89.4305	8.83182
-58.8578	-81.6778	17.1554
-49.1625	-132.136	0.567634
-52.1803	-146.195	-0.513524
-63.2389	-77.3001	3.85901
-58.6686	-85.4557	-2.28435
-63.0096	-83.4361	-12.1486
-61.5455	-97.4631	-37.7142
-81.1303	-34.9445	-2.07583
-63.5276	-81.1715	-35.8333
-55.3003	-108.352	-53.2095
-55.684	-125.265	-55.1506
-25.8441	-154.51	19.2459
-22.969	-140.965	22.249
-20.8748	-108.861	31.0352
-19.4541	-119.16	27.1293
-23.5424	-58.5811	81.2503
-13.1343	-53.7987	83.9053
-13.4573	-55.1	82.4327
-16.0585	-156.202	23.7522
-14.6239	-60.9672	82.5755
-77.9608	54.6078	-1.14458
-50.3873	-82.4635	-61.0904
-48.8991	-103.576	-63.1831
-56.2692	-88.4953	-51.0493
-48.8971	-121.332	-65.6497
-59.6911	-67.1996	-49.4203
-15.8897	119.089	6.24284
-30.2758	114.111	6.32527
-15.5467	112.295	-64.2399
-14.3954	92.2214	-93.4697
-28.6919	89.4289	-89.8833
-30.3318	108.42	-61.0827
-14.3798	66.7956	-110.102
-27.5499	64.6627	-106.609
-30.5966	116.679	-27.0205
-15.8287	121.411	-28.7974
-13.8643	40.4582	-118.309
-26.5426	38.3608	-114.783
-12.9086	12.3375	-120.464
-25.5163	10.7091	-116.574
-23.9565	-15.2887	-111.479
-12.0553	-13.7635	-115.443
-11.3661	-38.7009	-101.817
-22.4794	-39.132	-99.399
-9.98979	-75.584	-86.1886
-9.60075	-94.7424	-84.7578
-19.7668	-95.9166	-83.0951
-20.866	-76.9635	-83.8943
-9.55055	-113.636	-84.2741
-19.627	-114.178	-83.0524
-11.0947	-55.4569	-91.9342
-22.3254	-57.3562	-89.1581
-43.5055	106.151	5.55098
-55.4417	95.6883	3.93156
-53.1584	77.7777	-76.2651
-41.748	84.5883	-83.9111
-40.857	60.8975	-100.185
-52.3763	56.0655	-91.9339
-54.3797	92.8635	-51.3668
-42.904	102.115	-56.6826
-56.2193	97.7622	-23.8873
-44.1852	108.655	-25.3676
-50.975	32.1209	-100.161
-39.6079	35.4781	-108.337
-38.0121	8.88425	-110.195
-48.834	7.33177	-102.136
-45.8387	-17.4746	-97.6532
-35.9157	-16.7533	-105.182
-34.2653	-40.4233	-93.6481
-44.8949	-40.5776	-85.7675
-33.6496	-59.2214	-83.5207
-39.9307	-99.4357	-72.7784
-42.0622	-79.2896	-71.1717
-32.0332	-78.2764	-78.8889
-30.1724	-97.6376	-79.2783
-30.0037	-115.492	-80.0182
-64.5588	80.9573	-44.5561
-62.761	69.1272	-67.3129
-71.0826	58.3989	-55.8648
-73.1574	66.9065	-34.4223
-74.0045	69.6274	-12.3735
-66.3133	84.5797	-20.6516
-60.3294	28.2395	-90.7811
-61.7726	50.1376	-82.5168
-55.0851	-17.9961	-87.6171
-58.5688	5.23913	-91.9114
-53.0582	-39.0984	-77.4162
-75.4345	33.8636	-60.2013
-62.8624	-17.6042	-77.1034
-69.368	-16.1277	-67.1277
-72.3029	1.28526	-70.3117
-66.051	3.21743	-81.5303
-73.747	18.0425	-69.112
-67.6548	23.5988	-80.6599
-69.3941	42.7244	-71.8757
-62.3171	-47.4991	-54.7018
-65.7226	-32.2033	-61.0311
-59.5363	-36.2485	-69.2758
-96.2251	10.2792	-35.5262
-94.3411	10.9587	-36.7706
-95.3286	17.9794	-27.6926
-93.3423	19.1269	-28.8524
-91.9366	14.6043	-13.383
-90.0798	15.5161	-15.3777
-87.8556	14.8915	-18.3965
-92.6127	9.38163	-37.7315
-92.1588	17.7217	-30.1904
-95.6917	-1.63255	-37.7995
-94.8536	17.9027	-18.4938
-96.0048	16.7238	-27.2556
-40.1638	-117.949	-74.1417
23.4241	-101.147	79.977
20.3056	-102.178	80.1944
25.8547	-100.811	76.0397
24.2727	-99.5398	82.8302
70.7789	-6.55593	51.2032
68.5653	-5.55623	54.6329
71.3238	-9.88504	50.6829
71.9471	-2.75952	47.094
66.4306	-3.76671	56.8028
66.2247	0.482183	54.805
63.6254	-5.02674	60.4466
12.2928	36.1754	84.3739
14.8726	35.2613	83.7035
16.2454	39.6437	83.7934
9.42484	37.0394	84.7603
9.8111	32.2834	83.3456
9.23247	15.2933	78.4105
10.0519	14.543	77.8351
9.6489	16.785	77.6866
8.6183	15.5579	79.0666
13.1471	16.745	74.0816
15.1153	15.6784	72.1437
13.7379	18.2791	73.7061
11.365	17.7221	75.9323
12.7294	15.2418	74.7381
46.7351	14.8565	65.5667
43.5701	12.9221	68.2311
48.3631	16.4854	63.7479
17.1508	10.0328	73.2405
16.7752	10.9943	72.8809
16.6752	9.11071	74.3592
18.7912	9.40279	72.652
21.0155	-49.6037	81.8413
20.9472	-49.5396	81.8882
20.8102	-49.6762	81.5056
21.1207	-49.5887	82.0308
20.6001	-48.4549	84.9516
20.2863	-49.048	83.4727
21.3668	-49.0815	83.2701
21.0895	-48.1402	85.216
18.944	-48.1001	86.7707
25.9656	-50.1358	81.0467
26.4978	-48.1426	81.6871
20.8476	-49.6649	80.9574
20.2303	-48.8491	81.3803
22.1923	-49.7403	79.479
20.7229	-50.2543	81.0844
18.3998	-54.4577	87.3015
19.0444	-55.3033	86.8313
20.5242	-52.9544	84.7274
18.0332	-53.816	87.4882
15.6901	-55.797	90.5281
16.4033	-43.6654	91.9989
16.0607	-42.392	91.9532
13.2516	-42.2259	94.908
16.647	-44.3526	91.8676
19.1161	-45.1696	89.3122
20.2756	-50.1707	83.279
20.4548	-50.2388	83.219
20.317	-50.097	83.0054
18.566	-50.3449	84.7822
83.2233	-36.3228	-8.10055
82.7046	-36.7587	-7.26962
82.7304	-39.8822	-11.2235
83.7609	-35.3298	-7.98661
90.5312	-26.8711	-19.656
90.8962	-24.9862	-22.3323
89.4383	-25.2242	-18.4942
90.1722	-28.0535	-17.1831
91.0083	-28.2245	-20.291
86.1264	-33.1492	-9.77708
86.2308	-30.47	-9.06078
85.5207	-33.4432	-9.04148
86.7616	-34.4376	-11.4061
85.8329	-20.4884	-12.9777
85.6942	-19.3774	-13.9441
85.7486	-18.6275	-12.7284
86.158	-20.9898	-11.621
86.296	-22.0664	-13.4527
90.2729	-0.534988	-13.7243
89.82	-2.52874	-14.5108
90.4955	0.276151	-14.295
90.3339	0.015592	-12.791
93.0292	10.4709	-17.8428
93.0612	11.0719	-16.8519
92.6762	9.51566	-17.8134
94.0781	11.6216	-20.9313
87.8717	-18.2195	-19.9884
86.95	-16.7397	-18.5689
87.6342	-22.0641	-17.3939
90.0516	-21.3715	-22.7655
89.9078	-15.7122	-23.8842
91.7983	0.862368	-20.2268
92.1181	2.01657	-20.579
90.7633	0.401266	-16.4007
91.7631	-0.459901	-21.3007
95.0019	-9.9586	-32.4053
94.9093	-9.74438	-31.8239
94.2732	-13.1018	-32.0187
95.2883	-8.81112	-33.3588
95.4814	-7.12433	-35.0283
95.6297	-4.97794	-33.9429
95.3808	-7.82515	-36.0961
95.6175	-4.02617	-36.2718
91.2239	-23.312	-24.3034
91.5317	-21.0235	-26.1211
91.6408	-24.3695	-25.1013
92.8	-9.46302	-28.2757
91.9109	-11.4681	-27.1699
94.0074	-9.73373	-30.1275
92.7836	-8.1004	-27.9849
84.5493	-28.1245	-5.70045
84.6146	-30.438	-6.43891
85.1064	-27.6912	-6.5745
84.3293	-27.2671	-5.03554
84.2306	-25.604	-4.26311
84.5189	-23.5069	-4.20421
83.8872	-25.767	-3.36029
85.4225	-16.3678	-4.46678
85.206	-16.93	-4.03911
85.7149	-16.7122	-5.36968
85.7332	-13.1131	-4.64732
84.9416	-17.7369	-3.56254
84.6197	-17.5958	-2.61457
84.8126	-20.1872	-3.88603
87.774	-23.6783	-16.1121
87.6985	-24.7435	-14.2498
87.3107	-11.4577	-13.0711
86.3956	-15.3254	-12.8302
87.1748	-11.9574	-14.6343
88.2603	-7.59609	-13.3025
87.7046	-10.3658	-11.7891
95.3568	6.46115	-30.087
95.453	7.21241	-30.3437
95.2342	6.02572	-29.5135
95.5772	5.2764	-31.8544
95.6058	1.56914	-32.6894
95.501	0.437962	-31.2445
95.6612	-0.120838	-33.6072
95.6451	2.9215	-33.5291
95.4067	3.36863	-30.7294
92.5105	8.88841	-17.9954
93.2742	9.01281	-20.6543
91.978	8.00913	-16.8715
94.1626	8.9092	-23.9829
93.8048	7.84071	-23.2889
95.1716	8.63783	-28.0871
94.6502	10.2007	-24.8492
42.0509	25.5407	71.1723
44.4165	24.6169	69.8843
39.142	26.0736	72.0534
29.5022	-100.349	70.2788
28.1858	-101.139	65.6583
32.1421	-99.1049	70.1721
49.2423	20.1861	64.6449
48.1602	21.9686	66.4231
50.0674	18.665	63.2557
53.0504	22.6439	63.138
55.0849	24.2634	62.0941
51.8365	25.5532	65.4462
51.1315	21.704	64.2129
53.6408	20.132	61.4706
77.5772	-49.5842	-3.85616
78.1821	-47.7951	-8.50605
78.0633	-47.9483	-2.3517
76.8308	-51.8682	-4.32666
19.0094	14.9502	69.3028
19.4909	14.2782	69.1586
19.0141	15.8643	69.4087
17.7235	17.4553	70.4013
19.1187	19.473	70.8198
17.5177	16.0196	70.22
7.82723	16.5693	79.7599
7.17259	16.5592	80.5102
7.83051	18.5036	79.572
14.8178	-48.5729	88.7991
14.9349	-48.9165	86.7398
15.5861	-48.1443	89.3945
12.5813	-48.229	91.4878
68.9838	-72.9305	-10.1828
68.4233	-73.152	-4.70948
68.1171	-75.6005	-12.2135
69.9824	-70.3028	-10.6125
83.5516	-4.97006	1.28596
83.0704	-12.2539	3.98398
84.3382	-5.7571	-1.44573
83.8227	2.81102	-2.31328
82.6018	-3.88346	5.82411
68.6747	-75.3853	-23.5554
67.9629	-77.5734	-25.2891
69.5295	-70.9492	-23.8219
68.1137	-77.8147	-18.9868
64.1199	-110.652	-29.4025
64.0175	-119.067	-30.7418
62.6209	-106.943	-36.9479
64.3358	-101.76	-29.2948
64.2224	-113.274	-23.4461
20.9873	-50.8814	83.1774
21.2375	-51.104	83.0812
19.7015	-51.7011	85.0242
21.6619	-51.5155	82.9744
17.5211	-53.431	87.877
17.4582	-52.7548	87.56
14.959	-54.1309	91.0341
34.1874	-97.8802	70.0733
38.0821	-96.4881	63.7056
34.1159	-96.3913	73.8009
50.4391	-61.2826	-67.3965
49.0249	-57.3601	-71.2962
53.2533	-60.359	-63.6783
49.4789	-64.4185	-67.2429
56.1157	79.7272	34.1726
58.0079	81.8544	27.2454
52.1782	82.8382	36.7604
56.994	75.5654	37.0969
92.523	-19.7718	-33.3525
93.6185	-14.6676	-36.1751
93.0638	-18.9545	-32.3122
91.5679	-24.0164	-30.8076
91.8561	-19.8216	-34.6212
87.6933	0.595296	-8.00311
87.0958	-3.74066	-6.85753
88.6393	0.496977	-8.67535
88.2513	4.93309	-9.60488
86.468	0.783117	-7.25445
86.1435	-20.9731	-7.69635
85.7924	-21.6603	-6.653
86.5326	-23.6299	-8.98707
86.4045	-21.226	-9.26929
86.0986	-19.2735	-7.32254
86.0855	-27.529	-8.21582
85.6556	-24.655	-6.88395
86.8284	-27.2242	-9.58577
94.4127	-8.85011	-38.5641
93.6086	-8.84691	-39.3966
94.888	-2.62726	-39.569
94.913	-8.85837	-37.6868
92.5583	-8.7122	-40.0791
91.9559	-14.3214	-38.1799
91.4928	-8.46285	-40.4709
92.857	-2.63373	-40.9037
85.0705	4.87047	-8.60161
85.1549	7.09552	-10.3315
84.8247	5.90253	-8.33213
85.2302	3.17345	-7.39178
89.0009	-17.9241	-37.6078
87.3025	-17.3471	-38.3907
89.5467	-13.4776	-39.3744
90.0786	-18.5506	-36.9037
88.0876	-21.884	-35.7586
91.8	-25.4499	-25.9002
92.2068	-22.3023	-28.3287
91.5385	-27.4736	-23.7504
91.6412	-26.407	-27.1417
89.406	-34.2754	-24.0447
88.9514	-36.1542	-21.1976
87.9947	-35.7113	-25.1658
90.2116	-31.0128	-26.7138
90.816	-31.5282	-22.5397
90.4072	-32.498	-17.2764
89.8824	-34.2511	-17.6538
90.829	-31.3715	-18.8559
90.0455	-31.8108	-15.9385
80.2567	-43.294	-13.6306
79.6958	-44.2604	-14.1579
81.2529	-42.3241	-15.3169
80.5529	-42.3743	-9.20419
84.981	-39.6384	-14.5443
85.1885	-40.4262	-16.9512
86.1976	-38.2273	-14.0486
84.6553	-37.8237	-11.4377
83.9294	-40.5395	-14.8324
90.969	7.14462	-10.8195
90.9444	8.6547	-10.9201
89.7806	3.62978	-9.99334
91.2552	7.10582	-11.1812
90.878	9.58704	-11.1503
92.006	12.879	-13.0648
90.5487	9.5898	-11.1629
95.1601	-8.68046	-36.9421
94.4392	-13.4012	-34.4713
95.5916	-2.98166	-38.2624
96.0344	5.69544	-34.8406
95.8575	4.6725	-34.5788
96.1461	5.0368	-35.7205
96.005	7.2416	-33.293
91.8459	8.18303	-12.953
91.7351	7.93782	-12.3961
91.4499	6.60774	-13.2274
92.2483	9.78497	-13.9298
91.431	7.05729	-11.5679
90.7383	3.86715	-11.519
92.2719	11.3037	-12.9941
94.6643	-9.71977	-31.2401
95.2262	-6.76247	-31.4859
93.5071	-13.3151	-30.2524
91.1319	5.02453	-14.7988
91.475	6.64214	-15.3099
91.067	4.87165	-14.3232
91.3672	4.10676	-16.5828
91.7844	7.4525	-16.4969
92.196	7.04459	-18.4773
91.1624	-14.5937	-26.2485
91.772	-16.3944	-27.3458
87.904	-9.53449	-10.5786
88.8643	-5.09718	-10.617
87.797	-9.51331	-9.45595
86.9535	-14.2854	-10.6683
90.602	0.700915	-14.609
90.8138	2.45862	-13.9893
55.0493	-58.4129	-61.7566
55.249	-53.7568	-64.2273
56.579	-58.6726	-59.0848
27.3658	-23.3289	83.6067
28.4455	-26.8883	83.3277
28.0811	-22.085	83.7307
25.1863	-22.9182	83.767
22.2566	-21.9631	84.793
22.7371	-22.7236	84.3428
22.67	-19.2663	85.4955
21.0879	-22.7576	85.6729
53.1928	40.0434	65.5842
53.2424	38.3343	66.1717
58.1637	35.596	60.8477
53.3599	41.2415	64.7577
48.4412	41.5922	69.4711
8.88844	-28.2382	90.889
8.26267	-27.8047	91.7073
8.63231	-28.8142	90.5959
10.1741	-28.2918	90.3481
10.5903	-25.7518	94.2766
9.10711	-26.0384	94.5932
11.8929	-26.3435	92.424
11.1313	-24.8851	95.3237
48.9667	17.4131	63.3784
48.6484	18.0933	63.6815
16.8499	-18.2975	94.2709
16.9486	-19.3617	94.1119
17.3446	-18.1027	93.4804
15.5752	-17.641	95.8123
87.1649	-25.9671	-33.6715
86.1554	-28.56	-32.289
85.7888	-24.3364	-35.0856
88.2282	-27.1263	-32.5668
66.0602	76.9638	14.6883
63.5949	80.4527	15.8388
66.8216	72.3286	19.2338
68.1066	77.7103	5.01833
26.8185	-55.0745	77.2641
26.7561	-53.2069	76.8937
28.931	-55.9835	76.164
24.3104	-54.8805	78.8187
25.9925	-43.9304	75.8179
23.8568	-43.9777	77.1646
28.2455	-42.4898	74.1335
25.954	-45.997	76.1579
-17.2474	-101.178	79.9
-17.515	-99.77	82.9408
-20.1352	-100.7	75.8492
-14.1528	-102.177	80.213
-70.6872	-6.45097	52.2729
-72.1718	-2.01069	47.4633
-71.2628	-9.82715	51.7884
-67.9172	-5.85288	56.4779
-65.2089	-4.25305	59.2865
-61.908	-6.15341	63.4508
-65.2076	0.408026	56.9251
-12.9794	35.9536	83.2112
-14.6867	33.8742	82.3873
-10.0266	31.8893	82.8836
-10.1795	36.8421	83.7516
-17.0199	38.7449	82.923
-9.22213	14.5991	78.9711
-8.75481	14.8888	79.4958
-9.64316	16.064	78.2535
-9.93733	13.7816	78.4402
-12.7376	15.7618	75.149
-14.8834	14.673	73.1663
-12.2415	14.1605	75.8315
-11.1586	16.9992	76.7352
-13.5423	17.486	74.6603
-46.247	14.0375	66.5153
-42.729	11.9952	69.373
-48.0938	15.6875	64.6305
-16.2161	8.98801	74.4582
-17.9047	8.29078	73.8537
-15.7198	8.05225	75.5716
-15.9415	10.0027	74.0522
-22.2352	-54.1312	79.5254
-22.183	-53.9988	79.6675
-22.2691	-54.0296	79.773
-22.1672	-54.2799	79.226
-21.5627	-52.738	82.733
-22.5413	-53.3647	80.9989
-19.9709	-52.2353	84.9006
-22.0941	-52.3723	83.1044
-27.766	-51.6446	79.7398
-22.2566	-54.3793	78.7082
-22.0689	-54.9216	78.8486
-23.4473	-54.5616	77.4726
-21.792	-53.5252	79.0543
-19.5149	-57.1461	85.0568
-19.9882	-57.8053	84.6063
-17.2891	-58.655	88.0799
-19.254	-56.5941	85.2164
-21.5629	-55.9441	82.4808
-18.5827	-47.144	90.2141
-18.3841	-45.6268	90.1657
-20.7299	-49.0948	87.6143
-18.7714	-47.975	90.0779
-15.6822	-45.4154	93.1558
-21.3497	-54.1878	81.1139
-19.7008	-54.1561	82.6611
-21.4218	-54.2109	80.8683
-21.5596	-54.2188	81.0085
-83.5336	-34.259	-8.24621
-84.2099	-33.2901	-8.13088
-82.9162	-37.7938	-11.5099
-82.9964	-34.5685	-7.42973
-90.7092	-25.1541	-19.8215
-91.0481	-23.3554	-22.4903
-91.1727	-26.5108	-20.4604
-90.3775	-26.2562	-17.3569
-89.6387	-23.4911	-18.6604
-87.1433	-31.105	-10.0001
-87.8239	-32.3209	-11.6875
-86.6966	-31.3174	-9.36883
-86.85	-28.4041	-9.19282
-86.1027	-18.6416	-13.1209
-85.9654	-17.5985	-14.0719
-86.5551	-20.2134	-13.6141
-86.4513	-19.1311	-11.7442
-86.0354	-16.8218	-12.8469
-90.5401	0.93701	-13.7805
-90.6106	1.49529	-12.8456
-90.7543	1.72566	-14.3504
-90.0807	-1.0374	-14.5722
-93.2413	11.7016	-17.8801
-93.2812	12.3081	-16.8897
-94.2558	12.7832	-20.9662
-92.8908	10.7628	-17.8522
-87.9843	-9.29659	-17.7435
-90.0673	-5.53434	-20.8718
-87.4518	-11.7152	-18.1911
-87.4389	-10.3153	-14.7244
-88.884	-5.53009	-16.7124
-92.6253	4.84697	-20.8362
-92.3112	3.32526	-20.6325
-91.5981	5.45653	-16.6327
-93.0773	6.43197	-21.638
-94.0849	4.25914	-25.7274
-84.9606	-28.5858	-31.8177
-86.1419	-27.1128	-32.5118
-83.7557	-28.4098	-32.3292
-84.8683	-30.9071	-30.2693
-95.0678	-8.72368	-32.5083
-95.3447	-7.60871	-33.4578
-94.3383	-11.8259	-32.1345
-94.9812	-8.50051	-31.9262
-95.5261	-5.97073	-35.123
-95.6849	-3.82911	-34.0278
-95.6586	-2.92445	-36.3573
-95.4161	-6.68171	-36.1942
-91.3598	-21.7455	-24.46
-91.6537	-19.5276	-26.2683
-91.7624	-22.813	-25.2597
-90.216	-19.7886	-22.9149
-92.9102	-8.15396	-28.3734
-92.0315	-10.1147	-27.2765
-92.8991	-6.80033	-28.0768
-94.0979	-8.45701	-30.2267
-91.2909	-13.1796	-26.3683
-91.8866	-14.9813	-27.4731
-90.0655	-14.2303	-24.0065
-84.9331	-25.9994	-5.86707
-84.6404	-25.1552	-5.1709
-85.4615	-25.6059	-6.7116
-85.1442	-28.3099	-6.70134
-84.5514	-23.4956	-4.37963
-84.2014	-23.6287	-3.48158
-84.8425	-21.4359	-4.31524
-85.777	-14.4333	-4.55555
-86.0855	-11.2421	-4.72634
-86.0656	-14.7889	-5.46201
-85.5618	-14.9762	-4.12803
-85.2969	-15.759	-3.65304
-85.1547	-18.1712	-3.98017
-84.9748	-15.6025	-2.69668
-88.0064	-21.8849	-16.292
-87.8606	-20.3342	-17.5562
-87.9422	-22.8964	-14.4109
-87.5944	-9.78789	-13.1539
-86.6837	-13.5827	-12.9275
-88.0032	-8.69424	-11.8693
-88.5422	-5.99754	-13.3756
-86.3026	-15.4311	-12.4549
-86.5849	-15.4046	-11.55
-95.4589	7.54401	-30.1358
-95.6648	6.34541	-31.9068
-95.3412	7.12278	-29.5624
-95.5528	8.2823	-30.3908
-95.683	2.66653	-32.751
-95.5874	1.57112	-31.3059
-95.5026	4.47732	-30.7836
-95.7167	3.9925	-33.5901
-95.7294	0.981117	-33.6756
-92.7252	10.1413	-18.0359
-92.2051	9.29254	-16.9139
-93.4608	10.2172	-20.6949
-94.3179	10.0586	-24.0251
-93.9676	9.01562	-23.3346
-94.7949	11.3213	-24.8873
-95.2897	9.72623	-28.1311
-93.4906	7.77676	-22.4248
-94.6663	7.20162	-26.6372
-92.408	8.31637	-18.5238
-41.1018	24.7008	72.2127
-38.0758	25.1511	73.1451
-43.7142	23.7486	70.8636
-24.354	-100.045	69.9365
-26.9931	-98.7977	69.6836
-23.2963	-100.827	65.2635
-48.7938	19.2839	65.5962
-49.7148	17.8098	64.232
-47.5488	20.994	67.4071
-52.64	22.1366	64.3902
-51.435	24.7595	66.5146
-54.8069	23.473	63.1445
-52.9161	19.1367	62.772
-50.7823	20.866	65.2126
-77.5028	-47.0096	-4.38189
-76.6936	-49.3241	-4.91478
-78.0238	-45.3756	-2.80943
-78.1296	-45.4313	-8.98932
-20.0527	14.4345	69.6831
-20.3481	13.8338	69.5937
-20.2702	15.3521	69.7841
-18.5231	16.8213	70.9647
-19.7882	18.6531	71.473
-18.0216	15.3465	70.8986
-8.19563	15.9201	80.0716
-8.21993	17.8838	79.9387
-7.67139	15.9734	80.7385
-16.8251	-52.2384	86.9099
-14.6899	-51.7543	89.2813
-17.5566	-51.9862	87.2548
-16.4914	-52.7284	84.5496
-68.0565	-71.0222	-11.5739
-69.1618	-68.2574	-11.9069
-67.0333	-73.8716	-13.6808
-67.5632	-71.0975	-6.17864
-83.9254	-3.13294	1.20514
-83.4564	-10.2561	3.89664
-83.006	-2.01106	5.71966
-84.1731	4.462	-2.37862
-84.6974	-3.94978	-1.51883
-67.4532	-73.9334	-24.795
-66.8654	-76.3074	-20.3921
-68.4393	-69.383	-24.9563
-66.6523	-76.2447	-26.5598
-62.6239	-110.217	-30.8761
-62.6041	-118.744	-32.1084
-62.6217	-112.895	-25.1089
-62.807	-101.148	-30.792
-61.2474	-106.47	-38.2037
-22.0796	-54.5361	80.9139
-20.8892	-55.1431	82.8284
-21.7946	-54.4037	81.0378
-22.2924	-54.6667	80.8316
-24.6276	-54.0658	79.4831
-23.6021	-55.5048	80.3904
-18.8281	-56.3362	85.5687
-16.701	-57.3783	88.5338
-18.7175	-55.7659	85.3081
-29.0797	-97.599	69.4597
-28.7447	-96.407	72.8784
-33.6826	-95.8921	62.9866
-49.8334	-60.7371	-67.8018
-48.8337	-63.8902	-67.6697
-52.6501	-59.7326	-64.1221
-48.4714	-56.86	-71.6344
-56.5385	79.856	34.2418
-57.4166	75.7486	37.2394
-52.6403	82.8717	36.8496
-58.4174	81.9933	27.2461
-92.5593	-18.4525	-33.5071
-93.6368	-13.456	-36.303
-91.8743	-18.5274	-34.781
-91.6245	-22.601	-30.9884
-93.1153	-17.6205	-32.4576
-88.0191	2.16788	-8.06009
-87.4345	-2.07619	-6.9211
-86.7975	2.3692	-7.31189
-88.5623	6.40995	-9.65329
-88.9604	2.05738	-8.73017
-86.4705	-19.0288	-7.80002
-86.1241	-19.6776	-6.76239
-86.4325	-17.3502	-7.4208
-86.722	-19.3184	-9.38164
-86.8445	-21.6729	-9.11034
-86.4538	-25.4909	-8.33194
-85.9879	-22.6247	-7.02044
-87.1734	-25.231	-9.7096
-94.4239	-7.74113	-38.6665
-94.9329	-7.7329	-37.7882
-94.9023	-1.60235	-39.6471
-93.6101	-7.75339	-39.5
-92.5521	-7.63391	-40.1826
-91.9506	-13.1498	-38.3087
-92.859	-1.63729	-40.986
-91.4858	-7.39465	-40.5721
-85.3828	6.39095	-8.66695
-85.5541	4.73217	-7.45229
-85.1379	7.4078	-8.39375
-85.451	8.55304	-10.3907
-88.9941	-16.695	-37.7541
-87.2933	-16.1257	-38.5306
-88.084	-20.5796	-35.931
-90.0726	-17.309	-37.0558
-89.5397	-12.3235	-39.4972
-91.9103	-23.9045	-26.0715
-92.2987	-20.8453	-28.4831
-91.7345	-24.8835	-27.3291
-91.6664	-25.8559	-23.9307
-89.4984	-32.5891	-24.3131
-90.9477	-29.8368	-22.7637
-90.2832	-29.4291	-26.9498
-88.0419	-34.0327	-25.4685
-89.0984	-34.3784	-21.4798
-90.6396	-30.6591	-17.4768
-90.3184	-29.9514	-16.0872
-91.016	-29.5769	-19.0621
-90.1365	-32.436	-17.8502
-80.2733	-41.1615	-14.0172
-80.6598	-40.1108	-9.55535
-81.2787	-40.275	-15.6844
-79.6802	-42.1367	-14.5652
-85.6731	-37.2518	-14.6281
-85.5002	-38.3872	-17.2499
-84.1715	-38.4493	-15.1139
-85.6822	-35.4792	-11.8784
-87.1133	-35.9136	-14.2672
-91.2547	8.55116	-10.8623
-91.5367	8.50308	-11.2246
-90.085	5.11324	-10.0411
-91.2286	10.0369	-10.9622
-91.1603	10.9481	-11.1901
-90.835	10.9546	-11.204
-92.26	14.1484	-13.0945
-96.0932	6.71247	-34.8941
-96.0788	8.26639	-33.3426
-96.1963	6.04518	-35.7767
-95.9191	5.70824	-34.6362
-92.1101	9.52943	-12.9956
-92.5017	11.0896	-13.9699
-91.715	7.9752	-13.2722
-92.0043	9.29663	-12.4394
-91.7091	8.44602	-11.6124
-92.5288	12.6002	-13.0294
-91.0226	5.30966	-11.5673
-94.7432	-8.46403	-31.3414
-93.5928	-11.999	-30.3672
-95.3016	-5.54062	-31.5751
-92.0161	8.75288	-16.541
-91.7182	7.9751	-15.3559
-91.382	6.39213	-14.8471
-91.3214	6.24994	-14.3721
-88.2146	-7.85167	-10.6539
-89.175	-3.49213	-10.6812
-87.2658	-12.5265	-10.7575
-88.1191	-7.80515	-9.52821
-90.858	2.13921	-14.6652
-91.0723	3.88219	-14.0439
-90.9996	1.81131	-16.4576
-54.4688	-57.7344	-62.2049
-55.9875	-57.9375	-59.5624
-54.7304	-53.0999	-64.6156
-26.9664	-24.6644	84.617
-24.6873	-24.4037	84.7654
-27.5911	-22.958	84.8893
-28.3294	-28.3966	84.0956
-21.643	-22.4968	86.0776
-20.5372	-23.31	86.8936
-21.993	-19.2961	86.8198
-22.2142	-23.619	85.5224
-53.0975	39.2511	66.6278
-53.3311	37.5042	66.9534
-47.5241	41.4419	70.8748
-53.1243	40.6774	65.8945
-58.2622	35.0572	61.7095
-7.28615	-27.9032	92.9107
-7.54595	-27.3606	93.6801
-8.08408	-28.3097	92.0686
-6.04415	-28.1631	93.2622
-7.78676	-26.6515	94.9386
-8.92262	-26.2854	95.0405
-6.59809	-26.3815	96.2664
-48.7121	16.6216	64.2808
-48.3646	17.3676	64.6193
-16.5669	-18.2457	95.338
-15.3876	-17.6201	96.6557
-16.9877	-18.0839	94.6638
-16.681	-19.2658	95.2174
-66.4168	77.2476	14.6605
-68.4238	77.9969	4.97771
-67.2001	72.7003	19.2427
-63.9552	80.6762	15.7975
-27.2131	-60.0189	75.6527
-24.6602	-59.6744	77.2829
-28.2908	-60.8418	75.1376
-27.8017	-58.1506	74.9229
-27.0647	-49.2071	74.2738
-27.7929	-51.0406	73.9849
-29.0797	-47.8442	72.9211
-24.9656	-49.196	75.5793
-10.4299	-25.9471	94.8455
-11.0354	-24.9802	95.9274
-11.6747	-26.5872	93.1386
8.02958	-26.3702	94.5558
6.99477	-26.1689	95.8815
7.80247	-26.9925	93.312
7.58503	-27.4625	92.5455
6.48614	-27.7005	92.971
-8.70967	-28.869	91.2295
-9.9038	-28.871	90.8461
-8.42887	-29.5968	90.8531
84.5258	-35.7007	-27.4413
82.8708	-36.276	-27.2333
84.9005	-32.4463	-30.0127
85.6805	-36.0842	-26.799
83.6724	-39.0834	-24.092
77.3498	-48.232	11.5522
76.4016	-49.5102	19.6826
76.3336	-53.1608	10.1819
78.1008	-46.5427	4.50842
78.161	-43.0712	12.9157
60.0246	-117.299	-10.0072
59.983	-107.142	-9.73728
57.3127	-118.359	-5.76856
60.5638	-127.556	-10.7695
62.1364	-116.003	-14.3756
61.2339	-134.968	-11.7225
61.8191	-140.779	-12.6872
62.9861	-133.105	-16.3848
58.7992	-136.875	-7.08138
53.8905	-101.588	0.00189377
54.8402	-96.0451	1.20266
50.0678	-102.817	4.48813
53.622	-109.056	-0.932687
57.515	-100.672	-4.82511
63.9702	-98.6708	-17.5881
63.5861	-105.531	-18.084
64.8846	-97.2729	-22.5478
64.508	-93.3274	-17.1457
62.4568	-99.3062	-13.3886
69.5903	-70.5965	21.6431
71.4672	-66.1269	23.8533
67.6794	-72.896	29.8109
67.3344	-74.6333	18.7811
70.8675	-68.466	13.6082
74.8768	32.365	24.7304
75.2694	40.1659	20.1491
70.303	35.3233	35.4651
74.9043	24.9242	27.8494
78.5195	30.7069	12.9019
80.0449	42.2431	-28.6757
79.4314	39.1665	-38.4193
78.2114	49.3081	-33.8258
80.4808	44.0715	-17.9814
81.4994	34.8399	-23.8598
10.4598	-114.506	37.0652
7.77818	-114.785	37.773
10.1805	-121.837	36.053
13.7868	-113.978	35.8902
10.8804	-110.636	39.1416
10.8781	-133.041	33.2896
11.6528	-144.214	29.7775
14.5031	-132.063	31.7004
7.59588	-133.281	34.4346
4.62054	-152.415	28.998
8.34886	-152.109	28.4846
4.49427	-144.875	31.3397
1.02947	-152.403	29.1535
4.92475	-157.46	27.5085
71.0013	-54.5329	-33.8158
73.679	-48.4685	-31.3909
70.77	-61.0753	-28.7346
68.2231	-60.603	-36.2927
71.546	-46.7944	-37.8632
72.2171	-41.2435	-40.8032
68.405	-47.0415	-44.3069
72.9453	-36.4276	-43.1416
75.4911	-36.6098	-37.5305
63.9374	-125.957	-32.5326
63.7198	-132.538	-34.6461
62.3765	-123.062	-39.2407
64.4553	-129.127	-26.1648
4.50064	-133.615	35.0096
4.67923	-122.494	37.6616
1.56221	-133.61	35.1636
74.8804	-51.096	27.7281
75.6323	-45.1474	28.382
72.7786	-51.9905	35.5873
74.0361	-56.4674	26.6775
71.6811	-66.4892	5.80782
69.6048	-70.5592	3.84804
71.891	-65.4371	-2.28251
73.5463	-62.1237	7.36995
16.0957	-90.7636	95.8534
11.8621	-91.1408	97.4833
16.3608	-94.8454	94.0833
20.2662	-90.6013	93.5422
15.3504	-86.1994	96.4585
24.245	-89.8904	90.7967
24.6306	-93.9444	88.8326
28.4049	-88.7299	87.2391
23.5745	-85.1193	91.5892
6.47638	-81.0144	97.951
10.42	-80.8255	97.1157
5.57736	-75.3073	96.4425
2.70535	-81.2652	98.2512
7.28429	-86.8849	98.854
16.1695	-98.4334	91.0658
15.9481	-101.226	86.7151
20.5403	-98.0228	88.6999
11.9721	-98.6767	92.7478
15.7294	-103.131	80.9728
11.1427	-103.746	82.0009
15.4451	-104.138	73.7526
17.0929	1.78278	80.9314
17.5474	-2.25386	83.8924
20.007	0.311373	79.9779
16.5472	5.30528	77.9967
14.2905	3.44344	82.1551
50.937	-28.1937	77.9141
57.4496	-28.9762	72.2606
49.9918	-22.844	78.1364
44.2347	-26.4383	81.5531
51.5067	-32.9244	77.3218
62.4528	-17.7956	65.4753
67.4322	-17.1738	58.2646
61.0527	-11.8597	65.7175
55.9141	-17.192	72.3079
63.0127	-23.6376	65.4823
72.2753	2.68375	43.9432
74.6151	1.62294	38.7215
71.2377	10.5275	42.6234
69.5453	4.54397	48.0309
51.5073	-37.3978	76.459
51.0203	-42.0621	75.5771
57.2886	-38.7491	70.8368
45.2613	-35.4499	80.3586
2.24362	0.781296	96.6862
1.7128	5.77552	92.4882
0.386296	1.02995	96.8539
2.49199	-3.26975	100.183
4.28743	0.35654	95.9398
30.5734	68.1242	67.9215
25.4228	68.9648	69.916
29.7285	61.6738	71.9316
36.1061	66.7183	65.2703
31.7053	74.2341	63.8253
6.33251	-106.056	66.0922
5.68514	-106.759	56.0825
10.1001	-105.718	65.432
6.71738	-105.234	75.2439
2.67098	-106.15	66.3963
69.7279	-52.2806	44.1389
65.924	-51.9683	52.7066
68.6523	-58.9367	43.2662
70.7479	-45.8601	44.623
7.8321	-99.0413	93.5977
7.97897	-95.5988	96.6312
3.85824	-99.2606	93.8895
7.40763	-102.057	88.8072
7.05369	-104.073	82.6692
3.16214	-104.177	82.9538
45.0601	-89.7462	64.4328
39.3242	-92.1348	71.1055
44.4294	-92.3046	60.8609
50.6474	-86.5964	58.2929
45.0682	-86.4241	68.0293
48.1697	-92.6736	34.6955
44.2366	-95.4277	28.4736
52.1995	-89.9911	28.5561
51.5364	-90.2971	40.0516
43.0757	-95.4725	40.7299
5.23842	-107.947	45.9821
8.1654	-107.848	45.3078
2.42822	-108.022	46.0522
5.3033	-110.923	40.1672
7.0841	-7.72959	100.731
7.35896	-10.6713	102.894
9.84776	-8.8232	98.237
6.9697	-4.33236	97.8015
4.65591	-6.98915	102.275
27.9121	-19.8293	84.0658
32.3278	-21.7779	83.687
26.4148	-15.0421	84.2578
24.2051	-17.0266	84.9488
24.8651	-51.6111	81.3345
27.7869	-52.0665	80.5263
13.1203	-27.0018	90.6473
14.7073	-25.828	91.285
12.4122	-27.7681	89.9757
15.0482	-26.9716	89.3189
12.4462	-29.9411	88.2692
12.8277	-30.8225	88.1652
14.9176	-29.7598	86.942
12.3238	-29.4856	88.4535
10.4057	-29.7696	89.3871
2.21566	-28.1291	95.5942
2.07668	-27.1727	97.5907
0.547835	-28.2586	95.8534
2.44802	-29.114	94.0963
3.97353	-27.9098	94.8148
17.6699	-28.7805	85.7499
20.4187	-26.9429	84.7977
17.3712	-28.2495	86.1056
18.0172	-29.6591	85.5595
7.65881	-19.6514	104.504
5.0548	-19.4033	106.587
7.40333	-21.4347	103.398
10.4991	-19.9095	101.52
7.80317	-17.9306	105.075
27.0103	-67.3267	84.4062
30.262	-65.4367	82.0471
24.218	-62.9089	84.6256
23.2164	-68.6447	87.1334
29.352	-72.08	84.4637
26.8471	-45.5041	82.5423
26.6849	-41.504	83.4117
24.5494	-44.3541	84.1018
29.321	-46.8208	81.457
2.89004	-32.353	92.4693
2.60016	-33.533	92.7087
4.47267	-31.7726	92.1005
2.86213	-31.0972	92.6434
0.777478	-32.8733	92.6265
6.59643	-0.317125	94.5257
9.25342	-1.46063	92.5245
6.20578	4.0763	90.876
19.8968	-18.9957	88.8577
18.7845	-17.7359	90.6978
19.0377	-18.7714	90.5778
20.2046	-20.2648	88.0636
20.4795	-18.1895	87.8592
5.6162	-29.2686	92.0889
5.72476	-30.3474	91.655
6.94884	-29.4	91.2747
5.57728	-28.5415	92.6291
4.32057	-29.5562	92.6993
5.37068	-27.8242	93.7396
5.29653	-26.9919	95.4836
17.9957	-18.2652	92.3218
17.6414	-17.2955	92.5857
18.5463	-19.8141	91.4795
20.055	-22.5962	87.1492
19.2393	-22.0519	89.0647
19.109	-25.1271	86.6889
1.04706	-37.6517	96.3837
1.15985	-39.1366	98.205
3.32526	-37.1313	95.8848
1.33228	-35.7497	94.1264
-1.42726	-38.1294	96.5368
24.0412	-30.3097	83.6596
21.451	-30.647	84.401
24.6824	-33.9201	83.8324
26.3756	-30.3721	83.3085
23.3787	-26.9934	83.77
9.8361	-64.7191	93.767
8.99931	-63.6069	94.3783
6.81123	-65.2322	94.895
10.7366	-66.2834	93.3462
13.1937	-63.8275	92.0137
21.3659	-46.3981	86.4032
21.4042	-47.0791	86.0591
23.2662	-47.7266	83.4164
21.7627	-45.0483	86.3157
17.3839	-16.5221	92.4939
17.5907	-15.4336	91.3799
15.6244	-15.5776	94.6931
16.5961	-62.7541	89.788
17.9238	-65.3903	89.3599
19.5466	-61.5013	87.4621
15.2547	-61.1417	90.6588
3.81575	-65.4935	95.5154
0.974701	-65.6956	95.6844
4.28787	-67.0417	95.2786
3.23804	-64.8183	95.7875
61.8873	30.2454	55.6463
60.9506	29.5256	57.1007
63.9228	24.2979	51.7154
62.6402	31.158	54.0217
40.9561	53.498	68.9083
35.0174	55.0214	72.7926
41.3068	48.9681	71.4033
47.2252	51.1923	64.6279
41.2636	58.8585	65.5848
53.6294	48.1961	59.388
53.4553	44.4841	62.2577
59.5961	44.3127	53.0249
54.3435	53.4366	55.2958
42.8868	42.7327	73.1789
42.2773	44.5778	72.9532
37.217	43.9552	77.7783
43.583	40.7491	73.0429
63.8679	32.0741	51.3128
64.5523	34.5891	48.7202
58.9698	38.0533	58.2695
67.1036	25.6689	45.9675
25.2678	32.9919	79.2452
25.8415	31.4861	77.7097
29.568	33.9028	78.3709
24.6636	34.8642	80.9345
21.4575	31.7241	79.4692
6.01298	13.4909	83.2227
8.80478	11.7473	81.2678
6.01231	15.1788	82.2814
3.08549	14.7308	84.7428
6.00991	11.213	84.8178
32.0387	-4.34277	78.3907
33.949	-9.04943	80.5631
38.8044	-5.54354	77.11
30.2397	-0.541839	76.3611
26.3141	-2.84768	79.3028
60.5712	8.86397	56.5091
63.2583	6.95957	54.7848
61.1026	13.6621	54.624
57.9245	10.7072	57.9432
58.554	4.66071	60.3569
6.05193	8.09085	87.3854
8.79996	6.50778	85.7999
3.45332	9.32672	88.4836
44.2309	38.9376	72.8666
48.9847	38.487	69.8764
39.0422	38.9146	76.1426
44.3213	37.0223	72.766
53.0434	36.7094	66.6726
52.5427	34.8466	67.1922
57.07	32.8917	62.5623
57.3076	18.1234	57.7993
57.2725	21.784	58.9997
55.3875	17.8234	59.246
56.8401	15.0316	57.8329
59.0592	18.2297	56.3407
45.4159	21.7286	67.8685
47.0101	20.5757	66.2688
43.6484	22.7503	69.3205
41.6864	23.6357	70.4629
39.4406	24.1696	71.2037
41.833	24.5512	70.8159
39.2099	25.0763	71.6126
44.0023	23.6751	69.6157
36.5739	24.4164	71.6792
33.58	24.2324	71.9134
36.2003	25.261	72.0512
32.9869	25.0338	72.2501
30.598	23.5974	71.9554
27.802	22.4173	71.6674
24.6509	20.7161	71.032
21.7367	18.8417	70.2509
23.1974	21.3007	71.2568
20.5052	19.3205	70.5168
26.4736	23.0727	71.9094
19.7867	17.2316	69.6762
21.8033	21.6976	71.5968
25.3001	23.7844	72.3167
35.8805	26.2596	72.5188
32.4198	26.0182	72.7269
50.4646	16.1819	62.4544
50.8389	17.2377	62.3083
49.4094	15.2051	63.2508
34.2582	34.6519	77.0062
39.2365	34.953	74.9675
34.1926	36.2245	77.9183
34.3634	32.8099	75.8994
49.5743	28.0739	68.0415
48.1734	25.8079	68.2323
50.8767	30.5121	67.7957
46.4117	29.0195	70.2774
39.864	7.4662	70.5153
45.5226	8.46935	67.9183
32.9439	7.33319	72.0642
40.2698	5.93305	70.7389
27.2479	8.25012	72.0575
23.0149	9.56242	71.4569
27.2955	6.90035	72.5008
18.8638	12.4778	70.5896
18.2562	13.3608	70.3451
19.8914	11.6596	70.722
39.0829	10.4938	70.3294
44.0047	11.6048	68.1358
33.0643	10.2715	71.6048
21.6479	12.5587	69.903
23.706	11.8104	70.4756
20.642	13.0211	69.6088
19.9012	13.4196	69.4869
19.2169	13.9516	69.4606
14.7258	20.5228	73.8987
13.6888	22.4292	75.7016
15.8467	18.6348	71.9723
16.5056	22.7908	74.1563
17.6256	14.6676	70.3046
28.8778	25.2463	72.696
16.636	17.9184	71.1293
16.2587	16.4059	71.0985
17.6864	19.7542	71.4643
38.9391	11.8086	70.3104
32.9977	11.5184	71.4877
21.5655	13.335	69.3759
20.6591	13.5307	69.2312
23.6098	12.9287	69.9758
19.9785	13.896	69.1235
48.0444	19.2706	64.7389
2.6815	29.3696	83.5492
-0.715092	29.1544	83.6577
1.71438	26.3003	83.0894
5.50282	29.2448	83.0593
3.79014	32.8535	84.301
20.725	5.35597	74.8123
20.3706	6.99781	73.605
18.547	6.41371	75.1954
21.5919	2.83447	76.708
24.0085	4.05799	74.6204
16.3553	7.5512	76.0114
13.9777	8.88721	77.3149
16.5101	12.0993	72.4198
14.5703	12.7414	73.8808
16.5842	13.5964	71.5162
10.3027	18.8873	77.1553
11.3366	21.1753	76.8903
9.45149	19.7357	78.1389
21.0078	10.6474	71.066
20.5601	9.62354	71.7809
20.3654	8.40096	72.5838
22.9926	7.11529	72.701
14.8572	-48.9322	85.7016
14.6473	-48.7461	85.1198
18.0345	-48.9315	84.0963
11.8014	-48.711	87.6235
20.0795	-49.1226	82.7097
19.3145	-48.851	82.5382
1.29372	-41.763	99.8535
3.91014	-41.3931	99.3908
1.29708	-40.7453	99.551
-1.41432	-42.4435	99.967
1.33513	-42.9252	99.9102
6.34738	-44.4851	98.6832
6.23386	-42.8488	99.0045
4.029	-44.1688	99.2839
6.3018	-46.0159	97.878
8.39372	-44.8532	98.0074
10.7211	-45.3589	96.6114
10.7781	-44.2793	97.121
10.5633	-46.6145	95.5546
13.5447	-46.4341	93.8099
6.10624	-41.4215	98.9051
8.29321	-42.2549	98.2946
5.97317	-40.2666	98.5523
10.1653	-40.6089	96.4742
10.6909	-41.9524	96.8963
9.9129	-39.3492	95.6268
7.44879	-39.7596	97.6026
16.1904	-47.3225	90.2621
16.4106	-46.2847	91.3053
5.59709	-48.1985	95.7719
3.565	-48.0048	96.7595
5.17284	-49.3335	93.8478
7.84747	-47.9601	95.0431
10.229	-47.953	93.5396
9.79305	-48.7922	91.2626
22.1137	-48.2453	83.9763
15.3386	-50.162	86.4714
15.0752	-50.042	86.1523
12.2391	-50.118	89.3431
15.6497	-50.4291	86.8349
17.094	-52.157	87.4921
16.6115	-51.5324	87.4332
14.1516	-52.5439	91.027
11.2862	-53.0226	93.9835
10.8668	-52.2471	93.7198
8.87667	-54.55	96.2986
11.8222	-53.9772	93.9623
6.04565	-53.4676	96.5512
6.26386	-54.9418	97.3349
8.20974	-52.3011	95.2694
5.812	-51.9993	95.4422
3.75097	-54.4387	97.445
1.80628	-57.9335	98.4869
1.85543	-58.9041	98.4128
3.8464	-57.1109	98.2882
1.7748	-56.8006	98.3456
-0.411464	-58.3422	98.4502
20.1	-50.759	81.6653
20.2008	-50.2024	82.3805
20.4179	-52.0207	80.8552
17.7635	-51.1935	82.8295
1.77081	-52.7438	88.5509
1.68039	-51.7811	91.1382
3.76038	-52.2109	88.1666
1.63006	-53.7666	87.6561
-0.396576	-53.1887	88.7018
1.91091	-60.0359	98.1064
-0.35367	-60.4437	98.0571
2.0146	-61.0623	97.6904
4.2171	-59.3138	98.0199
2.78377	-63.9052	96.197
5.58341	-63.3135	95.8936
2.42851	-63.0666	96.6483
0.145085	-64.3419	96.158
5.78566	-39.5344	98.1378
5.2062	-38.4969	97.2806
3.70136	-39.5175	98.5504
1.77142	-55.2866	97.8002
-0.369938	-55.8519	97.8408
1.70248	-53.7428	96.8828
1.69737	-52.7212	95.8892
3.87957	-52.1409	95.534
1.80097	-52.1435	94.9621
-0.346016	-53.1448	95.8747
5.74499	-51.2376	94.4794
7.79174	-50.7027	93.4738
5.74825	-50.8254	93.6549
1.82095	-51.7222	93.3706
3.93225	-51.1195	92.6441
-0.431377	-52.1897	93.2697
9.91503	-50.1076	91.3252
9.84047	-49.9429	90.6613
10.0957	-50.3632	91.8336
13.0238	-57.2819	93.0977
13.548	-58.4091	92.4119
12.6206	-56.216	93.5515
10.1117	-58.5476	95.4515
7.31415	-60.0287	96.7513
7.64449	-61.1136	96.0789
7.09599	-59.0587	97.2338
4.8007	-61.3639	97.0799
2.15786	-62.107	97.167
-0.259994	-62.5325	97.0992
9.4011	-48.8986	89.3672
7.30981	-49.2046	90.5468
9.14516	-48.6266	87.8106
24.8714	-49.6513	81.4054
23.4704	-49.9569	81.5755
20.6165	-50.4198	83.2415
19.0394	-50.807	85.052
5.68719	-51.6216	87.7185
5.5617	-50.8223	89.8435
7.90569	-51.2097	86.5154
5.99096	-52.4783	86.7642
5.73798	-50.6434	92.4073
7.70506	-50.2002	90.5311
8.10292	-62.3273	95.2729
11.2894	-61.1002	93.6785
12.1952	-55.0449	93.8912
9.53753	-56.5343	96.2314
14.2882	-59.7381	91.574
17.0385	-57.9587	89.1891
8.95978	-48.0477	86.736
7.23771	-48.4343	87.4796
9.27393	-46.8428	85.3352
11.619	-47.9051	85.6698
5.0254	-48.7253	88.0345
3.30091	-49.0557	88.3756
5.42063	-47.317	86.2414
5.02583	-49.4467	90.0007
10.5692	-43.4461	83.2721
8.32644	-43.6389	83.7901
11.7226	-39.4582	81.6607
12.5875	-43.5	82.7121
22.1439	-54.8891	79.9924
25.328	-58.0312	79.096
20.2671	-54.9758	80.9294
1.52268	-55.5911	86.9916
3.72926	-54.9772	86.7811
1.94398	-57.9914	86.7407
-0.340601	-56.0305	86.9583
6.16674	-43.926	84.2001
3.97641	-44.3313	84.4996
6.84111	-39.8752	82.7537
6.29378	-54.3639	86.1734
6.98435	-57.5205	86.0368
8.88873	-54.0766	85.2611
27.4711	-49.5955	75.7143
30.1678	-49.3954	73.8506
12.1274	13.5957	76.0131
11.5685	12.0063	77.6308
83.3059	-8.85094	-43.9047
82.7289	-13.2999	-43.2081
81.3147	-8.25443	-47.2698
83.8147	-4.20279	-43.8432
84.8899	-9.35131	-42.1681
83.5791	9.96987	-6.02426
83.7165	12.8494	-10.2903
82.6021	12.1127	-1.02087
83.5793	14.9529	-15.5516
83.0363	20.4407	-16.7905
84.1852	9.93359	-16.7184
83.9885	14.5212	-22.6913
78.2151	-33.5701	-35.1042
80.7418	-31.2379	-33.3775
77.3838	-37.8744	-32.6224
79.2517	-29.5801	-36.833
80.0764	-25.8501	-38.8308
77.3629	-27.8804	-41.7595
81.0547	-21.8078	-40.5692
82.4181	-24.6368	-36.9094
86.4224	-9.31291	-41.2549
87.9399	-8.81863	-40.8805
85.9633	-13.5318	-40.3996
86.6759	-4.24834	-41.3728
89.0585	-27.9665	-31.52
90.0112	-23.8454	-33.5301
89.8516	-28.427	-30.2685
88.0459	-32.0551	-29.0738
93.3571	-17.9824	-31.3977
93.3623	-17.4029	-30.617
83.4914	-40.7945	-21.0974
83.9764	-41.0568	-20.3637
83.182	-41.4961	-19.0744
82.5241	-39.8967	-23.1545
84.9973	-33.2469	-8.23132
84.6967	-33.8911	-8.20364
84.2842	-34.9291	-8.4492
93.3135	-17.0201	-30.2018
92.8604	-17.6227	-29.2555
95.6783	-2.21074	-33.8765
95.689	-1.53704	-35.4182
95.6369	-3.56366	-32.2022
95.7472	8.14081	-31.3084
95.9794	9.51264	-31.4092
96.0742	11.6345	-30.3582
95.5559	11.4293	-28.1071
96.2341	12.1017	-30.7577
95.7396	13.7272	-27.2201
87.3776	-9.84065	-8.10161
88.3775	-4.28413	-8.59345
86.903	-9.06128	-6.73292
86.6601	-13.9606	-7.59841
83.2242	-26.1433	-1.43853
82.453	-26.533	1.33636
82.7828	-30.0148	-2.03457
83.637	-21.7067	-0.810862
86.376	-21.2307	-10.3977
86.7304	-23.2898	-10.952
86.2893	-19.2532	-10.4826
84.2026	9.4173	-16.7498
84.43	10.6629	-20.2663
84.241	9.41487	-16.5183
92.0657	17.0124	-17.1288
92.8852	18.6971	-20.2633
91.1856	17.4313	-18.3265
90.8358	13.9171	-14.1601
92.8781	16.2969	-16.1145
92.297	19.3572	-25.3892
91.6025	19.1381	-22.3596
92.5914	19.505	-24.8672
92.733	18.064	-29.1125
91.5158	18.316	-26.8066
93.1621	3.77039	-39.9586
92.382	3.30367	-40.1462
93.4238	9.83065	-37.0269
94.2463	4.01503	-39.405
89.0849	0.398586	-9.11849
89.4053	-0.879878	-9.81501
96.1206	3.1714	-36.8468
96.5098	8.36631	-34.5412
95.8671	0.336215	-37.0664
96.1628	3.06369	-37.2082
95.2757	14.6401	-23.1979
94.4449	14.098	-19.1558
95.0837	13.2544	-23.9404
95.3561	15.6387	-22.5699
90.4219	1.17223	-11.9657
89.9659	-0.621027	-11.4011
90.8601	3.52903	-12.671
95.7266	3.8752	-34.1148
95.8199	1.80299	-36.0155
93.3175	6.56674	-22.3788
92.8964	5.18868	-21.5914
94.5347	6.05712	-26.5886
88.7722	-5.68941	-13.3425
88.8875	-5.41082	-14.0597
89.2609	-4.0598	-12.1837
92.9566	-4.90017	-27.4897
94.8021	-2.23601	-29.3823
92.7081	-4.44182	-26.8593
92.8677	-6.01351	-27.6613
84.0032	-17.6542	-0.721709
84.4984	-13.0013	-1.45308
83.2968	-17.8262	1.85935
86.8277	1.05668	-39.8347
85.6262	0.476643	-41.0058
86.6511	5.7694	-37.6466
87.7779	3.58984	-38.864
90.0522	8.61702	-36.0961
89.802	12.4431	-32.8159
92.3158	13.3254	-34.1179
90.2002	4.48819	-39.0635
91.3764	2.33015	-40.1374
90.3117	-3.26994	-41.0063
90.0264	-8.35029	-40.6879
84.23	-24.0039	-35.9974
83.4015	-27.1865	-34.2372
84.9259	-20.7215	-37.6282
85.4769	-17.2756	-39.1631
83.7577	-17.4906	-40.2228
92.3394	-17.5563	-28.243
82.5561	-30.1621	-32.5852
81.7011	-33.8422	-30.3151
83.7885	-29.8905	-32.0969
82.1056	-37.8235	-25.7419
81.6503	-37.8115	-26.1203
81.6199	-41.3468	-21.2149
83.1254	-41.1682	-16.1862
82.6298	-41.4396	-16.0082
82.1322	-41.6327	-15.7463
93.0788	-6.77461	-28.149
94.8739	-5.38872	-30.3288
86.3361	-8.41796	-5.61061
85.6707	-7.97145	-4.36549
84.7731	-22.2291	-4.4205
85.0637	-22.4112	-5.10472
87.3707	-26.8752	-10.7549
88.2814	-28.9365	-12.3998
87.4814	-25.7648	-11.5503
86.2265	-17.0094	-7.18394
86.5265	-17.2118	-9.40094
89.523	14.2909	-29.5651
87.2023	10.5579	-32.4463
88.6262	14.9313	-26.1752
86.3099	8.97531	-34.2874
85.8286	8.67386	-35.4214
85.7145	11.1616	-29.9798
86.0104	-17.2144	-12.3508
86.2813	-17.1996	-11.4459
95.1016	5.06524	-28.9796
94.9738	3.53319	-28.6433
89.2284	-4.71008	-15.511
