1881
20.3525	-46.5397	90.6081
7.96957	-55.9106	95.2466
8.24652	-56.8633	95.2012
8.45769	-57.9875	95.0517
22.3503	-62.2582	82.5354
21.9458	-60.5501	83.3075
21.5578	-58.9822	84.0763
18.5732	-40.1824	93.2207
37.0208	-52.3354	74.994
30.3424	-30.488	86.7351
31.9562	-35.6026	85.4147
32.9295	-40.5845	83.2671
59.6843	-39.5096	57.5477
23.0438	20.412	71.5377
78.787	15.124	-48.3279
81.3652	13.5208	-29.3679
81.9448	11.501	-27.0024
68.9936	-44.4593	0.17779
29.1954	13.0932	71.5856
57.074	41.7694	63.0575
8.7734	-30.626	98.0869
50.9245	19.4722	64.1917
13.4571	-27.2247	95.9058
81.8144	11.2858	-25.9524
56.6226	-100.824	-43.6023
60.4802	-65.3922	-38.583
59.7442	-58.8603	-43.6872
59.8638	-53.0368	-47.353
24.2911	-20.8552	90.1165
14.0781	-53.2001	91.3715
24.7777	-53.0915	79.1931
6.9725	-51.2519	93.3349
-66.3773	-48.7278	11.3911
-67.1068	-44.0528	12.6303
-67.8898	-46.7484	4.43239
-65.5903	-53.1547	10.127
-64.8967	-50.4281	19.4013
-56.5203	-116.931	-7.82863
-55.939	-106.778	-7.38136
-58.5648	-115.604	-12.3326
-57.5444	-127.097	-8.93864
-53.9166	-118.041	-3.44277
-58.5211	-134.453	-10.1786
-56.1722	-136.319	-5.54506
-60.2286	-132.617	-14.8496
-59.3503	-140.201	-11.3911
-49.8372	-101.418	2.78605
-53.1604	-100.304	-2.29045
-49.9509	-108.961	1.85422
-46.368	-102.931	7.55194
-50.388	-95.5929	3.82753
-59.3495	-98.1579	-15.6174
-57.8492	-98.7836	-11.2523
-59.4621	-92.7358	-15.2616
-60.2664	-96.7673	-20.7531
-59.4455	-105.104	-16.0835
-60.3965	-67.9127	21.2939
-61.4427	-66.8195	13.9263
-58.9437	-71.9177	19.058
-58.686	-69.2494	28.4154
-61.4827	-64.0217	23.2064
-72.1182	31.764	21.5829
-75.3321	30.0908	10.1061
-71.4576	23.968	24.5894
-68.5579	35.0164	32.3731
-73.1167	39.8502	17.1993
-78.2327	42.103	-30.024
-79.2317	34.6274	-25.3398
-78.6015	43.8623	-19.6308
-76.7511	49.2099	-35.0257
-77.675	39.064	-39.5158
-8.73457	-113.447	41.2176
-9.08958	-108.91	43.7214
-11.8289	-113.135	39.866
-8.68299	-120.199	39.0892
-6.20364	-113.491	42.0885
-9.46925	-131.269	34.8331
-10.3471	-142.458	30.5411
-6.31186	-131.353	35.9229
-12.948	-130.489	33.3774
-3.66727	-150.563	29.3871
-4.017	-155.72	27.7585
-3.445	-142.894	32.0323
-7.27387	-150.33	28.893
-65.1849	-54.1752	-33.1696
-66.1611	-46.5177	-37.342
-62.6548	-60.1758	-35.4784
-64.4944	-60.5819	-27.9729
-67.6392	-48.1505	-30.9239
-67.2098	-41.0439	-40.3859
-70.2583	-36.4817	-37.289
-68.2236	-36.2748	-42.839
-63.6505	-46.7575	-43.6927
-61.1398	-125.521	-31.1001
-61.6555	-128.681	-24.7045
-59.6554	-122.63	-37.8419
-61.255	-132.049	-33.3504
-3.34088	-131.556	36.4638
-3.39696	-120.456	40.664
-63.4063	-51.6243	27.461
-62.731	-56.3734	26.5165
-61.7855	-51.9971	34.7268
-64.2822	-46.1558	27.8092
-62.4321	-65.2926	6.2791
-63.6727	-61.2785	7.61813
-63.279	-64.4772	-1.60952
-61.0586	-69.187	4.59468
-10.2642	-90.6032	90.323
-10.4766	-86.1368	91.5136
-14.1088	-89.7754	88.0535
-10.1668	-94.4153	88.0514
-6.65548	-91.4921	91.6291
-18.2813	-88.7207	84.7319
-18.6205	-84.2457	85.864
-22.4614	-87.5874	80.3717
-17.7974	-92.904	82.6068
-4.45732	-82.0224	93.7024
-4.03234	-87.1883	93.5605
-4.7036	-77.2633	93.0972
-7.43596	-81.8403	92.9961
-10.0073	-97.0532	85.1169
-6.63299	-97.5729	86.3878
-13.7065	-96.4921	82.815
-10.1511	-99.0256	80.4873
-10.626	-100.165	74.5738
-10.9015	-100.768	68.36
-6.98822	-100.557	75.5886
-18.7121	2.98387	84.042
-15.9436	4.61478	85.5703
-18.7113	5.98992	79.7953
-21.4374	1.9999	82.6773
-18.9242	-0.232751	87.8922
-49.4598	-27.3609	78.0963
-49.9362	-32.9123	76.0396
-43.8092	-24.9132	83.2129
-49.1414	-21.4315	79.2627
-55.1121	-29.0702	71.0058
-60.8311	-19.3471	63.4014
-60.8046	-24.9841	62.692
-54.8551	-17.5136	72.6552
-60.2715	-12.8816	63.871
-65.3723	-19.0005	53.536
-68.8807	0.575989	39.8046
-67.462	2.31936	43.7351
-68.1794	8.77187	38.9285
-69.957	-0.363436	35.1522
-49.7073	-37.7714	73.5898
-44.5463	-36.1696	79.4489
-54.5751	-38.7017	66.2425
-48.8737	-42.32	71.6025
-1.96804	2.85248	105.149
-4.04893	2.44851	104.39
-2.41544	-1.74478	109.552
-1.61575	8.2334	100.125
-34.4686	71.2548	68.1367
-34.9964	76.7182	63.8947
-39.9739	69.7077	64.7813
-33.5018	64.8361	72.8892
-29.2154	72.0625	70.723
-4.06785	-102.245	63.0965
-4.09412	-101.303	69.8806
-7.08698	-102.147	62.4091
-3.67131	-103.653	56.1432
-59.7937	-51.8777	41.8246
-61.2749	-45.9331	42.425
-58.2792	-57.9348	41.2931
-57.5322	-51.1685	48.6174
-3.57944	-98.0482	86.843
-3.75137	-99.8571	81.9693
-3.59969	-95.7399	89.7951
-3.96093	-100.756	76.0058
-35.6383	-88.4594	58.2735
-35.9509	-85.1183	61.5054
-40.4728	-85.2258	53.4599
-34.8404	-91.0266	55.5009
-30.9053	-90.5536	64.0862
-41.0198	-92.2516	34.8121
-36.361	-94.8456	39.7212
-43.0859	-89.2302	38.7815
-45.2533	-89.3472	29.4806
-38.7713	-95.5744	30.252
-3.73881	-105.692	49.5624
-3.90649	-108.927	45.0165
-6.37619	-105.741	48.9153
-7.85031	-6.2001	110.335
-5.1748	-5.96524	112.395
-7.24229	-2.43128	106.745
-11.0782	-6.73638	107.051
-8.40995	-9.53976	113.319
-27.1615	-15.8177	90.3288
-24.3056	-13.1339	91.916
-25.799	-10.5672	90.4872
-30.6953	-18.2913	89.0375
-30.9577	-55.6194	77.9898
-29.15	-55.7791	78.719
-29.8021	-54.7175	78.6003
-14.2403	-25.7871	97.5063
-16.2719	-25.5399	95.5337
-13.4644	-27.0561	96.7747
-16.0065	-23.7873	98.098
-13.4821	-30.2877	94.719
-11.3406	-30.6924	96.3039
-13.4455	-29.4075	94.9559
-16.1459	-29.6796	92.9376
-13.9076	-31.4091	94.4618
-2.20569	-30.4253	104.898
-4.23425	-29.8798	103.986
-2.44697	-31.6882	102.908
-2.07731	-29.2277	107.591
-18.8901	-28.5737	91.4861
-19.3952	-29.8336	91.1602
-18.5344	-27.6222	91.9446
-21.1795	-26.6666	90.7218
-8.53733	-19.0378	116.453
-8.70859	-17.4117	116.961
-11.9557	-17.4955	112.117
-8.25474	-20.9846	115.092
-5.27908	-20.6377	119.021
-25.3969	-68.7083	81.1045
-26.0369	-72.4884	79.8704
-21.8981	-69.9579	84.4287
-24.6165	-65.539	82.4068
-28.4351	-66.747	78.2859
-30.2217	-48.4283	82.1214
-31.8064	-49.6162	80.6197
-28.2223	-46.9259	84.3493
-30.2363	-43.5038	84.2985
-2.89338	-36.294	99.6979
-2.78972	-34.5179	100.529
-4.79695	-35.5384	99.4952
-2.87284	-37.9703	99.198
-6.61531	1.74349	102.745
-6.49387	6.23328	98.0735
-9.87939	0.483841	100.015
-20.9896	-15.0699	96.6149
-21.396	-14.4625	95.4756
-21.1865	-16.8298	95.7603
-20.4046	-14.5065	98.3614
-20.1756	-13.5306	98.412
-6.09092	-31.5481	100.386
-4.54865	-32.2571	101.104
-6.13297	-30.3252	101.273
-7.62524	-31.3335	99.2155
-6.00657	-33.2869	99.6344
-5.92028	-29.2711	102.801
-5.95516	-28.0453	105.02
-19.5926	-13.8676	100.101
-20.0709	-15.4404	99.2631
-19.2892	-13.0747	100.339
-20.9262	-20.1275	94.3174
-19.9382	-23.5116	93.1026
-20.39	-18.7059	96.5501
-2.46048	-42.4298	98.8956
-2.66229	-40.808	98.8055
-5.05171	-41.8921	98.7679
-2.75392	-44.0087	99.0982
-25.5741	-31.0194	88.2652
-24.0285	-27.3308	89.2964
-27.9107	-31.2647	87.4515
-27.4884	-34.5955	87.2989
-23.1203	-31.1266	89.3977
-11.181	-66.4341	91.9967
-14.7374	-65.9504	90.6363
-11.5948	-68.973	91.2536
-7.32849	-66.8488	92.8572
-10.7094	-64.5171	92.8523
-25.4732	-49.8474	85.0696
-25.4959	-47.7206	86.348
-27.8368	-51.8802	81.3735
-25.8472	-50.7623	84.1398
-19.0353	-12.4898	100.175
-17.3937	-11.7986	102.682
-19.0932	-11.6583	98.8206
-17.8996	-65.3418	88.8261
-17.5129	-63.4988	89.7306
-20.8707	-64.5123	86.5079
-18.2217	-67.6563	87.9597
-4.01601	-67.1014	93.1422
-3.78321	-65.3425	93.8159
-4.19389	-69.2832	92.6907
-63.4779	28.4678	53.7442
-63.7457	29.9307	51.8462
-64.5317	22.5159	49.5498
-62.9708	27.3208	55.5596
-44.7034	55.7909	68.182
-45.3251	61.8844	64.0625
-50.4977	52.9879	62.8743
-44.297	50.2424	71.9631
-39.2703	57.4409	72.8283
-56.0979	49.5552	56.6734
-56.6115	55.2695	52.544
-60.8209	45.4295	49.9302
-55.9953	44.5833	60.3221
-44.9785	41.4312	75.5822
-44.5358	44.3016	74.9683
-45.5993	38.3637	75.5872
-39.7017	41.69	80.8323
-64.28	31.5302	48.637
-66.1689	24.7901	43.022
-60.8636	37.0613	56.2169
-64.5198	34.6514	45.7936
-25.8552	27.919	81.4421
-22.4284	26.8815	81.9426
-25.1446	29.062	82.7719
-30.2502	29.1327	80.4249
-26.7814	26.7309	79.4315
-7.00041	15.259	89.1935
-6.89003	13.2448	90.7929
-3.61412	16.7139	91.6749
-7.18488	16.7013	88.2166
-10.2617	13.1559	85.6771
-32.0081	-1.37427	81.9885
-26.5403	-0.0819425	82.6102
-30.8187	2.09041	79.3661
-38.9622	-2.68251	80.3847
-33.3019	-5.23751	84.6163
-62.002	5.47303	53.1551
-59.8805	2.95955	57.3576
-59.7371	7.39208	55.4826
-62.6498	9.75605	51.316
-63.7787	4.07411	50.9947
-6.5069	10.2454	93.9227
-3.53422	11.8558	95.5016
-9.72521	8.20936	91.4817
-46.2289	36.0438	75.1728
-46.2759	33.8966	74.7714
-40.1246	36.4682	80.2291
-52.2135	35.1715	70.509
-57.014	33.1689	65.9048
-60.2818	29.9326	61.4836
-56.4965	31.2548	66.4728
-59.0889	15.0728	56.2346
-60.8081	14.9195	54.2883
-58.5891	11.6247	56.0481
-57.1726	15.4322	58.0428
-59.5845	19.2955	57.633
-47.392	20.9589	67.4678
-45.6578	21.8248	68.909
-48.8514	19.6719	65.7183
-43.6873	22.4335	69.9492
-41.0668	22.932	70.7373
-43.7039	23.1242	70.4773
-46.0316	22.5033	69.3007
-40.7766	23.6155	71.2802
-37.9498	23.1895	71.211
-34.8819	22.9338	71.2281
-37.5571	23.8016	71.7399
-34.2707	23.3516	71.6473
-31.9403	22.0672	70.7548
-29.2123	20.8803	70.2073
-26.6464	19.3371	69.4232
-24.7	17.9401	68.7961
-25.4629	19.6267	69.7913
-28.0252	21.0414	70.5152
-23.6562	18.2591	69.183
-23.5517	16.8996	68.4032
-24.259	19.7043	70.2103
-26.9368	21.3744	71.1598
-37.2188	24.5445	72.47
-33.6895	23.9222	72.4232
-52.3262	15.4246	61.4526
-51.2268	14.9271	62.251
-35.2827	30.263	79.2024
-35.4362	28.7251	77.6489
-35.0077	32.0543	80.5682
-40.5163	31.0724	77.3931
-52.6721	25.5883	67.6588
-50.7881	24.0275	68.0502
-49.376	26.8674	70.4344
-54.4081	27.5176	67.2791
-41.0485	10.3974	71.5682
-34.1623	10.1148	73.5097
-46.9392	10.3199	68.0167
-41.4161	9.12094	72.0496
-28.2319	10.2149	73.2045
-28.3946	8.96931	74.1161
-24.4669	10.7325	72.1799
-21.2348	13.1253	70.517
-21.8506	12.2907	71.0823
-20.9306	13.8052	70.0983
-40.2859	12.5849	70.4849
-34.4011	12.2737	71.8472
-45.5031	12.8834	67.7364
-23.9445	13.2978	69.6241
-23.2244	13.6968	69.191
-25.5285	12.7078	70.4342
-22.6792	14.0451	69.001
-22.2465	14.4931	68.8968
-17.5723	19.4828	75.1656
-16.1616	20.9275	78.2628
-19.0909	20.9453	75.4253
-19.4161	18.0294	71.8141
-20.7548	15.0263	69.8116
-30.1432	22.7417	71.7747
-20.318	17.5076	70.5315
-21.3294	18.7149	70.7066
-19.7987	16.4621	70.6229
-40.2985	13.4544	69.9635
-34.4251	13.0196	71.2273
-24.2575	13.8956	68.8435
-25.7264	13.6	69.4899
-23.5163	14.1052	68.6008
-23.139	14.3896	68.368
-49.8953	18.4374	64.0105
-3.68733	28.5517	89.1488
-4.61674	31.3103	88.9895
-6.88531	27.5561	88.2744
-2.52762	26.367	89.4275
-22.7052	6.02028	76.442
-25.4684	5.32244	76.712
-23.2059	4.05749	78.6934
-20.8028	6.8321	76.5322
-22.3665	7.52172	74.9654
-18.5859	7.98163	77.2899
-16.1098	9.50608	78.9693
-19.0293	12.3717	72.7551
-19.3694	13.8115	71.5872
-17.2778	12.93	74.3971
-12.5483	18.875	80.7092
-11.5456	19.779	82.4991
-13.636	20.4119	80.4561
-22.7384	11.5237	71.5535
-22.2829	10.4688	72.5424
-22.1573	8.9924	73.7284
-24.5916	8.13138	74.1993
-21.5207	-53.0086	84.3393
-18.0827	-51.975	87.4923
-24.6035	-53.6903	81.1355
-21.4643	-52.965	84.1112
-26.2966	-54.0224	79.5997
-26.029	-53.9189	79.6296
-3.12126	-47.2582	99.0439
-3.1517	-48.4933	98.6568
-3.02948	-46.0082	99.2234
-5.90512	-47.0394	98.6972
-8.68864	-49.0842	96.9562
-11.6438	-48.6129	95.948
-8.69309	-49.9637	96.1532
-6.11398	-49.2646	97.6722
-8.61569	-48.0187	97.6181
-14.5814	-48.1272	94.5506
-17.7089	-48.7456	92.0924
-14.5654	-49.3589	93.501
-14.5792	-47.0237	95.2149
-8.46262	-46.8154	98.1204
-8.36333	-45.5418	98.4295
-11.3604	-46.354	97.1706
-13.2672	-43.8235	96.6931
-14.1215	-44.7606	96.1968
-10.2389	-44.4464	97.9381
-12.7672	-42.8271	96.9103
-21.2208	-50.4519	88.1447
-21.0518	-48.9769	89.6633
-8.42232	-50.7934	95.141
-11.6344	-50.4246	93.9846
-8.14664	-51.2623	94.228
-5.64419	-50.9434	95.9312
-14.8611	-50.4905	91.9857
-14.7816	-51.0923	90.8933
-27.1457	-52.6019	81.2298
-28.2692	-54.2819	79.2523
-21.7065	-53.9486	85.005
-21.7409	-54.1173	85.3179
-18.178	-53.2088	88.5297
-21.678	-53.9067	84.7544
-22.1719	-55.4319	85.9025
-18.899	-55.0964	89.6488
-22.0184	-54.9403	85.8018
-15.8153	-55.2489	92.3008
-16.2107	-56.0483	92.2214
-12.79	-55.6427	94.1336
-15.6048	-54.4614	92.1223
-8.64922	-54.0999	95.1223
-5.59689	-54.1806	95.8201
-8.35083	-53.2753	94.7631
-12.1123	-53.7917	93.7749
-9.02207	-55.0818	95.3747
-3.37926	-56.5423	96.638
-3.24527	-55.4297	96.4604
-6.04692	-56.3908	96.3243
-3.4659	-57.6766	96.6935
-26.405	-55.6259	78.7015
-26.3873	-54.9245	79.4478
-24.6559	-55.4343	80.6052
-26.1095	-57.1947	77.9377
-2.65737	-53.7785	91.8513
-2.6481	-52.9985	93.2959
-2.68099	-55.1281	90.5242
-4.99764	-53.8087	91.5766
-3.51064	-58.8141	96.624
-6.32497	-58.5153	96.3307
-3.55258	-59.8977	96.4203
-3.61804	-63.6408	94.6848
-3.59181	-62.1111	95.5192
-6.61165	-63.1964	94.5409
-8.021	-44.7435	98.5586
-5.62099	-44.7549	98.9847
-7.27331	-43.4692	98.65
-3.11649	-54.2783	96.133
-2.89285	-53.3589	95.7249
-2.74294	-52.9977	95.4283
-2.74407	-52.816	95.0665
-5.2301	-52.963	95.1668
-8.2311	-52.8889	94.4411
-8.15098	-52.722	94.1075
-11.6084	-52.6476	93.1437
-2.75839	-52.7608	94.3923
-5.07489	-52.7585	94.1345
-14.8346	-52.6189	91.1987
-15.0161	-52.9185	91.4863
-14.7936	-52.5149	90.8538
-16.8469	-59.131	91.6726
-17.0623	-60.3096	91.1896
-13.8686	-59.7485	93.4386
-16.6595	-58.0434	91.9706
-10.1943	-60.0859	94.9415
-10.3515	-61.2119	94.4502
-6.45647	-60.5118	95.8615
-9.99045	-59.1211	95.2605
-3.57883	-60.9382	96.0713
-14.6589	-51.3154	90.0959
-14.5484	-51.2504	89.4817
-11.3136	-51.1981	92.0997
-26.4022	-54.6493	80.1644
-24.7718	-54.7191	81.9859
-7.96083	-53.6969	91.0373
-7.9296	-52.9516	92.3365
-8.06661	-55.0018	89.7899
-11.2681	-53.5457	90.0107
-8.00445	-52.6877	93.4195
-11.3694	-52.5102	92.1754
-10.4291	-62.7172	93.7454
-14.1718	-62.344	92.3092
-16.4095	-56.9981	92.1791
-13.4353	-57.6451	93.9867
-17.2674	-61.8526	90.5139
-20.1186	-61.0747	88.2027
-14.259	-50.9459	89.1117
-17.4094	-51.5453	87.0853
-13.7463	-49.8011	88.4577
-11.1859	-50.704	90.5552
-8.01013	-50.8398	91.5552
-7.89003	-51.2916	92.4665
-8.4552	-49.614	90.2784
-5.42121	-50.87	91.869
-13.1684	-47.0162	87.496
-15.7109	-47.2575	86.1937
-13.0739	-43.4898	86.7556
-10.7293	-46.8729	88.3969
-25.4432	-60.4043	77.2863
-23.681	-60.2221	79.2891
-24.3574	-63.7605	77.3435
-2.70396	-57.5266	89.2845
-3.05529	-61.0216	88.3935
-4.99665	-57.5475	89.0826
-8.37207	-47.0418	89.024
-8.10297	-43.6825	88.2232
-5.89914	-47.3046	89.434
-7.9507	-57.5607	88.5269
-8.14344	-61.2539	87.4812
-11.2077	-57.6797	87.5154
-28.5339	-55.5783	72.702
-28.6024	-55.5307	72.263
-14.5226	13.9884	77.6468
-13.6544	12.691	79.8222
-79.6186	-8.95626	-44.3318
-81.05	-9.48551	-42.6251
-80.3428	-4.31919	-44.3472
-77.8585	-8.29642	-47.6518
-78.7836	-13.4057	-43.5652
-78.9607	9.28034	-7.80909
-77.9401	11.3642	-3.06924
-79.5237	12.2698	-11.9799
-79.784	14.4925	-17.1087
-80.4849	14.1276	-23.9809
-80.0787	9.42181	-18.1
-79.6816	20.0525	-18.3985
-72.8389	-33.5298	-34.994
-74.1529	-29.5936	-36.8278
-71.6488	-37.7573	-32.4066
-75.2459	-31.2723	-33.3768
-75.3058	-25.8881	-38.9075
-77.5229	-24.7183	-37.0621
-76.5773	-21.8706	-40.7417
-72.7544	-27.8482	-41.7364
-82.5052	-9.44331	-41.728
-82.9882	-4.40805	-41.9491
-81.7972	-13.6427	-40.8022
-84.0581	-8.92462	-41.3503
-82.0332	-25.99	-33.8812
-83.0147	-27.1202	-32.7675
-80.7814	-24.3853	-35.3157
-83.7484	-27.9282	-31.7325
-85.0358	-23.8372	-33.8133
-82.3659	-31.9793	-29.2107
-84.4105	-28.3779	-30.5245
-88.5324	-18.0805	-31.9018
-90.0775	-13.4967	-35.0177
-88.5107	-17.5245	-31.1357
-76.5468	-40.7008	-20.9799
-77.0926	-38.9914	-24.0297
-75.7855	-39.7873	-23.0889
-75.9869	-41.3821	-18.9707
-76.9794	-40.9342	-20.2844
-77.9389	-33.5597	-8.82537
-77.604	-34.1195	-8.79801
-76.9421	-35.3102	-9.05508
-88.4496	-17.1536	-30.7331
-87.8854	-17.7653	-29.7867
-91.8687	-2.37985	-34.6249
-91.9884	-1.71496	-36.1267
-91.6813	-3.72074	-32.9858
-92.3639	7.9081	-32.2648
-92.68	9.27968	-32.3804
-92.8472	11.3798	-31.3764
-92.5057	13.4361	-28.3469
-93.0506	11.8549	-31.7701
-92.2291	11.1671	-29.1969
-81.1721	-10.4448	-9.33088
-82.7306	-4.89636	-9.976
-80.008	-14.5565	-8.7045
-80.6305	-9.72552	-8.0282
-74.8576	-26.8266	-2.12223
-75.5628	-22.5111	-1.67965
-74.2039	-30.5829	-2.546
-73.7453	-27.3502	0.628784
-79.3971	-21.672	-11.1492
-79.469	-19.6725	-11.3067
-79.6903	-23.7147	-11.6447
-80.0587	8.89449	-18.0713
-80.0916	8.89166	-17.8733
-80.5513	10.2506	-21.5045
-88.6424	16.6152	-18.6432
-89.733	18.3479	-21.7246
-89.3951	15.8916	-17.6603
-87.014	13.4291	-15.7286
-87.8009	17.0299	-19.8027
-89.3494	19.0611	-26.6606
-88.5034	18.786	-23.7263
-88.5017	18.0001	-28.0055
-89.8547	17.8163	-30.2423
-89.6389	19.1934	-26.1743
-89.9847	3.6781	-40.6478
-91.0489	3.92076	-40.1138
-90.4258	9.69381	-37.8514
-89.1677	3.20045	-40.8325
-83.9061	-0.207947	-10.6099
-84.1587	-1.45768	-11.2445
-92.7378	3.01326	-37.6137
-93.2909	8.17573	-35.4289
-92.7947	2.91905	-37.9786
-92.3474	0.184762	-37.7783
-91.9363	14.2908	-24.4459
-90.9043	13.6875	-20.5209
-92.0556	15.2857	-23.8507
-91.6928	12.9294	-25.1617
-85.4985	0.634445	-13.3563
-86.1789	3.0046	-14.0861
-84.8469	-1.16564	-12.7714
-92.2398	3.67514	-34.9389
-92.317	1.61865	-36.757
-83.3276	-6.21732	-14.4949
-83.8847	-4.59113	-13.4297
-83.5191	-5.92705	-15.1969
-88.5719	-5.15518	-28.3115
-90.7487	-2.46741	-30.2124
-88.4222	-6.26075	-28.4592
-88.3032	-4.7138	-27.6969
-76.2803	-18.5209	-1.75976
-75.3257	-18.8202	0.777403
-77.2858	-13.8844	-2.64968
-83.3298	0.875187	-40.5261
-84.3672	3.39784	-39.5969
-83.2757	5.56532	-38.4625
-82.1989	0.307865	-41.6543
-86.8548	8.42125	-36.9439
-86.9371	4.33729	-39.7893
-89.3206	13.1222	-35.0613
-86.6669	12.2004	-33.7907
-88.0645	2.2034	-40.805
-86.7794	-3.37143	-41.5604
-86.2277	-8.42948	-41.1683
-79.2782	-24.0814	-36.2106
-80.2542	-20.8028	-37.9051
-78.1527	-27.2489	-34.3773
-81.0649	-17.3715	-39.5033
-79.414	-17.6039	-40.5303
-87.2708	-17.7203	-28.7733
-77.0199	-30.2122	-32.6553
-75.7402	-33.8905	-30.3043
-75.6437	-41.0774	-16.1718
-75.1262	-41.3357	-16.0232
-74.5399	-41.5397	-15.7032
-74.6386	-41.2079	-21.1159
-88.628	-7.00749	-28.9259
-90.7006	-5.58686	-31.0984
-80.0121	-9.13836	-6.93532
-79.2408	-8.76186	-5.7108
-77.0297	-22.873	-5.21243
-77.3845	-23.0262	-5.8765
-80.1515	-27.2377	-11.3175
-80.3977	-26.1101	-12.199
-81.1699	-29.2376	-12.8268
-79.2561	-17.6023	-8.17075
-79.78	-17.6919	-10.3649
-86.3579	14.008	-30.6517
-85.3635	14.6004	-27.3728
-83.9027	10.2925	-33.4243
-82.9436	8.74841	-35.2098
-82.277	10.8617	-31.0058
-82.5385	8.45734	-36.2835
-91.4345	4.81538	-29.959
-91.2082	3.28892	-29.614
-84.0233	-5.19249	-16.629
-85.1615	-3.91107	-19.2701
-88.284	-3.87167	-27.2063
-87.6738	-3.83369	-25.8424
-90.2099	-0.213339	-28.4087
-8.94772	86.7206	64.8578
-9.02585	93.9494	57.5661
-17.0742	85.9701	64.153
-9.07384	79.6298	70.5781
-8.95777	72.6269	75.2674
-16.9736	72.6464	74.1359
-8.88653	65.0616	79.4211
-33.5708	57.9129	76.6706
-28.3269	58.0528	79.1346
-33.8724	51.3904	80.3743
-1.8404	-28.1383	110.83
-4.25886	-27.5896	109.223
-1.94066	-26.8414	113.913
-2.59666	-17.6332	120.879
-2.46518	-19.7705	120.892
-2.7843	-15.0944	120.191
-5.55092	-16.9845	119.561
-2.36694	-21.6413	120.308
-2.22411	-23.3493	119.122
-2.66374	-32.9796	101.571
-2.76356	-39.5819	98.877
-4.95534	-38.6118	98.8335
-2.09216	-25.0958	116.993
-4.87529	-24.4499	115.204
-2.882	-12.5106	118.901
-2.95514	-9.43343	116.682
-5.68024	-12.4399	117.71
-7.83885	43.4533	87.7667
-8.21125	48.7003	86.3925
-15.0283	42.9137	86.7624
-7.46858	39.5222	88.3632
-1.18574	17.3484	92.5596
-1.1592	19.0062	91.5996
-1.24893	15.4904	93.8419
-1.1727	20.5996	90.8659
-1.44979	22.3561	90.232
-3.71458	19.8059	90.1133
-2.91391	-50.8244	91.9103
-2.69477	-51.5042	93.2465
-3.14654	-49.7342	90.8417
-2.74463	-51.6585	94.338
-2.80557	-51.4961	95.301
-5.03048	-51.5858	94.0903
-3.22253	-49.449	98.12
-3.20009	-50.2678	97.3984
-2.99983	-50.9374	96.5101
-2.98614	-45.088	99.2098
-3.14312	-47.4761	89.6351
-2.94186	-44.0508	88.5919
-23.7171	85.0038	63.0188
-24.0432	91.5385	56.2125
-29.8018	83.5973	61.4527
-23.6256	78.7936	68.2204
-21.2483	44.0919	85.5733
-21.9561	48.8722	84.4842
-27.4107	45.9533	84.1314
-21.3726	39.3603	85.9316
-22.1721	35.4464	85.5657
-23.626	32.1237	84.6334
-27.964	37.3421	84.3101
-24.4975	30.3661	83.7779
-29.3602	31.9898	82.6883
-20.4616	29.1103	84.4781
-29.2477	23.1324	72.6538
-33.1658	24.466	73.2283
-25.7195	21.7532	72.1342
-28.6549	24.0365	74.2841
-31.0365	22.3307	71.1179
-27.7404	25.0775	76.4695
-24.1995	23.9387	76.5197
-31.8039	26.2949	76.2818
-47.9096	87.5599	38.9933
-47.627	82.1501	46.1092
-42.1994	91.1398	41.8865
-48.7076	92.7003	29.1238
-35.3147	82.0747	59.1632
-41.0737	79.9669	55.9616
-35.8638	87.7298	52.9314
-33.4368	47.5448	82.0038
-38.5967	47.4363	79.926
-33.5924	43.4391	82.8933
-34.8343	33.904	81.5574
-34.4186	36.2512	82.3582
-33.7657	39.9721	82.9396
-35.7793	27.1614	75.9123
-40.3039	27.5642	74.7475
-36.5264	26.2018	74.4573
-47.1026	77.2651	51.6116
-46.5117	72.4253	56.1734
-52.9878	74.2165	46.1565
-44.3611	46.7966	73.8943
-50.0718	44.6638	68.6618
-44.4379	24.732	71.4815
-47.4099	24.0934	69.9162
-40.7515	25.2408	72.6532
-44.6201	25.8815	72.1444
-46.1083	31.6872	74.2646
-51.8575	31.1997	70.4745
-45.5726	29.4817	73.6492
-45.0883	27.4141	72.8489
-45.8493	67.3716	60.241
-51.7592	64.2624	54.8228
-58.3082	71.5426	39.3834
-62.8307	69.1375	31.4461
-57.7695	66.3719	44.1941
-47.9138	21.611	67.7981
-49.3893	20.2044	65.9286
-49.798	22.9912	67.958
-51.1222	21.3838	66.0211
-48.5952	22.254	68.0143
-55.7249	29.4882	66.8643
-58.1975	26.6249	63.3312
-19.5344	25.5988	81.8547
-18.5238	26.6712	83.4668
-20.3733	24.2362	79.4607
-17.1559	24.0243	81.3121
-17.0777	27.8257	84.8907
-14.8368	26.297	84.7879
-21.355	22.4901	75.9718
-22.4274	21.1957	73.1325
-6.42476	35.5821	88.6914
-63.7873	-65.2738	-9.26782
-64.1235	-65.5906	-15.7005
-65.2219	-60.1466	-7.49027
-79.295	23.0752	-38.3818
-80.3124	17.2754	-33.2856
-79.6623	25.3351	-30.3636
-78.3081	28.7884	-43.0479
-79.0004	19.1906	-43.9865
-75.5438	-7.924	-53.4543
-76.5927	-2.05542	-53.4962
-73.3943	-8.0296	-59.0005
-74.4505	-13.9755	-51.9385
-77.3008	4.19114	-53.1349
-79.236	2.045	-46.9603
-77.9526	9.73779	-51.3033
-75.4116	6.01523	-59.5314
-69.3671	-31.4625	-45.784
-71.1833	-25.6495	-48.2211
-66.2898	-34.8033	-49.6094
-8.91057	56.5747	83.3447
-16.0926	56.6887	82.4407
-22.6403	57.2967	80.9236
-23.5166	65.7272	76.6588
-19.6907	-100.285	55.7724
-14.3859	-101.245	59.4274
-25.7585	-98.6922	50.2313
-18.4776	-102.283	49.2255
-44.6574	-86.3987	42.1324
-45.2641	-83.839	45.5375
-49.132	-82.6379	37.057
-39.1632	-90.2966	47.233
-57.2708	60.8396	48.3545
-62.0111	57.3304	41.1215
-23.5128	72.5631	72.5931
-67.25	66.6794	22.0583
-67.0162	60.2098	27.5177
-70.8801	64.5415	12.3069
-24.1202	99.0597	46.5449
-17.0567	100.665	47.2934
-24.03	106.236	34.8088
-30.4933	96.8125	45.6534
-65.0586	39.8787	41.6314
-65.666	46.7657	37.1903
-52.1134	19.5955	63.933
-62.3137	26.155	56.9554
-61.163	24.8199	58.5248
-62.6594	20.7358	53.8908
-59.6613	23.501	59.9421
-3.70327	-113.563	42.588
-55.2188	-71.7938	36.9212
-54.3918	-75.7165	33.5243
-50.3174	-76.0775	44.0625
-55.8823	-67.9337	39.3717
-6.86992	-41.6732	98.5432
-6.62424	-39.7628	98.5044
-8.78048	-41.4915	98.1318
-25.1915	-44.8475	87.3796
-22.0776	-42.7701	90.747
-24.5758	-40.2797	88.868
-10.5462	-37.3743	97.2109
-10.0107	-35.7548	97.286
-13.4133	-36.7449	95.803
-11.0601	-39.031	97.1749
-8.13166	-37.8923	98.1326
-33.1678	-50.3024	79.5257
-33.6686	-46.1657	81.3262
-34.8572	-51.6705	77.8792
-32.6688	-53.8797	77.9508
-65.2942	15.7152	46.3335
-66.284	16.423	43.3889
-65.6862	9.11859	45.8362
-64.105	15.2189	49.0906
-67.3692	17.1489	39.7855
-68.8714	16.9938	34.5722
-55.218	15.9824	59.7048
-55.1504	13.9817	59.1517
-62.7331	14.7823	51.5634
-81.3705	9.18581	-38.2785
-81.4664	11.6982	-34.3644
-80.0278	11.2783	-42.2919
-81.2127	5.42513	-41.4267
-77.6361	-17.8207	-42.4501
-75.6198	-18.3113	-45.5786
-68.1448	-52.3151	-17.916
-68.9407	-48.8772	-23.7914
-66.2024	-57.8836	-20.397
-67.354	-54.3949	-11.7079
-69.878	-48.0262	-15.6164
-80.8692	0.731023	-43.4017
-72.5461	-28.311	3.81469
-71.1795	-29.3092	8.22745
-73.4173	-23.9112	4.0754
-71.7046	-32.4732	3.31779
-71.3866	-1.55393	27.7822
-72.9444	-2.79665	19.1117
-70.8748	-9.58857	29.1549
-71.482	7.06344	26.4177
-57.9591	8.91475	56.9516
-56.1304	7.86369	59.3752
-56.2629	10.8068	58.2282
-54.9038	12.3937	59.2637
-53.4863	11.8746	60.7422
-69.6216	-30.0168	14.6117
-70.7992	-24.769	14.5079
-68.6916	-34.7749	14.0768
-68.2855	-30.5583	21.4845
-24.7535	-6.57616	89.1147
-21.9328	-5.1807	90.0626
-24.0014	-2.70816	86.5444
-28.5543	-7.69756	87.9906
-34.4036	-9.67419	86.2974
-35.5754	-14.9005	87.2352
-41.602	-12.3039	83.621
-19.203	-3.88133	91.3842
-19.5379	-7.1239	93.778
-16.2053	-2.36149	93.5945
-22.3691	-13.0684	93.6887
-21.1366	-11.2432	94.5189
-18.7058	-16.7635	101.4
-19.5455	-17.1681	99.6581
-18.3597	-18.869	100.477
-17.3692	-16.3097	103.832
-19.9956	-17.7091	98.2208
-19.3831	-20.5115	96.9778
-38.7535	-34.3636	83.2901
-38.0686	-28.675	85.2371
-39.416	-39.8489	81.1093
-33.7623	-33.0939	85.6274
-36.6978	-21.4445	86.7688
-6.19751	-35.0312	99.0647
-7.65248	-34.5607	98.442
-6.37762	-36.6986	98.7494
-54.663	-50.1633	55.9416
-52.4617	-56.1869	55.2834
-51.2249	-48.6758	63.3155
-56.6675	-44.4607	56.9431
-29.2702	-38.6581	85.8668
-31.6814	-40.0675	84.5533
-26.6358	-37.422	87.6017
-39.2494	-44.6077	78.7418
-36.0088	-43.1095	81.5087
-43.1488	-45.8868	75.0949
-38.3173	-49.266	76.9237
-6.52229	-38.1495	98.5703
-50.1976	-62.48	54.8802
-47.1833	-68.0592	56.1644
-46.8757	-59.5039	62.0257
-53.2841	-64.0629	48.0266
-60.5648	-29.8622	60.9489
-64.0587	-29.2855	51.928
-59.7704	-34.461	59.5709
-26.0301	-92.4426	70.6103
-21.2783	-94.3439	75.9226
-26.5368	-89.5361	73.0891
-35.9224	-81.1227	64.6752
-31.5143	-83.7471	69.5164
-34.9813	-76.7637	68.3218
-39.852	-77.4549	61.2889
-59.1932	-6.87888	63.5957
-52.9027	-5.53206	71.3432
-57.3838	-1.30551	63.4089
-51.0206	11.1538	63.6896
-51.8505	9.40817	63.6243
-55.8779	2.4955	63.061
-54.2432	5.3116	63.2946
-50.5537	2.79478	69.1055
-49.1112	13.904	64.4104
-3.67544	-92.2603	92.092
-43.54	-56.9747	67.8954
-40.281	-54.7649	72.4018
-45.3943	-52.2326	68.6605
-41.4586	-61.3045	67.8377
-33.8747	-72.3778	71.3488
-30.4928	-74.8956	74.4207
-32.2607	-68.1213	74.2802
-36.6456	-69.073	69.5235
-46.7384	-4.26376	76.3962
-45.5844	0.144198	74.7496
-47.8245	-9.2772	78.0201
-47.3348	-47.2543	69.8264
-48.5545	-15.2879	79.0199
-10.9796	-81.4066	91.5773
-14.864	-80.5176	89.3367
-11.4898	-76.7555	91.0889
-18.7971	-79.819	86.3301
-18.8058	-75.0454	86.5818
-22.6688	-78.5549	82.6518
-44.3379	3.22424	73.6782
-36.6275	3.96873	76.6981
-43.124	5.64627	73.0105
-52.9534	7.48097	63.4248
-48.4904	7.25681	68.3352
-42.2454	7.59348	72.4521
-34.9352	7.63375	74.8882
-13.0551	-1.03262	96.9219
-12.9268	2.78582	92.6201
-13.5964	-4.39306	100.053
-14.9007	-11.4018	106.741
-15.2473	-12.4503	107.13
-11.9514	-11.5961	111.304
-14.6614	-9.89842	105.408
-13.3019	11.1266	81.8577
-13.1045	9.15717	84.4787
-23.6102	0.901592	82.6396
-1.35631	12.6416	96.1535
-65.5987	2.87935	48.0594
-12.9852	6.2708	88.2037
-56.5754	-63.886	41.106
-60.1524	-61.6787	32.6265
-68.0449	-17.4816	44.7229
-69.1784	-16.8047	36.9883
-67.0681	-23.637	44.2267
-62.8457	-40.241	42.8503
-64.1312	-40.6003	35.489
-61.0886	-39.8358	50.1368
-64.3695	-34.7855	43.2504
-65.8712	-29.1782	43.6372
-66.771	-29.6115	35.9737
-17.3888	-95.6699	79.9928
-11.7258	-72.5106	90.8872
-15.3066	-71.8544	89.1877
-7.896	-72.7991	92.0544
-18.5968	-71.1251	87.0865
-29.2517	13.1992	70.6578
-30.1614	4.41798	77.3459
-29.5005	6.27962	76.0079
-28.9094	7.6965	74.971
-4.44907	-72.8608	92.5989
-6.5479	22.9453	87.9571
-6.17735	20.9055	88.1817
-4.40789	23.6879	89.0247
-7.91287	24.828	87.4841
-8.51251	22.1084	86.4853
-21.936	15.2002	68.8444
-21.9888	16.019	68.7845
-19.5536	15.0888	70.9116
-10.2169	20.9117	84.5614
-11.4087	22.7213	84.4399
-1.87874	24.3355	89.7548
-6.46125	-26.6455	107.615
-7.04109	-25.1943	109.985
-8.70853	-15.8671	116.995
-12.1872	-14.445	112.562
-8.82248	-14.0472	116.341
-18.4878	-26.0014	92.8343
-15.8594	-27.8765	93.8125
-18.1893	-24.7644	94.1108
-8.5518	-12.1404	115.397
-6.87588	18.2297	87.9065
-9.44029	26.5591	87.2364
-11.3282	25.5718	86.042
-22.4773	17.1025	68.8738
-12.9926	24.608	84.5867
-14.2601	23.418	82.7243
-15.1312	22.2802	80.8027
-20.6144	-31.6245	90.658
-21.8787	-33.8552	90.3057
-17.5892	-32.2733	92.4682
-23.5113	-36.6306	89.461
-20.0367	-36.0744	91.8273
-25.3352	-53.4299	80.0055
-23.3841	-53.159	81.9522
-25.0703	-52.1765	79.5744
-25.8749	-51.3744	83.5206
-23.6952	-49.8822	86.8627
-24.7031	-49.0179	78.8921
-23.9599	-45.3284	78.8767
-21.5347	-48.3656	81.9299
-14.7241	-32.9451	94.2671
-15.5775	-34.5918	94.1879
-11.9554	-33.5615	95.9873
-16.8492	-36.289	93.8255
-17.9028	-38.2931	93.5813
-20.779	-52.5637	84.3648
-19.3588	-50.9537	84.8323
-18.44	-47.6437	84.3686
-18.4326	-43.9695	83.5823
-9.64146	-34.1004	97.3796
-9.35887	-32.5505	97.5725
-11.9702	-41.2295	97.0444
-15.7029	-40.6091	95.2063
-19.5038	-9.56743	95.8526
-17.0277	-8.47335	98.9941
-2.78553	-5.71618	113.384
-14.0887	-7.52147	103.232
-7.74718	-23.0744	112.954
-10.7516	-21.6692	109.459
-13.7727	-20.6998	105.528
-16.1307	-20.7375	101.854
-14.6779	-18.3692	106.693
-17.3838	-21.2782	99.4109
-17.9549	-22.2975	97.3581
-18.0576	-23.5677	95.5836
-15.2591	-13.5421	107.613
-15.1951	-14.7938	107.83
-15.0767	-16.4492	107.454
-38.7603	-144.217	13.5906
-37.1986	-136.168	15.1335
-42.8342	-142.697	10.3383
-39.9821	-150.113	12.5093
-34.2483	-145.572	16.7583
-35.5123	-125.022	17.2585
-31.2284	-126.321	20.9543
-34.5817	-115.198	19.1967
-39.5305	-123.578	13.5268
-36.904	-99.3363	26.0369
-35.8447	-103.484	22.5767
-32.754	-101.24	30.4345
-40.89	-97.2526	21.0756
-34.948	-108.418	20.6538
-38.8596	-106.748	16.4188
-30.6988	-109.842	25.0724
-39.3826	-65.4367	68.1389
-36.8076	-62.0851	72.067
-41.6404	-69.0624	63.6264
-44.0504	-72.9388	57.948
-45.1869	-77.0416	53.1056
-45.6261	-80.6299	48.9866
-34.7605	-59.4506	74.6935
-32.9535	-62.111	75.2181
-33.1435	-57.5438	76.3443
-36.0061	-56.5028	74.9288
-31.9836	-56.3906	77.3306
-30.9081	-58.1679	77.4915
-44.5987	-94.785	16.4598
-48.1332	-92.426	11.1125
-43.5017	-99.3285	13.6926
-46.4261	-90.6612	19.6977
-48.7238	-86.7874	23.5284
-51.0938	-82.9733	27.0979
-51.6056	-84.4128	16.9468
-53.0198	-79.3226	30.5125
-55.6769	-77.1096	23.2453
-43.3345	-121.934	9.67998
-44.9514	-133.09	8.177
-42.4722	-112.078	10.9383
-47.0092	-120.599	5.63205
-46.5083	-141.208	6.94517
-49.9534	-139.711	3.24008
-47.9898	-147.273	5.82703
-42.6374	-104.842	12.1016
-67.4128	-30.2585	28.7419
-68.737	-24.2507	29.026
-66.2417	-35.5645	28.4044
-57.3495	-75.4899	16.5626
-58.5449	-74.104	9.64413
-55.5903	-78.9411	13.5658
-71.3113	16.1658	25.8893
-74.0495	14.0404	15.2784
-62.1687	-60.3267	25.0053
-63.5304	-59.001	16.9984
-65.1982	-40.8738	28.1556
-66.3216	-40.6307	20.9291
-70.0217	-17.0022	29.585
-70.9007	-18.1774	21.5794
-67.8212	-39.5214	13.6035
-69.4857	-37.9678	7.01239
-56.1516	-88.8037	-4.94298
-53.8649	-89.575	0.0299385
-56.6462	-84.3635	-3.42633
-58.1124	-88.2661	-9.77186
-55.8596	-93.8223	-6.13091
-55.7331	-99.4487	-6.78427
-57.448	-80.202	-1.23901
-58.4455	-76.4143	0.815283
-59.086	-79.4185	-6.89655
-55.7077	-81.2049	4.33839
-74.5617	-3.66478	10.6384
-73.3034	-11.8501	13.1382
-75.5033	4.4441	7.92513
-76.3616	12.9663	4.84261
-77.0241	20.9867	2.20038
-77.6131	29.1102	-1.02983
-78.1204	37.1394	-4.69384
-79.0263	28.2508	-11.4847
-64.6923	-57.3148	8.93466
-65.7823	-56.0069	1.09489
-72.04	-18.7217	14.3622
-73.2564	-19.2143	8.17696
-50.6212	-119.175	1.18696
-51.9364	-130.183	0.110794
-53.875	-82.6297	10.6011
-52.3213	-86.5002	7.73653
-53.2217	-138.098	-0.940587
-54.5468	-143.915	-2.18115
-59.9041	-114.528	-16.6625
-60.6324	-123.909	-17.985
-59.7019	-87.6655	-14.5703
-60.0971	-83.0098	-13.651
-60.769	-85.8559	-19.6282
-60.7106	-78.391	-12.4214
-61.281	-130.887	-19.5006
-61.8174	-136.342	-21.485
-66.5813	-55.5173	-5.9711
-70.887	-36.5071	2.5644
-70.2596	-40.1649	1.13871
-72.281	-34.6696	-0.663097
-74.2776	-19.217	4.09511
-60.2932	-93.472	-27.5674
-60.6377	-87.1459	-26.4881
-59.0878	-89.1048	-34.4094
-61.3521	-81.1955	-25.5719
-60.9238	-74.6622	-31.6932
-64.4418	-64.1833	-22.1925
-71.0534	-45.5001	-14.3696
-72.7002	-42.8248	-20.8741
-57.0732	-119.675	-45.4252
-56.8505	-111.491	-43.9267
-53.9084	-116.859	-52.4505
-57.3575	-127.31	-46.8247
-70.1822	-43.8375	-28.5374
-72.5423	-40.1847	-26.895
-74.2052	-38.4968	-26.2328
-75.1485	-37.772	-26.0554
-29.554	-146.699	19.7042
-30.8151	-152.447	18.1936
-24.8165	-147.717	22.3207
-28.1824	-138.687	21.6843
-25.8289	-111.064	29.7582
-26.8644	-106.674	31.7631
-25.4614	-117.55	27.6636
-20.6692	-112.125	34.0857
-31.2616	-97.023	44.8294
-32.7401	-94.9236	49.0131
-29.5651	-99.5386	39.9973
-27.9272	-102.949	35.1791
-22.7256	-104.279	39.6364
-26.5339	-127.256	24.7594
-21.7395	-128.518	28.1842
-30.9969	-64.6488	76.2589
-29.9375	-61.8131	77.6466
-33.902	-93.0611	52.6555
-29.3261	-60.0893	78.3345
-28.7283	-58.5027	78.8925
-27.0328	-61.7017	80.2752
-28.0772	-57.0873	79.3646
-26.1323	-58.5283	81.234
-26.7439	-77.1611	78.2845
-27.0227	-81.5567	76.8305
-26.9903	-85.8651	75.0259
-21.6514	-54.4686	85.859
-18.4181	-53.9361	89.3082
-21.4981	-53.9663	84.5443
-17.961	-53.195	87.6784
-21.5771	-54.2535	83.9825
-24.7022	-54.4921	81.3958
-21.5701	-54.8251	83.4772
-21.4383	-56.3278	82.6784
-17.9961	-54.1368	86.252
-20.8239	-59.6301	81.8772
-17.5685	-58.6895	84.2791
-19.9243	-63.2209	81.5874
-15.769	-112.744	37.6045
-15.7888	-119.295	35.0534
-16.6182	-108.487	39.9661
-20.0104	-148.763	24.6346
-21.1944	-154.205	22.8655
-15.2601	-149.523	26.5772
-18.7321	-140.895	27.1335
-17.0983	-129.554	31.1669
-9.07946	-105.685	48.091
-9.51945	-103.374	54.6025
-12.5953	-105.571	46.4262
-11.0881	-150.039	27.9596
-12.1355	-155.294	26.138
-10.4934	-101.788	61.6249
-14.6264	-52.5804	90.2596
-14.512	-52.898	89.4268
-14.4238	-53.5649	88.5937
-14.6336	-55.0511	87.3185
-14.4075	-57.9717	86.1369
-14.1055	-62.0468	85.2165
-73.854	47.6384	12.475
-70.441	50.0871	22.846
-74.1729	55.2689	7.39051
-76.5645	46.0384	1.76761
-79.5243	27.0988	-21.1965
-72.7935	-19.9367	-50.5294
-70.0937	-21.7769	-55.3539
-50.7407	-95.4122	-55.1889
-47.7139	-93.0662	-60.0955
-50.7263	-105.626	-56.3516
-53.5997	-98.5894	-49.7001
-51.2471	-85.2068	-54.1004
-50.9767	-114.54	-57.6887
-47.8437	-112.788	-62.3826
-51.4813	-123.014	-58.895
-57.0837	-83.3978	-41.667
-58.2127	-74.9086	-40.3424
-54.6537	-78.8137	-47.9674
-56.5931	-92.986	-42.1451
-23.5826	112.64	21.0413
-16.3022	114.624	21.4018
-23.2559	117.295	5.88302
-30.5247	109.814	20.696
-22.3562	102.006	-79.0614
-14.8796	103.414	-80.4734
-21.5854	91.1565	-92.1156
-29.4851	99.992	-77.187
-23.0541	110.704	-63.2612
-21.2219	79.304	-101.512
-14.2999	79.9655	-103.148
-21.0106	66.0235	-108.68
-27.9916	77.6137	-99.604
-23.2344	116.579	-46.234
-23.257	119.576	-28.4428
-15.6875	118.394	-47.2668
-30.4684	114.085	-44.6534
-7.99939	123.068	-11.4508
-7.92246	122.729	-29.5745
-15.7527	121.823	-11.2033
-8.10709	120.678	5.79381
-20.6663	52.9277	-113.613
-14.2091	53.7726	-115.026
-20.2386	39.5373	-116.876
-27.0081	51.6659	-111.587
-19.7045	25.4972	-118.679
-13.385	26.4227	-120.188
-19.2127	11.617	-118.852
-26.0423	24.5424	-116.491
-17.1266	-26.9699	-107.968
-17.9717	-14.3655	-113.779
-11.5757	-26.8709	-109.123
-16.7554	-38.6797	-100.709
-22.9085	-27.717	-105.815
-6.23938	-0.438272	-120.022
-5.94703	-13.2953	-116.462
-12.4799	-0.850922	-119.003
-6.44038	12.7224	-121.442
-14.7122	-85.4881	-83.433
-9.70451	-85.0173	-84.2063
-14.4974	-94.9424	-83.091
-19.9136	-86.2923	-82.0856
-15.0474	-75.9598	-84.3753
-14.3729	-104.271	-82.9185
-9.54114	-103.921	-83.4878
-14.5094	-113.483	-82.8206
-19.3117	-104.84	-81.965
-16.8512	-47.9101	-94.7166
-11.1914	-47.433	-95.7234
-16.4282	-56.1616	-90.2139
-22.0786	-48.5011	-93.1595
-15.6175	-65.6418	-86.6383
-10.4096	-64.8168	-87.6322
-21.1441	-66.7807	-84.9041
-5.17319	-64.498	-88.0864
-4.89798	-74.9944	-85.7103
-5.42335	-55.2067	-91.6897
-49.1385	97.6606	17.2368
-43.2495	102.297	18.7924
-49.709	101.379	3.83136
-54.8767	92.1406	15.7597
-47.0116	70.5571	-89.7012
-47.4192	81.4119	-80.6152
-41.1561	73.2108	-93.4814
-46.6507	58.5948	-96.423
-52.4826	67.4351	-85.5167
-47.7974	90.8721	-68.7131
-53.3411	86.4621	-65.1968
-48.4997	97.8765	-54.7059
-42.0982	94.4842	-71.9041
-49.2841	102.125	-40.105
-50.1834	103.619	-25.4229
-43.4319	106.812	-41.6344
-55.0566	96.4549	-38.4371
-50.0807	103.528	-10.658
-55.906	97.6869	-10.8851
-43.9597	108.605	-10.4026
-46.0186	46.4656	-101.281
-51.4385	44.2452	-97.0279
-40.1329	48.3621	-105.171
-45.3516	33.8652	-104.501
-44.3941	21.102	-106.308
-38.768	22.2218	-110.1
-43.4144	8.17282	-106.415
-49.6972	19.6608	-102.015
-42.0857	-4.34297	-104.98
-46.8393	-5.09108	-100.836
-36.884	-4.01139	-108.591
-40.6953	-17.231	-101.497
-39.7467	-29.8289	-95.7043
-34.5148	-29.2072	-99.5898
-39.0082	-40.7839	-89.3883
-44.379	-29.5768	-91.9134
-38.2632	-50.2931	-83.7674
-42.7257	-50.5284	-79.5309
-33.1797	-50.0652	-87.4522
-37.4294	-59.7805	-78.9106
-35.2487	-88.2556	-74.0719
-39.7159	-89.2827	-70.0778
-36.1453	-78.6654	-73.9683
-30.3067	-87.7751	-77.4602
-34.3951	-98.1925	-74.9903
-24.32	-105.578	-80.5252
-29.3873	-106.532	-78.423
-24.58	-96.5128	-80.2964
-24.5333	-114.42	-80.7293
-36.7403	-69.3281	-75.5489
-31.9653	-68.6411	-79.2783
-41.263	-69.73	-71.0463
-67.2756	70.0591	-52.172
-63.0247	76.0201	-57.2323
-66.4399	63.9277	-62.4705
-71.2199	63.2712	-46.4772
-68.44	73.9726	-40.8191
-69.3396	76.1482	-29.5598
-69.8834	77.037	-18.5215
-65.0849	83.4639	-33.5371
-73.0714	68.3084	-24.6179
-69.2333	77.7403	-7.8844
-65.5615	84.7069	-10.0091
-72.0415	70.2824	-3.33455
-56.1994	41.9924	-92.5603
-55.4656	30.1328	-95.7558
-60.5103	39.3287	-87.8001
-56.8916	53.2063	-87.6673
-57.2619	64.1602	-81.1065
-61.732	60.2496	-76.2647
-57.7115	73.6734	-72.5054
-51.5107	-5.80142	-95.935
-49.6841	-17.8532	-92.854
-55.9673	-6.65147	-90.4613
-53.3402	6.18737	-97.2737
-54.5008	18.0213	-97.3536
-58.9283	16.6355	-92.3244
-48.4908	-29.1184	-87.8226
-47.7609	-40.2256	-81.1202
-52.4796	-29.1103	-82.7618
-46.6848	-49.9176	-75.3086
-50.2334	-48.337	-71.3245
-45.7557	-70.4398	-65.4266
-44.8114	-80.4887	-64.5786
-49.5143	-73.007	-58.9498
-76.8377	34.8422	-48.0199
-74.9424	40.3128	-53.5804
-75.978	28.9172	-55.3871
-60.0067	86.0275	14.9018
-60.5434	89.7342	2.12931
-77.9827	44.9129	-8.85818
-77.4058	52.6865	-13.7907
-66.1847	-7.50197	-74.7893
-64.1948	-17.3736	-71.9872
-68.9613	-7.87713	-69.2842
-67.7739	1.95139	-76.2126
-63.1624	-7.56888	-79.8843
-68.6867	11.4969	-76.8567
-71.3895	9.37542	-70.8609
-69.6079	20.561	-75.391
-65.8185	13.2921	-82.2496
-70.5034	29.7442	-72.0605
-73.089	25.8703	-66.2133
-71.4929	38.1338	-66.6368
-67.5607	33.2343	-77.6404
-58.188	-42.5338	-60.6853
-56.5763	-50.3487	-56.9307
-60.7452	-40.3708	-56.9388
-60.0258	-34.8496	-64.5805
-55.6243	-44.7679	-64.188
-67.4625	-23.3966	-59.9582
-69.5127	-15.9008	-62.3332
-64.8992	-24.9924	-64.0652
-65.403	-30.7438	-56.6817
-52.3895	-75.6853	-53.3326
-53.7261	-66.6143	-53.392
-72.968	-38.5574	-6.19124
-71.0766	-41.5677	-3.99011
-73.5006	-35.0333	-4.17016
-73.4091	-33.3382	-2.73444
-78.4909	-7.59514	-4.37618
-79.6039	-2.22954	-6.52736
-92.0345	3.81128	-39.3822
-92.6363	3.40491	-38.6852
-92.2747	9.6588	-36.9881
-80.567	-36.1818	-26.035
-79.1169	-39.0428	-22.7017
-79.5666	-36.0121	-26.8149
-91.9359	14.3743	-33.4911
-92.7914	13.6955	-32.9387
-91.2939	17.5021	-29.4226
-90.9932	14.695	-33.98
-85.115	9.10666	-13.1935
-83.7971	9.10606	-13.8749
-90.5419	18.7839	-25.239
-91.4338	18.063	-24.5005
-86.4545	-19.368	-36.1684
-81.6354	-37.0734	-18.6791
-79.89	-39.147	-19.1857
-81.0086	-36.9854	-15.9509
-80.1991	0.439239	-8.26064
-87.0991	16.9778	-20.8709
-85.061	13.827	-18.2723
-86.0129	16.1012	-22.4154
-82.5076	9.40077	-15.2862
-81.6604	9.84915	-16.8509
-90.3341	14.5402	-34.2021
-80.9241	9.62377	-18.2637
-82.2769	11.6524	-20.856
-83.9328	13.6188	-24.3629
-81.7252	11.4536	-25.4331
-85.2332	-27.9681	-29.0788
-84.8905	-29.697	-21.572
-78.2723	-40.3386	-19.6793
-80.4143	-36.0909	-13.7906
-81.4321	-33.2683	-13.6945
-82.3194	-30.8485	-14.6169
-82.8677	-29.2412	-15.607
-91.1917	-8.77433	-37.5334
-91.9741	-3.08248	-38.9346
-92.8061	3.09215	-38.2851
-93.3296	8.73709	-35.9738
-89.8459	15.286	-17.2141
-91.1113	16.9986	-20.2182
-89.9901	14.6332	-16.9202
-89.9323	14.0067	-16.7705
-91.2658	15.7991	-19.7185
-89.718	12.9053	-16.9386
-93.1479	13.1419	-32.5891
-93.2479	12.6245	-32.4552
-92.6221	16.0278	-28.517
-91.9641	17.3487	-24.0225
-92.1688	16.7434	-23.8964
-92.1578	16.136	-23.6323
-92.7357	14.953	-28.1545
-93.1912	12.2352	-32.1411
-92.1177	-1.33073	-37.2564
-89.4079	11.5783	-17.4786
-86.5152	4.18268	-15.0811
-91.4513	11.4249	-25.7859
-91.4038	-4.53699	-32.2259
-91.4993	-2.63718	-31.9205
-91.4617	-0.758494	-31.336
-91.2766	0.73777	-30.4407
-90.9308	1.95018	-29.2071
-80.7518	-25.7214	-13.4074
-82.026	-27.2979	-15.0383
-84.2306	-2.59575	-12.1468
-79.8215	-17.6557	-11.5191
-83.0044	-28.5034	-16.1058
-36.9618	25.2168	73.3059
-36.2892	94.358	44.027
-36.8341	100.661	32.9462
-8.89471	101.822	47.6631
-8.67675	109.39	35.5448
-36.9623	106.472	19.8068
-37.1262	110.746	5.36588
-8.3596	115.882	21.6103
-23.1115	119.774	-10.8544
-30.3877	116.842	-10.5254
-37.2381	113.172	-10.4721
-37.376	113.217	-26.6767
-66.5299	53.4662	32.2995
-73.5585	62.6869	1.89445
-75.3176	61.4433	-8.60836
-60.9275	91.609	-11.0102
-61.0914	91.4585	-23.7305
-7.84338	119.512	-47.7973
-7.71049	113.36	-65.2264
-37.0003	110.969	-42.9222
-36.6103	105.659	-59.4402
-75.6252	60.4381	-19.2114
-75.3028	59.013	-29.9185
-60.1379	90.4388	-36.4459
-59.1865	87.2245	-49.0063
-74.3211	56.3907	-40.5421
-73.3544	52.0651	-50.6541
-72.3829	46.0427	-59.3722
-69.3519	51.1357	-65.2588
-44.0449	-91.2165	-65.2165
-43.5131	-101.307	-66.4949
-43.7121	-110.712	-67.4692
-38.9399	-108.787	-72.0912
-44.02	-119.357	-68.6185
-7.36657	104.349	-81.1219
-7.09928	92.852	-94.509
-7.14876	80.2911	-104.141
-7.25351	67.2349	-111.039
-7.2133	54.303	-115.89
-6.98814	41.0406	-119.202
-6.6808	27.0531	-121.112
-18.6581	-1.51966	-117.312
-24.8188	-2.45762	-114.957
-5.62153	-26.6769	-109.913
-5.57776	-38.8111	-101.897
-5.54051	-47.527	-95.9939
-4.82613	-84.4942	-84.617
-4.74241	-93.769	-84.1131
-4.64317	-103.439	-83.7988
-4.76358	-113.089	-83.6053
-34.6459	75.5995	-96.9083
-34.2004	62.9468	-103.826
-35.2087	87.2497	-87.4836
-35.8587	97.4794	-74.9578
-33.6205	50.1943	-108.699
-33.1151	37.0219	-111.878
-32.4713	23.52	-113.59
-31.8519	9.80076	-113.631
-31.0202	-3.30355	-111.984
-29.9486	-16.0623	-108.498
-28.7855	-28.4541	-103.038
-27.9054	-39.7676	-96.5675
-27.674	-49.3057	-90.7123
-27.4133	-58.3215	-85.8841
-26.6296	-67.7062	-82.5085
-25.911	-77.5152	-80.594
-25.2709	-86.9743	-80.0809
-34.3434	-107.483	-75.6056
-34.6696	-116.332	-76.189
-58.248	81.7377	-61.4169
-65.7412	56.2328	-70.7867
-65.0687	46.5622	-77.7539
-64.2007	36.6508	-82.9014
-63.4015	25.9275	-86.1205
-62.5563	15.1414	-87.4409
-61.5262	3.97126	-86.8653
-59.7253	-7.34933	-85.1471
-57.7324	-18.2149	-82.2054
-55.8915	-28.2675	-78.2027
-54.3851	-38.1133	-72.8491
-59.0833	-27.6958	-73.1864
-53.0247	-46.575	-67.8449
-55.2696	-58.4922	-54.0472
-57.2868	-57.0003	-50.6847
-75.045	22.6145	-60.805
-76.8391	18.759	-54.8608
-74.2945	15.2071	-63.9152
-71.2149	-7.98433	-64.361
-72.6	-0.0639841	-65.2577
-62.0167	-26.4585	-68.6479
-73.4986	7.87157	-65.428
-63.3481	-38.0058	-53.3048
-61.5527	-45.224	-50.0847
-17.3782	-105.041	43.8856
-59.7866	-72.7093	2.89113
-51.1774	-90.7023	5.62778
-14.4172	-45.8395	95.7709
-17.788	-46.1469	93.5686
-20.8909	-47.674	90.5716
-9.27405	-56.0359	95.5216
-9.50409	-57.0069	95.5565
-9.72559	-58.0855	95.4789
-24.0156	-63.338	83.4168
-23.6468	-61.6467	84.0861
-23.2562	-59.9988	84.7835
-19.1101	-41.2281	92.9295
-37.312	-53.1587	75.5938
-30.1862	-31.7858	86.6954
-32.2352	-36.6895	85.2329
-33.673	-41.4332	83.1153
-58.4982	-39.1914	58.0283
-23.0112	20.1108	71.2455
-78.4323	14.9694	-48.5311
-80.9204	13.3898	-29.6289
-81.4969	11.3731	-27.2733
-69.3894	-44.498	-0.551705
-29.0809	12.3504	71.4774
-56.2216	41.3164	62.538
-52.6133	16.3093	61.4027
-9.3561	-31.0616	97.8298
-50.5508	18.7242	63.9821
-13.1237	-28.2892	95.9336
-81.3629	11.1639	-26.2389
-56.5838	-102.476	-43.0263
-60.3888	-66.5679	-38.5161
-59.6968	-59.8381	-43.6308
-59.8423	-53.8755	-47.3297
-23.6718	-23.1235	90.3163
-29.2013	-54.4939	78.9078
-15.2058	-53.578	91.8802
-26.3925	-54.6012	79.8441
-7.92941	-51.425	93.3847
14.52	-104.053	-83.0021
14.6463	-113.265	-82.9105
-75.5897	-37.7555	-25.7178
-76.6372	-36.2239	-27.2298
78.0085	-23.2131	-6.19549
-77.8652	-23.1883	-6.7258
79.4737	-29.6804	-31.3909
-78.4089	-35.6521	-27.4463
88.6595	3.3038	-21.6542
-87.3534	0.483998	-21.3647
-87.289	-0.821609	-22.3783
82.4831	-11.1719	-18.1369
81.7627	-13.5733	-18.475
85.218	-7.22428	-21.3375
-80.656	-16.3658	-18.3148
-81.0156	-17.0973	-19.2026
80.8765	-16.2383	-17.9201
-81.9772	-18.5298	-20.5627
87.1769	-3.24567	-23.0666
-86.8095	-3.37628	-23.3899
30.6438	20.0397	69.8199
26.244	18.1059	69.0434
23.891	16.3344	68.6695
24.0273	15.4825	68.6223
24.6731	14.9718	68.8446
48.2056	17.517	64.9112
48.5121	18.595	64.8631
46.9833	20.0766	66.63
44.6182	21.1504	68.5104
40.9228	21.9331	69.8478
36.1113	21.8764	70.325
33.7337	18.9169	70.3275
36.1344	16.2953	70.3699
39.0994	16.4386	69.9895
41.3891	17.717	69.4458
41.8508	19.4809	69.4212
39.7361	20.6346	69.9777
36.7201	20.5232	70.3214
37.9553	18.4282	70.2894
33.8902	17.266	70.3797
44.6439	17.7782	67.7535
29.6342	16.3481	69.6863
28.6129	17.7597	69.4286
33.4411	15.1301	70.4573
45.1794	19.57	67.7378
39.9331	15.4012	69.8068
28.2872	18.6118	69.311
27.3213	17.9436	69.1301
29.7689	18.7918	69.6605
27.9794	18.9835	69.2044
37.3896	15.498	70.2546
39.6647	15.7885	69.8882
37.5601	16.1611	70.251
35.0431	15.651	70.4489
37.1277	15.0528	70.3028
43.5094	19.983	68.7758
44.5764	20.2804	68.3082
42.808	20.3582	69.1509
43.4419	19.3991	68.7413
41.8819	20.9303	69.4894
42.85	21.476	69.3516
40.3393	21.3892	69.8846
40.9932	20.2248	69.7223
38.387	21.5229	70.1658
38.5834	22.1081	70.1743
36.3426	21.2493	70.3162
38.261	20.8157	70.1971
34.2836	20.5468	70.2658
33.4909	21.1185	70.2083
32.5587	19.5256	70.1709
35.1634	19.9039	70.3802
39.7511	17.3662	69.9375
40.0183	17.9746	69.9496
38.6054	17.2207	70.1805
40.6452	16.9257	69.6298
36.033	19.471	70.4323
35.8273	18.7935	70.4942
37.2206	19.693	70.3713
37.6162	16.7879	70.292
36.9112	17.1257	70.411
40.5886	18.4897	69.8177
40.1398	19.0071	69.9647
41.7988	18.5425	69.3905
40.1127	19.6761	69.9517
39.0281	19.7355	70.1601
38.1933	20.1284	70.2507
24.1956	16.9202	68.7535
23.8393	15.8587	68.6147
24.3957	15.2011	68.745
47.0191	16.8616	66.0159
48.6216	18.058	64.6098
48.0699	19.3195	65.6032
45.8695	20.7283	67.6901
35.7812	17.1559	70.4619
35.6921	17.7507	70.512
34.647	16.629	70.4338
35.1515	18.177	70.4892
33.5716	17.9679	70.3674
45.4935	20.4222	67.739
46.1207	19.9579	67.2251
31.2672	17.503	70.0201
28.8813	17.0334	69.5107
31.7793	16.815	70.1086
31.1754	18.2323	69.992
32.9752	16.1205	70.2144
31.0538	15.6633	70.0363
28.4875	15.0105	69.62
25.9403	16.3398	68.9554
26.4949	15.8211	69.0711
25.7047	16.858	68.9112
45.8637	17.0179	66.8355
46.5679	17.7819	66.4189
44.1361	16.8306	67.9673
45.0967	16.0952	67.4891
46.9594	19.4693	66.4246
46.9533	19.0705	66.3546
42.0831	16.4974	68.9998
42.892	17.6144	68.7524
27.4271	15.3494	69.3063
31.2505	18.8258	69.9609
25.5113	17.2263	68.9179
46.8646	18.4796	66.2785
44.9871	18.6624	67.6951
43.2627	18.5589	68.7094
42.7226	15.7814	68.6087
43.9882	16.2131	67.9898
45.095	16.4249	67.3718
-30.1793	19.7825	69.9563
-26.5395	17.8143	68.893
-24.4408	15.9986	68.0341
-24.4937	15.1723	67.9503
-25.1504	14.5725	68.307
-44.9801	15.3685	67.0224
-48.0266	16.8177	64.584
-48.2744	17.866	64.672
-46.6916	19.4406	66.6789
-44.2495	20.5815	68.6987
-40.4059	21.6548	70.2064
-35.3339	21.6046	70.6686
-33.1488	18.4719	70.4217
-35.9847	15.5252	70.2576
-39.0434	15.7182	69.8115
-41.4297	17.2561	69.2929
-41.7965	19.1384	69.4424
-39.2823	20.2526	70.2799
-36.1816	20.1458	70.602
-37.9762	17.8877	70.3059
-33.5573	16.5943	70.3803
-44.595	17.1227	67.4677
-29.4803	15.7392	69.6324
-28.4863	17.3554	69.4304
-42.6733	15.0503	68.3647
-33.2731	14.2911	70.3894
-45.0365	18.9701	67.6697
-39.7454	14.7182	69.6066
-28.1178	18.2912	69.3306
-27.8631	18.7441	69.2795
-29.3973	18.4192	69.7354
-27.3892	17.6424	69.1152
-37.2297	14.6688	70.092
-36.9283	14.2065	70.1431
-34.8013	14.8203	70.3634
-37.4885	15.3831	70.0825
-39.5114	15.0823	69.6931
-43.3511	19.569	68.8285
-43.3768	18.9792	68.7067
-42.72	19.9646	69.2209
-44.3521	19.7666	68.3841
-41.7104	20.6147	69.6702
-40.8418	19.897	69.8735
-39.8253	21.0554	70.2308
-42.6247	21.0926	69.5402
