1878
15.2067	-76.0587	-84.5744
20.1326	-86.3864	-82.3531
14.5884	-95.1355	-83.3104
9.73533	-85.2166	-84.3797
4.53065	-103.779	-83.9304
9.51356	-104.206	-83.6607
4.6405	-113.454	-83.7294
-0.267396	-103.576	-83.9978
4.65247	-94.0697	-84.2482
17.1092	-47.905	-94.7849
22.4003	-48.4684	-93.2488
16.6647	-56.171	-90.3306
11.3911	-47.4509	-95.7727
15.8186	-65.6892	-86.7997
21.4395	-66.7802	-85.1116
10.5267	-64.9035	-87.7572
5.20296	-64.624	-88.1805
5.5112	-55.2788	-91.7535
4.86995	-75.1888	-85.8301
-0.149184	-64.8214	-88.2062
47.744	97.4926	18.7711
53.3844	92.0101	17.4972
48.7547	101.286	5.11483
41.9808	102.106	20.1343
47.2794	70.5273	-89.4413
52.7358	67.4232	-85.202
46.9558	58.5633	-96.2357
41.44	73.1684	-93.2687
47.6326	81.3843	-80.2649
47.9267	90.8455	-68.246
42.2621	94.4457	-71.4964
48.5122	97.8462	-54.1115
53.4396	86.4531	-64.666
49.1432	102.087	-39.3783
54.8651	96.4457	-37.6247
43.3514	106.756	-40.9803
49.8457	103.575	-24.5305
49.4839	103.46	-9.57098
43.4557	108.509	-9.4353
55.2372	97.6549	-9.68005
46.3442	46.4307	-101.153
45.6851	33.8281	-104.413
40.4562	48.3144	-105.082
51.7693	44.2309	-96.8511
44.7296	21.0613	-106.247
50.0591	19.6482	-101.917
43.752	8.1388	-106.369
39.0816	22.1646	-110.069
42.4401	-4.35816	-104.943
41.0893	-17.2046	-101.474
37.1991	-4.04968	-108.568
47.2471	-5.06803	-100.78
40.2154	-29.7389	-95.7255
44.9315	-29.4325	-91.9359
39.5606	-40.6304	-89.4822
34.906	-29.1614	-99.6007
38.8882	-50.1	-83.9531
38.1014	-59.5685	-79.1951
33.684	-49.9385	-87.6043
43.4824	-50.2521	-79.7485
35.8264	-88.1564	-74.5101
34.9067	-98.1542	-75.4104
30.7508	-87.749	-77.84
36.781	-78.5052	-74.4035
40.4341	-89.1089	-70.5827
24.5536	-105.703	-80.83
24.7226	-114.577	-81.0191
19.4542	-105.02	-82.2248
24.8618	-96.5977	-80.612
29.7207	-106.601	-78.7805
37.4146	-69.1285	-75.9255
42.1019	-69.4381	-71.4868
32.4991	-68.5161	-79.5965
67.3715	70.136	-51.324
68.4053	74.0413	-39.8179
71.3369	63.4134	-45.5244
66.6225	64.0171	-61.8121
63.1002	76.0671	-56.5306
69.0998	76.2389	-28.4192
72.8411	68.4859	-23.2781
64.8493	83.5191	-32.5228
69.4085	77.1654	-17.1565
68.4597	77.8686	-6.26533
71.2209	70.5041	-1.47643
64.8201	84.77	-8.5515
56.5411	42.0039	-92.3318
57.1923	53.2176	-87.3715
60.8704	39.3751	-87.5174
55.8378	30.1495	-95.5794
57.5048	64.1709	-80.7317
57.884	73.6858	-72.0334
61.9763	60.293	-75.8208
51.9902	-5.72013	-95.8588
53.7729	6.23621	-97.1633
56.5304	-6.49314	-90.3619
50.2299	-17.7175	-92.8172
54.9011	18.0473	-97.2168
59.3732	16.7109	-92.1422
49.1383	-28.9079	-87.8507
53.2403	-28.8088	-82.7976
48.5418	-39.9217	-81.2463
47.58	-49.5512	-75.5544
51.2598	-47.8744	-71.5824
46.7811	-70.0338	-65.9489
50.7597	-72.4943	-59.582
45.7779	-80.1524	-65.1587
77.316	35.2733	-47.146
76.5505	29.326	-54.6818
75.3369	40.6349	-52.7911
58.4387	85.9509	16.8468
59.4671	89.7134	3.73456
77.9232	45.5585	-6.93177
77.2212	53.1628	-12.0611
67.0274	-7.10469	-74.6133
63.9101	-7.25287	-79.737
68.5073	2.27702	-75.9649
69.9144	-7.38201	-69.076
65.1705	-16.8819	-71.8999
69.3242	11.7636	-76.5504
66.3785	13.4836	-81.9859
70.1701	20.7974	-75.0148
72.1199	9.73791	-70.5077
70.9905	29.9633	-71.6004
67.991	33.3817	-77.2428
71.9068	38.3514	-66.0689
73.6536	26.1803	-65.6925
59.5696	-41.8055	-60.9515
56.8852	-44.1303	-64.4629
61.2782	-34.1825	-64.715
62.2593	-39.5477	-57.1851
58.0716	-49.5831	-57.3432
68.7912	-22.64	-59.912
66.89	-29.8996	-56.7532
66.1264	-24.3172	-64.0553
70.7043	-15.23	-62.1846
53.8244	-75.0902	-54.0731
55.2565	-65.9225	-54.0505
76.6275	-36.1954	-6.00991
77.1621	-32.5766	-3.81126
74.9352	-39.1523	-3.88603
77.0915	-30.819	-2.26453
81.0237	-5.51933	-3.02944
81.7926	-0.345589	-5.11014
93.2957	4.68889	-38.7196
93.4113	10.506	-36.2099
93.922	4.30462	-38.0108
83.2227	-34.5413	-26.0248
81.9693	-37.2938	-22.7543
92.9776	15.2293	-32.5784
92.0063	15.5368	-33.0782
92.2719	18.3956	-28.3611
93.863	14.5697	-32.0195
86.5842	10.5245	-11.7234
85.2472	10.5156	-12.3954
91.4882	19.7445	-24.0181
92.4231	19.0373	-23.2832
88.3966	-18.1258	-35.8582
84.5646	-35.1584	-18.6239
83.8987	-34.9743	-15.9467
82.8657	-37.2722	-19.2201
82.1972	2.19799	-6.81502
88.1297	18.0652	-19.5111
86.2506	15.0457	-16.8721
87.0619	17.204	-21.1185
83.9226	10.7967	-13.8486
83.0422	11.2297	-15.4548
91.3292	15.3809	-33.3064
82.2902	10.9517	-16.9257
83.521	12.8848	-19.5729
85.0638	14.7395	-23.1597
82.9472	12.6174	-24.3038
87.6252	-26.4818	-28.8573
87.5962	-27.9712	-21.25
81.2926	-38.4782	-19.7552
83.0901	-34.0559	-13.648
84.275	-31.1662	-13.5193
85.248	-28.8191	-14.326
85.7584	-27.2902	-15.1997
94.1114	4.01897	-37.6009
94.5093	9.62716	-35.1763
90.9527	16.4369	-15.7981
91.1414	15.8108	-15.5268
92.1498	18.0563	-18.8739
91.124	15.2125	-15.3978
92.3678	16.9065	-18.4212
90.9601	14.1399	-15.5868
94.2394	14.034	-31.663
93.6591	16.952	-27.456
94.3517	13.5429	-31.532
92.9876	18.3327	-22.8148
93.2103	17.7451	-22.7076
93.2189	17.1676	-22.446
93.8015	15.9227	-27.101
94.3084	13.1722	-31.2166
93.5678	-0.299719	-36.6312
90.7025	12.8356	-16.1592
88.1743	5.65545	-13.7986
92.6563	12.4986	-24.7104
93.0273	-3.37832	-31.5438
93.0702	-1.49623	-31.2018
92.9875	0.375187	-30.5762
92.7729	1.87714	-29.6379
92.4097	3.10448	-28.358
91.484	3.96867	-25.7842
83.6756	-23.7243	-12.8474
84.9121	-25.3528	-14.5643
86.2802	-0.921219	-10.9052
82.5656	-15.7036	-10.6744
85.8764	-26.5855	-15.6765
33.4167	26.5152	73.868
34.0733	93.9886	45.4576
35.2174	100.392	34.2294
8.18809	101.51	48.0721
8.19601	109.081	36.06
0.0871407	101.903	48.0416
35.8663	106.263	20.9581
36.4293	110.588	6.37257
8.08056	115.6	22.1745
0.0507287	116.046	22.0339
22.9358	119.62	-10.2099
30.1012	116.706	-9.78488
36.8438	113.054	-9.62546
37.1981	113.127	-25.9728
64.3035	53.2588	35.6536
72.6833	62.9955	4.01953
74.8146	61.789	-6.79857
60.218	91.6165	-9.69298
60.654	91.4813	-22.6365
8.0463	119.397	-47.4169
7.9775	113.276	-64.9043
0.137614	119.764	-47.5854
36.9799	110.897	-42.3403
36.7142	105.602	-58.969
75.3906	60.7481	-17.6714
75.2856	59.2913	-28.6273
59.909	90.4617	-35.5443
59.13	87.2444	-48.2561
74.4458	56.6416	-39.4919
73.5931	52.3077	-49.7939
72.7076	46.2656	-58.6668
69.6366	51.2839	-64.6469
44.9048	-90.9679	-65.8052
44.2673	-101.136	-67.0692
44.3755	-110.608	-68.0171
44.5934	-119.312	-69.1386
39.4896	-108.735	-72.5616
7.68414	104.292	-80.8753
7.41869	92.8314	-94.3447
0.177886	104.478	-81.2665
7.38901	80.36	-104.027
7.4272	67.2137	-111.049
0.170103	80.4729	-104.338
7.44612	54.1883	-115.945
7.30642	41.0049	-119.217
0.162029	54.3749	-116.222
7.01731	27.0411	-121.113
0.168327	27.0681	-121.439
18.9518	-1.5545	-117.307
25.1093	-2.50325	-114.949
5.87351	-26.6797	-109.912
5.77387	-38.825	-101.905
0.117559	-26.7972	-110.054
5.68066	-47.5666	-96.0276
-0.0225589	-47.786	-95.9731
4.76081	-84.7459	-84.7499
-0.239748	-84.5448	-84.8456
34.9448	75.5458	-96.7329
35.4721	87.2002	-87.2304
34.5192	62.8931	-103.714
36.0595	97.4309	-74.6011
33.9445	50.138	-108.64
33.4251	36.9659	-111.856
32.7819	23.4595	-113.577
32.1518	9.73353	-113.619
31.2984	-3.35797	-111.978
30.2477	-16.0879	-108.485
29.1188	-28.44	-103.043
28.2751	-39.7168	-96.618
28.0774	-49.2345	-90.8317
27.8338	-58.2429	-86.0774
27.0341	-67.6493	-82.7682
26.278	-77.4999	-80.9019
25.5977	-87.0102	-80.4018
34.7833	-107.492	-76.0153
35.0387	-116.386	-76.5855
58.3223	81.7518	-60.8139
65.9937	56.3204	-70.2602
65.3968	46.6494	-77.3309
64.5883	36.7404	-82.5619
63.8428	26.0301	-85.8477
63.0535	15.2689	-87.2203
62.0935	4.14504	-86.6866
60.3811	-7.11473	-85.0268
58.4876	-17.9061	-82.1539
56.7636	-27.88	-78.2374
60.0778	-27.2073	-73.2164
55.398	-37.6327	-72.9931
54.1666	-46.0277	-68.1124
56.8301	-57.7309	-54.5967
59.0067	-56.147	-51.2421
75.6891	23.0162	-60.2261
75.0272	15.6306	-63.4354
77.599	19.2779	-54.2219
72.2676	-7.40202	-64.1201
73.5333	0.448097	-64.9331
63.1267	-25.878	-68.6644
74.3199	8.32591	-65.0289
64.9881	-37.0878	-53.5138
63.3339	-44.2596	-50.4411
17.9069	-105.512	39.5621
63.442	-71.5281	1.7708
53.6662	-90.1224	3.95731
16.4051	-45.9468	93.4774
19.8438	-46.7012	91.3926
23.1279	-48.2911	88.3591
10.379	-57.2688	95.4968
10.7541	-58.3694	95.6921
11.0488	-59.5182	95.7834
27.585	-62.9407	84.2403
27.0082	-61.0945	84.2535
26.3444	-59.5437	84.3807
20.8506	-42.7602	90.6198
42.083	-51.6351	77.0922
31.4278	-32.4204	83.7297
33.3443	-36.9048	83.4507
34.8075	-41.3527	82.5004
63.3796	-38.9874	60.4346
17.7151	20.5689	73.1013
79.3283	15.6231	-47.8262
82.0507	14.4388	-28.5544
82.7283	12.5235	-26.2084
73.4513	-41.9704	-0.514688
25.3393	9.46349	72.6628
50.8775	40.7831	64.4991
9.16697	-28.4983	93.8773
47.3585	19.1649	65.769
13.1142	-27.2359	92.24
82.6219	12.3397	-25.1649
58.0075	-101.982	-43.9844
62.674	-65.5311	-39.2075
61.757	-58.8469	-44.248
61.7255	-52.9105	-47.8531
23.7412	-24.3611	85.2253
17.0464	-54.8983	90.736
29.5791	-53.2614	78.8698
9.05251	-50.9408	92.1376
-70.4595	-46.3877	11.5114
-71.0062	-41.7162	12.7089
-71.7289	-44.7013	4.60944
-69.8284	-50.8817	10.2787
-69.2531	-47.9386	19.4831
-60.0254	-117.661	-7.82136
-59.7811	-107.425	-7.33396
-61.98	-116.223	-12.2411
-60.643	-127.831	-8.92855
-57.4913	-118.891	-3.545
-61.3089	-135.163	-10.1463
-58.9628	-137.107	-5.58073
-62.9811	-133.257	-14.7663
-61.8898	-140.904	-11.3451
-54.1137	-102.323	2.70335
-57.3414	-100.995	-2.26272
-53.9651	-109.937	1.66398
-50.6531	-104.034	7.33429
-54.8638	-96.3658	3.8639
-63.0502	-98.4417	-15.4274
-61.7279	-99.1745	-11.1142
-63.2442	-92.8774	-15.0637
-63.7717	-96.9588	-20.5238
-63.0039	-105.518	-15.9041
-65.4578	-66.5681	21.4935
-66.2017	-65.288	14.1287
-63.9422	-71.122	19.3844
-64.1247	-68.2067	28.9379
-66.5413	-62.2439	23.3846
-71.6967	30.962	23.1335
-75.2832	29.6118	11.5004
-71.3959	23.4085	26.0109
-67.3957	33.6998	34.0037
-72.4505	38.9427	18.805
-78.1595	41.9399	-29.11
-79.3129	34.5173	-24.3853
-78.4093	43.5913	-18.599
-76.579	49.0243	-34.1657
-77.7149	38.9914	-38.7035
-8.34854	-113.611	35.6216
-8.22514	-109.926	37.7289
-12.0826	-113.658	34.7136
-8.88027	-121.35	34.5634
-5.31616	-113.534	36.1897
-10.2258	-132.888	32.245
-11.2994	-144.093	29.1621
-6.79111	-133.018	33.3203
-14.0209	-132.069	30.7818
-4.24253	-152.203	28.5556
-4.60486	-157.224	27.1849
-3.96701	-144.653	30.6817
-8.03398	-151.91	28.0405
-67.9222	-53.4624	-32.8755
-68.5926	-45.8187	-37.0275
-65.4077	-59.6077	-35.2145
-67.5533	-59.8608	-27.6889
-70.3319	-47.3219	-30.5965
-69.408	-40.3706	-40.0503
-72.4379	-35.7361	-36.9117
-70.23	-35.6411	-42.4768
-65.8608	-46.1895	-43.4035
-63.6616	-125.994	-30.9421
-64.2825	-129.203	-24.5534
-62.0261	-123.065	-37.6939
-63.5169	-132.557	-33.2463
-3.58417	-133.282	33.9021
-2.90017	-121.681	36.0758
-68.121	-49.4613	27.4518
-67.6653	-54.3613	26.4271
-66.8491	-50.2043	34.8756
-68.6446	-43.9586	27.8343
-66.9293	-63.7632	6.49084
-68.1127	-59.4123	7.81154
-67.4882	-63.1383	-1.39823
-65.5843	-68.0255	4.82805
-12.301	-94.165	94.5579
-12.1224	-89.6821	95.6678
-16.8315	-92.9311	92.115
-12.3746	-97.785	92.401
-8.3448	-94.7689	96.1147
-21.682	-90.7116	88.89
-21.964	-86.074	89.5975
-26.9156	-88.2174	84.2927
-21.4597	-94.6601	87.0624
-4.15074	-85.5175	98.0202
-4.44893	-90.5866	98.074
-3.69859	-80.2824	97.0443
-7.87809	-85.1569	97.1639
-12.3033	-100.341	89.5217
-8.44304	-100.995	90.9353
-16.7139	-99.2192	87.2912
-12.5116	-102.206	85.0784
-13.0082	-103.315	78.7877
-12.9721	-103.768	71.0383
-8.42197	-104.159	79.949
-14.7709	0.210135	80.0136
-12.2252	1.82959	81.5605
-14.0485	3.38491	77.7059
-17.5208	-1.05421	78.4637
-15.6652	-3.16921	82.3081
-49.7713	-28.3026	75.0182
-50.8916	-32.6465	73.9672
-43.8371	-26.5102	78.2616
-48.8938	-23.6499	75.4469
-55.6305	-29.0459	70.1217
-59.829	-18.6542	64.5583
-60.5724	-23.9043	64.0454
-54.0443	-19.1183	70.8321
-58.7856	-13.0354	64.6563
-65.1024	-17.2435	56.0271
-69.4219	1.30966	41.4014
-67.1945	3.26207	46.0262
-68.2978	8.6852	40.4828
-70.9559	0.231829	36.2978
-51.4647	-37.0011	72.3338
-45.5966	-35.5939	76.663
-56.8135	-37.7935	66.6315
-51.5351	-41.6014	70.8611
-0.853964	0.901637	96.3531
-2.78312	0.428942	95.785
-1.14341	-2.70937	100.723
-0.774063	5.12618	91.4055
-29.5019	69.6453	69.833
-30.8169	75.2642	65.3764
-34.9567	67.8227	67.0112
-27.9128	63.286	74.5764
-24.4115	70.7316	71.9287
-4.22898	-105.361	63.8124
-4.30262	-105.059	73.1762
-7.9261	-105.012	62.9665
-3.69596	-105.698	53.9071
-65.1017	-50.4428	42.1417
-65.9647	-44.3688	42.738
-64.0098	-56.7436	41.8218
-62.739	-50.1072	49.3941
-4.6234	-101.492	91.6622
-4.57532	-103.541	86.9035
-4.57641	-98.9368	94.6634
-4.46911	-104.64	80.6421
-42.1297	-88.1818	60.2545
-42.4713	-84.7146	63.6342
-46.9896	-85.0791	54.9561
-41.1582	-90.9347	57.3145
-37.0681	-90.4537	66.7489
-46.1055	-92.9128	34.9496
-41.2192	-95.6159	39.6649
-48.7188	-89.5849	39.3785
-50.46	-89.9706	29.7881
-43.2748	-96.5171	30.0079
-2.87294	-106.619	44.1501
-2.27401	-109.486	38.4735
-5.81816	-106.752	43.4506
-6.44529	-6.71983	101.753
-3.91208	-6.03371	103.449
-5.74376	-3.73069	98.2804
-9.22579	-7.70953	98.9913
-6.93229	-9.02348	104.415
-26.5749	-18.4407	81.5794
-22.685	-15.1267	82.809
-24.5303	-13.248	81.2297
-30.9441	-21.585	80.9692
-33.665	-53.1136	76.5049
-31.6688	-53.2852	76.7122
-32.2988	-52.2542	76.6578
-12.7169	-24.674	92.2
-14.6613	-24.8586	90.3903
-12.0118	-25.7014	91.7625
-14.2658	-23.2558	92.2684
-12.2481	-28.9565	90.1196
-10.1967	-28.55	91.6016
-12.094	-27.9966	90.3526
-14.8076	-28.9856	88.3164
-12.7841	-30.364	89.8898
-1.26407	-26.1784	99.2557
-3.14265	-25.9196	98.4581
-1.43919	-27.2187	97.8738
-1.30493	-25.0636	101.048
-17.6105	-28.2161	86.535
-18.195	-29.724	86.3536
-17.1396	-27.1618	86.9592
-20.1074	-26.5309	85.0343
-7.33116	-16.0687	106.819
-7.44266	-14.482	107.255
-10.085	-16.1066	103.404
-7.10419	-17.9904	105.742
-4.70839	-16.2213	109.051
-29.2012	-68.6423	82.1333
-30.3557	-72.7241	81.7558
-25.1602	-70.8289	85.8185
-27.8006	-65.0531	82.5024
-32.4617	-66.0658	79.1049
-31.2199	-47.2888	79.8309
-33.5695	-47.9308	78.5605
-28.7199	-46.6382	81.4933
-29.7187	-43.7275	81.7931
-1.93693	-31.2379	95.5248
-1.72712	-29.5346	96.12
-3.87276	-30.9079	95.0644
-2.06019	-33.1379	95.2661
-5.15199	-0.391219	94.5101
-5.07258	3.18526	90.1319
-8.02324	-1.77587	92.3951
-18.7955	-16.6881	88.5689
-19.1456	-16.1031	87.4296
-19.1181	-18.1362	87.8075
-18.0967	-16.1803	90.3749
-17.8272	-15.2342	90.4521
-5.05765	-27.6275	95.4501
-3.49632	-27.827	96.2988
-5.01839	-26.6195	96.1249
-6.65212	-27.7614	94.2904
-5.057	-29.0512	94.8901
-4.80263	-25.7577	97.2499
-4.7073	-24.7545	98.8637
-17.1747	-15.3913	92.3086
-17.7307	-16.9596	91.388
-16.8435	-14.578	92.5729
-19.1341	-20.8869	87.0479
-18.4401	-23.5996	86.9057
-18.3613	-19.7199	89.0226
-2.95006	-39.5349	95.9942
-2.56246	-37.2055	95.5301
-5.77941	-38.9441	95.5426
-3.26101	-41.3809	96.4107
-24.7624	-31.7636	83.6166
-23.2013	-27.6598	83.59
-27.2258	-31.8921	82.8045
-26.5814	-35.7434	83.5333
-22.2069	-31.8713	84.76
-11.1131	-67.9492	93.5869
-15.5269	-67.2148	91.7026
-11.3138	-70.5298	93.552
-6.8126	-68.6709	94.7549
-10.991	-66.0202	93.8133
-26.6216	-49.1731	81.8146
-26.0661	-47.6705	83.1087
-29.7869	-50.1651	78.6473
-27.21	-49.7673	80.956
-16.5703	-13.9902	92.45
-14.9737	-13.0404	94.8818
-16.6273	-13.2849	91.1605
-19.7625	-66.3955	89.1145
-19.3141	-64.5038	89.3343
-23.309	-64.9726	86.2857
-20.1448	-68.8952	89.1011
-2.85754	-69.1738	95.2973
-2.7412	-67.3545	95.5452
-3.0291	-71.5281	95.3164
-58.9001	27.0947	55.1634
-59.6895	28.2901	53.3881
-60.9474	21.6292	51.107
-57.9594	26.1082	56.8287
-39.1935	54.3069	70.1303
-39.8852	59.7333	66.8809
-45.3865	51.079	65.2121
-38.8194	49.4979	72.6268
-33.6352	56.5228	74.4372
-51.728	47.2701	59.4061
-52.7005	52.8574	55.4917
-57.5454	42.8429	52.4072
-51.1159	42.7685	62.4469
-39.4851	42.315	73.9862
-39.0495	44.7415	73.9361
-40.0021	39.6283	73.6175
-34.5641	45.1609	78.7442
-60.985	29.6571	50.3182
-64.0762	23.6319	44.5527
-56.4242	35.3157	58.0173
-61.8408	32.6785	47.476
-21.9933	34.9734	78.4565
-18.4045	33.2791	78.4823
-21.3672	37.0684	79.4732
-26.1067	35.5143	77.8006
-22.8151	32.2625	77.0022
-4.36122	12.4493	81.1985
-4.63236	10.0826	82.9559
-2.0302	13.9814	81.9657
-4.19829	14.2689	80.0634
-6.75519	10.4368	80.0587
-30.0003	-5.30454	76.0608
-23.6372	-3.72729	76.9884
-27.9918	-1.86395	74.9284
-37.8263	-6.61685	74.9699
-32.2121	-9.4275	77.4507
-59.5715	7.09078	55.6153
-57.4701	3.53975	59.5605
-57.2876	8.90494	57.2098
-59.9935	11.6424	53.4689
-61.7458	5.51387	53.7953
-4.92051	6.89161	85.9882
-2.52289	8.24376	86.8273
-7.42726	5.05704	84.8464
-40.5822	37.2595	73.1826
-40.5461	35.1136	72.8662
-35.3633	39.9743	77.2735
-45.9012	34.9063	69.7607
-50.9728	32.1816	65.919
-54.533	28.8215	62.1444
-50.4566	30.1187	66.3047
-56.2231	16.2666	57.1821
-57.6519	16.2456	55.6267
-56.1393	13.1857	57.1769
-54.6783	16.1571	58.6658
-55.5754	19.342	58.5325
-44.6289	20.2471	67.482
-42.7603	21.2798	68.9784
-46.4006	19.0568	65.7976
-40.6582	22.2602	70.2791
-38.1726	22.9613	71.3402
-40.6742	23.1662	70.6279
-43.0414	22.15	69.2396
-37.9172	23.9028	71.7172
-35.2582	23.3456	71.942
-32.1272	23.1415	72.1786
-34.8445	24.2295	72.274
-31.4669	23.9561	72.4546
-29.0253	22.374	72.1373
-26.1512	21.056	71.8628
-23.2752	19.3179	71.2286
-20.717	17.4338	70.4402
-21.8402	19.9562	71.3433
-24.8758	21.6602	72.0058
-19.2828	17.9439	70.6212
-19.0688	15.8	69.8332
-20.3604	20.4097	71.5578
-23.6372	22.4429	72.3013
-34.4304	25.2616	72.6834
-30.7695	24.9641	72.862
-50.6619	14.7101	61.7367
-49.6466	13.7362	62.5714
-30.6037	35.1422	76.8065
-31.0372	32.7893	75.7063
-30.3562	37.4656	77.7804
-35.6296	34.0264	75.0907
-47.9014	24.7814	67.3078
-46.8494	23.3501	67.6109
-44.6923	26.4722	69.7015
-48.9206	26.4506	66.974
-39.0365	6.18949	71.0194
-31.5547	5.8774	72.619
-44.9458	7.34734	68.125
-39.5455	4.70151	71.0427
-25.1559	6.65608	72.5061
-25.1172	5.2317	72.7934
-20.8973	7.62552	71.9625
-16.5167	10.6372	71.1596
-17.4942	9.57142	71.441
-15.9788	11.4835	70.9414
-38.2437	9.11311	70.9728
-31.8867	8.79101	72.3115
-43.4793	10.4306	68.3831
-20.073	10.8348	70.4183
-19.1008	11.3362	70.0801
-22.0442	10.1308	71.0302
-18.3298	11.7609	69.9458
-17.6336	12.3416	69.9091
-12.0719	19.2853	73.5461
-10.8933	21.3892	74.8688
-14.0683	21.7938	73.638
-13.4502	17.1842	72.0859
-15.4818	12.9003	70.828
-27.0423	23.9519	72.7252
-14.474	16.4035	71.3364
-15.9345	18.3797	71.3923
-13.9205	14.7607	71.478
-38.1211	10.3701	70.9469
-31.8571	10.027	72.2058
-20.2677	11.7022	69.8536
-22.1086	11.3102	70.4985
-19.3305	11.9223	69.6434
-18.7901	12.261	69.4667
-47.7762	17.8802	64.2087
-1.5516	30.4417	81.1198
-2.59493	34.3433	82.0386
-3.64653	30.22	80.7541
-0.884503	26.8188	80.3862
-18.056	3.01462	74.8134
-21.2743	1.91804	74.3404
-18.8499	0.873483	75.9783
-15.8606	4.154	75.3739
-17.7078	4.59994	73.974
-13.5383	5.53049	76.2885
-11.2408	7.09527	77.4717
-13.586	10.005	73.2048
-13.7164	11.59	72.3443
-11.5666	10.6509	74.5472
-7.43314	17.5462	76.2104
-6.68031	18.5765	76.8294
-8.51353	20.0623	75.8021
-18.6576	8.57163	71.7032
-18.041	7.43704	72.3976
-17.6604	6.06828	73.1665
-20.4974	4.93069	73.0195
-22.7637	-52.132	81.0038
-19.0255	-51.8425	84.2401
-26.4137	-51.8981	78.1167
-22.6763	-52.0543	80.7687
-28.3965	-51.9379	76.9291
-28.0419	-51.8592	76.9352
-3.52574	-44.9471	96.6049
-3.39817	-46.4605	96.3457
-3.47482	-43.5599	96.6895
-6.8127	-44.4756	95.9464
-9.4232	-47.6069	94.2023
-12.2115	-47.8985	92.8961
-9.12872	-48.9477	93.5288
-6.65823	-47.4825	95.1783
-9.49248	-46.1339	94.7538
-15.2249	-48.1025	91.0967
-18.5868	-48.7731	88.4935
-15.1684	-49.4013	90.1691
-15.2342	-46.9166	91.7398
-9.43774	-44.5829	95.1354
-9.32784	-43.1945	95.3432
-12.0625	-45.2128	93.9512
-13.8966	-43.5776	93.1444
-14.7432	-44.6562	92.6508
-11.0611	-42.7495	94.6387
-13.3718	-42.4332	93.3483
-22.1409	-50.3666	84.4481
-21.9295	-49.0695	85.9031
-8.45681	-50.1672	92.7314
-11.8475	-50.3047	91.1149
-8.01508	-50.71	92.1257
-5.534	-50.0508	93.7842
-15.4952	-50.6174	88.684
-15.4665	-51.2554	87.6787
-29.1701	-50.8102	78.427
-30.635	-52.0142	76.871
-23.0845	-53.1107	81.5234
-23.1263	-53.324	81.8886
-19.2007	-53.3066	85.2334
-23.0341	-53.0404	81.2543
-23.6702	-54.6352	82.6798
-20.2746	-55.7166	86.8603
-23.4598	-54.1475	82.4971
-17.0625	-56.2637	89.9266
-17.5633	-57.1369	89.9604
-13.359	-56.8357	92.6659
-16.7539	-55.4017	89.6274
-8.4627	-54.7748	93.9348
-5.13969	-54.9065	95.025
-8.19825	-53.4849	93.1724
-12.4587	-54.5569	91.8741
-8.84467	-56.177	94.5475
-2.59921	-58.0934	96.6866
-2.4387	-56.6886	96.2655
-5.55662	-57.7122	96.1178
-2.72939	-59.3727	96.9193
-28.7606	-53.4255	76.3699
-28.5847	-52.8105	76.8858
-26.6781	-53.456	77.8967
-28.7505	-54.9347	75.9448
-2.00551	-53.3961	91.1667
-1.97804	-52.7004	92.2376
-1.98611	-54.8241	90.138
-4.68678	-53.4624	90.593
-2.77262	-60.6055	97.0015
-5.92387	-60.0993	96.4583
-2.80707	-61.7567	96.9355
-2.7537	-65.6506	95.9529
-2.80669	-64.1072	96.4073
-6.25867	-65.0326	95.5051
-9.00189	-42.2131	95.4017
-6.59558	-41.9389	96.0453
-8.25008	-40.8271	95.4403
-2.34122	-55.1237	95.6034
-2.167	-53.7026	94.819
-2.04056	-52.9632	94.2235
-2.08417	-52.6368	93.7187
-4.7539	-52.8717	93.7029
-8.02741	-52.847	92.6317
-7.93526	-52.6028	92.2037
-11.8469	-52.9214	90.7289
-2.10486	-52.5205	93.0867
-4.66824	-52.5032	92.5732
-15.6263	-53.0348	88.1588
-15.9041	-53.4927	88.6016
-15.5356	-52.8513	87.7042
-18.4287	-60.1437	89.9488
-18.7164	-61.2911	89.758
-14.8452	-60.9548	92.5311
-18.1876	-59.1167	90.0227
-10.3583	-61.6017	94.887
-10.6292	-62.7817	94.5584
-6.08262	-62.2491	96.2597
-10.0653	-60.6042	95.0986
-2.80959	-62.8761	96.7367
-15.4255	-51.4198	87.0358
-15.3183	-51.3329	86.4596
-11.669	-51.0919	89.5702
-28.5268	-52.5482	77.4544
-26.621	-52.9461	78.927
-8.03968	-53.5415	89.5129
-7.86606	-52.8182	90.5729
-8.25286	-54.8162	88.6063
-11.8119	-53.5517	87.8386
-7.84872	-52.5489	91.5418
-11.6148	-52.6663	89.63
-10.7688	-64.285	94.1924
-15.2328	-63.5921	92.0693
-17.8519	-58.1195	90.065
-14.2854	-58.8513	92.7246
-18.989	-62.8029	89.5529
-22.1615	-61.4279	86.7749
-15.0016	-50.961	86.0732
-18.2762	-51.3267	83.797
-14.3743	-49.5966	85.3199
-11.6284	-50.528	87.9278
-8.12612	-50.3071	89.4525
-7.92226	-50.7938	90.5537
-8.6436	-48.8978	87.7966
-5.25706	-50.0865	90.1255
-13.654	-46.6662	84.2257
-16.3904	-47.0125	82.7683
-13.219	-42.9546	83.2559
-11.033	-46.3081	85.3708
-28.511	-58.5217	76.0011
-26.4007	-58.4965	77.7654
-27.697	-62.775	77.1074
-1.86122	-58.0311	89.2935
-2.14398	-62.291	89.2482
-4.5522	-57.9487	88.8552
-8.48174	-46.0158	86.221
-7.98136	-42.2783	85.1089
-5.79376	-45.7481	86.8616
-8.04734	-57.8492	87.8989
-8.18618	-62.2221	87.699
-11.9098	-57.839	86.3944
-31.7815	-53.4582	71.5628
-31.736	-53.9881	71.6321
-9.16633	11.7197	76.2146
-8.86356	10.3141	77.532
-80.8101	-8.46748	-43.7748
-82.2941	-8.9639	-42.0609
-81.4062	-3.87857	-43.7626
-78.9768	-7.86331	-47.1097
-80.1149	-12.8648	-43.0329
-79.9005	9.601	-6.86504
-78.8158	11.5966	-2.05654
-80.3354	12.52	-11.0358
-80.4887	14.6975	-16.1814
-81.1736	14.3729	-23.1189
-80.9652	9.76338	-17.2355
-80.1876	20.1356	-17.4366
-74.995	-32.7292	-34.5887
-76.1356	-28.8416	-36.3949
-74.0127	-36.9016	-32.0283
-77.3784	-30.4412	-32.9497
-77.1161	-25.1881	-38.4488
-79.3453	-23.9896	-36.5871
-78.2192	-21.2237	-40.2576
-74.5543	-27.1993	-41.3027
-83.7693	-8.91667	-41.1647
-84.1107	-3.92739	-41.3501
-83.1979	-13.0695	-40.2615
-85.3011	-8.41333	-40.7944
-83.9437	-25.2231	-33.4112
-84.9723	-26.3347	-32.3057
-82.6213	-23.6498	-34.8316
-85.7433	-27.1324	-31.2721
-86.851	-23.1114	-33.3342
-84.5611	-31.1036	-28.7737
-86.444	-27.5691	-30.0593
-90.1839	-17.3851	-31.371
-91.5155	-12.8928	-34.4734
-90.1603	-16.8212	-30.5997
-79.3469	-39.5528	-20.6417
-79.7297	-37.9317	-23.6522
-78.4824	-38.7095	-22.7073
-78.8733	-40.1864	-18.6315
-79.8094	-39.7734	-19.9461
-80.7919	-32.146	-8.43241
-80.4924	-32.692	-8.4117
-79.8769	-33.8778	-8.67494
-90.0961	-16.4474	-30.193
-89.5754	-17.0382	-29.2455
-92.9681	-1.90558	-34.0141
-93.0512	-1.24703	-35.5241
-92.8376	-3.23126	-32.3699
-93.1764	8.2584	-31.5767
-93.4482	9.61115	-31.6873
-93.5591	11.6878	-30.6643
-93.1701	13.7175	-27.5979
-93.7457	12.1541	-31.0598
-92.9596	11.4728	-28.4657
-82.9765	-9.58949	-8.65759
-84.2706	-4.19604	-9.23392
-82.0188	-13.581	-8.08368
-82.4251	-8.86826	-7.34168
-77.5825	-25.3538	-1.70291
-78.0811	-21.1447	-1.20052
-77.1024	-29.0323	-2.1745
-76.553	-25.7801	1.01998
-81.6855	-20.5703	-10.6213
-81.6688	-18.6316	-10.7535
-82.0413	-22.5731	-11.1299
-80.9654	9.24735	-17.245
-80.9988	9.242	-17.0358
-81.3928	10.5695	-20.6879
-89.2089	16.8012	-17.7494
-90.2379	18.5225	-20.8496
-89.9916	16.0922	-16.7666
-87.7186	13.6742	-14.835
-88.3538	17.2096	-18.9133
-89.8208	19.2273	-25.846
-88.9857	18.9515	-22.8657
-89.0179	18.1955	-27.1998
-90.3623	18.0011	-29.4835
-90.1182	19.3621	-25.3548
-90.8385	4.01828	-40.0446
-91.9007	4.26083	-39.509
-91.1341	9.97146	-37.2041
-90.0411	3.55411	-40.2262
-85.2265	0.365729	-9.81498
-85.5282	-0.857247	-10.4707
-93.6441	3.4061	-36.9944
-94.0675	8.51224	-34.7677
-93.6986	3.30635	-37.3598
-93.3352	0.611457	-37.176
-92.5905	14.5615	-23.6565
-91.5929	13.9652	-19.6969
-92.679	15.5377	-23.0496
-92.3877	13.2153	-24.3855
-86.7501	1.17755	-12.5753
-87.3226	3.49118	-13.2873
-86.184	-0.577881	-12.0051
-93.1564	4.07677	-34.2958
-93.2756	2.0424	-36.1406
-84.8655	-5.51372	-13.7914
-85.3644	-3.92324	-12.7048
-85.0324	-5.23558	-14.4928
-89.861	-4.58951	-27.675
-91.9029	-1.95982	-29.5773
-89.7485	-5.67942	-27.831
-89.5871	-4.14826	-27.0531
-78.5973	-17.2765	-1.21793
-77.6942	-17.5038	1.30473
-79.3587	-12.8005	-2.03437
-84.3156	1.30307	-39.8868
-85.288	3.79026	-38.9473
-84.1504	5.9408	-37.7712
-83.1778	0.732351	-41.0232
-87.6289	8.74345	-36.2675
-87.8025	4.69653	-39.1576
-89.9594	13.3804	-34.3587
-87.3461	12.4824	-33.0676
-88.9798	2.58332	-40.1987
-87.8423	-2.93322	-40.9887
-87.4439	-7.93363	-40.6182
-81.0983	-23.3521	-35.7245
-81.93	-20.1286	-37.4009
-80.1238	-26.4649	-33.9137
-82.6009	-16.7488	-38.98
-80.9365	-16.9812	-40.0118
-88.9878	-16.9738	-28.2317
-79.1357	-29.3744	-32.2135
-78.046	-32.9859	-29.8895
-78.5994	-39.8091	-15.8166
-78.0887	-40.0647	-15.6477
-77.5338	-40.2609	-15.3429
-77.4441	-40.0878	-20.733
-89.9702	-6.41985	-28.306
-91.9464	-5.0441	-30.4845
-81.7946	-8.27999	-6.24181
-81.0252	-7.89118	-5.01312
-79.4951	-21.5893	-4.7194
-79.84	-21.7554	-5.38407
-82.6418	-26.0172	-10.8489
-82.8184	-24.9459	-11.7018
-83.6984	-28.0176	-12.3733
-81.4185	-16.5327	-7.59194
-81.9063	-16.6751	-9.78154
-86.9956	14.2663	-29.8859
-85.993	14.8505	-26.5681
-84.6592	10.6112	-32.6935
-83.7541	9.08625	-34.4797
-83.0553	11.1788	-30.2404
-83.3356	8.79834	-35.5659
-92.364	5.21251	-29.2678
-92.187	3.70745	-28.9296
-85.4829	-4.52987	-15.9236
-86.5254	-3.29537	-18.5675
-89.5443	-3.31579	-26.5533
-88.9521	-3.26758	-25.1793
-91.3103	0.275207	-27.7454
-7.36208	86.2746	64.9434
-7.82273	93.5206	57.7551
-14.7397	85.3208	64.4832
-7.01266	79.1222	70.5691
-6.40624	72.0126	75.1218
-13.2764	71.7972	74.4183
-5.88959	64.305	79.0215
-27.8327	57.7996	77.4633
-22.2949	58.2891	79.3298
-28.0457	53.3374	79.6109
-1.25921	-23.7927	103.301
-3.34124	-23.7654	101.979
-1.54646	-22.3355	105.359
-2.25565	-13.0542	110.647
-2.26806	-14.5821	110.726
-2.27503	-11.5397	110.083
-4.73348	-13.1044	109.491
-2.21843	-16.3421	110.29
-2.09971	-18.2669	109.266
-1.60505	-28.2795	96.8798
-2.23683	-35.2798	95.2904
-4.58237	-34.8769	94.9359
-1.86474	-20.3476	107.543
-4.19972	-20.3304	106.147
-2.15739	-10.0112	109.073
-2.01449	-8.14596	107.254
-4.56619	-10.2234	108.008
-5.61329	46.7184	83.579
-5.75653	50.9458	83.2143
-11.1555	48.1	83.0158
-5.42458	43.2598	83.4259
-0.0593036	14.7806	82.3065
0.0798768	16.8744	81.2076
-0.359556	12.2894	84.1011
0.0388376	18.9754	80.4832
-0.0376224	21.1553	80.1154
-1.83649	17.9692	80.1724
-2.39351	-49.8983	90.4603
-2.06617	-50.7511	92.0606
-2.73957	-48.3934	88.9547
-2.07133	-50.9282	93.1029
-2.18332	-50.7751	93.6703
-4.65534	-50.8816	92.551
-3.32522	-47.7802	95.9063
-3.09993	-49.0205	95.2768
-2.61324	-50.0696	94.5089
-3.47218	-42.5456	96.6095
-2.73619	-45.5392	87.3137
-2.39445	-41.8731	86.0018
-20.8704	84.1505	63.6308
-21.7974	90.7819	56.8109
-26.5655	82.5299	62.3962
-20.0711	77.815	68.8845
-16.7734	49.8114	82.5166
-16.8788	52.3768	82.2534
-22.3186	50.8013	81.6452
-16.8983	46.2708	82.4395
-18.0724	43.8783	81.9332
-19.8258	41.1446	81.0794
-23.4333	44.6376	81.1306
-20.7757	39.1146	80.3221
-25.0976	39.7327	79.6158
-16.5593	37.2961	80.5498
-25.9271	24.8789	73.1695
-30.0389	26.0649	73.3195
-22.1983	23.3147	72.7518
-25.1104	26.5617	73.9587
-28.0519	23.0896	72.3823
-23.9337	28.8385	75.1742
-20.2766	27.2969	75.0076
-27.9673	29.7921	74.9939
-45.5069	86.3747	40.4371
-44.6659	80.7282	47.8309
-39.8671	90.0787	43.1155
-46.8414	91.7374	30.3402
-31.8408	80.8036	60.4506
-37.4822	78.4905	57.6322
-33.0381	86.6313	54.0718
-28.0785	51.0737	80.2477
-33.6303	49.2794	78.9261
-28.2086	47.5747	80.5054
-30.1964	39.9877	78.75
-29.5562	42.334	79.5541
-28.7057	45.022	80.2137
-31.8267	29.9785	74.5786
-36.4779	28.9639	73.3827
-33.1554	27.8862	73.6554
-43.5709	75.6101	53.6163
-42.3804	70.5381	58.5001
-49.7622	72.4739	48.3498
-38.8753	46.7314	73.5558
-44.4624	43.8234	69.2279
-40.9881	24.9454	71.1137
-43.9519	23.7623	69.4484
-37.6281	25.8673	72.4059
-40.843	26.2169	71.4645
-40.7913	32.754	72.4978
-45.6993	30.5574	69.7197
-40.6786	30.2865	72.1331
-40.7565	27.9115	71.786
-41.032	65.2724	62.8964
-47.5031	62.052	57.6577
-55.5528	69.8365	41.5321
-60.6171	67.6132	33.4253
-54.6641	64.395	46.6779
-45.0243	20.9685	67.6523
-46.8144	19.6484	65.8959
-46.3559	22.3405	67.5467
-48.124	20.8786	65.7773
-45.515	21.6359	67.7275
-49.7869	28.2815	66.6508
-52.5865	25.5143	63.6515
-15.3568	30.4669	77.7896
-14.3538	32.4569	79.0578
-16.1423	27.9346	76.2458
-12.7456	27.1363	76.8239
-12.9474	34.2006	80.1103
-10.5848	30.7246	79.2718
-16.8712	24.6304	74.2598
-17.9439	22.619	72.9588
-4.5631	39.3282	82.9149
-67.6967	-64.1973	-9.04429
-67.7598	-64.6911	-15.4634
-69.0968	-58.8137	-7.26877
-79.6932	23.1737	-37.5993
-80.8845	17.4594	-32.4854
-80.0078	25.387	-29.4917
-78.5685	28.8295	-42.2923
-79.4794	19.3357	-43.2747
-76.5641	-7.5601	-52.9444
-77.4768	-1.73607	-52.9587
-74.3261	-7.71713	-58.5269
-75.6431	-13.5543	-51.4514
-78.049	4.45982	-52.5661
-80.1026	2.37893	-46.3583
-78.5975	9.96438	-50.6957
-76.0497	6.23368	-59.0053
-71.1595	-30.8816	-45.3909
-72.7579	-25.1207	-47.7924
-68.0524	-34.2913	-49.2551
-6.12394	57.2612	81.6638
-11.6958	57.6209	81.2024
-17.0769	58.0829	80.377
-18.2451	64.7744	77.2877
-22.9878	-101.998	55.76
-16.8022	-103.398	59.6701
-29.7897	-99.9675	49.9292
-20.829	-103.795	47.1343
-50.607	-86.5715	43.1425
-51.4453	-83.9521	46.6779
-55.0474	-82.7617	37.8215
-45.1424	-90.4759	48.3271
-53.7919	58.5926	51.1124
-59.3378	55.2162	43.6043
-19.1157	71.4766	73.318
-65.5189	65.4154	23.7901
-65.1775	58.7097	29.4721
-69.5797	63.562	13.8213
-22.4676	98.3972	47.1399
-15.7586	100.122	47.7297
-22.8638	105.665	35.4141
-28.5414	96.0226	46.4376
-62.866	37.7745	43.5058
-63.6476	44.7988	39.3047
-49.5785	19.2814	63.9482
-57.041	25.018	58.1468
-55.8394	23.8192	59.5166
-58.2656	20.4111	55.3601
-54.5421	22.681	60.7491
-2.35613	-113.575	36.4984
-61.2595	-71.1974	37.4829
-60.1984	-75.4093	34.2087
-56.6591	-75.9829	44.8117
-62.012	-67.0975	39.9174
-7.60487	-39.0296	95.1581
-6.87542	-36.954	94.8384
-9.47703	-39.441	94.6375
-25.3908	-45.5268	84.145
-22.5812	-43.7653	86.9201
-24.3688	-41.8712	85.44
-10.4239	-35.9879	93.1304
-9.47449	-33.7629	92.9435
-13.3317	-36.6613	91.6825
-11.3892	-38.0989	93.3094
-7.83307	-35.2934	94.1279
-35.3873	-48.4647	77.8232
-34.3843	-45.1494	79.304
-37.5484	-49.7321	76.6427
-35.4524	-51.5967	76.6107
-63.0424	15.6357	48.256
-64.6772	16.0208	45.2046
-64.2918	9.73982	48.1696
-61.2342	15.7415	51.0391
-66.4383	16.6267	41.3196
-68.7206	16.5641	35.804
-53.0663	16.0917	60.0746
-53.2715	14.1722	59.6455
-59.5826	15.8744	53.3367
-82.1318	9.49102	-37.5741
-82.1898	11.9844	-33.6154
-80.7118	11.5233	-41.6058
-82.0496	5.76897	-40.7678
-79.1178	-17.2278	-41.9428
-77.0495	-17.771	-45.0882
-71.4123	-51.1551	-17.6358
-71.9043	-47.8573	-23.4765
-69.5052	-56.8999	-20.127
-70.9191	-53.0632	-11.458
-73.1248	-46.7492	-15.3253
-81.8084	1.12052	-42.783
-75.4672	-26.6113	4.1651
-74.226	-27.4227	8.52037
-76.1014	-22.3352	4.49835
-74.8397	-30.6856	3.61276
-72.7665	-0.786288	28.7141
-74.5551	-1.92083	19.98
-72.5532	-8.33916	29.932
-72.4847	7.32918	27.4853
-55.6742	10.16	58.2515
-54.1753	7.61417	60.6602
-54.2544	11.398	59.1228
-53.1348	12.3854	59.8836
-51.8807	10.9279	61.3643
-72.7889	-27.838	14.8374
-73.6392	-22.7618	14.8645
-72.1373	-32.5186	14.1921
-71.5306	-28.0808	21.6932
-23.0298	-9.7597	80.6318
-19.7354	-8.23062	82.2125
-21.6812	-6.0575	79.3334
-27.3278	-11.4308	79.5235
-34.1489	-14.2226	78.6742
-35.6649	-19.1712	79.6675
-41.3572	-16.4252	77.4039
-16.5475	-6.6738	84.4655
-17.0238	-9.5814	86.3846
-13.6488	-5.06606	87.1137
-20.2419	-14.8021	85.3249
-18.6911	-13.1939	86.5435
-16.3907	-17.6813	93.7654
-17.223	-18.3427	92.0789
-16.1404	-19.5626	93.1534
-15.0279	-17.0145	96.0165
-17.8134	-18.9752	90.5731
-17.4214	-21.1542	90.0061
-39.3438	-33.9327	79.3437
-38.3851	-29.3438	80.032
-40.2777	-38.7975	78.4178
-34.067	-32.9033	81.0613
-36.8792	-24.1881	80.0459
-5.31304	-30.9054	94.5359
-6.82216	-31.1167	93.81
-5.67798	-32.9179	94.4426
-59.5784	-49.276	56.7808
-58.2385	-55.3425	56.0393
-55.6546	-48.0001	63.661
-60.5336	-43.4724	58.0429
-28.3514	-39.6969	82.8825
-30.7771	-40.3811	81.8118
-25.8728	-39.0059	84.2547
-40.9147	-43.429	77.0159
-36.5359	-42.1548	79.2224
-45.8818	-45.0197	73.9826
-41.0087	-47.8841	75.8238
-6.20895	-34.8858	94.5796
-56.556	-61.9459	55.5505
-53.8366	-67.7799	56.8971
-53.0178	-58.9232	62.41
-59.5623	-63.4228	48.7794
-61.276	-28.6112	62.4917
-65.5255	-28.0422	53.7995
-61.551	-33.2643	60.9446
-31.7648	-92.4924	74.0701
-26.0421	-94.9706	80.2718
-32.2024	-89.4703	76.4905
-42.3515	-80.728	66.7613
-37.4792	-83.5148	72.2377
-41.1524	-76.152	70.4045
-46.4846	-77.1487	62.8387
-57.4216	-7.2714	64.3176
-51.6394	-8.02861	69.397
-55.4334	-2.15786	64.159
-49.3197	9.13119	64.3053
-50.1648	7.31911	64.3054
-53.8598	1.08858	64.1175
-52.2119	3.52431	64.3534
-48.8077	-0.170787	68.296
-47.3133	12.1838	64.9987
-4.58269	-95.2699	96.8883
-49.074	-56.2224	67.9783
-44.7246	-53.8476	72.2547
-50.196	-51.5184	68.4841
-47.2819	-60.5682	68.3744
-39.5279	-71.7329	73.2454
-35.7291	-74.5434	76.711
-37.1602	-67.3826	75.6951
-42.4644	-68.3357	71.0128
-45.5655	-7.67307	72.6351
-44.0613	-3.51555	71.805
-46.9428	-12.7481	73.8678
-51.1623	-46.5187	69.3332
-47.913	-18.3497	74.8971
-12.0488	-84.4043	95.5841
-16.8023	-82.9835	93.0667
-11.8157	-78.8918	94.7142
-21.8393	-81.385	89.7036
-21.3722	-76.6672	89.457
-26.617	-79.4333	85.6732
-42.6177	-0.747795	71.3395
-34.5916	-0.498217	73.3532
-41.3731	1.35653	71.155
-51.1145	5.51746	64.3206
-46.6736	3.9809	68.0512
-40.434	3.14226	71.0295
-32.4041	2.90436	72.8517
-10.8138	-3.4634	90.006
-10.2941	-0.0420306	86.6124
-11.4746	-6.52878	92.8877
-12.5964	-12.0495	98.8543
-12.8954	-12.9469	99.174
-9.94554	-11.1595	102.769
-12.3897	-10.8897	97.6479
-8.99529	8.66939	78.7787
-9.37085	6.42446	80.5389
-20.1299	-2.49002	77.7367
-0.631232	9.01789	87.163
-64.3352	4.12812	50.848
-9.83278	3.28433	83.3804
-62.6449	-62.8848	41.7125
-65.6869	-60.059	32.9538
-68.9121	-15.8417	46.6267
-70.7602	-15.0986	38.1273
-68.6183	-22.1027	45.796
-66.7871	-38.6321	43.3131
-68.1567	-38.6577	35.7767
-64.5743	-38.5973	51.2847
-67.5164	-33.1714	44.0251
-68.1628	-27.6561	44.8299
-69.5983	-27.7941	36.4946
-21.1951	-97.4484	84.553
-11.5677	-74.2965	93.9286
-16.023	-73.4302	91.9878
-7.29835	-75.0116	95.1976
-20.6706	-72.4856	89.2569
-26.035	10.5948	71.6677
-26.8887	0.454164	74.0206
-26.0472	2.30176	73.4895
-25.5229	3.78436	73.07
-3.36794	-75.3495	95.8776
-3.60033	22.7562	79.1613
-3.33163	19.4776	79.1521
-2.07244	23.5059	79.7232
-4.4325	26.0529	79.4947
-4.89285	21.4796	78.4002
-17.0071	13.1927	69.985
-16.9516	14.4589	69.9777
-13.7614	13.073	71.8111
-5.8845	19.9278	77.6228
-7.03752	23.2204	77.6429
-0.426449	23.8959	80.0596
-5.19227	-23.5247	100.574
-5.80287	-22.1472	102.168
-7.39873	-13.1734	107.279
-10.2202	-13.3147	103.776
-7.40621	-11.8827	106.756
-16.9502	-25.6391	87.5977
-14.3717	-27.0285	89.0937
-16.524	-24.5307	88.6757
-7.13535	-10.6196	106.056
-3.90041	16.1111	79.4327
-5.57721	29.735	80.2216
-7.25729	28.6946	79.4398
-17.5557	16.0152	70.1236
-8.74085	27.204	78.3502
-9.72786	25.2581	77.1045
-10.3798	23.4544	76.0267
-19.6446	-32.1756	86.1394
-21.187	-35.1783	86.1758
-16.5895	-32.3794	88.0124
-23.1056	-38.5244	85.7565
-19.8913	-37.7929	87.7891
-27.1674	-51.4918	77.2091
-24.9023	-51.6642	78.7873
-26.8929	-50.4507	76.7957
-27.4211	-50.1969	80.3642
-24.6858	-49.5001	83.345
-26.1705	-47.6762	76.2277
-24.8838	-44.56	76.2173
-22.5946	-47.6009	78.7801
-13.8205	-32.3924	89.7999
-15.027	-34.749	89.8825
-11.1742	-32.0963	91.4348
-16.7393	-37.3211	89.6871
-18.1645	-39.7526	89.5662
-21.9288	-51.7293	81.0221
-20.362	-50.3198	81.4285
-19.3155	-47.3453	80.9544
-18.8405	-43.7056	80.1864
-8.83814	-31.5713	92.8049
-8.41952	-29.6899	92.798
-12.5729	-40.5574	93.3183
-16.167	-41.4592	91.3796
-16.9927	-11.5984	88.4277
-14.6228	-10.4426	91.8199
-1.66202	-5.65731	104.357
-11.9525	-8.99478	95.6342
-6.54257	-20.0512	104.234
-9.02394	-20.0198	101.292
-11.7361	-20.2139	97.933
-14.0838	-20.6989	94.8068
-12.5053	-18.2815	98.6941
-15.4556	-21.4279	92.647
-16.1134	-22.4027	91.0174
-16.3456	-23.4795	89.7263
-12.934	-13.8314	99.565
-12.8982	-14.966	99.7159
-12.8364	-16.4999	99.3647
-41.1098	-145.363	13.1237
-39.8306	-137.439	14.3798
-45.3506	-143.782	9.96977
-42.0873	-151.154	12.2285
-36.4016	-146.784	16.1891
-38.5296	-126.411	16.0187
-33.9345	-127.768	19.3798
-37.9181	-116.672	17.6614
-42.8037	-124.896	12.5917
-40.8846	-100.532	25.3325
-39.5446	-104.852	21.5601
-36.3247	-102.56	29.0415
-45.2654	-98.2341	21.0849
-38.457	-109.909	19.2801
-42.7468	-108.104	15.5909
-33.7598	-111.542	22.947
-45.2809	-64.6931	69.1704
-41.8465	-61.0386	72.7757
-48.193	-68.573	64.6342
-50.7594	-72.7908	58.9747
-51.8177	-76.9386	54.2449
-52.0305	-80.6491	50.1829
-38.9344	-58.0094	74.796
-37.1125	-60.691	75.6031
-36.4297	-55.3612	75.8141
-39.946	-55.0443	74.645
-34.9101	-53.9711	76.2668
-33.8457	-55.6216	76.4748
-49.216	-95.7561	16.5475
-52.837	-93.2876	11.2158
-47.892	-100.446	13.5241
-51.2476	-91.5654	19.9166
-53.8376	-87.3852	24.1814
-56.3796	-83.3859	27.9859
-56.5991	-84.8432	17.555
-58.5742	-79.4027	31.3533
-60.8938	-76.9566	24.0437
-46.7996	-123.161	9.01099
-47.9322	-134.218	7.72526
-46.3367	-113.344	10.2679
-50.5797	-121.719	5.18782
-49.1471	-142.229	6.66713
-52.675	-140.664	3.04613
-50.3506	-148.201	5.68264
-46.7735	-106.086	11.6436
-70.5589	-27.943	28.8959
-71.3756	-22.1461	29.3661
-69.8191	-33.2225	28.5728
-62.3084	-75.0905	17.1103
-63.3005	-73.4158	9.98477
-60.518	-78.8111	14.0928
-71.7261	15.9448	27.1383
-74.8047	14.0629	16.4813
-67.2089	-58.3519	25.0288
-68.1862	-56.6541	17.1726
-69.1675	-38.6002	28.3519
-70.2166	-38.1231	20.8169
-72.0929	-15.2245	30.1944
-73.2897	-16.2193	22.1332
-71.5122	-37.2164	13.6643
-72.9779	-35.9309	7.19837
-60.4203	-88.9905	-4.79442
-58.3265	-89.9348	0.176365
-61.0054	-84.3429	-3.24883
-62.1774	-88.3349	-9.60672
-60.0278	-94.1924	-6.00472
-59.7736	-99.9728	-6.69686
-61.8891	-79.9319	-1.03463
-62.948	-75.8791	1.04657
-63.2869	-79.0687	-6.7107
-60.3693	-81.0926	4.60366
-76.227	-2.80167	11.4645
-75.3852	-10.5207	13.7988
-76.7653	4.92078	8.90144
-77.1951	13.1084	5.94739
-77.4746	20.8845	3.39008
-77.7302	28.8369	0.197646
-77.9652	36.7678	-3.47427
-79.2348	28.1158	-10.3976
-69.0469	-55.1954	9.11045
-69.8633	-54.2051	1.29248
-74.5059	-16.9836	14.8721
-75.7232	-17.6752	8.67389
-54.2301	-120.164	0.932426
-55.0606	-131.124	-0.0812784
-58.7379	-82.7607	10.9974
-57.0762	-86.8811	7.98773
-55.9979	-138.972	-1.04985
-57.0528	-144.73	-2.2143
-63.2063	-115.052	-16.5056
-63.6063	-124.476	-17.8458
-63.5462	-87.6443	-14.3716
-63.9926	-82.8095	-13.4513
-64.3931	-85.7471	-19.3924
-64.6502	-77.9835	-12.2214
-63.9803	-131.462	-19.3751
-64.2793	-136.941	-21.3945
-70.3919	-53.9958	-5.74515
-74.2124	-34.6611	2.82034
-73.7297	-38.3135	1.38025
-75.4426	-32.9741	-0.351197
-76.7075	-17.8002	4.60347
-63.5397	-93.5747	-27.3418
-63.9676	-87.0983	-26.2669
-62.0707	-89.1389	-34.2036
-64.7204	-80.9713	-25.3444
-63.9966	-74.3356	-31.4676
-67.7878	-63.3993	-21.9351
-74.2632	-44.1701	-14.0655
-75.5992	-41.6775	-20.5343
-59.23	-120.08	-45.3016
-59.207	-111.852	-43.7928
-55.8537	-117.235	-52.351
-59.3048	-127.742	-46.7317
-72.8413	-42.9044	-28.1937
-75.1549	-39.1916	-26.5355
-76.784	-37.4837	-25.8571
-77.7034	-36.7652	-25.6651
-31.4826	-147.972	19.0235
-32.5673	-153.604	17.7718
-26.5092	-149.055	21.5592
-30.3036	-140.087	20.5832
-28.2955	-112.84	26.7404
-29.3838	-108.604	28.879
-27.919	-119.078	24.8742
-22.422	-113.584	30.2636
-35.8497	-97.934	44.7748
-38.1128	-95.4954	49.8311
-33.298	-100.732	38.8114
-30.9473	-104.41	32.955
-25.038	-105.744	36.6653
-28.8555	-128.738	22.7888
-23.6427	-130.025	25.9108
-35.1684	-63.6436	76.9244
-33.4721	-60.0019	77.323
-39.8026	-93.3546	53.9998
-32.3024	-57.6689	77.3637
-31.4166	-55.9297	77.304
-30.0698	-59.8176	79.2163
-30.5561	-54.5925	77.2933
-28.5346	-56.3142	79.0034
-31.4507	-77.3658	80.976
-32.1088	-81.7663	79.8804
-32.3765	-85.963	78.3211
-23.0379	-53.7531	82.4881
-19.6212	-54.3169	86.2428
-22.8472	-53.0991	81.077
-18.9771	-53.1574	84.2824
-23.024	-53.263	80.6548
-26.6011	-52.688	78.3273
-23.11	-53.6473	80.3932
-23.2217	-55.0395	80.0711
-19.2315	-53.7197	83.2498
-23.0148	-58.5022	80.1598
-19.2378	-58.2535	82.554
-22.2954	-62.8317	81.0072
-16.7807	-113.739	33.0176
-17.0419	-120.508	31.072
-17.3608	-110.239	35.1698
-21.4439	-150.159	23.8129
-22.5354	-155.482	22.3347
-16.4412	-150.987	25.7262
-20.2385	-142.417	25.7913
-18.5561	-131.086	28.6544
-8.95754	-106.844	42.8404
-10.4304	-105.228	52.0854
-13.058	-106.929	41.5782
-12.0468	-151.56	27.1002
-13.0747	-156.687	25.5575
-12.1198	-104.374	62.1691
-15.3702	-52.8508	87.1288
-15.3372	-53.0868	86.4332
-15.3758	-53.5887	85.8598
-15.7475	-54.839	85.0203
-15.6295	-58.0059	84.5801
-15.2948	-62.435	84.7778
-72.9958	46.7317	14.0207
-69.1379	48.8001	24.6523
-73.2324	54.4356	8.82926
-76.0197	45.418	3.10505
-79.8047	27.0665	-20.2234
-74.1645	-19.4638	-50.0707
-71.4015	-21.3619	-54.9302
-52.7687	-95.6296	-55.0913
-49.543	-93.2688	-60.0094
-52.6453	-105.933	-56.2637
-55.8502	-98.8354	-49.5912
-53.3469	-85.3004	-53.9914
-52.7503	-114.892	-57.6048
-49.4535	-113.123	-62.3165
-53.0884	-123.394	-58.8256
-59.7338	-83.3716	-41.4964
-60.9021	-74.7021	-40.1526
-57.0166	-78.7653	-47.8265
-59.2132	-93.1302	-41.9874
-22.7996	112.163	21.6363
-15.7168	114.206	21.9337
-22.7386	116.911	6.43443
-29.55	109.27	21.3785
-22.2692	101.925	-78.7958
-14.8196	103.341	-80.2239
-21.5302	91.1017	-91.9358
-29.3689	99.9023	-76.8985
-22.927	110.583	-62.9231
-21.1898	79.2689	-101.403
-14.28	79.9348	-103.055
-20.9925	66.003	-108.631
-27.9461	77.5758	-99.4739
-23.0618	116.408	-45.8429
-23.019	119.345	-28.0041
-15.5668	118.24	-46.897
-30.2393	113.895	-44.2318
-7.84929	122.825	-11.01
-7.82044	122.541	-29.1768
-15.5089	121.552	-10.7436
-7.87352	120.375	6.2753
-20.66	52.9181	-113.597
-14.206	53.7674	-115.015
-20.2361	39.5358	-116.87
-26.9818	51.6595	-111.56
-19.7035	25.497	-118.676
-13.3847	26.4227	-120.187
-19.2121	11.6171	-118.851
-26.0386	24.5419	-116.485
-17.1761	-26.962	-107.956
-17.9736	-14.3688	-113.775
-11.605	-26.8641	-109.116
-16.9238	-38.6864	-100.686
-22.9994	-27.7063	-105.792
-6.2394	-0.43829	-120.022
-5.94701	-13.2948	-116.462
-12.4799	-0.850874	-119.003
-6.44037	12.7224	-121.442
-15.2898	-85.742	-83.4921
-10.1814	-85.2853	-84.2768
-15.0797	-95.2423	-83.1513
-20.6128	-86.5359	-82.1328
-15.598	-76.1598	-84.4258
-14.9524	-104.61	-82.9759
-10.0387	-104.278	-83.5562
-15.0814	-113.852	-82.8685
-19.9839	-105.165	-82.012
-17.1471	-47.9504	-94.7012
-11.4234	-47.4788	-95.717
-16.8324	-56.242	-90.2193
-22.4516	-48.5356	-93.1336
-16.1062	-65.7783	-86.6689
-10.7996	-64.9611	-87.6716
-21.7595	-66.909	-84.9239
-5.48737	-64.6536	-88.1364
-5.26456	-75.2214	-85.7812
-5.67495	-55.3027	-91.7161
-47.7433	96.9003	18.2616
-41.9607	101.606	19.6991
-48.6879	100.786	4.70416
-53.4042	91.3117	16.9085
-46.9267	70.5082	-89.4548
-47.2826	81.333	-80.296
-41.0835	73.1666	-93.2799
-46.6072	58.5696	-96.2394
-52.388	67.3822	-85.2211
-47.5945	90.7505	-68.3086
-53.1104	86.3277	-64.7453
-48.2127	97.6972	-54.2206
-41.926	94.3756	-71.5423
-48.8878	101.872	-39.5473
-49.6418	103.279	-24.7839
-43.0905	106.582	-41.125
-54.6104	96.1812	-37.8255
-49.3409	103.075	-9.91592
-55.0964	97.2004	-10.0698
-43.3055	108.189	-9.73089
-46.0049	46.4573	-101.15
-51.4344	44.2391	-96.8475
-40.1137	48.352	-105.082
-45.3585	33.868	-104.406
-44.4169	21.1114	-106.24
-38.7639	22.2232	-110.067
-43.4604	8.18856	-106.359
-49.7549	19.6803	-101.902
-42.1787	-4.31979	-104.922
-47.0029	-5.05386	-100.738
-36.9225	-3.99893	-108.562
-40.8808	-17.1989	-101.424
-40.1013	-29.7914	-95.6129
-34.7611	-29.1827	-99.5264
-39.5722	-40.7512	-89.2899
-44.8401	-29.518	-91.7862
-39.0372	-50.2834	-83.6816
-43.6675	-50.4863	-79.4115
-33.8012	-50.0771	-87.3927
-38.4028	-59.8088	-78.8493
-36.4292	-88.4643	-74.0639
-41.0982	-89.4816	-70.0416
-37.3354	-78.8096	-73.9514
-31.3043	-87.9975	-77.4761
-35.5154	-98.4512	-74.989
-25.0991	-105.891	-80.56
-30.2948	-106.836	-78.4447
-25.3902	-96.7899	-80.3326
-25.2863	-114.763	-80.7502
-37.8597	-69.408	-75.5144
-32.8992	-68.7415	-79.2663
-42.5925	-69.7781	-70.9816
-66.9953	69.881	-51.5333
-62.7557	75.8587	-56.6677
-66.2662	63.8157	-61.9253
-70.9528	63.0837	-45.759
-68.042	73.7161	-40.081
-68.7915	75.7947	-28.7333
-69.1721	76.5776	-17.597
-64.5655	83.1421	-32.7945
-72.5241	67.929	-23.6981
-68.3109	77.1498	-6.83492
-64.6691	84.1586	-9.04617
-71.0903	69.6282	-2.15972
-56.2105	41.9899	-92.3286
-55.5221	30.1493	-95.5646
-60.5439	39.3317	-87.5143
-56.852	53.1802	-87.3821
-57.1609	64.1025	-80.7601
-61.634	60.1894	-75.8611
-57.5416	73.5776	-72.0887
-51.7657	-5.74157	-95.7866
-50.0683	-17.7786	-92.6997
-56.3242	-6.55941	-90.2575
-53.506	6.23385	-97.1208
-54.6055	18.0529	-97.1903
-59.0851	16.6832	-92.1033
-49.0676	-29.0305	-87.6588
-48.6031	-40.128	-80.9506
-53.1946	-28.9793	-82.5578
-47.7838	-49.8318	-75.1539
-51.4663	-48.1956	-71.1348
-47.3307	-70.4422	-65.3321
-46.4472	-80.5913	-64.502
-51.3778	-72.9806	-58.8318
-76.9728	34.8362	-47.3013
-74.9944	40.2803	-52.9148
-76.2155	28.9699	-54.7549
-58.4825	85.1274	16.1801
-59.4025	89.0558	3.18257
-77.6371	44.4897	-7.68963
-76.9454	52.2626	-12.6978
-66.8311	-7.31135	-74.4391
-65.0412	-17.1369	-71.6523
-69.7109	-7.64397	-68.8883
-68.2637	2.10063	-75.8465
-63.7172	-7.41227	-79.5802
-69.0472	11.6074	-76.4766
-71.842	9.52037	-70.4251
-69.8689	20.6403	-74.9787
-66.1	13.3771	-81.9225
-70.673	29.7873	-71.6006
-73.3353	25.9402	-65.6964
-71.5756	38.1358	-66.1121
-67.6714	33.2588	-77.2403
-59.7216	-42.2115	-60.4316
-58.3448	-50.0317	-56.7173
-62.3754	-39.9841	-56.6579
-61.3263	-34.5438	-64.2913
-57.0669	-44.5085	-63.957
-68.6933	-23.0295	-59.5715
-70.542	-15.5799	-61.9208
-66.0567	-24.6673	-63.7144
-66.8678	-30.3319	-56.326
-54.5026	-75.6397	-53.2023
-55.7897	-66.4398	-53.2356
-76.1736	-36.9955	-5.86214
-74.4802	-39.8954	-3.70722
-76.5903	-33.4499	-3.82683
-76.4488	-31.7367	-2.38817
-80.2347	-6.73203	-3.66665
-81.0684	-1.55301	-5.74943
-92.8963	4.15853	-38.7743
-93.5166	3.76299	-38.0729
-92.9962	9.94357	-36.3382
-83.0044	-35.202	-25.6278
-81.7686	-37.9668	-22.3268
-81.9958	-35.039	-26.4113
-92.5503	14.6071	-32.7895
-93.43	13.9422	-32.235
-91.8363	17.6971	-28.6633
-91.5892	14.919	-33.2805
-86.0104	9.45124	-12.312
-84.6866	9.44808	-12.9798
-91.049	18.962	-24.4173
-91.9728	18.251	-23.6826
-88.0716	-18.7166	-35.6676
-84.3039	-35.9246	-18.2687
-82.646	-37.9903	-18.8079
-83.7739	-35.7576	-15.5428
-81.5245	1.01368	-7.44587
-87.6627	17.1665	-19.9902
-85.7504	14.0703	-17.3832
-86.6084	16.3176	-21.5516
-83.3829	9.73755	-14.3985
-82.5235	10.1848	-15.9672
-90.925	14.7658	-33.5008
-81.7859	9.94474	-17.3965
-83.0438	11.9375	-19.9989
-84.6138	13.8757	-23.5287
-82.4956	11.7541	-24.6208
-87.2891	-27.1361	-28.6056
-87.191	-28.7048	-21.085
-81.0872	-39.1666	-19.3311
-83.2032	-34.8027	-13.3863
-84.1101	-32.0104	-13.2632
-84.8583	-29.6533	-14.1653
-85.3105	-28.104	-15.1281
-92.4408	-8.25086	-36.975
-93.039	-2.63848	-38.3504
-93.7014	3.4644	-37.6676
-94.0859	9.04646	-35.3151
-90.4756	15.5005	-16.3272
-91.6865	17.1923	-19.3545
-90.6526	14.8661	-16.0479
-90.623	14.2629	-15.9086
-91.8867	16.0299	-18.877
-90.4498	13.1884	-16.0857
-93.8041	13.4006	-31.8817
-93.9169	12.9012	-31.7471
-93.213	16.2493	-27.7579
-92.5294	17.5459	-23.21
-92.7496	16.9565	-23.0904
-92.7559	16.37	-22.827
-93.3543	15.2079	-27.3968
-93.8726	12.5245	-31.4319
-93.1565	-0.874792	-36.6608
