1935
-53.3235	38.9117	69.4155
-53.4735	37.069	69.7411
-47.4885	41.1896	73.4964
-53.4757	40.4619	68.5589
-58.5727	34.3417	64.1589
-4.38294	-25.5238	89.964
-4.59456	-25.0457	90.4503
-5.23364	-26.1124	89.1644
-3.21036	-25.5719	90.441
-4.81818	-24.3913	91.3136
-5.91287	-24.1796	91.2219
-3.5665	-23.9934	92.4861
-48.6941	17.2517	64.3842
-48.3369	17.9936	64.8542
-13.9589	-17.3922	90.4949
-12.5723	-16.4412	91.6767
-14.5336	-17.442	89.8266
-14.0993	-18.3629	90.4045
-66.7117	76.9104	15.7359
-68.6807	77.617	5.93484
-67.5985	72.3135	20.3562
-64.174	80.3927	16.9217
-30.6521	-63.5937	73.4031
-29.2249	-63.0776	74.4894
-31.1908	-64.606	73.1167
-31.2123	-61.7385	72.5447
-29.4311	-52.4547	71.9952
-30.4327	-54.5072	71.7
-29.4326	-51.1929	71.5541
-27.7453	-52.4485	73.3098
-7.43924	-24.1138	90.8962
-8.00308	-23.2018	91.6109
-8.85254	-25.0858	89.4834
10.9541	-23.9302	91.0434
9.91794	-23.7006	92.284
10.6626	-24.6243	90.165
10.3907	-25.1662	89.6286
9.28956	-25.3693	90.2352
-5.8723	-26.8338	88.4687
-7.10428	-27.1536	88.0421
-5.68668	-27.4486	88.2513
85.3762	-33.4777	-26.8185
83.6945	-34.0369	-26.5961
85.7248	-30.3306	-29.3695
86.5543	-33.8458	-26.2011
84.5445	-36.7171	-23.4921
78.045	-44.7836	11.5916
77.0545	-46.0361	19.5747
76.8465	-49.8434	10.0941
78.8872	-43.219	4.71784
79.1279	-39.5099	13.1327
63.1029	-116.506	-6.78787
63.331	-106.038	-6.57164
60.6026	-117.739	-2.18048
63.2034	-127.005	-7.77004
65.0051	-115.081	-11.4485
63.4972	-134.564	-8.99925
63.7723	-140.54	-10.2127
65.1836	-132.59	-13.8278
61.0978	-136.621	-4.16296
58.1814	-100.639	3.84389
59.1631	-94.6809	4.58443
54.8361	-102.271	9.03272
57.6664	-108.437	3.18926
61.2978	-99.4496	-1.51692
66.6676	-97.1847	-15.1552
66.3426	-104.262	-15.4638
67.2647	-95.7849	-20.3116
67.07	-91.6521	-14.9329
65.4588	-97.8457	-10.7503
70.1051	-67.9855	20.646
71.5953	-63.8843	22.8309
68.0618	-70.8249	28.3282
68.5095	-71.6487	18.0844
71.5346	-65.4498	13.0175
77.5651	35.0895	28.0936
77.7448	42.5737	23.5674
73.1305	37.969	39.5292
77.6592	27.9322	30.9295
80.8581	33.2473	15.6969
81.1698	43.5153	-27.1594
80.3586	40.2837	-37.1598
79.1858	50.3723	-32.4139
81.8483	45.5216	-16.1441
82.7441	36.3307	-22.2769
5.73079	-118.053	48.6989
2.14257	-118.28	49.4968
7.04621	-124.761	45.7454
10.2489	-117.463	47.3725
5.71456	-114.068	51.3972
8.69284	-135.539	40.7477
10.0139	-146.285	35.5513
12.9658	-134.491	39.1264
4.83243	-135.819	41.9927
2.55189	-154.231	33.9077
6.62788	-153.916	33.3368
1.99529	-146.972	37.2611
-1.38391	-154.206	34.1483
3.12206	-159.093	31.7422
71.9095	-52.5386	-32.8589
74.5235	-46.3567	-30.5545
71.8191	-58.9553	-27.7276
69.1899	-58.7438	-35.1672
72.3308	-44.9091	-36.9586
72.948	-39.4511	-39.9317
69.129	-45.3772	-43.3289
73.6359	-34.7163	-42.294
76.2257	-34.711	-36.7243
65.7258	-125.274	-30.3503
65.288	-132.039	-32.6264
63.9604	-122.387	-37.1576
66.4225	-128.479	-23.8732
1.23696	-136.136	42.6382
0.202752	-125.359	47.4806
-2.20442	-136.098	42.9009
75.475	-48.413	27.2893
76.6716	-42.0696	28.1384
73.663	-50.1014	34.5316
74.2255	-54.2681	26.0923
72.4852	-63.4499	5.74021
70.7924	-67.6094	4.02456
72.9199	-62.526	-1.90423
74.1072	-59.0109	7.20316
13.6224	-94.7848	92.1486
9.21858	-94.9171	93.9539
13.8082	-98.8504	89.9986
18.3077	-94.503	89.3962
13.1943	-90.1202	93.2378
23.1869	-93.261	85.9764
23.2069	-97.3941	84.0087
28.1235	-91.7251	81.5725
22.919	-88.2177	87.1018
4.24114	-85.2234	95.7676
8.28045	-85.0457	94.8633
3.95321	-79.548	94.5984
0.121944	-85.2158	96.1128
4.41535	-90.563	95.9485
13.7904	-101.982	87.0269
13.7322	-104.255	83.2049
18.4105	-101.552	84.5439
9.31164	-102.057	88.8619
13.4539	-105.841	78.2745
8.68898	-106.324	79.5408
12.9029	-106.67	72.8085
17.7305	1.5973	78.3907
19.3311	-2.4262	79.6782
20.7941	-0.133026	76.7048
16.1684	5.35327	77.3407
14.8188	3.69135	80.0679
54.9977	-27.0538	68.8935
62.0584	-27.8189	63.3485
54.0703	-21.5694	69.2726
47.3665	-25.8229	72.9921
55.324	-32.2078	68.6547
66.7332	-16.5462	58.4516
70.9889	-15.8057	52.8611
64.9863	-10.7057	59.9717
60.4828	-16.0209	64.4144
67.5025	-22.4085	57.6773
74.6726	5.96757	44.3907
76.8438	5.3423	39.683
73.8853	13.7013	44.3234
72.0144	7.21413	48.4576
55.3951	-37.3503	68.1847
55.106	-42.5653	67.7854
61.775	-38.2191	62.5893
48.5669	-35.8756	72.4791
3.87946	2.83253	90.6958
3.29855	7.33662	87.3128
1.96272	3.03146	90.7636
4.3427	-1.22649	94.0898
5.97868	2.30328	90.2441
28.9104	70.2509	72.8321
23.7258	70.8197	74.3307
27.2451	64.0119	77.1576
34.6779	69.1136	70.7072
30.7519	76.1146	68.4146
2.2887	-108.317	68.3939
0.97978	-109.28	62.1612
6.62139	-108.084	67.7127
3.52231	-107.563	74.6105
-1.94554	-108.358	68.6501
71.43	-51.0489	41.6613
68.6439	-51.1949	48.5624
69.7637	-58.0634	40.9914
72.7205	-44.3501	42.2567
4.73795	-102.157	89.9061
4.80517	-98.9938	92.9201
0.145555	-102.193	90.2692
4.4581	-104.825	85.5271
4.29964	-106.551	80.304
-0.111731	-106.602	80.6631
44.3977	-91.0403	59.6635
38.5637	-94.203	65.3918
43.5184	-93.5509	57.1782
50.1315	-86.939	54.7809
44.7063	-87.618	62.7922
50.5246	-92.8184	35.8422
47.8208	-96.1651	32.1548
55.0697	-89.3047	29.606
52.7339	-90.0381	39.4885
44.8159	-96.4109	42.1284
-0.629452	-111.086	56.3464
2.98004	-111.218	55.694
-4.02602	-110.986	56.4774
-1.90612	-114.096	52.4355
9.54065	-5.9628	95.3521
10.1588	-8.62443	97.2022
12.4583	-6.9041	93.1861
8.98683	-2.48846	92.4762
6.99877	-5.3682	96.6549
31.5569	-18.2969	76.4594
34.7464	-21.2398	76.0078
29.9124	-13.4055	76.3431
27.9789	-15.2158	77.6533
28.6919	-57.8888	76.8825
30.8643	-57.633	76.6489
16.3457	-24.9787	86.8096
18.1695	-23.5773	86.9488
15.5735	-25.9724	86.3961
18.4715	-25.1719	85.2926
15.7039	-29.3686	85.0053
16.2192	-30.9156	84.903
18.3177	-29.5281	83.419
15.5608	-28.3463	85.1854
13.3762	-28.8015	86.3661
5.10461	-25.7192	92.8699
5.13348	-24.8302	94.2262
3.41658	-25.8401	93.0839
5.16639	-26.6741	91.715
6.81543	-25.5132	92.1151
21.0449	-28.7234	81.8589
23.8162	-27.0051	80.3606
20.7088	-27.673	82.2027
21.4675	-30.2355	81.7676
10.9946	-16.9242	98.5074
8.55631	-17.2381	100.106
10.7458	-18.8085	97.6311
13.7747	-16.7794	95.9947
11.0864	-15.1928	98.9338
28.5562	-70.8448	80.9095
31.8028	-68.6771	78.3509
26.6507	-67.3919	81.3143
24.5822	-72.4669	84.0659
30.3406	-74.8817	80.3555
30.0582	-51.0544	79.1012
30.135	-46.685	80.0234
27.9702	-50.1261	80.4315
32.0419	-51.8392	78.0997
5.41144	-30.99	89.8031
5.3762	-33.416	89.758
7.14516	-30.827	89.3978
5.31295	-29.0207	90.2336
3.22864	-31.104	90.0045
8.35765	1.35487	89.3734
11.0963	-0.146212	88.0069
7.7433	5.36755	86.3926
23.6002	-16.8132	83.3875
22.4794	-15.2947	85.4182
22.7853	-16.3113	85.2938
23.9094	-18.3256	82.6027
24.1041	-16.2029	82.1184
8.28278	-27.2454	89.6078
8.24937	-28.7495	89.1452
9.65802	-27.5759	88.6488
8.29066	-26.2802	90.1511
6.91748	-27.3761	90.3244
8.18687	-25.442	91.0989
8.21161	-24.5569	92.3978
21.6892	-15.5542	87.1377
21.2756	-14.6421	87.4849
22.3482	-17.1649	86.2265
23.6879	-21.1308	81.9774
22.9318	-19.9982	83.9496
22.4757	-24.0573	82.1369
5.00239	-43.0795	91.4044
5.38614	-45.2774	91.9073
8.01027	-42.305	91.0592
5.12271	-39.7508	90.658
1.68961	-43.7792	91.5816
27.4458	-32.4364	79.4781
24.8726	-32.6071	80.6374
28.1923	-37.3676	80.3124
29.6936	-32.6045	78.7142
26.7685	-27.8949	78.9293
10.8093	-68.5045	90.7077
10.6803	-66.7017	90.6918
7.07587	-68.529	91.6411
10.9238	-70.8109	90.921
14.8743	-68.063	89.0843
25.1711	-52.8583	80.9351
25.3202	-53.6357	80.3613
27.1265	-54.5588	78.6262
25.5249	-51.0118	81.6559
20.9448	-13.9876	87.4432
21.0312	-13.1809	86.3407
18.9949	-12.9596	89.7389
18.7815	-67.4918	86.9409
19.3512	-69.8791	86.9468
22.1039	-66.4375	84.4831
18.2322	-65.6255	87.0879
3.96957	-68.3209	92.071
0.989154	-68.1314	92.2503
4.06405	-70.7456	92.3331
3.76164	-66.534	92.0914
64.8201	31.8359	59.8701
63.8169	31.0427	61.2069
66.688	25.9709	55.4664
65.5795	32.8561	58.4642
39.496	56.386	75.105
32.7536	57.8154	78.6234
40.2038	51.7061	77.359
46.8153	54.109	70.9615
39.8451	61.6676	71.7942
54.71	50.7708	65.5362
54.849	46.6959	68.1515
61.8085	46.5303	58.7021
55.3675	56.0486	61.3983
42.3898	44.7704	78.5417
41.5299	46.9476	78.5339
36.1477	46.3799	82.6541
43.3059	42.4584	78.1871
66.8171	34.003	55.8681
67.4202	36.7685	53.4834
61.5484	39.7798	63.582
70.0507	28.1662	49.7716
24.4058	35.1092	82.2678
24.5086	33.2502	80.7795
28.3121	35.822	82.0414
24.1873	37.1529	83.8767
20.3789	33.8514	81.8483
6.87558	15.4818	80.5916
8.94793	13.2449	79.8453
6.68563	17.7057	79.8116
4.56907	17.2696	81.1546
7.06236	12.7473	81.7943
32.8371	-4.91377	73.5042
35.2145	-9.19988	73.9757
39.5211	-5.92357	72.3606
30.6387	-1.13444	73.1895
27.225	-3.37146	74.584
61.909	9.76167	58.1409
65.1792	8.32722	55.7076
62.7237	14.5171	57.1984
58.606	11.4353	60.3187
59.7304	5.55571	60.6643
7.32437	9.38392	83.7433
9.72884	7.50618	82.8874
4.99284	10.7968	84.2931
44.1003	40.2869	77.8812
50.0653	39.0901	74.8855
38.1112	40.7868	80.8798
44.211	38.1215	77.6308
55.1935	37.2445	71.3808
54.5797	35.2456	71.7214
59.6367	33.9875	67.026
57.945	18.8369	61.6969
58.3832	22.6912	63.189
55.1588	18.4731	63.6214
57.3093	15.6588	61.2787
60.2552	19.0408	59.9491
43.0828	21.932	72.9678
45.0021	20.9396	71.3453
41.024	22.7822	74.3497
38.9099	23.5433	75.2996
36.7377	24.0274	75.7815
39.1989	24.4687	75.625
36.6836	24.9975	76.1462
41.5769	23.7146	74.6323
33.8871	24.2637	76.0154
31.0459	24.1633	75.9274
33.617	25.1686	76.3219
30.5836	25.0453	76.1727
28.4907	23.6575	75.4827
25.9756	22.5403	74.8094
22.8871	20.9746	73.906
19.863	19.2874	72.9678
21.4379	21.6398	74.0446
18.549	19.7844	73.1754
24.6511	23.2586	74.9324
17.685	17.7127	72.3641
19.9971	22.1684	74.274
23.5089	24.11	75.2359
33.4256	26.2392	76.7175
30.1541	26.1225	76.5505
48.7758	16.7972	67.2681
49.2784	17.8533	67.2213
47.5262	15.7999	67.9344
32.7574	36.3563	81.2365
38.2615	36.2915	79.5035
32.7934	38.1243	82.1936
32.6586	34.1582	80.0817
49.9739	28.4157	72.6324
47.3806	26.0415	73.1223
52.0466	30.8089	72.2777
45.8589	29.2929	75.0849
37.4652	7.90208	72.4706
43.134	8.95614	70.6554
31.0164	7.94294	73.3117
38.2109	6.24362	72.0153
25.6813	8.97537	73.1116
21.4009	10.0985	72.9747
25.9753	7.30812	73.0607
16.7837	12.9374	73.059
16.0284	13.8255	72.9873
18.0027	12.1234	72.9621
36.3332	10.8212	73.2246
41.3548	12.0656	71.9006
30.7075	10.8307	73.7409
19.878	13.1763	72.2027
21.9612	12.5095	72.5292
18.7812	13.5947	72.0522
17.9362	13.9744	72.0297
17.1337	14.4748	72.101
13.1314	22.212	75.6384
12.8151	24.6688	76.6722
13.447	19.5499	74.3671
15.0785	24.423	75.9445
15.2111	15.1091	73.089
26.9512	25.4383	76.0146
14.1438	18.541	73.7443
13.678	16.8921	73.8399
15.512	20.5246	73.9431
36.0533	12.0397	73.5082
30.5863	12.047	73.8821
19.8039	13.9612	71.8122
18.8064	14.1282	71.7382
21.8719	13.6239	72.2431
18.0274	14.4744	71.7048
46.1828	19.7687	69.7615
3.26148	31.7571	82.382
0.33698	31.7343	82.3041
2.96532	28.9473	81.2022
5.78899	31.4472	82.1348
3.6643	35.1445	84.0072
19.8179	5.22323	74.5792
19.187	7.07045	74.1924
17.569	6.4489	75.4399
21.2372	2.41603	75.0855
23.2421	3.73475	73.7607
15.3719	7.79685	76.5544
13.1393	9.42813	77.808
14.3936	12.5245	74.8193
12.5526	13.2609	76.1046
14.202	14.0184	74.2015
9.78338	21.5112	77.1774
10.7988	23.8017	77.1339
9.29705	22.5682	77.621
19.2798	11.1176	72.9944
18.9048	9.98863	73.4364
18.922	8.64852	73.7725
21.7458	7.26821	73.3258
21.0355	-55.3972	79.9823
20.9227	-55.3226	79.7716
23.9368	-56.0151	77.9075
17.8387	-54.5094	82.2751
25.6126	-56.36	76.9309
25.3292	-56.2286	76.8986
5.61264	-48.7927	92.0748
9.04385	-48.1319	91.543
5.62965	-47.508	92.1751
1.67191	-49.4051	92.2967
5.42009	-49.966	91.8184
11.1739	-50.4635	90.0937
11.5206	-49.3573	90.5292
8.55918	-50.4599	90.854
10.5263	-51.4074	89.5568
13.2383	-50.6705	89.208
15.345	-51.0326	87.9854
15.6729	-49.9548	88.5017
15.0195	-52.1251	87.1794
18.1094	-52.014	85.8213
11.6151	-48.0707	90.8868
13.7637	-48.2507	90.0555
11.5627	-46.7358	91.1045
15.4288	-46.5129	89.4767
15.872	-47.5968	89.1877
15.1203	-45.3077	89.5882
13.2314	-46.0257	90.5492
21.3367	-53.5196	82.6837
21.4702	-52.3603	83.7297
9.6082	-52.2114	88.8544
6.97849	-52.0915	89.7087
8.9583	-52.6185	88.1693
12.2749	-52.5101	87.7307
14.8983	-53.1386	85.9969
14.7383	-53.6579	85.0918
26.383	-55.2099	78.4495
21.2233	-56.3341	80.5889
21.1547	-56.2802	80.347
17.9627	-55.6705	83.2527
21.2799	-56.5074	80.9238
21.8298	-57.6718	81.6262
21.6056	-57.249	81.503
18.8284	-57.5051	84.8797
15.7135	-57.7106	87.5409
15.4526	-56.9596	87.2098
12.6445	-57.758	89.3828
16.141	-58.4802	87.6285
8.75522	-55.5855	89.8955
8.92573	-56.6808	90.5099
12.0641	-55.8176	88.4987
8.69745	-54.5789	89.1236
5.6201	-55.3435	90.773
3.09903	-57.2316	92.26
3.19371	-58.2076	92.5408
5.81087	-57.375	91.7969
3.07348	-56.2102	91.7862
0.633332	-57.1711	92.4015
26.0167	-57.819	76.3926
25.7435	-57.2225	76.8823
26.2684	-59.153	75.9986
24.0926	-57.5508	77.6939
3.11139	-54.6228	86.8592
3.20204	-53.9413	87.8033
5.44038	-54.7273	86.5325
2.89847	-55.7272	86.1434
0.937695	-54.6066	86.9587
3.32216	-59.3674	92.7095
0.643205	-59.3053	92.8557
3.50298	-60.5021	92.7411
6.19724	-59.6485	92.2404
3.63956	-64.7271	92.2646
6.82362	-64.8755	91.8068
3.62518	-63.0774	92.4936
0.789214	-64.7246	92.4124
11.2942	-45.8096	91.1639
10.5493	-44.4719	91.1719
8.85151	-45.7447	91.6858
3.0932	-55.111	91.0784
0.762702	-55.1798	91.2654
3.11927	-54.2182	90.3168
3.15425	-53.8292	89.8144
5.70003	-53.8911	89.4378
3.26666	-53.6722	89.3758
0.94397	-53.8649	89.8978
8.67726	-54.1346	88.6031
11.74	-54.5773	87.3972
8.65825	-53.9651	88.1904
3.32888	-53.6686	88.701
5.69634	-53.7297	88.3441
1.01607	-53.6868	88.7406
14.6908	-55.0959	85.6119
14.6314	-54.9657	85.1375
14.8732	-55.455	86.1037
17.0098	-61.3257	87.6762
17.3921	-62.4653	87.48
16.7091	-60.3124	87.7565
13.8785	-61.8916	89.5897
10.2001	-62.0547	91.1856
10.4323	-63.2887	91.0058
10.007	-60.9824	91.2621
6.5735	-62.0273	92.1946
3.58486	-61.7077	92.663
0.720326	-61.7099	92.8117
14.6396	-53.817	84.4153
11.6897	-53.14	86.223
14.5557	-53.7457	83.8336
28.6155	-56.7602	76.9254
27.5156	-57.0025	76.9237
25.68	-56.9602	77.4596
24.0773	-57.013	78.7312
8.28496	-54.9673	85.8611
8.36361	-54.2618	86.7221
11.3744	-55.3479	84.7761
8.26744	-56.0973	85.1922
8.51234	-53.9674	87.562
11.5102	-54.4149	86.3369
10.5543	-64.8685	90.8248
14.4692	-64.5983	89.1963
16.3904	-59.365	87.7633
13.2891	-59.7947	89.6996
17.7949	-63.9662	87.2709
20.725	-62.926	84.9201
14.3378	-53.4126	83.4477
11.5791	-52.6707	84.6837
13.999	-52.2105	82.6613
17.165	-54.0079	81.7777
8.70903	-52.2407	85.6496
6.23471	-51.942	86.0468
9.27334	-51.1387	84.2437
8.56446	-52.6334	86.5979
13.8769	-49.4321	81.4259
11.6869	-48.9495	82.1792
14.2251	-45.5645	80.3121
16.1952	-49.9413	80.4136
26.634	-62.2014	75.8685
26.6358	-65.5956	76.3805
24.4617	-61.8954	77.3487
2.62792	-58.2946	85.592
4.97996	-58.4301	85.3392
2.85913	-62.2527	85.875
0.625568	-58.2678	85.6613
9.53661	-48.5872	82.7255
7.17229	-48.2974	83.1252
9.5614	-44.8008	81.5556
7.9718	-58.7218	84.7145
8.12223	-62.7634	84.7841
11.2335	-59.1722	83.7094
30.7238	-57.2186	71.5715
31.3475	-57.0815	70.9602
10.6876	14.7252	77.3127
10.6723	13.1546	78.1278
84.0062	-7.32525	-43.1176
83.4017	-11.7242	-42.4477
81.9752	-6.82544	-46.4868
84.552	-2.71386	-43.0239
85.6247	-7.75929	-41.3826
85.1578	12.386	-4.46858
85.2394	15.0807	-8.76088
84.3369	14.6696	0.721747
84.9796	16.9825	-14.0802
84.4364	22.3457	-15.2352
85.5322	12.0106	-15.3948
85.1976	16.3503	-21.3825
78.9544	-31.6051	-34.3404
81.4882	-29.2334	-32.6477
78.1513	-35.7988	-31.8535
79.9683	-27.6978	-36.0762
80.7893	-24.0428	-38.0671
78.0417	-26.1566	-40.9769
81.7513	-20.078	-39.8069
83.1763	-22.7691	-36.1633
87.1782	-7.68705	-40.4842
88.6969	-7.19871	-40.1296
86.7109	-11.8553	-39.6498
87.4524	-2.65546	-40.5618
89.8814	-25.9648	-30.9154
90.8174	-21.9397	-32.9108
90.686	-26.3885	-29.6883
88.8917	-29.9388	-28.4856
94.2095	-16.0746	-30.7589
94.2275	-15.4753	-29.9663
84.4074	-38.3102	-20.5411
84.9053	-38.5417	-19.841
84.11	-38.9357	-18.5308
83.387	-37.4916	-22.5463
86.064	-30.3167	-7.65339
85.7537	-30.9578	-7.63436
85.3231	-32.0051	-7.88878
94.1858	-15.0813	-29.5434
93.7465	-15.6439	-28.591
96.5438	-0.55371	-33.1095
96.5353	0.0749094	-34.6585
96.5186	-1.84851	-31.4346
96.6986	9.74492	-30.3926
96.9299	11.0943	-30.482
97.05	13.2149	-29.3941
96.5772	13.0758	-27.1025
97.2022	13.662	-29.7964
96.7858	15.3635	-26.1782
88.6888	-7.16758	-7.08724
89.746	-1.72148	-7.47327
88.2458	-6.34122	-5.6817
87.918	-11.2099	-6.66512
84.4449	-22.9973	-0.680423
83.7444	-23.2716	2.09908
83.9483	-26.863	-1.36443
84.9127	-18.578	0.0522962
87.5089	-18.5169	-9.61603
87.8312	-20.5867	-10.2076
87.4495	-16.5638	-9.66882
85.5379	11.5375	-15.4911
85.6827	12.6421	-19.043
85.5787	11.5399	-15.2483
93.3972	18.8776	-15.7445
94.1272	20.4533	-18.9103
92.5024	19.2713	-16.9407
92.2511	15.9458	-12.7743
94.2083	18.1996	-14.7471
93.413	20.9806	-24.1552
92.7975	20.8471	-21.036
93.7322	21.1433	-23.6138
93.7598	19.599	-28.007
92.5923	19.9225	-25.6273
93.9523	5.18004	-39.1739
93.1744	4.71739	-39.3582
94.2769	11.2401	-36.1631
95.0409	5.43846	-38.6221
90.4839	2.86753	-7.91389
90.7833	1.56766	-8.65726
96.9535	4.69241	-36.0578
97.3946	9.88262	-33.6744
96.6913	1.87348	-36.308
96.9885	4.58134	-36.4204
96.416	16.3724	-22.0717
95.6788	15.9552	-17.9549
96.2013	14.9898	-22.8413
96.5126	17.3711	-21.4175
91.7617	3.49399	-10.8171
91.3096	1.75306	-10.2731
92.1993	5.7843	-11.494
96.6127	5.45947	-33.2831
96.6666	3.3596	-35.2293
94.4528	8.45487	-21.3295
94.0418	7.12599	-20.542
95.5728	7.8245	-25.6207
90.0247	-3.29839	-12.3204
90.125	-3.04992	-13.0402
90.5578	-1.65718	-11.1282
93.9294	-3.01311	-26.6626
95.7376	-0.442271	-28.566
93.6947	-2.54152	-26.0161
93.8334	-4.11675	-26.8479
85.3108	-14.5724	0.234626
85.8416	-10.0201	-0.397845
84.6811	-14.6303	2.84113
87.6426	2.627	-38.9595
86.4283	2.00902	-40.1435
87.5203	7.34263	-36.6986
88.6154	5.1644	-37.9651
90.9378	10.1356	-35.1651
90.7538	14.004	-31.7945
93.231	14.7901	-33.1562
91.0204	5.98106	-38.2113
92.176	3.78168	-39.3403
91.0822	-1.76387	-40.2479
90.7889	-6.78286	-39.9584
85.0119	-22.1163	-35.2803
84.1908	-25.2214	-33.5278
85.6941	-18.9086	-36.9028
86.2301	-15.5351	-38.4266
84.4846	-15.7752	-39.4658
93.2435	-15.545	-27.5669
83.3359	-28.1323	-31.8828
82.424	-31.744	-29.6318
84.5955	-27.8409	-31.4184
82.869	-35.5263	-25.1126
82.4067	-35.5276	-25.4779
82.5153	-38.8707	-20.5808
84.0615	-38.5096	-15.6445
83.5667	-38.766	-15.4366
83.0539	-38.9563	-15.1716
94.0305	-4.88088	-27.3516
95.7828	-3.58002	-29.5552
87.7004	-5.67245	-4.52985
87.0526	-5.20198	-3.2507
85.9352	-19.2509	-3.60279
86.2076	-19.4597	-4.29461
88.4472	-24.1138	-10.0995
89.3201	-26.2271	-11.7957
88.5488	-23.0539	-10.869
87.4365	-14.203	-6.30299
87.7271	-14.4922	-8.54983
90.5483	15.9079	-28.4613
88.1793	12.1926	-31.3955
89.7276	16.6435	-24.9881
87.2523	10.5797	-33.2719
86.7539	10.2541	-34.4305
86.7538	12.8406	-28.8982
87.171	-14.6079	-11.5001
87.4546	-14.5756	-10.6026
96.0881	6.77545	-28.0609
95.9566	5.27453	-27.7386
90.4397	-2.41172	-14.5002
89.8129	-4.75768	-15.6712
91.2271	-1.29596	-17.2028
93.6657	-1.6788	-25.4806
95.2287	1.88173	-26.6205
93.172	-1.57044	-24.0615
7.39767	85.9522	66.2494
6.92417	78.4833	71.6476
14.8085	85.2942	66.2134
7.94772	93.4396	59.2202
-0.220769	85.997	66.1514
6.11084	70.9504	76.0156
-0.560944	70.5685	76.0093
5.02392	62.7444	80.0634
12.7198	71.0561	75.8187
27.2234	57.9664	80.8342
28.0307	54.016	83.0819
22.5686	58.2322	81.7111
5.15051	-23.7747	95.9484
5.50193	-22.6348	97.3829
3.53336	-23.8061	96.2694
7.09817	-23.6973	94.9104
6.1166	-13.8156	101.506
8.54607	-13.7057	100.609
5.9567	-11.8745	101.168
3.65056	-13.8594	101.791
6.25232	-15.6561	101.445
6.24412	-17.5457	100.984
3.76372	-17.6971	101.289
6.14543	-19.3886	100.117
5.26248	-27.7037	90.8717
3.36405	-27.885	91.0945
5.29658	-36.4136	90.0598
7.51805	-36.2368	89.8349
2.59448	-36.7962	90.1939
5.88179	-21.0224	98.9491
8.04228	-20.9696	97.856
3.6183	-21.1676	99.2606
5.58377	-10.0148	100.521
7.94384	-10.143	99.7371
5.10789	-7.84173	99.3295
3.19861	-9.92267	100.713
5.4333	46.8536	85.9219
-0.271009	46.8553	86.2367
5.02039	43.7122	86.2388
11.1813	47.7599	85.5803
5.3183	50.6006	85.0338
2.62454	18.2032	81.4073
2.72235	15.2841	82.6099
2.61354	20.4612	80.7215
0.921979	18.4445	81.4291
2.68651	22.5137	80.3446
4.65556	21.5901	80.0036
2.73291	24.4637	80.2737
0.812655	22.7277	80.412
3.68452	-51.7593	86.1977
1.06123	-51.7803	86.3249
4.0843	-50.5706	84.9149
3.35332	-52.4528	87.6146
3.30882	-52.6414	88.6584
1.00778	-52.7077	88.7125
5.7213	-52.6021	88.2892
3.47133	-52.5329	89.4578
5.18048	-50.8412	91.4548
4.8203	-51.598	90.9203
1.48923	-51.1666	91.6959
4.13153	-52.1019	90.3792
1.21433	-52.2762	90.4747
5.65419	-46.4879	92.1097
1.68528	-47.2494	92.3161
4.35854	-48.0956	83.3699
4.35652	-44.406	81.9643
1.2738	-48.0155	83.4234
20.9961	84.4241	65.767
19.8766	77.8398	70.9076
26.779	83.1331	64.9619
22.1539	91.2338	58.9713
18.3009	49.4641	85.5554
18.4651	47.0539	85.9988
24.0611	50.2662	85.6475
16.7634	52.5714	84.5145
20.2562	44.2563	86.1251
22.4337	41.3264	85.7605
25.4425	45.119	86.0334
24.268	39.0346	84.8871
19.5601	37.9142	85.0778
28.2538	40.222	84.7377
26.0787	26.4473	76.4554
25.542	28.1736	77.3693
22.2716	25.0149	75.6646
29.7156	27.361	77.0487
27.6854	24.4831	75.6791
24.7877	30.3328	78.6891
28.7232	31.2703	79.0097
21.1723	29.0503	78.083
46.9131	87.9492	43.8495
48.3592	93.1643	33.3801
40.9733	91.3629	46.1743
45.9306	82.4415	51.5885
32.1829	81.7476	63.4508
33.6837	87.6427	56.9847
38.079	79.8532	61.1431
29.0443	50.4833	84.9294
29.8469	49.1092	85.2124
34.5538	50.2416	82.6691
32.0922	41.3462	84.0962
31.981	43.0707	84.6125
30.789	46.3069	85.1387
32.6341	31.4045	78.7772
33.0534	29.0678	77.7738
37.4996	30.8663	77.9535
44.5943	77.4019	57.6253
51.4466	74.6877	52.8222
43.1192	72.4129	62.7954
41.0572	48.9017	78.123
47.9908	46.8029	74.2374
40.4249	26.5499	76.1591
41.0071	28.1544	76.4991
37.1702	27.1786	76.8863
43.2809	25.6988	74.9377
44.0107	35.8201	77.3734
43.1782	33.1194	77.0978
49.3854	34.9038	74.874
41.9481	30.2875	76.7872
41.3376	67.1457	67.4396
48.8845	64.5777	62.8302
57.8983	72.3831	46.1836
57.0897	67.1298	51.7998
63.5876	70.2614	38.1025
43.6635	22.7015	73.1985
45.6766	21.6021	71.4607
46.0313	24.5763	73.1355
48.0668	23.2187	71.2593
44.4349	23.4709	73.3105
53.667	33.3123	71.977
57.0486	30.4799	68.4545
17.1184	31.8019	80.6249
14.6098	29.1633	78.8859
17.5171	29.7934	78.908
16.5297	33.3843	82.0266
15.5304	34.8721	83.3864
12.9016	32.2064	81.6442
17.8825	26.8318	76.9761
18.1898	24.4628	75.5269
5.36096	39.9774	85.8612
0.698883	40.4242	85.5893
72.7808	-63.4438	-9.38872
74.5143	-58.0247	-7.58195
72.5372	-63.8483	-15.7052
82.7365	24.5671	-36.1849
82.3204	20.5447	-42.0969
81.266	30.0558	-40.9637
83.4083	27.0689	-27.7426
84.318	19.0496	-31.011
79.2499	-6.6753	-52.3877
78.4547	-12.6587	-50.9667
76.7294	-6.96048	-58.0368
80.1138	-0.831159	-52.3204
80.6384	5.39133	-51.8314
78.3107	7.01114	-58.3578
81.2163	10.9552	-49.848
83.0385	3.47417	-45.5493
74.3835	-29.9632	-45.1369
71.0233	-33.4707	-49.0497
75.8342	-24.2064	-47.4598
5.33333	56.4161	82.9023
-0.335827	55.3339	83.2897
11.0176	56.8083	82.7316
16.4494	57.5887	82.3571
17.2735	63.9265	79.2544
24.0596	-104.875	60.1624
21.7818	-106.776	54.5824
31.8412	-102.263	53.8925
16.8574	-106.594	64.3427
54.3519	-87.5763	42.7334
48.4792	-91.9119	48.8084
59.0584	-83.4397	36.6355
55.1946	-85.2088	46.1883
56.3255	61.5154	56.6176
62.8427	58.4224	49.2533
18.4694	71.1503	75.1998
68.8861	68.054	28.1944
73.1	66.0797	17.8246
68.997	61.726	34.4162
22.9876	98.9292	49.2112
29.2292	96.7834	48.8181
23.4691	106.202	37.2769
16.1152	100.429	49.5097
68.0932	41.6838	49.6452
68.403	48.4431	45.1593
48.7884	21.4319	69.6055
62.6632	29.9941	62.4051
63.1379	24.6413	59.4902
60.8751	28.5917	63.8464
58.8596	27.0815	65.1337
-1.29241	-118.44	49.8568
-4.48495	-118.341	49.934
65.0102	-74.0172	36.345
66.1254	-70.1395	38.9262
60.7453	-77.6836	43.8496
63.8882	-77.3188	33.0493
9.96794	-42.3799	90.7953
11.865	-42.7694	90.4205
9.47303	-39.424	90.1973
25.4834	-48.6509	82.2588
25.0008	-44.6856	83.071
22.8499	-47.0208	84.5049
13.0867	-37.8794	88.7025
10.681	-36.7861	89.2687
13.7056	-40.6775	89.2268
15.6806	-38.6468	87.726
12.3989	-34.8096	88.0854
34.0001	-52.2611	77.3441
33.2511	-55.9284	76.6766
36.82	-53.1601	76.2217
34.3753	-48.0816	77.9791
68.1723	19.8195	52.3869
65.5845	19.4297	55.1977
68.8392	13.6688	51.4649
70.3085	20.5758	49.5066
72.453	21.4292	45.9076
74.9188	21.5176	40.5894
53.0027	18.2957	65.0462
52.83	16.2088	64.4343
63.0685	19.0362	57.5597
85.4354	10.8936	-36.4492
85.2345	7.05558	-39.7968
83.7797	12.7858	-40.5236
85.6711	13.5305	-32.3372
82.511	-16.0892	-41.4284
80.2477	-16.7343	-44.6152
76.4604	-50.1552	-17.7196
78.466	-45.6481	-15.3385
76.3403	-52.1044	-11.6131
74.259	-55.9842	-20.2603
76.5941	-46.834	-23.4796
84.9427	2.32965	-41.936
83.0572	-23.9283	5.30931
82.3988	-28.2771	4.50054
83.6169	-19.4171	5.89866
82.3553	-24.4346	9.76692
79.4585	4.42701	32.1786
79.0633	12.369	31.5502
79.6431	-3.31288	32.6106
81.6881	2.72995	23.2225
56.3423	12.5294	61.7507
54.0953	13.6501	63.2677
54.1975	9.68855	63.5715
52.0714	14.5	64.6812
50.3326	12.8771	65.9427
81.5896	-24.1582	16.256
80.6682	-23.6007	23.1907
80.896	-29.2659	15.2885
82.2278	-18.8428	16.6025
28.1224	-9.60646	76.2607
31.8763	-11.329	75.2351
26.1209	-5.92286	75.9631
24.6293	-8.0117	77.9572
37.5205	-13.7526	74.3788
44.5256	-15.567	72.8938
38.9429	-18.697	74.8896
20.7741	-6.25605	80.7983
17.0612	-4.04025	83.9111
21.5424	-9.25707	82.0548
25.416	-14.8571	80.0558
23.6841	-13.1782	81.4701
20.7671	-17.9896	88.3346
19.0665	-17.3052	90.443
20.4864	-19.8506	87.7715
21.7496	-18.6088	86.8167
22.3518	-19.2214	85.466
21.7756	-21.4975	84.9693
41.8274	-34.7658	75.2557
36.2345	-33.8125	77.0083
42.0512	-39.884	75.2193
41.1368	-29.6985	75.3483
39.9629	-24.0345	75.1816
8.37623	-30.9308	89.0032
8.75166	-33.4192	89.1155
9.76936	-31.4427	88.4528
64.9955	-50.604	55.3587
66.1908	-44.3554	55.7355
60.2417	-49.3165	61.853
63.3257	-57.1998	55.1498
29.1274	-42.1342	80.5684
26.7704	-41.4326	81.7648
31.5382	-42.7765	79.4985
42.0207	-45.0856	74.9559
41.628	-50.1517	74.7131
48.0403	-46.3924	71.8794
37.3633	-44.1143	77.0249
9.05783	-36.4135	89.6124
61.2674	-64.0525	54.9011
64.4779	-65.5536	47.9483
56.9804	-61.068	61.9593
58.1125	-69.7807	56.3668
67.4274	-28.0305	57.3586
67.3545	-33.2897	56.7563
71.6137	-27.7134	50.8844
32.8007	-96.8934	71.8663
33.3135	-93.8208	74.0705
27.5425	-98.7734	77.3122
44.5518	-83.2585	65.9966
49.4301	-79.2256	62.4245
42.9434	-78.4544	69.7815
39.0424	-86.7722	70.7133
62.3487	-5.45938	61.308
58.9756	-0.525155	62.7855
55.5875	-6.19294	66.3461
47.5442	10.8979	68.0324
49.0041	8.94235	67.1845
56.1017	2.67259	63.8732
49.9893	1.01246	67.7671
53.1087	5.08878	65.2251
45.1849	14.066	69.6094
4.73829	-95.0121	94.9717
0.0551523	-94.8242	95.4503
52.0301	-58.5202	67.3933
50.0326	-62.9749	68.0137
53.3176	-53.4262	67.3685
46.229	-56.3319	71.7215
40.8238	-74.1661	72.6182
44.2106	-70.7042	70.7074
37.507	-69.9875	75.2023
36.5243	-77.1202	75.6541
47.5232	-6.51545	69.9984
50.3304	-11.1497	69.9203
44.6209	-2.48584	70.3951
54.5302	-47.9176	67.3755
52.4098	-16.0668	69.5292
12.4877	-84.7592	93.303
11.7436	-79.0917	92.4764
17.225	-84.0584	90.8136
22.3092	-83.019	87.4378
27.1618	-81.5342	83.5477
21.3493	-77.8438	87.298
42.4769	0.440357	70.6032
40.7805	2.60901	71.038
35.2274	0.474699	72.255
50.9607	7.03114	66.1746
45.9231	5.31719	69.1789
39.4249	4.52947	71.4616
32.5951	4.52654	72.6804
13.9309	-2.00639	86.2526
14.7616	-5.34723	88.4744
13.0192	1.73673	83.9306
16.2413	-11.93	92.9327
15.9624	-10.517	92.0651
13.4355	-11.0646	95.807
16.5974	-12.9978	93.1321
10.9835	11.2408	78.9805
11.4661	8.78286	80.086
23.7604	-1.96377	75.6086
2.97314	11.5759	84.5681
1.17052	11.8879	84.5433
68.6336	7.3107	52.5862
12.2551	5.50435	81.6675
67.5119	-65.1425	40.8103
70.7107	-62.2657	32.6026
74.7541	-13.403	46.1764
74.9636	-20.4894	44.9606
77.4401	-11.5134	39.4797
73.7431	-38.1173	42.7103
74.4255	-32.4314	43.2673
70.8143	-38.7099	49.5856
75.8918	-37.419	35.8507
74.8948	-26.4665	43.9343
77.2914	-25.3818	37.1334
22.9663	-100.398	81.5578
11.1106	-74.4661	91.5931
7.3777	-74.635	92.6485
15.5964	-74.0633	89.7039
20.2471	-73.5936	87.1302
26.059	12.9885	73.0566
29.0947	1.78693	72.9036
27.8174	3.9386	72.9227
26.8398	5.62499	72.9082
3.96188	-74.5671	93.2089
0.711334	-74.4512	93.4093
6.37092	25.6009	79.6711
7.62743	24.8175	79.0313
6.9722	28.0314	80.3268
4.74503	26.0849	80.1745
6.10792	23.0632	79.3903
16.3227	15.2899	72.3578
15.9509	16.4418	72.5335
13.8538	15.3319	73.9994
8.62734	23.677	78.3165
9.64797	26.1854	78.6739
2.82161	26.6222	80.5358
0.632638	26.7645	80.6269
8.70969	-23.5479	93.718
9.35588	-22.4254	94.9211
11.0177	-13.6299	99.0137
10.9504	-12.0531	98.6846
13.8943	-13.6995	96.396
20.6755	-26.1001	82.8084
20.3607	-24.8954	83.8571
18.0025	-27.4892	84.0511
10.5498	-10.4716	98.2254
6.56102	19.8041	79.3766
7.95863	31.0433	81.6829
9.68161	30.1951	80.8497
16.4268	17.966	72.7338
11.1008	29.1611	79.8703
11.9805	27.8041	78.6702
12.5047	26.3372	77.7323
22.5092	-32.911	81.8889
19.6643	-33.1939	83.561
23.2762	-36.6556	82.6377
24.2863	-40.7375	83.0405
21.3239	-39.9248	84.7474
24.6094	-55.7211	77.0567
24.5185	-54.5841	76.5755
22.7147	-55.4778	78.316
25.2702	-54.1832	79.9383
23.6962	-52.8879	81.9755
24.6597	-51.3676	75.5087
21.479	-50.9524	77.5208
24.7923	-47.4561	74.6112
17.005	-33.3329	85.1694
14.2871	-32.982	86.5957
17.7039	-36.1803	85.7704
18.6391	-39.3793	86.2381
19.2831	-42.3318	86.5995
20.2756	-54.9106	79.8659
19.0868	-53.4026	79.9195
18.6931	-50.4345	79.1127
19.1945	-46.4815	77.9518
11.8077	-32.1527	87.6976
11.3721	-29.9053	87.5061
14.5864	-43.366	89.4273
17.27	-44.1482	88.1789
21.4896	-11.413	83.8762
18.4367	-9.88427	87.4603
4.71292	-4.99465	97.2629
2.52407	-4.83085	97.347
15.3574	-8.18005	90.5613
10.1445	-20.6216	96.5105
12.5639	-20.5818	94.2615
15.3253	-20.587	91.8566
16.1872	-18.7094	92.5706
18.0618	-21.0168	89.213
19.676	-21.7089	87.3075
20.2723	-22.6961	85.9278
20.387	-23.7861	84.7802
16.6646	-14.0475	93.3989
16.6279	-15.3493	93.478
16.5604	-16.9399	93.1519
42.301	-145.925	16.4393
37.2408	-147.634	19.9376
43.0599	-151.798	15.0688
46.8379	-144.079	12.8782
41.3566	-137.841	18.3301
40.7064	-126.362	20.7234
45.3835	-124.449	16.4708
41.0136	-116.085	22.7432
35.6031	-128.204	24.9923
45.779	-99.6435	28.5313
50.3745	-96.6662	22.9347
40.4266	-102.581	33.9359
44.4219	-103.517	25.4399
42.4955	-108.865	23.9224
37.1199	-111.047	29.3699
47.0468	-106.627	18.9961
47.685	-67.0031	68.8942
51.4268	-70.7041	64.3276
42.879	-63.7944	72.6397
54.4608	-74.7799	58.5751
55.5768	-78.7337	53.8453
55.7879	-82.157	49.7325
38.7929	-61.3767	74.7088
39.9945	-58.2799	74.491
34.9172	-59.3744	75.9542
36.5878	-63.9789	75.5253
32.5162	-58.3427	76.4286
31.4474	-59.9344	76.6621
54.1988	-93.7948	17.5624
56.2588	-89.8583	19.9877
52.5987	-98.4961	15.3216
57.4842	-91.5087	11.72
58.5201	-86.2898	23.1543
61.2735	-83.5832	16.3805
60.7085	-83.0652	26.2732
62.5019	-80.1596	29.7679
65.1041	-77.2196	22.4727
49.6461	-122.404	12.1119
50.07	-134.018	10.5863
53.5961	-120.755	7.62614
50.0016	-112.037	13.2216
50.8671	-142.294	9.17853
51.7824	-148.433	7.876
54.579	-140.529	5.17595
51.0376	-104.358	14.0777
79.2063	-24.2429	30.1975
78.4835	-30.34	29.5476
79.6887	-17.7832	30.9487
66.8567	-74.907	15.5615
65.1073	-78.0747	12.7586
68.1307	-72.9742	8.83383
78.1972	20.753	31.7594
81.2435	18.3321	20.4998
72.9363	-59.3888	24.6883
74.5952	-56.4178	16.6564
77.6179	-36.2472	28.9788
79.0639	-34.884	21.6986
79.7721	-10.466	32.1237
81.5572	-11.4604	24.3051
80.0265	-34.4654	14.4355
80.8753	-33.6304	7.87475
64.6501	-87.6976	-4.72861
64.08	-92.8117	-5.71955
66.3064	-87.1424	-9.58264
65.4131	-83.1789	-3.40004
62.6667	-88.511	0.319033
63.6213	-98.5379	-6.18879
66.4556	-78.9485	-1.4223
64.948	-80.1158	4.06221
67.7915	-78.1115	-6.99012
67.7027	-75.0967	0.44833
83.1985	1.18839	14.2942
83.2469	8.74422	12.0213
82.9797	-6.44158	16.2539
83.1833	16.6939	9.27901
83.0131	24.2283	6.84238
82.764	31.8711	3.63706
83.6561	30.6005	-7.62715
82.4329	39.4599	-0.177577
75.541	-54.5416	8.69588
76.0517	-53.3943	0.995524
82.6618	-12.9092	16.9553
83.4539	-14.2156	10.5099
57.3256	-119.07	2.7655
57.5199	-130.514	1.79851
63.2852	-81.6647	10.1823
61.6012	-85.5446	7.75631
58.0384	-138.651	0.707537
58.7859	-144.617	-0.603635
66.1485	-113.935	-15.8678
66.1216	-123.579	-17.0912
67.5717	-86.4967	-14.3719
68.3396	-84.6479	-19.4254
68.2109	-81.7328	-13.5703
69.0695	-77.0131	-12.4467
66.1638	-130.754	-18.588
66.182	-136.45	-20.5857
76.1594	-53.1141	-5.96228
81.6342	-32.5377	3.45886
82.5207	-30.9174	0.305504
80.8985	-36.4956	1.78873
84.0476	-14.6886	6.26239
66.891	-92.5257	-27.145
65.2563	-88.2028	-33.985
67.6144	-86.0625	-26.1825
68.6259	-79.957	-25.3535
67.7928	-73.4235	-31.3918
72.3004	-62.5047	-22.0734
79.789	-42.9705	-14.0231
80.64	-40.474	-20.4616
60.9649	-119.48	-44.7942
60.794	-127.273	-46.2027
57.3824	-116.711	-51.8574
61.2103	-111.154	-43.3462
77.226	-41.846	-28.116
79.7135	-38.0251	-26.4099
81.4416	-36.2569	-25.6979
31.9379	-149.107	23.191
30.929	-141.225	25.6842
26.5607	-150.453	26.0859
32.9466	-154.693	21.2649
30.6514	-113.017	35.1259
23.5003	-114.897	40.5008
29.5231	-119.75	32.7902
32.2421	-108.794	37.0558
38.6578	-99.4553	48.1446
36.0859	-102.081	44.0697
40.8658	-97.3418	51.6399
33.872	-105.297	39.9772
26.7655	-107.577	45.574
29.8758	-129.722	29.3662
23.9173	-131.584	33.2945
34.5601	-66.6037	76.5811
31.8882	-63.5713	77.2117
42.3138	-95.5818	54.6599
30.1484	-61.6546	77.3743
28.158	-63.3096	78.8662
28.7749	-60.1739	77.4239
27.6867	-59.0208	77.4539
26.1158	-60.2016	78.8019
32.0174	-79.8438	79.3584
33.0489	-84.7171	78.0079
33.6021	-89.7601	75.9924
21.2332	-56.8362	81.4423
18.3263	-56.4357	84.2227
20.9549	-56.3251	80.1605
23.959	-56.7962	78.1643
21.0326	-56.5524	79.798
17.6858	-55.6311	82.4203
21.0726	-56.9637	79.557
21.2021	-58.2592	79.2232
17.7173	-56.3005	81.5527
21.2708	-61.2672	79.1956
21.1377	-65.0078	79.6844
17.7497	-60.3577	80.9632
16.4378	-116.345	44.7287
17.6561	-112.529	47.1127
16.5803	-122.928	41.3729
21.0853	-151.791	28.6315
19.8275	-144.22	31.7705
15.6838	-152.797	30.7705
22.2506	-156.964	26.3741
18.1113	-133.149	36.6558
6.9616	-111.12	54.8472
12.0999	-110.815	53.1464
9.15087	-108.869	60.3692
10.949	-153.493	32.2967
12.155	-158.434	29.9501
11.4031	-107.506	66.8463
14.4796	-55.0076	84.5621
14.4049	-55.2876	83.894
14.3538	-55.7988	83.397
14.5858	-56.937	82.7651
14.4594	-59.7078	82.4598
14.4905	-63.7809	82.628
77.6481	49.8585	18.4397
80.3699	48.1707	6.84854
77.2506	57.1069	12.8122
73.8061	52.1564	29.6596
83.6932	29.1097	-18.0093
77.0832	-18.5644	-49.6625
74.0541	-20.5744	-54.5803
54.5346	-95.035	-54.7169
55.3472	-84.6837	-53.7104
57.8607	-98.1696	-49.2369
54.2002	-105.391	-55.8194
51.0922	-92.7405	-59.6156
54.1048	-114.423	-57.1129
54.2462	-123.012	-58.3256
50.6387	-112.709	-61.8263
62.5969	-82.5523	-41.3041
61.7962	-92.3264	-41.7266
59.5344	-78.0651	-47.6668
64.0901	-73.8944	-40.0238
23.4139	112.664	23.1999
30.3487	109.928	23.1758
23.3277	117.36	7.67763
16.161	114.566	23.2847
22.7863	102.081	-78.473
23.4644	110.8	-62.4751
29.9417	100.092	-76.5283
21.969	91.1743	-91.7531
15.2913	103.473	-79.9381
21.4669	79.2171	-101.377
28.3676	77.5955	-99.3434
21.1423	65.9946	-108.639
14.4669	79.9686	-103.011
23.6043	116.679	-45.2624
30.8702	114.228	-43.5577
16.0348	118.459	-46.3897
23.5647	119.675	-27.2594
8.18494	123.047	-10.2955
0.157136	123.427	-10.4869
8.18265	120.611	7.1926
15.9495	121.854	-9.91665
8.18906	122.741	-28.613
20.8544	52.9871	-113.592
27.274	51.6353	-111.545
20.5407	39.5272	-116.869
14.3399	53.7509	-115.057
20.0322	25.4613	-118.674
26.3636	24.4941	-116.482
19.5253	11.5813	-118.847
13.7172	26.3988	-120.187
17.4584	-26.943	-107.884
23.3255	-27.6771	-105.706
17.2086	-38.6216	-100.527
11.8649	-26.8457	-109.051
18.2398	-14.3908	-113.754
6.53787	-0.449549	-120.019
0.149191	-0.377886	-120.352
6.75741	12.7103	-121.441
12.7763	-0.87389	-118.997
6.22461	-13.2976	-116.449
15.3192	-85.6439	-82.9165
15.6862	-76.051	-83.9239
20.8096	-86.3932	-81.5986
15.0586	-95.1652	-82.5188
10.0498	-85.2286	-83.6598
4.69027	-103.835	-83.1254
9.82035	-104.262	-82.8449
4.79716	-113.529	-82.8989
-0.250918	-103.634	-83.205
4.81632	-94.1069	-83.4801
17.4146	-47.8634	-94.4564
22.8269	-48.4195	-92.8978
17.0576	-56.1441	-89.8947
11.5876	-47.4194	-95.4577
16.2662	-65.6695	-86.2559
22.0834	-66.7601	-84.5374
10.8142	-64.8878	-87.2307
5.34777	-64.6224	-87.6624
5.63828	-55.2737	-91.3429
5.02576	-75.197	-85.2027
-0.148363	-64.833	-87.696
49.2274	98.1335	20.8444
55.2004	92.7816	19.7836
50.0556	101.85	6.81452
43.1827	102.635	22.0108
47.5957	70.6756	-89.1453
53.165	67.6099	-84.8352
47.2098	58.6727	-96.0249
41.6655	73.2837	-93.0356
48.0271	81.5806	-79.8626
48.4141	91.0953	-67.7105
42.6455	94.6591	-71.0351
49.1116	98.1495	-53.4241
54.0575	86.746	-64.0441
49.8785	102.445	-38.5164
55.7768	96.8596	-36.6426
43.9418	107.063	-40.2219
50.7553	103.994	-23.4434
50.5811	103.948	-8.20878
44.3445	108.924	-8.22515
56.5743	98.2235	-8.15743
46.5437	46.5084	-101.006
45.8464	33.884	-104.31
40.5652	48.3611	-104.99
52.0814	44.3436	-96.6411
44.8688	21.1029	-106.171
50.3227	19.7199	-101.781
43.904	8.17684	-106.296
39.1242	22.18	-110.041
42.6494	-4.31534	-104.85
41.4209	-17.1492	-101.325
37.2927	-4.02511	-108.518
47.6063	-5.00263	-100.627
40.7648	-29.668	-95.4789
45.6649	-29.3455	-91.6318
40.362	-40.5525	-89.1143
35.2775	-29.1026	-99.4073
39.9298	-50.0297	-83.4666
39.3609	-59.5141	-78.5856
34.4888	-49.8777	-87.17
44.7847	-50.1663	-79.1964
37.2426	-88.1499	-73.6188
36.2069	-98.1747	-74.4886
31.8908	-87.7483	-77.0085
38.2506	-78.4822	-73.5802
42.1485	-89.0987	-69.6143
25.3367	-105.756	-79.9723
25.4628	-114.656	-80.1371
20.0652	-105.073	-81.3865
25.6972	-96.6245	-79.7782
30.7005	-106.653	-77.8943
38.8253	-69.0918	-75.1992
43.8286	-69.388	-70.6857
33.6295	-68.4875	-78.9309
68.5837	70.6078	-50.3544
69.8402	74.6065	-38.6253
72.8503	63.974	-44.4014
67.6604	64.4073	-61.0262
64.0661	76.4652	-55.6969
70.8125	76.9006	-26.9677
74.9542	69.2715	-21.6119
66.2267	84.0775	-31.2551
71.4122	77.9259	-15.4037
70.7445	78.7394	-4.19792
73.983	71.5339	0.874642
66.7307	85.5226	-6.69004
56.982	42.1527	-92.0523
57.687	53.4024	-87.0198
61.4633	39.5641	-87.1629
56.2504	30.2724	-95.3488
58.0638	64.3972	-80.2855
58.5345	73.963	-71.468
62.6979	60.5661	-75.2846
52.541	-5.62253	-95.6341
54.2332	6.3352	-96.9574
57.2993	-6.35614	-90.0605
50.9311	-17.6158	-92.5414
55.3158	18.153	-97.0118
59.9593	16.8549	-91.8615
50.0752	-28.7991	-87.4889
54.4221	-28.668	-82.3706
49.803	-39.8069	-80.7589
49.1352	-49.4454	-74.9422
53.0466	-47.7441	-70.9277
48.8753	-69.9665	-65.061
53.2719	-72.4201	-58.5924
47.9084	-80.1131	-64.1668
79.3379	35.8947	-46.0718
78.3718	29.8481	-53.7812
77.0443	41.1751	-51.8175
60.6263	86.875	19.3504
61.3475	90.4869	5.7892
81.5765	46.8275	-4.61219
80.3265	54.2501	-9.93417
68.4662	-6.85668	-74.1079
65.1254	-7.04303	-79.2952
69.8043	2.53012	-75.4644
71.6037	-7.08903	-68.5068
66.8158	-16.6349	-71.3677
70.5141	12.0277	-76.0457
67.3457	13.703	-81.5575
71.3314	21.0895	-74.4743
73.5678	10.0558	-69.9225
72.1763	30.2949	-70.9906
68.9521	33.6597	-76.7225
73.1827	38.7401	-65.351
75.0969	26.5724	-64.9951
61.9339	-41.5949	-60.2655
59.0599	-43.9495	-63.7792
63.4039	-33.9541	-64.0883
64.8339	-39.3069	-56.4954
60.6725	-49.4003	-56.5825
71.0847	-22.3278	-59.268
69.4248	-29.6028	-56.0844
68.2206	-24.039	-63.4464
72.8043	-14.9058	-61.555
56.6979	-75.0122	-53.0055
58.121	-65.8085	-53.0956
82.596	-35.3391	-5.51422
83.2639	-31.5623	-3.28234
81.0847	-38.3376	-3.44649
83.2851	-29.7021	-1.71729
86.3451	-3.93271	-1.84161
86.8205	1.19032	-3.78122
96.0821	5.35741	-37.871
96.2033	11.2443	-35.2661
96.7518	4.98151	-37.1485
87.5949	-34.0223	-25.4119
86.6273	-36.771	-22.1591
95.8609	16.0571	-31.5084
94.8554	16.356	-32.0146
95.31	19.3227	-27.1458
96.7852	15.4002	-30.9474
90.8673	11.8908	-10.2395
89.4965	11.8616	-10.8947
94.7204	20.7665	-22.6559
95.6977	20.0651	-21.9293
91.8212	-17.5608	-35.1743
89.4509	-34.5238	-18.0189
89.0027	-34.2761	-15.354
87.7678	-36.6978	-18.6245
87.0242	3.68376	-5.42533
91.7623	19.2195	-18.0793
90.1261	16.2759	-15.4052
90.622	18.3281	-19.7406
88.081	12.1078	-12.3617
87.0974	12.512	-13.9926
94.1708	16.1839	-32.2516
86.2808	12.1613	-15.4952
87.3042	14.0281	-18.1763
88.5894	15.7944	-21.8252
86.4815	13.643	-22.9991
91.6534	-25.8983	-28.1966
92.1384	-27.2605	-20.5682
86.2042	-37.9106	-19.1866
88.3613	-33.2821	-13.0716
89.485	-30.3332	-12.9136
90.3167	-27.9578	-13.6894
90.715	-26.4206	-14.5211
96.972	4.70853	-36.7257
97.3724	10.3764	-34.2126
94.6978	17.6301	-14.3146
94.9146	17.0112	-14.0562
95.6672	19.1691	-17.4248
94.932	16.4153	-13.9551
95.9534	18.0267	-17.0329
94.7996	15.348	-14.1806
97.1906	14.8627	-30.5852
96.7647	17.8724	-26.253
97.3163	14.3749	-30.4615
96.3001	19.3573	-21.4757
96.5428	18.7596	-21.3928
96.5792	18.1967	-21.1565
96.9439	16.8533	-25.9314
97.2969	14.0155	-30.16
96.5684	0.408226	-35.8223
94.5539	14.0346	-14.7936
92.378	6.91277	-12.5004
96.0083	13.4746	-23.5219
96.3335	-2.61658	-30.6623
96.3565	-0.71346	-30.2968
96.2732	1.18254	-29.6433
96.0845	2.71307	-28.675
95.7725	3.97355	-27.3596
94.9854	4.89728	-24.7266
88.7697	-22.7401	-12.115
89.8969	-24.4373	-13.867
90.8662	0.379229	-9.67771
87.633	-14.5713	-9.76824
90.7881	-25.7147	-14.9961
33.3458	27.4077	77.1506
34.994	94.4385	47.7181
36.2193	100.844	36.2349
8.24165	101.481	49.4702
8.35555	109.164	37.3506
-0.0340272	101.798	49.2875
36.8187	106.688	22.6338
37.2651	110.977	7.72187
8.27258	115.746	23.2578
0.0873323	116.153	23.0354
23.3272	119.862	-9.39962
30.6368	116.996	-8.8594
37.5417	113.4	-8.56806
37.7726	113.431	-25.14
68.8673	55.074	39.8398
76.0193	64.2028	6.69859
77.7983	62.8549	-4.5191
61.8134	92.2695	-8.01578
62.0062	92.0401	-21.2618
8.17328	119.547	-46.9876
8.08355	113.41	-64.5589
0.206448	119.903	-47.1768
37.4459	111.16	-41.6779
37.092	105.827	-58.4443
77.9947	61.6746	-15.7676
77.4865	60.0831	-27.0635
61.0266	90.9403	-34.4342
60.0566	87.6525	-47.3549
76.3219	57.3056	-38.2073
75.1945	52.8599	-48.744
74.1171	46.7277	-57.8014
70.7825	51.6752	-63.8961
46.9473	-90.9599	-64.7349
46.1599	-101.161	-65.9748
46.1093	-110.669	-66.924
46.1264	-119.417	-68.073
40.942	-108.786	-71.5632
7.76433	104.398	-80.6184
7.468	92.8975	-94.1836
0.223195	104.578	-81.0215
7.41096	80.3865	-103.943
7.42313	67.2014	-111.026
0.180164	80.498	-104.259
7.44533	54.1846	-115.938
7.30627	41.0046	-119.216
0.162001	54.3717	-116.217
7.0173	27.0411	-121.113
0.168328	27.0681	-121.439
18.9507	-1.55331	-117.304
25.1058	-2.5019	-114.945
5.88394	-26.6509	-109.851
5.83253	-38.7907	-101.715
0.114604	-26.7702	-109.996
5.77888	-47.5473	-95.7169
-0.0260212	-47.7757	-95.6678
4.92375	-84.7669	-84.0409
-0.230278	-84.5736	-84.1497
35.0946	75.6302	-96.5534
35.69	87.33	-86.9552
34.6108	62.9407	-103.611
36.3537	97.6104	-74.2066
33.9837	50.1564	-108.592
33.4075	36.9655	-111.856
32.7652	23.4612	-113.581
32.1349	9.73439	-113.624
31.2807	-3.35372	-111.978
30.3309	-16.06	-108.424
29.3465	-28.3919	-102.898
28.6841	-39.6569	-96.3537
28.6723	-49.1821	-90.4466
28.5941	-58.205	-85.5739
27.9034	-67.6268	-82.1556
27.198	-77.4903	-80.1892
26.4971	-87.0138	-79.6139
35.9873	-107.542	-75.0822
36.1415	-116.473	-75.6367
59.0941	82.092	-60.0946
66.9092	56.6486	-69.6171
66.2232	46.9248	-76.8077
65.3492	36.9708	-82.1268
64.5824	26.2286	-85.4696
63.8184	15.4483	-86.8688
62.9469	4.31877	-86.3321
61.3718	-6.942	-84.6552
59.6622	-17.7326	-81.7413
58.1673	-27.7092	-77.7584
61.7275	-27.0024	-72.684
57.0984	-37.4663	-72.4168
56.1437	-45.8725	-67.4369
59.6293	-57.5812	-53.7377
62.0241	-55.9778	-50.3889
77.3821	23.4673	-59.4482
76.6912	16.036	-62.7363
79.5936	19.7985	-53.3641
74.1857	-7.06822	-63.4962
75.3227	0.796468	-64.2976
64.9961	-25.6381	-68.0918
76.01	8.69637	-64.3735
67.7622	-36.8115	-52.8163
66.3447	-44.0155	-49.7015
19.268	-109.454	50.2355
69.2715	-71.273	2.37677
60.2385	-89.7346	6.00504
15.8185	-48.7459	88.9127
18.4713	-49.7957	87.0714
21.4672	-51.4008	84.3752
9.14469	-57.6846	90.8996
9.45548	-58.7291	91.1242
9.72949	-59.8584	91.2575
25.336	-64.9484	81.5074
24.4272	-63.1814	81.6086
23.5888	-61.6313	81.7832
20.0639	-45.5018	86.3745
41.0368	-54.5932	74.4677
32.4374	-33.032	77.9201
33.2227	-38.2497	78.443
34.1028	-43.2973	78.3597
67.0132	-38.6663	56.1065
18.5433	22.9088	74.6721
81.6607	16.2247	-46.8867
85.3441	15.3908	-27.3321
86.1884	13.5187	-25.0224
79.8238	-41.1767	-0.154866
26.0326	11.715	73.1606
55.1906	44.1848	69.3977
11.3427	-28.1958	87.572
46.9924	20.2626	69.7395
15.2228	-27.0475	85.8863
86.1441	13.354	-23.9393
61.3497	-101.983	-42.5121
66.5367	-65.3598	-38.2205
65.2596	-58.6679	-43.3505
64.9458	-52.7087	-47.0259
26.9986	-23.6084	78.3772
15.045	-56.1474	86.7809
25.6563	-56.9398	77.1709
8.62007	-52.746	87.4822
-78.7079	-46.7256	10.1195
-79.5665	-41.5855	11.4758
-79.5006	-45.0325	3.45426
-77.7268	-51.5687	8.80788
-77.6948	-48.1847	17.8777
-64.8319	-117.494	-5.92792
-65.1146	-107.223	-5.66835
-66.6253	-116.07	-10.6132
-64.8107	-127.761	-7.02764
-62.468	-118.72	-1.30738
-64.9704	-135.182	-8.35515
-62.6637	-137.175	-3.5566
-66.5817	-133.249	-13.1634
-65.1365	-141.053	-9.67746
-60.2549	-102.01	4.88674
-63.2062	-100.756	-0.560572
-59.7652	-109.68	4.18401
-57.0952	-103.689	10.1213
-61.1526	-96.0713	5.64601
-68.2117	-98.368	-14.4217
-67.12	-99.0614	-9.96384
-68.5756	-92.8703	-14.2846
-68.6795	-96.9271	-19.639
-67.9045	-105.389	-14.6639
-71.9938	-68.2778	20.0402
-73.0741	-66.4243	12.5763
-70.3656	-72.179	17.9419
-70.1955	-70.6782	27.8349
-73.3312	-64.3608	21.9023
-76.5374	32.8686	25.06
-79.8937	31.2674	13.1192
-76.6241	25.6036	27.8388
-72.0763	35.5373	36.1821
-76.7555	40.5388	20.7031
-80.5281	42.5033	-28.3214
-82.1057	35.1829	-23.5723
-81.1178	44.3207	-17.6014
-78.5412	49.4969	-33.4292
-79.8001	39.428	-38.0901
-13.6097	-117.554	48.1689
-14.3603	-113.282	50.6388
-17.2955	-116.906	46.8363
-12.8979	-124.412	45.7205
-10.624	-117.878	49.0391
-13.0599	-135.334	40.7828
-13.342	-146.147	35.5711
-9.25418	-135.667	42.0142
-17.2854	-134.259	39.1954
-5.31534	-154.184	33.9041
-5.5149	-159.055	31.7304
-5.34278	-146.919	37.2657
-9.39402	-153.828	33.3316
-72.4974	-53.735	-33.0008
-72.8268	-46.0307	-37.1632
-69.8252	-59.8736	-35.2083
-72.5331	-60.179	-27.8221
-75.0705	-47.5798	-30.8276
-73.3535	-40.5209	-40.1739
-76.5625	-35.8459	-37.0929
-73.9586	-35.7471	-42.5773
-69.6188	-46.3727	-43.4377
-66.9165	-125.983	-29.7398
-67.6864	-129.177	-23.2306
-65.0742	-123.078	-36.5909
-66.3668	-132.627	-32.0983
-5.64575	-136.054	42.6482
-6.19965	-125.206	47.4792
-76.004	-50.85	26.0198
-75.1118	-56.343	25.0492
-74.1267	-52.4536	33.3836
-76.8755	-44.6539	26.5245
-73.8469	-64.6544	5.20702
-75.3307	-60.3689	6.37884
-74.1538	-63.8326	-2.34944
-72.2473	-68.7763	3.79354
-13.6102	-94.2161	92.8556
-13.1363	-89.8009	93.7998
-18.3134	-94.2448	90.2187
-13.7893	-98.3962	90.7764
-9.04316	-94.3037	94.5202
-23.4121	-93.1845	86.8052
-23.3347	-88.1706	87.6921
-28.9408	-91.338	82.3236
-23.3484	-97.5115	84.9076
-4.14885	-85.1839	95.9175
-4.37229	-90.2904	96.1467
-3.48058	-79.514	94.722
-8.17652	-84.8573	95.1404
-13.6747	-101.746	87.8036
-9.19158	-101.787	89.4414
-18.3786	-101.51	85.3902
-13.7751	-104.146	83.8741
-14.3946	-105.656	78.931
-14.8475	-106.521	73.1271
-9.18246	-106.2	80.0424
-14.4284	0.309521	78.5352
-11.6672	2.54236	79.9854
-13.8802	4.50223	76.7632
-17.3156	-1.27205	77.0623
-14.9967	-3.99716	80.3412
-51.4738	-29.2132	69.6101
-52.8766	-34.2011	68.8174
-44.6005	-27.772	73.363
-50.2122	-23.9164	70.0877
-58.3573	-29.829	64.3824
-62.8303	-18.316	59.3494
-63.9783	-24.2755	58.4826
-56.0474	-18.6014	65.5411
-61.3061	-12.383	60.2633
-68.8438	-17.2413	51.8606
-73.7278	3.50237	41.5251
-70.8881	4.912	45.9837
-72.8949	11.0245	41.375
-75.8996	2.84084	36.7865
-53.8759	-39.2675	67.7754
-46.8823	-37.9796	72.4417
-60.3902	-40.2299	61.9331
-54.36	-44.7862	67.0438
0.110613	2.68486	90.7051
-1.79134	2.01285	90.2887
0.288827	-1.32523	94.019
-0.309471	7.21611	87.2292
-29.832	68.8274	70.8554
-31.2882	74.7245	66.399
-35.4587	67.328	68.3604
-28.4145	62.1988	75.7939
-24.7022	69.7028	72.6774
-6.07698	-108.212	68.4539
-5.04753	-107.503	74.7941
-10.2618	-107.895	67.8114
-6.70005	-109.097	62.2614
-71.84	-53.2728	40.4431
-72.71	-46.852	40.713
-70.5134	-60.0623	40.365
-68.831	-53.6437	47.4636
-4.45622	-102.018	90.1777
-4.31526	-104.757	85.7561
-4.33999	-98.6786	93.2797
-4.49212	-106.482	80.5979
-46.4424	-90.787	60.39
-46.656	-87.4666	63.3822
-51.8635	-87.3973	55.3824
-45.5265	-93.457	57.9136
-40.6764	-93.5507	66.2289
-52.0613	-94.2696	36.9684
-46.8926	-97.2601	42.6786
-54.2994	-91.215	40.4317
-56.4904	-91.0023	31.1466
-49.8157	-97.5177	33.3283
-7.31949	-110.824	56.2474
-8.34184	-113.744	52.0405
