1877
38.03	-50.0497	-83.0444
37.1237	-59.4454	-78.1054
33.0402	-49.8454	-86.8278
42.3972	-50.2611	-78.6925
34.8709	-87.6985	-73.3743
34.0513	-97.6263	-74.4099
30.0416	-87.2697	-76.8221
35.7678	-78.148	-73.1755
39.2233	-88.6632	-69.3178
24.1973	-105.089	-80.0784
24.4359	-113.909	-80.3522
19.2673	-104.384	-81.5302
24.4335	-96.0386	-79.7795
29.1761	-106.003	-77.9602
36.3867	-68.8961	-74.7188
40.7971	-69.2542	-70.1029
31.7153	-68.2501	-78.536
66.6536	70.0247	-51.2317
67.6393	73.9194	-39.7791
70.4708	63.2064	-45.3737
65.9417	63.9059	-61.6754
62.5056	76.018	-56.4778
68.2831	76.1109	-28.4512
71.8752	68.2181	-23.2674
64.163	83.4871	-32.5843
68.5459	77.0306	-17.2778
67.5727	77.7498	-6.50534
70.1989	70.22	-1.71583
64.0494	84.774	-8.80722
56.1583	41.9353	-92.1834
56.7915	53.1578	-87.2485
60.3713	39.2746	-87.3181
55.4575	30.0745	-95.4038
57.0826	64.1277	-80.6402
57.4316	73.6611	-71.9738
61.4457	60.2184	-75.693
51.4627	-5.81114	-95.5055
53.3237	6.15271	-96.8991
55.8307	-6.65168	-89.871
49.581	-17.8212	-92.3294
54.4997	17.97	-97.0055
58.8348	16.5907	-91.8513
48.294	-29.021	-87.1602
52.1996	-29.0021	-81.9395
47.4451	-40.0387	-80.2856
46.2655	-49.6324	-74.3394
49.7396	-48.0506	-70.2176
45.1567	-69.913	-64.331
48.7732	-72.41	-57.7095
44.1829	-79.8581	-63.5924
76.0204	34.7603	-46.6061
75.2759	28.854	-54.0867
74.2168	40.2505	-52.3615
57.6541	86.2419	16.2276
58.7557	89.888	3.31497
76.4329	44.6172	-6.71036
75.9197	52.4908	-11.9299
65.7714	-7.47595	-73.7578
62.8355	-7.54756	-78.9999
67.381	1.94891	-75.2681
68.4634	-7.84769	-68.087
63.7409	-17.3059	-70.8363
68.31	11.4713	-75.9758
65.5345	13.2609	-81.52
69.2175	20.5209	-74.5191
70.9169	9.35435	-69.8053
70.0652	29.6979	-71.1701
67.2228	33.1872	-76.9072
70.9756	38.0861	-65.6896
72.5532	25.8238	-65.1498
57.5264	-42.2879	-59.1701
55.0138	-44.5003	-62.8042
59.4445	-34.6699	-63.1768
60.0363	-40.1542	-55.2901
55.8319	-50.0252	-55.3353
66.8312	-23.2976	-58.4213
64.7182	-30.6045	-55.0246
64.3239	-24.8821	-62.6482
68.916	-15.8399	-60.8964
51.5332	-75.0235	-51.9747
52.8928	-66.0867	-51.8935
72.6209	-38.8826	-2.70514
73.363	-35.359	-0.649362
70.7434	-41.9643	-0.362712
73.3934	-33.6618	0.836504
78.1266	-7.83362	-1.18837
79.0519	-2.46956	-3.48011
91.2229	3.70419	-37.5239
91.4166	9.52646	-35.1282
91.8258	3.29574	-36.809
79.7977	-36.2346	-23.3901
78.3424	-39.1424	-19.8914
91.0213	14.2215	-31.5917
90.082	14.5396	-32.0894
90.3227	17.3337	-27.4473
91.8811	13.5458	-31.0211
84.2064	8.84368	-10.5109
82.8827	8.8601	-11.1865
89.5239	18.6051	-23.1486
90.4251	17.8787	-22.3889
85.7108	-19.4062	-33.9891
80.9158	-37.1766	-15.7629
80.156	-37.1298	-13.0193
79.1319	-39.2677	-16.2394
79.5491	0.185828	-5.2858
86.0565	16.7647	-18.5485
84.0547	13.6036	-15.8054
84.9916	15.9113	-20.1174
81.584	9.16991	-12.6395
80.7354	9.6424	-14.2508
89.4412	14.3873	-32.306
79.9898	9.41271	-15.6993
81.3046	11.459	-18.4142
82.9423	13.4472	-22.0683
80.7662	11.2877	-23.1062
84.5131	-28.0409	-26.5977
84.2586	-29.839	-18.7957
77.505	-40.4826	-16.6983
79.3457	-36.3433	-10.6898
80.6644	-33.4368	-10.711
81.7645	-31.0337	-11.6317
82.3516	-29.4429	-12.6045
92.0016	2.97966	-36.3852
92.4779	8.60704	-34.0776
88.8172	15.0456	-14.801
88.9777	14.395	-14.5009
90.0866	16.7861	-17.9455
88.9355	13.7777	-14.3457
90.2587	15.5881	-17.4216
88.7418	12.6851	-14.5032
92.2438	12.9937	-30.6493
91.6651	15.8593	-26.4962
92.3491	12.4789	-30.4931
90.9645	17.1586	-21.8889
91.1745	16.5535	-21.7462
91.1673	15.9499	-21.459
91.7872	14.7906	-26.0946
92.2947	12.0927	-30.163
91.3357	-1.43096	-35.2733
88.4536	11.367	-15.0361
85.7016	3.96442	-12.4337
90.5249	11.2525	-23.5999
90.6297	-4.66308	-30.054
90.7155	-2.76898	-29.757
90.6643	-0.894017	-29.1731
90.4649	0.59874	-28.2634
90.1048	1.80631	-27.0038
89.15	2.61006	-24.4284
80.3509	-25.9423	-10.3232
81.5576	-27.5128	-12.0188
83.5741	-2.82812	-9.29661
79.4373	-17.8866	-8.43158
82.4972	-28.7062	-13.1238
31.4317	26.7454	71.7103
33.4783	95.2004	44.476
34.7344	101.298	33.4867
8.04673	102.845	47.3446
8.10409	110.117	35.522
0.08466	103.275	47.3641
35.4705	106.914	20.4202
36.0926	111.044	5.99758
8.01802	116.365	21.7956
0.0695947	116.842	21.682
22.7841	119.969	-10.413
29.8814	117.039	-10.0103
36.5491	113.366	-9.87281
36.9306	113.343	-26.1303
62.9189	52.8961	34.662
71.5173	62.5057	3.77579
73.6514	61.2939	-6.86212
59.5574	91.7212	-9.96249
60.0319	91.5421	-22.7975
7.99845	119.591	-47.4914
7.92966	113.415	-64.9491
0.126793	119.97	-47.656
36.7355	111.049	-42.4362
36.4905	105.706	-59.0196
74.2611	60.3034	-17.6089
74.207	58.9038	-28.473
59.3369	90.4978	-35.6269
58.602	87.2578	-48.2785
73.4191	56.3112	-39.2704
72.612	52.0144	-49.5153
71.7612	45.9939	-58.3397
68.8434	51.0981	-64.4014
43.4297	-90.5118	-64.3789
42.9481	-100.568	-65.8097
43.2046	-109.966	-66.9086
43.5901	-118.614	-68.1638
38.5321	-108.137	-71.5791
7.64259	104.385	-80.8986
7.38901	92.8856	-94.354
0.163162	104.578	-81.2889
7.37284	80.3818	-104.03
7.42687	67.2095	-111.051
0.164417	80.4973	-104.342
7.44594	54.1882	-115.944
7.30636	41.0048	-119.216
0.16201	54.3752	-116.222
7.01733	27.0411	-121.113
0.168329	27.0681	-121.439
18.946	-1.55018	-117.292
25.0922	-2.49365	-114.918
5.86381	-26.6417	-109.831
5.77348	-38.7284	-101.647
0.125095	-26.7586	-109.98
5.70432	-47.3969	-95.6043
0.101334	-47.5991	-95.5725
4.96986	-84.1411	-84.1043
0.1305	-83.8964	-84.2407
34.8203	75.5554	-96.7163
35.3121	87.2337	-87.2282
34.429	62.8866	-103.689
35.8648	97.4959	-74.6195
33.8878	50.1238	-108.611
33.4046	36.9606	-111.813
32.764	23.4642	-113.536
32.1318	9.74768	-113.572
31.2635	-3.32884	-111.905
30.127	-16.066	-108.371
28.8905	-28.4031	-102.793
27.9279	-39.645	-96.17
27.6216	-49.1095	-90.1737
27.301	-58.0506	-85.25
26.4784	-67.3552	-81.8409
25.7429	-77.0907	-79.9431
25.1027	-86.5134	-79.4867
34.0331	-106.902	-75.1211
34.4164	-115.726	-75.783
57.8354	81.7465	-60.7905
65.3416	56.2016	-70.0839
64.7618	46.518	-77.1113
63.9636	36.6006	-82.3038
63.2042	25.879	-85.541
62.3685	15.1037	-86.8466
61.3228	3.95365	-86.2118
59.4928	-7.33738	-84.4068
57.4504	-18.1603	-81.3587
55.5341	-28.1517	-77.2347
58.6459	-27.5741	-72.0593
53.9298	-37.9173	-71.7329
52.4696	-46.2946	-66.6028
54.4536	-58.0733	-52.4459
56.4281	-56.613	-48.9668
74.4246	22.5652	-59.578
73.7227	15.1708	-62.7065
76.1389	18.7035	-53.4453
70.646	-7.95742	-63.0208
72.0426	-0.0628243	-63.9882
61.5066	-26.339	-67.3752
72.9462	7.85099	-64.2116
62.5983	-37.8206	-51.533
60.7366	-44.9865	-48.2299
15.9938	-104.319	38.816
56.9704	-72.6549	6.40168
48.1387	-88.4831	7.37342
12.6485	-48.2552	94.025
15.5351	-49.3867	92.3904
18.4999	-51.1375	89.9766
7.93484	-59.3433	97.2959
8.28971	-60.4424	97.5584
8.60219	-61.5881	97.6575
22.9892	-65.4252	86.3643
22.3158	-63.5131	87.049
21.6692	-61.87	87.5569
16.6169	-44.9515	91.6456
34.9952	-54.3309	80.3408
26.5932	-33.0667	84.238
27.9799	-38.0975	84.8831
28.7928	-42.901	85.0851
54.3558	-40.5768	62.8392
19.1596	22.8249	72.2962
77.6569	14.9014	-46.9112
79.9919	13.2509	-27.4392
80.5644	11.227	-24.9899
69.0664	-44.9761	3.23603
25.1101	11.6469	71.7727
49.7014	41.9435	62.8071
6.3998	-28.697	92.6648
42.5112	19.2724	65.4405
9.56095	-27.5513	91.3672
80.4252	11.0068	-23.913
55.4728	-101.341	-41.9923
59.3953	-66.0894	-36.4598
58.7707	-59.4512	-41.7065
58.9528	-53.5525	-45.4642
19.2788	-24.6755	84.9184
13.7677	-57.1406	92.6289
23.7769	-55.9639	83.624
6.57515	-53.3815	93.222
-67.2933	-47.8226	12.8793
-68.4515	-43.1873	14.3108
-68.4505	-45.8635	5.90587
-65.9994	-52.1708	11.4618
-66.1677	-49.5489	20.9388
-54.1137	-114.046	-7.03965
-53.3214	-103.695	-6.36967
-56.3049	-112.867	-11.485
-55.4457	-124.538	-8.32624
-51.3681	-115.023	-2.76326
-56.6711	-132.168	-9.66305
-54.2764	-133.993	-5.13032
-58.4399	-130.395	-14.2674
-57.7296	-138.153	-10.9492
-46.6317	-97.8244	3.8761
-50.2209	-96.9524	-1.12942
-46.9106	-105.506	2.63332
-42.9272	-99.145	8.43883
-47.1321	-91.995	5.15612
-57.1073	-95.4552	-14.5192
-55.3981	-95.8823	-10.1039
-57.2681	-90.0953	-14.1054
-58.2339	-94.2838	-19.7132
-57.213	-102.404	-15.0815
-59.1855	-66.4025	22.3233
-60.1418	-65.2799	14.995
-56.9884	-69.9614	20.2961
-57.8264	-67.5826	29.6158
-61.0201	-62.886	24.1511
-70.0086	30.9505	24.3747
-73.6965	29.5822	12.7352
-69.5114	23.1571	27.5242
-65.647	33.7468	35.0187
-70.9284	39.1639	19.7916
-77.0241	42.1184	-28.6013
-78.0345	34.6211	-23.7331
-77.2236	43.8006	-17.9919
-75.5795	49.2501	-33.7799
-76.6216	39.1372	-38.2651
-6.53613	-110.296	35.058
-6.66679	-106.818	37.2811
-9.46234	-110.019	34.0144
-6.63914	-118.352	33.984
-4.17168	-110.504	35.7173
-7.82321	-129.926	31.4017
-9.05374	-141.301	28.2936
-4.81688	-130.184	32.3909
-11.1261	-128.924	30.0536
-2.79617	-149.779	27.6246
-3.26136	-154.942	26.3609
-2.39993	-142.039	29.6709
-6.29465	-149.417	27.1603
-64.2943	-52.9728	-32.0654
-65.3957	-45.5189	-36.2369
-61.6564	-58.8449	-34.4403
-63.4903	-59.1737	-26.8587
-66.9026	-47.0923	-29.7586
-66.4822	-40.1681	-39.2718
-69.5952	-35.6882	-36.1067
-67.5331	-35.494	-41.7295
-62.8666	-45.7881	-42.6599
-59.5852	-123.579	-30.4521
-60.0084	-126.63	-24.0674
-58.2199	-120.822	-37.2054
-59.8785	-130.285	-32.7865
-2.00106	-130.558	32.9001
-1.74047	-118.994	35.447
-64.8219	-50.9532	28.9617
-63.6136	-55.689	27.5963
-63.1455	-51.7011	36.5303
-66.0262	-45.5139	29.8049
-61.2705	-63.7451	7.45203
-63.0175	-59.9778	8.7895
-62.1403	-62.9126	-0.390246
-59.4316	-67.3508	5.81253
-6.37914	-97.3899	88.0427
-6.67574	-92.5335	90.099
-10.5809	-96.7878	85.8924
-6.23942	-101.368	85.3279
-2.82901	-97.7694	89.3837
-15.7035	-95.1758	82.9908
-16.2906	-89.9017	84.9956
-21.0343	-92.7426	79.4147
-15.2395	-99.5188	80.3884
-1.04863	-88.2665	93.0484
-0.598358	-93.4278	91.9025
-1.59821	-82.9185	93.6346
-3.87881	-87.8687	92.4758
-6.41716	-103.975	82.2747
-3.07576	-104.338	83.5546
-10.535	-103.435	80.1747
-7.27788	-105.759	78.1045
-8.53402	-106.5	73.0224
-9.3623	-106.258	66.9099
-4.89265	-107.204	73.6531
-15.4393	1.49941	80.2518
-12.8887	3.7306	81.4075
-15.2818	5.51495	77.9457
-17.9429	-0.151125	79.1386
-15.705	-2.57477	82.4826
-43.3543	-30.2731	77.1296
-44.2069	-35.116	76.568
-38.4359	-28.1269	79.7499
-42.8002	-24.9329	77.2305
-48.9224	-31.5792	72.6973
-53.2534	-20.4306	67.5587
-53.9824	-26.3096	67.0531
-47.4561	-20.2688	73.3027
-52.317	-13.9643	67.5373
-59.19	-19.0573	59.1669
-65.6608	0.961907	43.783
-63.1485	3.05201	48.3194
-65.1585	8.4834	42.6551
-67.6688	-0.30133	38.5898
-44.7434	-39.7381	75.4737
-39.6118	-37.9712	79.3774
-50.2339	-40.9282	69.8401
-44.9768	-44.3203	74.5679
-1.46409	2.62121	92.4346
-3.24404	2.04729	92.0801
-2.00674	-1.85617	95.8546
-1.2139	7.49139	88.9585
-28.8299	71.7686	68.5114
-30.0509	77.4157	64.1997
-34.0394	70.1475	65.6582
-27.3198	65.215	73.2104
-23.9351	72.7325	70.6555
-2.24931	-107.004	60.6171
-2.21353	-107.622	68.1555
-5.41608	-106.508	60.0758
-1.94505	-106.02	52.4082
-60.8598	-52.0247	44.1483
-61.9208	-46.6535	45.2405
-59.2653	-57.6762	43.3742
-57.8459	-51.9978	52.0717
-0.429074	-104.743	83.9425
-1.13916	-106.736	79.261
-0.151695	-102.024	87.1824
-1.80069	-107.607	73.9847
-35.623	-87.996	59.853
-36.2396	-84.9925	63.2417
-40.4072	-83.3959	55.3362
-34.4242	-90.4401	56.9594
-30.7209	-92.2624	64.9858
-38.1116	-88.8726	35.325
-33.7326	-92.1449	39.8827
-41.0328	-85.8739	39.6416
-42.2005	-85.6874	30.4341
-35.3412	-91.9839	30.4083
-1.76885	-105.335	43.8341
-1.99109	-106.95	38.2904
-4.24317	-105.158	43.1675
-6.59044	-7.06261	97.312
-4.40508	-6.30304	98.526
-5.93607	-3.19862	94.3676
-8.99658	-8.20136	95.4839
-7.09451	-9.98559	99.5731
-24.4461	-21.1554	82.5664
-21.2647	-18.2356	83.7603
-23.0351	-16.0098	82.3929
-27.9629	-23.3579	81.8985
-27.6269	-56.5224	83.3328
-25.7315	-56.7323	83.7249
-26.3433	-55.7475	83.6496
-11.7624	-25.9065	91.8355
-13.446	-26.1054	90.5042
-11.2032	-26.8288	91.4059
-13.0495	-24.6636	92.0263
-11.4257	-30.0886	90.1136
-9.70675	-29.5949	91.1536
-11.2234	-29.0685	90.2938
-13.716	-30.1499	88.6944
-11.9793	-31.5852	90.03
-2.51718	-26.4634	97.4014
-4.07394	-26.2458	96.6921
-2.56939	-27.4029	96.3546
-2.50984	-25.6617	98.5204
-16.0987	-29.458	87.2988
-16.6916	-30.9576	87.2465
-15.6667	-28.4249	87.607
-18.3849	-27.9947	85.9711
-7.38308	-18.2242	102.056
-7.51892	-16.5644	102.343
-9.69402	-18.0468	99.7045
-7.20677	-20.0882	101.197
-5.12908	-18.6009	103.721
-24.0783	-70.7092	84.5368
-25.0833	-74.7939	82.6922
-20.3833	-73.0611	86.8637
-22.9042	-67.3207	86.0743
-27.1352	-68.0524	82.7132
-26.0997	-50.3767	85.808
-27.9727	-51.0431	84.8331
-24.0982	-49.6509	86.9971
-25.7119	-46.5191	86.5841
-2.84221	-31.7366	94.5508
-2.7526	-29.7539	94.9478
-4.45047	-31.5619	94.1388
-2.83536	-34.2013	94.5661
-5.37799	1.02691	91.289
-5.26937	5.32093	88.1218
-7.9622	-0.555461	89.9479
-17.2999	-18.888	88.9494
-17.7262	-18.5097	87.9426
-17.5381	-20.4427	88.3041
-16.5836	-18.0711	90.5738
-16.3878	-17.0822	90.5508
-5.56163	-28.0019	94.2283
-4.21857	-28.1283	95.0017
-5.52665	-27.0086	94.7766
-6.84816	-28.3792	93.1953
-5.49825	-29.6069	93.8042
-5.36547	-26.2201	95.649
-5.31777	-25.3997	96.7438
-15.657	-17.1565	92.1795
-16.135	-18.794	91.5271
-15.4039	-16.2766	92.2847
-17.457	-22.948	87.6211
-16.7607	-25.2144	87.5933
-16.7402	-21.6178	89.4518
-2.9181	-42.8996	96.1454
-2.92954	-39.9008	95.4612
-5.29649	-42.3289	95.8311
-3.13926	-44.8758	96.5929
-22.6948	-33.2906	85.3581
-21.2674	-29.2031	84.7841
-24.802	-33.4205	84.6808
-23.9494	-37.6149	86.2221
-20.4256	-33.3007	86.2803
-8.09566	-70.5092	94.6712
-11.9797	-69.8774	93.2503
-7.99041	-73.3167	93.8075
-4.66787	-70.9179	95.4451
-8.13234	-68.3301	95.4937
-21.9187	-52.1612	87.5396
-21.9753	-50.606	88.0365
-24.1487	-53.4486	85.5177
-22.215	-52.7969	87.1002
-15.1987	-15.6188	92.0671
-13.793	-14.4945	93.7375
-15.3974	-14.8512	90.855
-15.8819	-68.8077	91.2801
-15.6867	-66.8659	92.0171
-19.2222	-67.2964	89.1522
-16.0702	-71.3593	90.3787
-1.87636	-71.209	95.7308
-1.86586	-69.1298	96.583
-1.74624	-73.8442	94.9366
-56.8452	28.3076	55.8983
-57.6831	29.3272	54.1442
-58.5327	22.353	52.366
-55.8366	27.4922	57.5276
-38.017	56.4846	68.9535
-38.7183	62.2987	65.4927
-43.8968	53.4346	64.2583
-37.6294	51.4335	71.6868
-32.8343	58.3965	73.0064
-50.0498	49.3254	58.8097
-51.0242	54.8887	54.8312
-55.7478	44.1412	52.3917
-49.3509	44.8899	62.1245
-38.1831	44.0676	73.5916
-37.7974	46.5065	73.363
-38.5959	41.4322	73.4372
-33.4899	46.1163	78.0238
-59.0339	30.3972	51.1302
-62.01	23.7097	45.7724
-54.4136	37.0005	58.4247
-59.9793	32.955	48.2697
-22.2529	35.6561	77.9445
-18.8191	34.1895	78.2849
-21.8825	37.6394	78.947
-25.8876	36.0326	77.16
-22.5867	33.141	76.5518
-5.42653	15.0463	82.12
-5.3281	12.638	83.381
-2.53111	16.3606	83.3594
-5.27368	16.9724	81.4692
-8.1865	13.2778	80.5012
-28.3617	-4.97633	76.8381
-23.1077	-3.3136	77.8819
-26.8883	-1.02155	75.5767
-34.6207	-6.57074	75.7469
-29.8947	-9.7409	78.244
-54.5	7.58053	57.9287
-51.86	3.93136	61.8142
-51.747	9.57008	59.703
-55.4927	12.112	55.9081
-56.9474	5.78847	56.0691
-5.23856	9.36384	85.4085
-2.89838	10.7879	86.1125
-7.77834	7.4835	84.3227
-38.9753	39.1822	73.1739
-38.7614	37.0683	72.9457
-34.1827	41.0787	76.8221
-43.8434	37.6258	70.1993
-48.4454	35.3531	66.886
-52.2349	31.2386	62.9642
-47.7732	33.3652	67.3426
-50.8558	16.8757	59.8918
-52.9919	16.8391	58.1467
-50.4058	13.8363	59.9637
-48.592	16.8478	61.525
-51.2154	20.2665	60.5211
-38.795	21.1099	68.2019
-37.1581	22.1231	69.3601
-40.2095	20.0076	67.0558
-35.5218	23.0616	70.1828
-33.5902	23.5919	70.6351
-35.6351	23.9716	70.5093
-37.5271	23.0052	69.644
-33.4473	24.5095	70.9893
-31.1041	23.8951	70.9125
-28.5725	23.9282	71.1159
-30.8254	24.7654	71.2347
-28.1149	24.7614	71.4223
-26.1985	23.5845	71.2334
-23.9637	22.6109	71.1271
-21.9552	21.2599	70.7338
-20.5339	19.8699	70.2885
-20.929	22.0064	70.9974
-22.9626	23.287	71.3652
-19.5907	20.5156	70.5824
-19.752	18.632	69.901
-19.8474	22.5335	71.3499
-22.0183	24.123	71.7708
-30.6011	25.7638	71.662
-27.6687	25.775	71.8687
-43.4078	15.6132	64.4456
-42.4258	14.768	65.0456
-29.7907	35.6456	76.0801
-29.8248	33.3984	74.9854
-29.7935	37.9377	77.1067
-34.1462	35.0973	74.588
-43.8888	26.742	68.2413
-42.0402	24.7628	68.5556
-40.893	28.2436	70.1387
-45.6263	29.0977	67.93
-34.4987	7.85223	70.5223
-28.7017	8.01023	71.9405
-39.0767	8.52206	68.6174
-35.0686	6.07236	70.8144
-24.0081	8.98584	72.3227
-24.2914	7.46165	72.7825
-20.9875	10.3366	72.1741
-18.0883	13.8046	71.3223
-18.7714	12.6352	71.6646
-17.7697	14.7204	71
-33.5502	11.0981	70.1166
-28.4497	11.0988	71.2979
-37.534	11.848	68.6112
-20.4395	13.6636	70.5623
-19.8073	14.2399	70.2505
-21.7156	12.7978	70.9909
-19.306	14.734	70.105
-18.8529	15.3779	70.0001
-14.4766	22.6532	73.9296
-13.0795	24.5698	75.6116
-15.7185	24.6557	74.0653
-16.0503	20.7759	72.1419
-17.4627	16.2164	70.8214
-24.793	25.3126	71.9641
-16.8479	19.9026	71.3618
-17.7016	21.5274	71.5106
-16.3794	18.3074	71.4513
-33.395	12.3955	69.9662
-28.3687	12.3416	71.0717
-20.6142	14.4977	69.9563
-21.7777	13.9461	70.3881
-19.9838	14.8088	69.7926
-19.6304	15.177	69.5978
-41.1763	18.8462	66.0964
-2.03365	32.0589	82.5866
-2.81908	35.7199	83.1541
-4.49563	31.8801	82.1092
-1.25891	28.6467	82.1675
-19.1571	5.07726	75.3235
-21.7218	3.65595	74.9652
-19.5823	2.27466	76.6878
-17.3088	6.54444	75.6588
-18.9729	7.1096	74.3276
-15.2288	8.1435	76.4232
-12.9547	9.95103	77.5411
-15.8779	13.3901	73.202
-16.1576	15.056	72.2523
-14.0944	14.1019	74.4758
-9.94878	21.2364	77.06
-8.98076	22.1204	77.9311
-10.9505	23.5368	76.725
-19.5891	11.5216	71.9231
-19.2704	10.3688	72.6218
-18.962	8.85941	73.4415
-21.0943	7.36627	73.3898
-18.3464	-54.9761	86.5683
-15.496	-54.6598	88.3315
-21.1367	-55.0013	84.868
-18.2115	-54.8882	86.341
-22.8103	-55.2442	83.886
-22.4972	-55.1268	83.8208
-3.36708	-48.4223	96.828
-3.32513	-49.8275	96.6412
-3.33748	-47.0701	96.8734
-6.09272	-48.0605	96.3693
-8.31055	-50.783	95.1664
-10.3761	-50.8322	94.4345
-7.82235	-51.9331	94.7614
-5.9113	-50.7774	95.846
-8.41775	-49.4737	95.524
-12.6644	-51.1406	93.2656
-15.38	-52.0133	91.3876
-12.5241	-52.4217	92.5625
-12.8766	-49.9134	93.6764
-8.40426	-47.9903	95.7863
-8.32364	-46.5874	95.9172
-10.6791	-48.1827	95.0009
-12.2617	-46.2546	94.4256
-12.9106	-47.3624	94.1544
-9.92033	-45.8137	95.385
-11.8618	-45.1247	94.4979
-18.3695	-53.4222	88.7018
-18.3023	-52.2911	89.5937
-7.10078	-52.9745	94.2067
-9.79632	-53.0718	93.2005
-6.60948	-53.4	93.7955
-4.80468	-52.8658	94.92
-12.6803	-53.5433	91.4725
-12.5935	-54.071	90.7425
-23.549	-54.1152	85.3636
-24.7457	-55.4495	83.958
-18.6551	-55.9289	87.0965
-18.7365	-56.1389	87.4124
-15.7375	-55.9854	89.2633
-18.5695	-55.8565	86.8565
-19.2969	-57.4031	88.1491
-16.7818	-58.2293	90.93
-19.0814	-56.9447	87.9893
-13.9336	-58.7159	93.4604
-14.4015	-59.5271	93.5352
-10.7284	-59.1077	95.6136
-13.6768	-57.9183	93.1038
-6.61559	-56.9242	96.1396
-3.88163	-56.9433	97.0035
-6.55944	-55.7999	95.2065
-10.0517	-56.9616	94.585
-6.75234	-58.1968	96.9488
-1.82215	-59.5898	98.8032
-1.80815	-58.3509	98.2485
-3.97699	-59.4117	98.3834
-1.83496	-60.7452	99.1145
-23.0514	-56.6577	83.1852
-22.9244	-56.0795	83.7871
-21.2477	-56.5784	84.5252
-22.9947	-58.0607	82.5285
-1.80197	-55.5959	92.6706
-1.86979	-54.9829	93.5851
-1.61067	-56.8996	91.7782
-3.79687	-55.6908	92.3601
-1.84752	-61.9	99.2214
-4.11981	-61.6675	98.8307
-1.91905	-63.0069	99.1283
-1.85166	-67.1707	97.5179
-1.92089	-65.4585	98.3311
-4.42137	-66.7442	97.2845
-8.08216	-45.6812	95.9433
-5.89609	-45.552	96.4141
-7.41703	-44.3321	95.9181
-1.82854	-57.016	97.4087
-1.84928	-55.7991	96.4069
-1.8831	-55.1696	95.6781
-1.95857	-54.8877	95.0903
-3.92277	-55.1788	95.3442
-6.52307	-55.2438	94.554
-6.46969	-55.0043	94.0334
-9.60832	-55.437	93.2486
-1.99128	-54.8001	94.3992
-3.91897	-54.8407	94.0761
-12.7065	-55.7114	91.3545
-12.9638	-56.146	91.865
-12.589	-55.5266	90.8739
-15.1179	-62.4462	93.4623
-15.3431	-63.5862	93.1335
-11.9304	-63.1319	95.5274
-14.9147	-61.4258	93.6138
-7.84361	-63.4748	97.4469
-8.05324	-64.6993	96.9843
-4.28503	-63.7996	98.528
-7.59959	-62.4594	97.7072
-1.94346	-64.145	98.8432
-12.4985	-54.2136	90.2179
-12.3493	-54.119	89.6716
-9.44631	-53.7603	92.0432
-22.9181	-55.8333	84.4307
-21.3266	-56.0382	85.6779
-6.34773	-55.8402	91.7078
-6.30686	-55.1995	92.5644
-6.37487	-57.0492	90.9322
-9.33444	-55.9983	90.6179
-6.36316	-54.9594	93.3769
-9.34263	-55.1865	92.1354
-8.0934	-66.3213	96.3368
-12.1357	-65.8757	94.6138
-14.6425	-60.4555	93.6546
-11.4498	-61.0845	95.8207
-15.503	-65.1257	92.6472
-18.334	-63.8233	90.5165
-12.0486	-53.7476	89.2441
-14.729	-54.121	87.7848
-11.5534	-52.4159	88.3398
-9.31383	-53.2552	90.4421
-6.55584	-53.0198	91.3864
-6.41816	-53.464	92.4421
-7.01597	-51.673	89.7603
-4.37743	-52.7982	91.7043
-11.1957	-49.4623	86.9711
-13.4067	-49.8473	86.1195
-11.2689	-45.5056	85.7299
-9.1153	-49.073	87.612
-22.9156	-61.2965	81.8754
-21.1189	-61.2685	83.3132
-22.702	-65.1488	81.5821
-1.30629	-60.0178	91.0907
-1.431	-64.3256	91.1564
-3.32292	-60.0132	90.8622
-7.12549	-48.7736	88.0798
-7.08599	-44.7973	86.8215
-5.05791	-48.5033	88.4132
-6.04736	-60.0576	90.2726
-6.21503	-64.4205	90.0956
-9.18817	-60.2216	89.2695
-25.9846	-56.2988	77.6707
-26.4102	-56.3947	76.7408
-11.7365	15.2247	76.2112
-11.0579	13.5788	77.544
-78.9038	-8.55114	-43.1057
-80.3468	-9.08043	-41.3724
-79.6036	-3.95961	-43.1066
-77.1404	-7.89373	-46.4922
-78.0897	-12.9534	-42.3412
-78.1205	9.26805	-5.62027
-77.0501	11.26	-0.724359
-78.6166	12.2691	-9.90578
-78.821	14.5173	-15.1755
-79.5337	14.2285	-22.2312
-79.1928	9.51533	-16.2034
-78.6266	20.0416	-16.5084
-72.2067	-32.7915	-33.7532
-73.5203	-28.9242	-35.5848
-71.0288	-36.941	-31.1715
-74.6489	-30.5843	-32.0939
-74.6583	-25.2746	-37.6689
-76.8946	-24.1354	-35.7856
-75.9169	-21.3145	-39.5094
-72.0934	-27.201	-40.5585
-81.7993	-9.0436	-40.4749
-82.2515	-4.03991	-40.6782
-81.1147	-13.2032	-39.5483
-83.341	-8.53189	-40.1056
-81.4413	-25.3883	-32.6106
-82.4364	-26.497	-31.5042
-80.1709	-23.8145	-34.0352
-83.1832	-27.2958	-30.4683
-84.4408	-23.2691	-32.5557
-81.8351	-31.2744	-27.9428
-83.8677	-27.7477	-29.2421
-87.9302	-17.6122	-30.5664
-89.4195	-13.0791	-33.7263
-87.9114	-17.0649	-29.7797
-76.1181	-39.8405	-19.6689
-76.616	-38.1628	-22.7267
-75.3259	-38.9536	-21.7591
-75.6119	-40.5285	-17.6195
-76.5772	-40.0779	-18.9594
-78.0258	-32.879	-7.20582
-77.6967	-33.4214	-7.18519
-77.0198	-34.6021	-7.47022
-87.8504	-16.6986	-29.3653
-87.3006	-17.3049	-28.3993
-91.1129	-2.07843	-33.2842
-91.2255	-1.41105	-34.8122
-90.9407	-3.4162	-31.6166
-91.4949	8.11577	-30.8463
-91.7945	9.47812	-30.9673
-91.9343	11.5603	-29.9386
-91.5528	13.5875	-26.8343
-92.1345	12.0335	-30.3462
-91.31	11.3341	-27.7034
-80.8389	-10.1708	-7.35665
-82.225	-4.69976	-7.96809
-79.8094	-14.2196	-6.76272
-80.3061	-9.46685	-6.00978
-75.2254	-26.2797	-0.247519
-75.8422	-22.0388	0.293335
-74.6065	-29.9757	-0.766599
-74.278	-26.7869	2.55633
-79.2935	-21.2103	-9.3864
-79.3228	-19.2509	-9.51461
-79.5884	-23.2155	-9.9172
-79.1867	9.00668	-16.1966
-79.2198	9.00112	-15.9847
-79.6456	10.3658	-19.7219
-87.5791	16.6505	-16.8139
-88.6604	18.4172	-20.0036
-88.3388	15.9269	-15.8132
-86.0167	13.4577	-13.8061
-86.7397	17.0709	-17.9964
-88.3054	19.1536	-25.0996
-87.4346	18.8597	-22.0489
-87.4876	18.1108	-26.4549
-88.8615	17.9252	-28.788
-88.5921	19.2853	-24.6036
-89.1852	3.92967	-39.4146
-90.2368	4.1712	-38.8796
-89.5691	9.88196	-36.5651
-88.3884	3.46097	-39.5945
-83.258	-0.0700104	-8.58577
-83.5417	-1.29778	-9.25561
-91.9334	3.27844	-36.3269
-92.429	8.39436	-34.0907
-91.99	3.18442	-36.6971
-91.5714	0.473955	-36.5036
-90.9553	14.4145	-22.8309
-89.9182	13.7881	-18.7941
-91.057	15.3984	-22.2223
-90.7347	13.063	-23.5625
-84.8076	0.789204	-11.4277
-85.4255	3.1394	-12.1714
-84.2065	-0.994611	-10.8332
-91.4233	3.9279	-33.5866
-91.525	1.89568	-35.4498
-82.7909	-5.96789	-12.6352
-83.3234	-4.37167	-11.5324
-82.9632	-5.67633	-13.355
-87.8665	-4.84618	-26.8187
-89.9992	-2.18015	-28.7629
-87.7293	-5.93911	-26.9746
-87.5963	-4.41127	-26.1869
-76.4281	-18.1197	0.287793
-75.5749	-18.4078	2.88944
-77.2385	-13.562	-0.556544
-82.5527	1.19512	-39.2044
-83.5481	3.68942	-38.2606
-82.4511	5.84767	-37.0771
-81.4351	0.627971	-40.346
-85.9909	8.64469	-35.587
-86.1255	4.59743	-38.4944
-88.4207	13.2927	-33.6961
-85.7475	12.3843	-32.3562
-87.29	2.4819	-39.5554
-86.0432	-3.03671	-40.3235
-85.5224	-8.04348	-39.9392
-78.6585	-23.5162	-34.924
-79.6136	-20.2799	-36.6323
-77.5554	-26.6382	-33.0791
-80.4032	-16.8903	-38.2414
-78.7495	-17.1136	-39.2729
-86.7007	-17.2594	-27.3649
-76.4394	-29.5518	-31.3511
-75.1824	-33.1692	-28.9933
-75.3692	-40.2416	-14.7745
-74.8529	-40.4963	-14.6217
-74.2651	-40.6973	-14.3066
-74.2142	-40.354	-19.7643
-87.9395	-6.67602	-27.4554
-89.9826	-5.2659	-29.6764
-79.6974	-8.89224	-4.88566
-78.9467	-8.52127	-3.6312
-77.161	-22.3961	-3.33063
-77.4897	-22.5464	-4.01313
-80.0871	-26.6787	-9.63784
-80.2878	-25.5767	-10.5067
-81.0613	-28.6414	-11.216
-79.1566	-17.2158	-6.26084
-79.617	-17.3036	-8.50419
-85.3977	14.1647	-29.1409
-84.375	14.7344	-25.7664
-82.9928	10.504	-31.9452
-82.0713	8.99213	-33.7409
-81.3728	11.0556	-29.4303
-81.6872	8.7007	-34.834
-90.6	5.03498	-28.4834
-90.3916	3.51863	-28.1318
-83.4281	-4.94192	-14.8212
-84.5033	-3.65943	-17.5259
-87.5686	-3.58071	-25.6802
-86.9666	-3.54881	-24.2783
-89.4316	0.0477645	-26.9077
-7.25746	88.1688	63.9424
-7.68989	95.2148	56.9233
-14.442	87.2463	63.4977
-6.95869	81.1562	69.4216
-6.44917	74.126	73.8964
-13.1301	73.8253	73.2083
-5.98558	66.4339	77.8508
-27.2884	59.367	76.1976
-21.9938	59.8	78.1986
-27.4655	54.4904	78.6378
-2.49496	-24.803	99.7882
-4.17517	-24.7107	98.8606
-2.62682	-23.8081	101.011
-3.09566	-15.2433	104.967
-3.10244	-16.9755	105.059
-3.09693	-13.323	104.38
-5.23439	-15.1995	104.015
-3.04065	-18.7789	104.68
-2.97895	-20.5704	103.802
-2.69722	-28.4025	95.5687
-2.80547	-37.0203	94.9148
-4.77747	-36.9399	94.7009
-2.88892	-22.2932	102.481
-4.78871	-22.2147	101.479
-2.9783	-11.3785	103.388
-2.7616	-8.99454	101.707
-5.03996	-11.631	102.595
-5.3355	47.9653	83.7243
-5.52153	52.3796	82.9749
-11.0136	48.8893	82.8776
-5.14304	44.4167	83.848
-0.388415	17.0707	83.7788
-0.24058	19.0402	83.0739
-0.736737	14.7371	84.7677
-0.195587	21.0159	82.5302
-0.333091	23.2029	82.1663
-2.38955	20.3442	82.117
-2.25184	-52.6079	91.7984
-1.98923	-53.3664	93.3301
-2.56272	-51.1561	90.2966
-1.97115	-53.501	94.3586
-2.08224	-53.3518	94.8479
-3.92804	-53.494	94.0263
-3.23579	-50.999	96.3426
-2.96956	-51.9986	95.9431
-2.51213	-52.8006	95.4395
-3.33719	-46.049	96.7904
-2.72182	-48.2707	88.6235
-2.6864	-44.3208	87.2588
-20.4097	86.1127	62.642
-21.3411	92.5759	55.993
-25.9442	84.5401	61.3932
-19.6479	79.8435	67.7495
-16.5482	50.4785	82.0164
-16.5418	53.4083	81.6109
-22.1186	51.5923	80.9092
-17.2738	46.8447	81.9792
-18.7362	44.3287	81.4312
-20.5565	41.6138	80.5414
-23.8653	45.1345	80.452
-21.4339	39.6292	79.7782
-25.335	40.1147	78.9754
-17.1869	37.9342	80.3609
-23.9985	26.2821	72.5085
-27.2359	26.8726	72.3925
-20.9093	24.9869	72.3565
-23.5528	27.85	73.3914
-25.4973	24.3776	71.5393
-22.9456	29.9735	74.6844
-19.853	28.73	74.8112
-26.3942	30.6275	74.3216
-44.5901	87.9725	39.8979
-43.6284	82.5804	47.1132
-39.0705	91.6996	42.5218
-46.0467	93.0529	29.9746
-31.0604	82.8638	59.448
-36.5258	80.5915	56.654
-32.291	88.5096	53.2534
-27.4971	51.9546	79.4408
-32.504	50.4797	78.0381
-27.7587	48.4204	79.7995
-29.781	40.3257	78.0533
-29.1946	42.7382	78.8792
-28.2194	45.6569	79.5792
-29.8276	30.6777	73.7854
-33.5512	29.8566	72.8037
-30.2087	28.4877	72.7896
-42.4412	77.6907	52.7238
-41.186	72.8218	57.4308
-48.4953	74.3976	47.6297
-37.6575	48.5648	72.8176
-43.101	45.8437	68.6314
-36.492	25.8888	71.0113
-38.8544	24.809	69.9465
-33.6452	26.509	71.7001
-36.8316	27.3492	71.3446
-38.7668	34.6299	72.5057
-43.2322	33.4944	70.2342
-38.0881	31.9294	72.1079
-37.4017	29.2684	71.6749
-39.8293	67.742	61.647
-46.0457	64.3796	56.6618
-54.2296	71.4681	41.0802
-59.3068	68.916	33.2734
-53.1973	66.1831	46.1117
-39.2508	21.8501	68.4343
-40.6864	20.5822	67.218
-41.0676	23.4577	68.5005
-42.3239	21.8728	67.2314
-39.8928	22.5814	68.5794
-46.9031	31.4115	67.6682
-49.6484	27.8711	64.6759
-15.9053	31.7376	78.0061
-14.9422	33.4723	79.2811
-16.6165	29.5179	76.4707
-13.7705	29.0277	77.4793
-13.5432	35.1041	80.4186
-11.4716	32.133	80.0087
-17.4693	26.7809	74.4449
-18.3174	24.8626	72.9854
-4.37062	40.5562	83.648
-62.6	-63.6409	-8.04146
-62.9264	-63.9506	-14.4984
-64.3626	-58.7557	-6.24864
-78.3417	23.2026	-37.015
-79.3793	17.4137	-31.7799
-78.6206	25.4036	-28.8112
-77.3617	28.9098	-41.8103
-78.1251	19.3626	-42.74
-74.8528	-7.52641	-52.4105
-75.8826	-1.71301	-52.4423
-72.7403	-7.63988	-58.0628
-73.7699	-13.5118	-50.8815
-76.5659	4.48115	-52.068
-78.4686	2.3477	-45.7676
-77.1831	9.98577	-50.1999
-74.7249	6.28952	-58.5897
-68.6874	-30.7633	-44.6887
-70.5141	-25.0379	-47.1397
-65.6032	-34.0678	-48.5889
-6.04554	59.0415	80.8902
-11.5146	59.2001	80.3762
-16.8927	59.638	79.3786
-18.0816	66.6454	76.0533
-18.0244	-102.141	54.3688
-12.7953	-104.358	57.6731
-23.8733	-98.7315	49.3699
-16.3308	-102.238	46.2076
-43.3723	-83.126	43.3813
-44.5741	-80.9557	47.0677
-47.5697	-79.4168	37.9354
-38.0698	-87.8765	48.5476
-52.2058	60.5046	50.4831
-57.7248	56.5943	43.4024
-18.8088	73.4626	72.0964
-64.269	66.4031	23.9262
-63.776	59.6962	29.6483
-68.4086	64.3142	14.1519
-22.0526	99.9213	46.5147
-15.4746	101.599	47.0962
-22.5141	106.881	34.962
-27.9975	97.5961	45.8131
-61.0984	38.0959	44.1146
-61.9673	45.481	39.6917
-43.2336	20.2234	66.0053
-54.7775	26.6022	58.8666
-53.1855	25.4308	60.4146
-55.3101	21.3615	56.7145
-51.3429	24.2276	61.848
-1.86434	-110.801	36.1165
-54.8619	-69.9357	37.8396
-53.2367	-73.2284	34.3846
-50.2598	-73.7332	45.4578
-56.1673	-66.5846	40.66
-6.93196	-42.3457	95.5713
-6.55547	-39.784	95.0416
-8.63385	-42.668	95.2066
-21.7426	-48.4386	88.4775
-19.3377	-46.7812	90.2165
-21.1354	-44.4757	89.0239
-9.77514	-38.281	93.5827
-9.16447	-35.4953	92.9341
-12.1802	-38.8705	92.6502
-10.3902	-40.8345	94.0887
-7.67728	-37.4492	94.1355
-29.5464	-51.4882	84.0516
-29.4579	-47.8278	84.661
-31.5801	-52.4998	82.8284
-29.3866	-54.8312	83.2411
-60.0244	15.9581	50.162
-61.983	16.0532	46.9834
-60.6148	9.96408	50.2858
-57.8067	16.2556	53.1051
-64.0042	16.3716	43.0518
-66.3963	16.074	37.6333
-46.3533	16.8824	62.9674
-46.4285	14.9455	62.5912
-55.6275	16.4224	55.615
-80.5206	9.41197	-36.8881
-80.5877	11.8912	-32.8824
-79.188	11.4959	-41.0001
-80.4054	5.69231	-40.1078
-76.9596	-17.3157	-41.2255
-74.937	-17.7943	-44.4162
-67.4952	-51.157	-16.6552
-68.2906	-47.8065	-22.5533
-65.3212	-56.5387	-19.1931
-66.7505	-53.1957	-10.4314
-69.4316	-47.0111	-14.2989
-80.0976	1.04213	-42.131
-73.3049	-27.7128	5.80307
-72.2562	-28.6485	10.3111
-74.025	-23.3885	6.17977
-72.5191	-31.8139	5.18157
-70.0642	-1.64246	30.8988
-72.2908	-2.78668	22.0444
-69.7538	-9.41604	32.292
-70.0438	6.70104	29.516
-49.736	10.8746	60.8482
-47.9777	8.37285	62.9999
-47.8398	12.1756	61.8693
-46.2993	13.2294	62.7201
-44.929	11.8488	63.9544
-71.0919	-29.2073	16.8626
-71.8894	-24.054	16.9306
-70.3271	-33.9363	16.1229
-69.8967	-29.5203	23.9843
-21.9263	-10.9996	81.5852
-19.0344	-8.84315	82.8404
-20.9207	-6.15642	80.2669
-25.5905	-12.8449	80.5404
-31.1405	-15.0739	79.5266
-31.9958	-20.3653	80.5477
-36.946	-17.2315	78.4341
-16.0874	-6.92103	84.586
-16.365	-10.5768	86.4169
-13.3349	-4.64007	86.427
-18.9302	-17.5894	86.0065
-17.6547	-15.3806	87.0094
-14.8113	-19.4532	93.4203
-15.583	-20.1114	92.1496
-14.5324	-21.2785	92.9898
-13.6115	-18.7587	95.0381
-16.1914	-20.7807	90.8341
-15.8049	-22.855	90.3597
-34.5805	-35.9938	81.6806
-33.9324	-31.1491	81.6413
-35.0572	-40.8157	81.7755
-30.4666	-34.614	83.1776
-32.7674	-25.6234	81.1513
-5.62518	-31.7528	93.7186
-6.91741	-32.1536	93.1364
-5.90899	-34.2917	93.9408
-54.0976	-51.4049	60.0174
-52.8424	-56.6646	59.0965
-49.713	-50.269	67.446
-54.8612	-46.3977	61.2446
-24.9165	-42.0874	86.7272
-26.9997	-42.7396	85.8471
-22.7819	-41.364	87.6979
-35.2086	-45.5004	81.4913
-31.6371	-44.2655	83.6175
-39.7602	-47.2136	78.3577
-35.1057	-50.0825	81.1705
-6.21288	-37.0108	94.4543
-51.0896	-62.1564	58.2338
-48.1577	-67.3033	59.2327
-47.2964	-60.0437	66.1302
-54.1158	-63.3977	50.5531
-54.8398	-31.6871	65.4407
-60.0191	-31.1662	56.7421
-55.2845	-36.7118	63.9508
-25.4265	-96.4033	70.3707
-19.7133	-99.791	74.7076
-26.0192	-93.5163	72.771
-36.4534	-81.1456	66.9347
-31.6193	-85.5281	70.8347
-35.499	-76.9251	71.3983
-40.5836	-76.7491	63.9908
-51.4025	-7.53933	66.7806
-45.9	-8.18963	71.3104
-49.7018	-2.05332	66.2456
-42.6494	10.1799	66.041
-43.7685	8.27301	65.9966
-48.2348	1.46131	65.9459
-46.5049	4.05974	66.0258
-43.4861	0.174506	69.6089
-40.6025	13.4445	66.4807
-0.241494	-98.1538	89.8566
-43.3322	-57.8263	72.304
-38.7266	-55.7745	77.4492
-44.2049	-53.5189	72.9178
-41.7478	-61.8032	72.418
-34.1712	-72.9089	75.134
-30.3163	-76.2492	77.4988
-31.8563	-68.918	78.8692
-37.0542	-69.2575	73.8963
-40.7636	-7.71532	73.917
-39.5143	-3.21669	72.79
-41.7693	-13.1892	75.3159
-44.8185	-48.8342	73.5678
-42.2638	-19.1233	76.4967
-7.4459	-87.1555	91.2753
-11.7541	-85.981	89.3111
-7.99393	-81.7321	92.0692
-16.557	-84.6026	86.5806
-16.5347	-79.3456	87.9686
-21.3895	-82.3015	83.5007
-38.2349	-0.220122	72.0486
-31.8469	0.553037	73.6353
-37.0171	2.18261	71.5271
-45.0564	6.28105	65.9861
-41.037	4.71986	68.9682
-36.0044	4.26628	71.0914
-29.8784	4.65862	72.606
-10.5629	-2.55465	88.365
-10.3202	1.62985	85.6228
-10.969	-6.44365	90.9965
-11.819	-13.4582	96.2997
-12.0374	-14.4613	96.6852
-9.66924	-12.572	98.7746
-11.665	-12.0658	95.2213
-10.5747	11.6188	78.9872
-10.3784	9.09345	80.6365
-20.1737	-1.9229	78.5949
-1.05193	11.494	86.4575
-59.8609	4.1145	53.0978
-10.2211	5.55329	83.0489
-57.2429	-63.0692	42.8695
-60.6118	-60.9122	34.0073
-64.2055	-17.4104	49.4507
-67.152	-16.4303	40.9459
-64.1428	-24.3314	48.611
-62.7716	-41.2808	46.1424
-65.1952	-40.7822	38.2653
-59.5498	-41.6145	54.2509
-63.4264	-35.8811	46.9724
-63.9163	-30.2478	47.7188
-66.5517	-29.7569	39.4512
-15.0003	-102.145	77.8194
-7.89613	-77.2119	92.9303
-11.7844	-76.3546	91.4659
-4.65568	-77.6658	93.7558
-16.2655	-75.1184	89.2255
-24.2314	13.0043	71.0236
-26.0176	1.76591	74.5508
-25.3792	4.02123	73.7901
-24.8465	5.78634	73.2161
-1.65255	-77.9127	94.1854
-4.59278	25.147	80.9584
-4.21474	22.1324	81.0649
-2.7018	25.5492	81.6232
-5.50993	28.1636	81.0612
-6.26581	24.347	80.0764
-18.504	16.3464	70.0011
-18.4464	17.6247	70.0584
-16.2442	16.5977	71.7284
-7.82995	23.1986	78.9609
-8.73502	26.0369	79.0065
-0.7037	25.7997	82.0287
-5.60346	-24.5092	97.848
-6.11076	-23.4982	98.8027
-7.54653	-15.0552	102.253
-9.91003	-15.0688	99.7565
-7.54455	-13.5215	101.745
-15.4702	-26.9896	88.1516
-13.2371	-28.1802	89.3365
-15.057	-25.8877	89.1302
-7.29351	-11.9639	101.039
-4.98614	18.9037	81.0652
-6.65475	31.3846	81.444
-8.42636	30.4497	80.5757
-18.7503	19.0558	70.2713
-10.0485	29.2188	79.4219
-11.2593	27.7132	78.1578
-12.1976	26.1882	76.9164
-18.1187	-33.5251	87.3928
-19.3317	-36.907	88.1094
-15.3582	-33.7147	88.8728
-20.4516	-40.7485	88.713
-17.6757	-39.9193	90.0486
-21.7254	-54.6834	83.8659
-19.8559	-54.6297	85.0655
-21.4499	-53.6273	83.2063
-22.2791	-53.2639	86.736
-20.4627	-52.4726	88.315
-21.1328	-50.7201	81.9311
-20.8098	-47.1576	80.8302
-18.2713	-50.4656	83.7397
-12.924	-33.8097	90.2739
-13.8792	-36.4959	90.8371
-10.6344	-33.4763	91.4549
-15.0356	-39.3694	91.3006
-15.871	-42.1027	91.715
-17.5742	-54.5232	86.3073
-16.3468	-53.1395	86.0896
-15.7462	-50.1815	85.0521
-15.8292	-46.2937	83.7439
-8.6457	-32.8371	92.4251
-8.30532	-30.6469	92.1183
-11.3411	-43.2891	94.3009
-14.0814	-43.859	93.1368
-16.0296	-13.1018	88.3559
-13.7112	-11.379	90.922
-2.48188	-5.88584	99.1718
-11.335	-9.63962	93.3405
-6.68975	-21.8611	100.176
-8.71434	-21.7805	98.2075
-10.7409	-21.9062	96.2058
-12.7453	-22.3353	94.0719
-11.4388	-20.1003	96.7984
-14.0247	-23.024	92.4435
-14.6122	-23.9429	91.183
-14.8821	-24.9067	90.0619
-12.0361	-15.4449	97.0993
-11.9366	-16.707	97.3634
-11.7976	-18.3062	97.2408
-36.9698	-142.155	13.0683
-35.0406	-133.757	14.3721
-40.9698	-140.517	10.0407
-38.4671	-148.313	12.1483
-32.5543	-143.658	15.9969
-32.7923	-122.095	16.1092
-28.62	-123.595	19.2716
-31.3212	-111.818	17.7665
-36.745	-120.506	12.8805
-33.3007	-95.4523	25.6456
-32.0612	-99.6194	21.8888
-29.1421	-97.9376	29.0082
-37.1768	-92.9644	22.1469
-31.2713	-104.747	19.5004
-35.1656	-102.906	16.1957
-27.1841	-106.491	22.7769
-39.8428	-65.6495	72.6875
-36.2048	-62.7531	77.4269
-42.5076	-68.8887	67.3703
-44.8196	-72.1392	60.8815
-45.5908	-75.4289	55.3995
-45.4816	-78.3266	50.8443
-33.0471	-60.3373	80.3778
-31.4064	-62.9227	80.8124
-30.4639	-58.3407	82.113
-33.9187	-57.3678	80.5253
-28.8747	-57.2416	82.8969
-27.8642	-58.9354	83.067
-40.8701	-90.642	18.0999
-44.6157	-88.6104	12.6807
-39.753	-95.2286	14.7932
-42.8624	-86.7495	21.4254
-45.4764	-83.1717	25.1286
-48.313	-79.7653	28.4065
-48.3255	-81.0546	18.6687
-51.0887	-76.3663	31.4804
-53.3798	-74.3653	24.6737
-40.5268	-118.767	9.49234
-42.6698	-130.451	8.01394
-39.1609	-108.463	10.9414
-44.2368	-117.419	5.81632
-44.595	-138.942	6.85459
-48.0186	-137.393	3.3396
-46.3757	-145.298	5.80689
-39.0265	-100.956	12.5767
-68.4876	-29.4418	31.5054
-69.0852	-23.4633	31.8993
-67.8134	-34.8734	30.9838
-54.8656	-73.1184	18.0143
-56.2608	-71.859	10.9512
-52.7296	-76.1833	15.0825
-69.597	15.5036	28.9606
-72.8677	13.6508	18.1627
-62.4012	-59.4719	25.9848
-63.5654	-57.9495	18.1378
-66.9608	-40.271	30.5807
-68.2778	-39.6805	22.9438
-69.4359	-16.4664	32.6592
-71.2199	-17.509	24.4049
-69.4107	-38.673	15.4672
-70.5868	-37.2048	8.79398
-53.5258	-85.8515	-3.60085
-50.9396	-86.3636	1.43408
-54.099	-81.5707	-2.0617
-55.7506	-85.5337	-8.49938
-53.1812	-90.7554	-4.86006
-53.0468	-96.3273	-5.61078
-55.0245	-77.618	0.126761
-56.2016	-74.0567	2.1411
-56.9432	-77.0168	-5.59347
-52.9655	-78.3938	5.76682
-74.1746	-3.59323	13.3143
-73.3523	-11.545	15.7892
-74.8091	4.34589	10.5806
-75.3895	12.7394	7.4341
-75.8192	20.6925	4.6966
-76.2183	28.815	1.3062
-76.5932	36.8948	-2.56584
-77.7733	28.1118	-9.44765
-64.5752	-56.2028	10.1639
-65.4555	-54.8515	2.36433
-72.6068	-18.1692	16.9345
-73.7686	-18.748	10.5197
-47.9373	-116.044	1.67143
-49.6863	-127.502	0.433643
-50.8071	-79.5673	12.152
-49.1365	-83.1726	9.28733
-51.2933	-135.76	-0.668658
-52.8971	-141.856	-1.92792
-57.7809	-111.943	-15.8063
-58.7178	-121.555	-17.2719
-57.5847	-85.1265	-13.3705
-58.0823	-80.6046	-12.4256
-58.8839	-83.5324	-18.5032
-58.8335	-76.1583	-11.1828
-59.5576	-128.746	-18.8846
-60.2861	-134.393	-20.9447
-66.0719	-54.3173	-4.69076
-71.6522	-35.7886	4.302
-70.8654	-39.3911	2.75607
-72.8295	-33.9906	1.06409
-74.6681	-18.7844	6.30349
-58.5037	-91.2558	-26.5826
-58.9118	-84.9947	-25.4498
-57.5276	-87.1404	-33.4805
-59.7229	-79.1604	-24.4973
-59.5692	-72.9196	-30.6704
-63.3125	-62.6268	-21.0353
-70.7178	-44.5585	-13.0144
-72.2351	-41.9382	-19.5546
-55.7893	-118.033	-44.8161
-55.4689	-109.739	-43.2366
-52.7685	-115.387	-51.8755
-56.1967	-125.804	-46.2917
-69.5334	-42.8876	-27.3048
-71.9846	-39.3335	-25.613
-73.6764	-37.6882	-24.9199
-74.642	-36.9808	-24.7266
-27.9644	-144.95	18.6949
-29.4552	-150.893	17.4607
-23.3498	-146.15	21.0961
-26.2636	-136.655	20.2586
-22.4802	-108.013	26.3183
-23.2719	-103.997	28.4038
-22.4959	-114.62	24.4998
-17.7568	-109.147	29.5293
-29.1287	-95.4336	44.7762
-31.3437	-93.785	49.8625
-26.5209	-97.4606	38.563
-24.4325	-100.373	32.5593
-19.53	-102.263	36.0231
-24.0625	-124.768	22.4953
-19.4901	-126.341	25.4527
-29.661	-65.6424	81.3843
-27.7041	-62.6811	82.9923
-33.0111	-92.3334	53.8025
-26.5262	-60.7456	83.6502
-25.5375	-59.234	84.0384
-24.5327	-62.6088	84.9738
-24.7186	-57.9474	84.2293
-23.0636	-59.3842	85.5585
-26.0858	-79.7824	80.2257
-26.4636	-84.7684	77.7596
-26.5095	-89.7503	75.0388
-18.7374	-56.5352	87.8756
-16.1766	-56.9197	90.2565
-18.3705	-55.898	86.6551
-15.4163	-55.8512	88.3852
-18.4269	-56.0572	86.3524
-21.2452	-55.7974	85.1016
-18.4123	-56.4543	86.0926
-18.458	-57.8513	85.5824
-15.4007	-56.3691	87.6319
-18.3934	-61.1721	85.0102
-15.327	-60.8133	86.6234
-18.0649	-65.2671	84.9088
-13.238	-109.741	32.2283
-13.3735	-116.897	30.466
-13.7698	-106.431	34.3776
-18.6741	-147.382	23.2183
-20.0292	-152.936	21.7972
-14.056	-148.328	25.0121
-17.1358	-139.336	25.1651
-15.0629	-127.691	28.0524
-6.82488	-104.925	42.527
-7.76758	-104.997	50.9623
-10.1531	-104.497	41.084
-9.99981	-148.994	26.291
-11.176	-154.295	24.8401
-8.91242	-105.726	59.6502
-12.3847	-55.5208	90.3131
-12.2933	-55.7333	89.7163
-12.2461	-56.1675	89.2713
-12.4497	-57.357	88.5818
-12.3031	-60.4904	88.0156
-12.117	-64.8182	87.8811
-71.6168	47.1298	14.7881
-67.6755	49.3797	25.2476
-71.9947	54.9549	9.41081
-74.7174	45.7197	3.89439
-78.3792	27.0769	-19.4223
-72.1222	-19.4012	-49.4656
-69.4429	-21.2315	-54.3818
-49.6368	-93.9749	-54.5043
-46.7331	-91.7849	-59.4584
-49.6429	-104.216	-55.7388
-52.356	-96.9796	-48.9733
-50.1696	-83.8011	-53.3541
-49.9513	-113.203	-57.1451
-46.9251	-111.58	-61.8721
-50.5426	-121.771	-58.4165
-55.7537	-81.6971	-40.7819
-56.9861	-73.3239	-39.4132
-53.5077	-77.3271	-47.1272
-55.1848	-91.1931	-41.3169
-22.5275	113.078	21.3256
-15.5315	115.079	21.6156
-22.5323	117.58	6.22754
-29.1829	110.232	21.0721
-22.1998	102.053	-78.8105
-14.7816	103.458	-80.242
-21.4817	91.1797	-91.9406
-29.2629	100.043	-76.909
-22.8383	110.77	-62.955
-21.1581	79.3064	-101.403
-14.2642	79.9661	-103.058
-20.9792	66.0086	-108.629
-27.8905	77.6207	-99.4695
-22.9559	116.664	-45.8984
-22.8913	119.695	-28.0922
-15.5027	118.477	-46.9581
-30.0839	114.175	-44.2815
-7.79685	123.251	-11.1595
-7.78338	122.845	-29.2775
-15.4065	122.004	-10.885
-7.80007	120.974	6.05309
-20.6537	52.9168	-113.593
-14.2053	53.7671	-115.013
-20.2341	39.5349	-116.865
-26.979	51.6545	-111.546
-19.7022	25.4968	-118.673
-13.3846	26.4226	-120.187
-19.2107	11.6173	-118.847
-26.033	24.5415	-116.475
-17.0845	-26.9029	-107.865
-17.9552	-14.3463	-113.745
-11.5535	-26.8176	-109.038
-16.6781	-38.5303	-100.477
-22.8364	-27.6251	-105.684
-6.23913	-0.4374	-120.019
-5.9452	-13.285	-116.448
-12.479	-0.849615	-118.999
-6.4404	12.7224	-121.442
-14.4664	-85.0058	-82.9602
-9.53144	-84.5911	-83.7266
-14.2448	-94.4413	-82.6554
-19.5885	-85.7382	-81.6151
-14.8193	-75.5118	-83.8822
-14.117	-103.757	-82.5209
-9.34841	-103.456	-83.0819
-14.2545	-112.964	-82.4666
-18.9871	-104.272	-81.5723
-16.7316	-47.6791	-94.3619
-11.1161	-47.2442	-95.3715
-16.2704	-55.8554	-89.7774
-21.9094	-48.2253	-92.7917
-15.4219	-65.2558	-86.1543
-10.2785	-64.4853	-87.1468
-20.8743	-66.3251	-84.4132
-5.09609	-64.2118	-87.5915
-4.80018	-74.6476	-85.2018
-5.36691	-54.993	-91.2431
-47.0772	97.9415	18.0289
-41.3945	102.638	19.4254
-48.1299	101.59	4.56521
-52.6333	92.3461	16.7369
-46.7337	70.5965	-89.4254
-47.0611	81.4676	-80.2743
-40.9467	73.2384	-93.2611
-46.4372	58.623	-96.2035
-52.1275	67.4871	-85.1772
-47.3381	90.9444	-68.2949
-52.7842	86.5408	-64.7155
-47.915	97.9636	-54.2194
-41.7272	94.5506	-71.5395
-48.5441	102.227	-39.563
-49.2389	103.746	-24.8211
-42.8161	106.912	-41.1572
-54.1862	96.558	-37.8167
-48.8711	103.687	-9.99208
-54.5369	97.8271	-10.1057
-42.92	108.776	-9.83444
-45.8554	46.4874	-101.111
-51.2103	44.2848	-96.7915
-40.0247	48.3665	-105.056
-45.2216	33.8842	-104.364
-44.2812	21.1233	-106.192
-38.7031	22.2207	-110.03
-43.3001	8.20849	-106.301
-49.525	19.7085	-101.835
-41.9565	-4.27635	-104.844
-46.6554	-4.98753	-100.637
-36.8035	-3.97559	-108.504
-40.532	-17.1061	-101.307
-39.5203	-29.6047	-95.4152
-34.3504	-29.0363	-99.3608
-38.7064	-40.4363	-88.9952
-44.0943	-29.3039	-91.5677
-37.8807	-49.8167	-83.2899
-42.2676	-49.9714	-79.002
-32.8737	-49.6628	-87.0177
-36.9671	-59.1708	-78.3736
-34.6323	-87.4138	-73.5506
-38.9876	-88.3162	-69.5292
-35.5583	-77.8455	-73.4075
-29.7989	-87.0424	-76.9658
-33.789	-97.3741	-74.529
-23.9189	-104.946	-80.1298
-28.9002	-105.823	-78.0212
-24.1693	-95.8774	-79.8621
-24.1477	-113.784	-80.3773
-36.2065	-68.596	-74.9822
-31.5248	-68.0108	-78.7452
-40.633	-68.8835	-70.4361
-66.3911	70.1409	-51.4055
-62.2581	76.1059	-56.5852
-65.7058	64.0161	-61.8052
-70.2237	63.3466	-45.5645
-67.3802	74.0467	-39.9397
-68.067	76.2087	-28.5778
-68.3829	77.085	-17.425
-63.9541	83.5493	-32.7062
-71.6748	68.336	-23.4455
-67.4606	77.7669	-6.66542
-63.9229	84.7846	-8.96167
-70.118	70.2382	-1.87751
-55.9015	42.05	-92.2526
-55.2091	30.1958	-95.4818
-60.1372	39.4057	-87.4146
-56.5315	53.2654	-87.3123
-56.8236	64.2243	-80.699
-61.2055	60.3271	-75.7761
-57.1765	73.7478	-72.0342
-51.2673	-5.65483	-95.6458
-49.4086	-17.6383	-92.5134
-55.6596	-6.45671	-90.0681
-53.1063	6.29204	-97.0107
-54.2652	18.0986	-97.0969
-58.6233	16.7429	-91.9798
-48.1518	-28.7973	-87.4047
-47.3286	-39.7525	-80.6076
-52.0803	-28.7292	-82.2524
-46.1603	-49.2886	-74.7209
-49.6586	-47.6549	-70.673
-45.0067	-69.4514	-64.7477
-43.9895	-79.4024	-63.9356
-48.6269	-71.8437	-58.2092
-75.9137	34.9571	-46.9159
-74.0753	40.4252	-52.6139
-75.1707	29.068	-54.4031
-57.6064	86.1404	16.0878
-58.6584	89.8542	3.16031
-76.3939	44.7377	-6.97464
-75.8343	52.5953	-12.1631
-65.6791	-7.18549	-74.1299
-63.6732	-16.9678	-71.2804
-68.3979	-7.52648	-68.5275
-67.2663	2.20195	-75.5836
-62.7172	-7.28628	-79.3132
-68.1742	11.6949	-76.2433
-70.8095	9.60537	-70.135
-69.0668	20.7263	-74.7582
-65.3728	13.4595	-81.7341
-69.9061	29.8857	-71.387
-72.4231	26.034	-65.4225
-70.8111	38.2583	-65.8958
-67.0371	33.3537	-77.0757
-57.5234	-41.7787	-59.8375
-55.8319	-49.4481	-56.0585
-60.0629	-39.6086	-56.0321
-59.4233	-34.2213	-63.7741
-54.9832	-44.0251	-63.4014
-66.8386	-22.8553	-59.0619
-68.9003	-15.4479	-61.4647
-64.3067	-24.462	-63.2334
-64.753	-30.0999	-55.7507
-51.3685	-74.3611	-52.5331
-52.7969	-65.4156	-52.5564
-73.1532	-37.8103	-4.63807
-71.3242	-40.7608	-2.46755
-73.8353	-34.3546	-2.5149
-73.8205	-32.6811	-1.01404
-78.1894	-7.37052	-2.25458
-79.0969	-2.0776	-4.41292
-91.2185	4.06361	-38.1417
-91.8225	3.6617	-37.4345
-91.398	9.85353	-35.6969
-80.0797	-35.4016	-24.7565
-78.6888	-38.2147	-21.4005
-79.0578	-35.2336	-25.5375
-90.9961	14.5229	-32.1246
-91.8571	13.8521	-31.5605
-90.2963	17.6172	-27.957
-90.0551	14.8373	-32.6204
-84.2237	9.15528	-11.194
-82.9031	9.16566	-11.8736
-89.5	18.8768	-23.6499
-90.4012	18.1555	-22.8995
-85.8214	-18.8569	-34.9277
-81.3533	-36.3029	-17.2531
-79.5877	-38.3243	-17.7954
-80.8104	-36.2211	-14.4781
-79.5892	0.553119	-6.15777
-86.0509	17.0336	-19.0916
-84.0635	13.8843	-16.4023
-84.986	16.1851	-20.676
-81.6061	9.47375	-13.3227
-80.7579	9.94449	-14.9283
-89.4082	14.6832	-32.8415
-80.0189	9.71534	-16.3783
-81.3241	11.7516	-19.0491
-82.9503	13.7348	-22.6629
-80.7889	11.5904	-23.7399
-84.7161	-27.3562	-27.7624
-84.5177	-29.0796	-20.1194
-77.9222	-39.4919	-18.3276
-80.2855	-35.3495	-12.2769
-81.3089	-32.5986	-12.1594
-82.153	-30.2203	-13.0611
-82.6563	-28.6463	-14.0364
-90.4855	-8.40375	-36.2776
-91.2227	-2.76568	-37.6883
-91.9988	3.35368	-37.019
-92.4605	8.94556	-34.659
-88.8038	15.3275	-15.3652
-90.0656	17.0643	-18.4783
-88.9658	14.6833	-15.0763
-88.9269	14.0685	-14.932
-90.2422	15.8749	-17.9775
-88.7369	12.9805	-15.1048
-92.2195	13.3053	-31.197
-92.3249	12.7961	-31.0489
-91.6385	16.1532	-27.0251
-90.9408	17.4404	-22.4118
-91.1511	16.84	-22.2794
-91.146	16.2395	-22.0029
-91.762	15.0918	-26.6414
-92.2719	12.4112	-30.7255
-91.3531	-1.02722	-35.9696
-88.4537	11.6699	-15.6574
-85.7285	4.31641	-13.1875
-90.5169	11.5701	-24.2002
-90.6717	-4.22719	-30.8323
-90.7484	-2.3469	-30.5122
-90.6913	-0.487178	-29.9081
-90.4889	0.993202	-28.9859
-90.1264	2.19089	-27.7173
-80.6024	-25.1877	-11.7458
-81.8277	-26.7381	-13.4369
-83.6361	-2.41318	-10.1973
-79.6193	-17.2666	-9.69827
-82.7766	-27.9235	-14.5397
-30.4867	26.8752	72.1105
-33.456	95.0434	44.4045
-34.6571	101.2	33.3934
-7.89944	102.818	47.3245
-7.97195	110.099	35.4961
-35.3593	106.856	20.2982
-35.9569	111.008	5.86661
-7.88633	116.35	21.7677
-22.6105	119.954	-10.4976
-29.7132	117.021	-10.1143
-36.385	113.348	-9.99195
-36.7325	113.343	-26.2264
-63.0434	52.6149	34.658
-71.4748	62.5264	3.61472
-73.5633	61.3606	-7.05028
-59.4248	91.7221	-10.1115
-59.8656	91.5642	-22.9322
-7.74365	119.592	-47.5062
-7.63843	113.42	-64.9571
-36.5035	111.064	-42.5036
-36.2239	105.735	-59.0614
-74.1123	60.4129	-17.8276
-74.013	59.0382	-28.6918
-59.1392	90.5348	-35.7351
-58.3735	87.3145	-48.3693
-73.2163	56.4499	-39.4682
-72.4218	52.1524	-49.714
-71.586	46.1488	-58.5412
-68.6433	51.2352	-64.5556
-43.1885	-90.0944	-64.6253
-42.6756	-100.208	-65.9686
-42.9097	-109.653	-66.9973
-38.2525	-107.876	-71.6565
-43.2864	-118.353	-68.1968
-7.31846	104.393	-80.9014
-7.07077	92.874	-94.3613
-7.1338	80.2923	-104.062
-7.24952	67.2128	-111.017
-7.21228	54.3001	-115.884
-6.98796	41.0403	-119.201
-6.6808	27.0531	-121.112
-18.6533	-1.51596	-117.3
