1909
30.3286	70.9151	-109.696
33.7313	43.795	-109.736
32.6278	30.437	-108.227
27.9447	44.8036	-112.347
39.182	42.2731	-106.583
32.4046	16.9072	-104.435
37.7235	16.4213	-101.429
32.5311	4.88686	-99.8771
26.5179	18.2709	-107.281
32.5474	-5.57136	-95.7753
32.3123	-15.8469	-92.4341
26.8061	-4.63681	-98.5091
37.7921	-6.62293	-92.3815
29.9299	-44.6512	-92.2179
28.5152	-54.1968	-94.7379
24.4226	-43.5642	-94.6259
31.2401	-35.3016	-90.5884
35.0623	-46.3877	-89.2227
17.2784	-60.4522	-99.7458
17.1515	-69.0779	-101.546
12.0981	-59.4932	-100.159
17.9003	-51.6137	-97.9642
22.6271	-61.7471	-98.7315
31.9069	-25.866	-90.6293
37.2552	-27.1176	-87.0131
26.4767	-24.487	-93.3774
70.0981	107.812	-49.4845
73.2979	109.679	-37.9101
74.8304	100.085	-45.7605
67.2946	103.58	-60.5174
65.1347	114.618	-52.7353
76.1132	109.894	-26.6905
80.477	101.256	-23.8381
71.3963	117.842	-28.5742
78.4949	108.887	-15.7714
79.6135	107.759	-5.02652
82.9717	99.5966	-2.38737
75.8089	115.005	-5.24174
51.2742	87.2319	-92.0573
53.1384	97.4357	-85.4596
56.3085	83.7453	-88.5633
49.6417	76.0965	-97.0892
54.9564	107.096	-77.2171
57.1608	114.981	-67.2325
60.1129	102.379	-73.8908
44.7083	40.6398	-102.647
46.5961	52.7308	-102.268
50.1345	38.7629	-98.1336
43.1503	28.1568	-101.303
48.056	64.4294	-100.549
53.3193	62.1343	-96.5778
42.6032	16.0785	-97.9963
47.5421	15.1055	-93.6592
42.8339	3.8317	-93.0832
42.5724	-6.84229	-88.7601
46.9441	-6.06698	-85.1413
42.7782	-28.8925	-82.3263
47.6723	-32.6483	-76.9996
41.552	-38.8472	-83.0972
79.5168	72.1565	-53.079
77.2323	67.5886	-61.1306
76.7417	78.5935	-57.2703
74.4101	112.04	20.7981
72.9927	117.862	8.57867
87.6037	75.2384	-13.5007
86.2792	83.8741	-16.7867
63.2168	34.9728	-84.543
59.2449	35.8666	-89.0663
64.7203	44.618	-84.6577
67.0214	33.5641	-79.6502
61.5718	24.6512	-83.0596
65.7125	54.2027	-83.8649
61.9082	56.9753	-88.3877
67.0981	62.9189	-81.0657
69.4662	50.9924	-78.7787
68.7958	71.4203	-76.4077
64.9513	75.8873	-80.8044
70.9391	78.7651	-69.8417
72.34	66.5193	-71.7567
57.1769	-2.44784	-74.9844
53.8468	-3.96091	-78.383
58.4609	5.90899	-77.8901
60.5591	-1.05448	-71.3636
56.0619	-10.8952	-72.2912
67.0599	16.3693	-72.7335
65.5136	8.43484	-70.3392
63.6599	15.5756	-76.6047
68.7695	24.2745	-74.2092
51.5088	-36.3477	-72.4015
53.28	-27.5203	-71.099
84.2148	-9.58403	-23.4122
85.3125	-6.407	-21.0685
82.8731	-13.1349	-21.3358
85.6061	-4.97403	-19.4204
89.577	21.6416	-18.1445
90.0848	27.4754	-19.5472
95.6641	39.7377	-52.591
96.3883	45.1511	-49.3443
96.3906	39.1977	-52.0863
86.9387	-3.05922	-43.803
86.2344	-6.65989	-40.673
96.7358	49.2292	-45.1049
95.722	49.6356	-45.3489
96.8729	51.6191	-40.5233
97.6798	48.4514	-44.8388
93.932	40.1845	-25.106
92.5238	40.3008	-25.51
96.9046	52.1461	-36.1249
97.9193	51.2924	-35.6918
90.7015	15.8708	-52.1712
89.5841	-5.41239	-36.9026
89.4068	-5.88095	-34.1848
87.7488	-7.45865	-37.3459
90.2588	30.477	-20.8815
94.3912	49.5296	-31.5804
92.894	45.8662	-29.2172
93.0597	48.9148	-33.005
90.9997	40.8259	-26.5907
89.884	41.545	-27.8602
95.054	49.5214	-45.4606
88.8934	41.5595	-29.1214
89.7094	44.0938	-31.5354
90.6574	46.7288	-34.8991
88.2963	44.7036	-35.8598
90.9452	5.83604	-46.3512
92.2588	2.58976	-39.207
86.0868	-8.59761	-37.7002
89.1108	-5.52474	-31.7355
90.3966	-2.56442	-31.5296
91.2803	0.0401246	-32.2105
91.659	1.83621	-32.976
96.6376	38.8013	-51.7722
97.6205	44.0342	-48.6989
97.7302	47.1673	-28.825
97.937	46.4426	-28.671
98.399	49.4409	-31.6695
97.9133	45.7878	-28.6187
98.6596	48.1363	-31.4074
97.6845	44.7252	-28.9253
98.1001	47.8266	-44.6526
98.354	49.9742	-40.1301
98.2252	47.279	-44.6229
98.5374	50.4833	-35.4408
98.7691	49.8432	-35.4532
98.8095	49.1959	-35.2942
98.5374	48.8364	-39.9731
98.2293	46.8427	-44.372
96.141	34.2029	-51.3699
97.294	43.4955	-29.6068
95.0082	35.5776	-27.9774
97.7237	44.8534	-38.0213
96.4213	30.0114	-46.8409
96.5825	31.8641	-46.2578
96.6658	33.6433	-45.3803
96.6634	34.9797	-44.2347
96.5697	35.9672	-42.7794
96.14	36.3142	-40.0511
90.1634	4.94968	-29.9306
91.0109	3.68881	-31.9843
93.4489	28.1444	-25.8165
89.5777	12.7078	-26.709
91.6969	2.69127	-33.3781
57.9639	44.2585	68.3545
55.9746	115.015	55.7861
55.0879	123.148	45.4169
30.8009	121.361	65.155
28.7204	131.018	54.1279
22.7342	121.648	66.8137
53.3171	131.154	33.1014
51.2204	137.902	19.339
26.1457	139.946	41.1968
18.1562	140.378	42.6304
35.0153	149.62	7.05536
42.1148	146.69	5.68415
48.7292	143.079	3.98877
46.111	145.965	-12.0358
82.8976	77.0922	30.6366
85.1941	91.1569	1.07492
85.1947	91.7079	-9.78007
71.2575	121.982	-4.21724
69.2922	124.044	-16.8447
13.6824	155.816	-26.7087
10.3764	152.815	-44.7764
5.86235	156.199	-25.4154
42.9047	146.588	-28.3272
39.5438	144.239	-45.3639
83.7503	92.5182	-20.3683
81.6149	92.9648	-31.0182
66.1842	125.247	-29.3769
63.0349	124.255	-42.0985
78.7609	92.2389	-41.694
75.9361	89.7456	-52.1474
73.2944	85.3134	-61.5345
69.3637	91.4103	-65.9298
40.1768	-49.1736	-85.4952
38.9732	-58.7674	-88.4788
38.6034	-67.7701	-91.1683
38.3577	-76.0055	-93.9055
33.1231	-65.065	-94.5606
7.02961	146.732	-61.8056
4.06406	137.78	-76.8301
-0.429438	146.979	-60.8399
1.95595	127.181	-88.3853
0.353807	115.468	-97.4731
-5.20317	127.345	-87.4123
-0.860538	103.495	-104.47
-1.95536	91.0833	-109.878
-8.07503	103.727	-103.442
-2.98544	77.6613	-114.055
-9.78539	77.7446	-113.178
8.55433	48.8405	-117.316
14.9868	47.498	-116.249
-3.78998	22.772	-112.086
-2.79886	9.21893	-106.152
-9.48386	22.6826	-111.25
-2.07329	-0.564373	-101.726
-7.6658	-0.79077	-100.734
-2.02278	-39.1542	-96.6693
-6.90321	-38.9257	-95.8989
30.239	121.162	-86.9018
32.7871	130.995	-75.7646
28.2014	109.915	-95.7794
35.8995	138.89	-61.8429
26.3743	98.2196	-102.651
24.8882	85.8263	-107.94
23.5518	72.828	-111.809
22.5078	59.3253	-114.082
21.5522	46.1587	-114.559
20.7551	32.9331	-113.099
20.2381	19.6835	-109.583
20.2116	7.28328	-104.908
20.7594	-3.26214	-100.657
21.0911	-13.0858	-97.3511
20.6019	-22.9634	-95.4856
19.8786	-32.9482	-95.1673
18.9778	-42.3093	-96.1965
27.9939	-63.1696	-96.9902
27.8988	-71.7233	-99.1858
59.8331	121.002	-55.0609
64.9365	97.4378	-69.8764
62.794	89.1029	-78.2413
60.7644	80.2169	-84.8276
59.1179	70.1898	-89.6672
57.766	59.7604	-92.6359
56.578	48.6002	-93.7588
54.8441	37.0729	-93.6388
53.1609	25.7632	-92.1946
51.8411	15.0581	-89.583
56.012	14.6556	-85.0682
51.1107	4.29954	-85.6525
50.4688	-5.0175	-81.864
55.0328	-19.4617	-70.5948
57.8147	-18.6727	-67.3685
75.2074	62.3042	-67.3304
73.7561	55.5091	-71.4844
78.0178	57.3883	-62.4569
70.207	32.5292	-75.2086
71.5483	40.5741	-75.0307
59.8504	15.0056	-80.8767
72.5514	48.4955	-74.0484
63.9683	0.56959	-67.8321
62.6368	-7.21665	-65.5301
29.5008	-77.5771	21.7485
70.2033	-45.1825	-17.0907
58.7746	-61.2653	-16.3535
37.2092	-31.7211	82.2194
39.6672	-32.4607	79.9438
42.1479	-33.857	76.879
32.4142	-42.5761	80.7425
32.7306	-43.6764	80.5959
32.9503	-44.7846	80.3449
44.1661	-48.7175	68.7193
43.5686	-46.9625	69.9675
43.0052	-45.4207	71.0551
41.0103	-28.1069	79.7642
56.6568	-36.5429	61.4556
50.6492	-14.8681	68.6974
51.2737	-20.3774	69.2438
51.6832	-25.6399	69.3783
77.0237	-16.1982	37.9521
44.0518	40.5207	70.0762
80.7191	52.4579	-57.1708
86.7223	47.4379	-39.4702
87.7482	44.9887	-37.6191
82.0007	-16.8409	-18.0919
49.6965	29.2233	64.5434
75.1822	62.1907	60.2226
33.4846	-12.7885	85.0931
67.7417	39.6982	54.45
36.6482	-11.505	81.8828
87.8153	44.5715	-36.6055
56.0904	-64.1186	-67.7727
63.1279	-30.4754	-57.4287
61.642	-22.8795	-61.2823
61.1965	-16.29	-63.9558
44.333	-6.86745	72.1909
36.4202	-40.5479	77.5752
44.6362	-39.4307	69.035
30.5601	-36.3406	79.5358
-60.032	-23.2129	17.578
-60.7339	-18.6958	19.4992
-62.225	-19.8886	11.2373
-59.2203	-27.4083	15.5883
-57.3742	-26.3084	24.7468
-50.3726	-84.1804	-16.847
-49.6046	-74.5151	-14.445
-53.2989	-82.2324	-20.5061
-51.8493	-93.8919	-19.6759
-46.8746	-85.868	-13.3889
-53.2757	-100.899	-22.053
-50.1203	-103.436	-18.3854
-55.7977	-98.3694	-25.8838
-54.5101	-106.343	-24.1157
-41.2238	-70.895	-4.76032
-45.7619	-69.1457	-8.69812
-41.5401	-77.8285	-7.29142
-36.514	-72.8938	-1.31636
-41.7092	-65.7137	-2.33513
-54.7249	-65.034	-19.9197
-52.3747	-66.3557	-16.0963
-54.8644	-59.966	-18.4056
-56.5923	-62.8354	-24.4614
-54.8561	-71.5657	-21.8089
-51.1465	-43.5558	22.8326
-53.6324	-41.2695	16.304
-49.7143	-46.8079	19.8856
-47.7598	-46.0557	28.5195
-52.2164	-40.3356	25.3598
-57.546	56.3321	39.2589
-62.7797	56.6659	28.693
-57.0731	48.17	40.2196
-51.5814	57.5847	49.4878
-58.5167	65.0375	37.113
-71.027	75.7603	-7.14886
-71.7012	67.4872	-3.71879
-69.5875	75.6141	3.29473
-69.9904	83.7261	-11.058
-72.1789	74.4833	-16.9981
8.48089	-82.8823	21.7657
8.92984	-79.9159	24.8198
4.97727	-82.795	21.1294
6.74602	-91.304	18.3142
11.0869	-82.9238	22.047
3.94619	-103.328	12.6395
1.46567	-114.641	6.93291
7.12935	-103.628	13.2094
0.437918	-102.24	11.8787
7.24578	-123.005	3.46763
6.36245	-128.02	1.13627
8.33836	-115.462	7.22482
3.67579	-122.617	3.60748
-63.4433	-19.4915	-27.8454
-64.7759	-11.1222	-30.5761
-61.3371	-24.891	-31.6308
-62.2177	-26.8064	-23.8616
-65.5186	-14.0332	-24.1837
-66.0116	-5.09915	-32.5332
-68.5042	-1.19448	-28.2148
-67.1759	0.113867	-34.0249
-63.0886	-10.0838	-37.3735
-59.5002	-88.7828	-40.058
-58.9297	-92.9295	-34.3774
-59.1659	-84.8154	-46.3235
-60.1437	-94.7388	-43.4747
10.0087	-104.009	13.271
11.9285	-91.9214	19.0472
-54.1467	-28.9102	31.3829
-53.372	-33.5663	29.7646
-50.7803	-30.205	37.0972
-55.181	-23.3183	32.5685
-55.8602	-38.3862	9.20679
-57.1878	-34.8411	11.4797
-57.7271	-36.015	1.58604
-54.4219	-41.701	6.51396
9.5596	-78.6132	73.5135
10.3605	-74.5818	75.4655
5.3886	-77.7683	71.8401
9.01725	-82.0521	70.6029
13.5948	-79.1093	74.489
0.956818	-76.1194	69.5524
1.33873	-71.9793	71.3848
-3.61788	-74.1503	66.2771
0.752344	-79.6714	66.9179
18.4622	-70.4513	77.6403
18.0123	-75.4317	76.7056
18.8432	-64.7976	77.61
14.9074	-70.1218	77.3416
8.6517	-84.4031	67.0773
12.4569	-84.9154	67.8785
4.63206	-83.5312	65.6201
8.0419	-85.7866	62.3806
7.37459	-85.9472	56.6318
6.94748	-84.7265	50.3146
11.4789	-86.6359	56.8844
7.75304	17.9332	81.3412
10.3584	20.2844	83.8143
7.43616	21.4703	79.5707
5.19564	16.2678	79.3034
7.7314	14.3103	82.5377
-26.0281	-6.07691	69.8998
-26.8004	-11.0025	68.7418
-19.237	-5.67062	72.9004
-25.2083	-1.06479	70.8959
-32.8495	-6.08727	65.9136
-38.273	4.99375	63.4842
-39.1986	-0.466848	62.1019
-31.3978	4.54773	68.1661
-36.7468	10.2114	64.8655
-45.0068	5.88485	57.523
-51.5064	24.1633	50.1547
-48.0755	25.8843	54.1505
-50.7733	31.6431	50.5279
-54.4114	23.1123	45.8092
-27.2796	-16.075	67.2845
-20.5538	-15.8601	71.2089
-33.988	-16.6918	62.3001
-27.1987	-21.8423	65.9572
24.5529	18.8186	98.1731
22.7416	18.2334	97.8181
24.8518	13.3399	100.495
24.0789	24.337	95.9807
-3.80147	85.266	89.8903
-5.81356	91.9466	86.4589
-10.018	84.3075	87.6038
-1.48561	77.5916	93.2952
1.80197	85.7782	91.3007
13.922	-83.7716	43.3954
14.6118	-85.9731	50.3977
10.681	-83.3197	43.2712
13.5488	-80.9461	36.2226
-47.163	-30.7227	42.3183
-48.3473	-24.6983	43.7179
-45.7026	-36.8025	40.8015
-43.1023	-30.7597	47.5129
16.3546	-85.2959	67.9534
15.6905	-86.8327	62.7008
16.9852	-82.8685	71.7465
15.1279	-87.0262	56.6972
-19.9398	-68.9061	45.5873
-19.9414	-66.6487	49.3681
-25.2583	-64.4723	42.5056
-19.2345	-70.6394	42.3854
-14.4043	-73.2745	50.1274
-26.5792	-66.9103	24.9375
-21.0981	-70.0523	27.7984
-28.7428	-65.0036	29.2854
-32.0351	-63.6203	21.8634
-24.3875	-68.9963	19.7368
13.7711	-78.8343	29.4791
14.078	-79.4409	25.0272
11.292	-78.862	29.2315
20.374	7.34855	100.864
22.9946	7.99192	102.291
20.464	12.0661	98.8066
17.2368	6.37321	98.164
20.1214	3.63529	102.516
-1.2001	-3.76244	77.767
2.49973	-1.4353	79.5798
0.260518	1.04505	78.5749
-5.58238	-4.74014	76.5439
-5.45808	-38.2855	74.4844
-3.42117	-38.5689	74.7208
-3.98868	-37.5292	74.8847
13.5195	-10.5053	87.6296
11.5504	-10.4474	85.8973
14.0099	-11.2094	87.0421
12.2288	-9.452	87.9718
13.2932	-13.9152	84.9449
15.3329	-13.5625	86.3891
13.59	-13.0669	85.304
10.7212	-13.7784	83.2468
12.7025	-15.3162	84.6373
24.8965	-11.6713	93.8081
23.0163	-11.3626	93.2778
24.6704	-12.2118	92.486
24.9851	-11.2466	95.4207
7.91217	-12.6928	81.6686
7.25685	-14.0661	81.4331
8.50933	-11.83	82.1755
5.4382	-10.809	80.4071
19.958	-5.45444	103.066
19.8794	-3.93005	103.87
17.0117	-5.03433	99.734
20.0343	-6.97623	101.577
22.7369	-5.89215	105.091
-3.49767	-53.535	72.0019
-5.32749	-57.7984	69.8375
0.129357	-55.7571	73.4225
-1.71668	-50.0562	73.8482
-6.41519	-50.6871	71.1116
-3.32353	-32.2554	77.8846
-5.44218	-32.8759	76.7689
-1.16023	-31.523	79.1669
-2.67114	-28.257	79.1628
23.8532	-15.6431	89.5941
24.2249	-13.9111	90.5506
21.846	-15.4364	89.369
23.5101	-17.8768	88.8767
20.3188	17.1378	96.6758
19.7648	22.1615	94.45
17.1982	15.6185	94.2723
7.3072	-3.15672	85.0865
6.63265	-2.49023	83.8432
6.97508	-4.45923	84.0031
8.35677	-2.77107	87.3714
8.52704	-1.77715	87.6133
20.7569	-12.3028	90.4295
22.506	-12.546	91.1276
20.939	-11.5722	91.1703
19.0081	-12.5246	89.217
20.7083	-13.7074	89.5875
21.3214	-11.1327	92.264
21.5882	-10.6818	93.7891
9.52534	-2.33746	89.6921
8.9541	-3.75646	88.3996
9.80943	-1.48894	90.1266
6.92381	-6.55405	82.9562
7.51373	-8.6884	82.5821
8.01658	-5.89758	85.2654
22.7577	-26.1806	88.2756
22.8739	-23.2537	88.2647
20.1813	-25.4723	88.3943
22.4411	-28.1533	88.3399
0.724424	-15.3739	79.0404
2.23286	-11.4896	78.9638
-1.75261	-15.0612	78.1709
-0.610927	-19.4393	79.4521
3.31158	-15.8314	80.1141
12.8888	-52.3765	78.6444
9.08949	-51.8341	78.1271
12.3553	-54.8086	77.7161
16.7813	-52.809	78.7164
13.268	-50.419	79.7372
0.890348	-34.2204	79.0244
0.967566	-32.4259	79.9636
-1.48003	-35.4989	76.9356
0.530049	-34.9293	78.4375
9.96414	-0.796761	90.1149
11.7316	-0.164719	92.9355
9.55204	0.333309	88.8212
5.62903	-51.2436	77.1972
6.23475	-49.4311	78.2644
2.26074	-49.9128	76.0627
4.96818	-53.6372	76.1024
20.0652	-53.0466	78.4655
20.4319	-51.428	79.3118
19.8164	-55.3	77.7727
-38.2569	47.554	68.6946
-39.6222	49.3145	67.1737
-41.1858	43.2823	62.9887
-36.7205	46.1683	70.0768
-14.3156	70.1211	88.7394
-15.4284	76.5891	86.6977
-21.8785	69.0691	83.7508
-13.7052	64.2613	90.1001
-7.63535	70.6509	92.6866
-29.8715	67.3209	77.4681
-31.4582	73.5297	74.9123
-37.6962	64.5973	69.4828
-28.5491	61.6585	79.6494
-14.4322	55.0294	89.8387
-14.0007	57.9933	90.3232
-14.9203	52.0238	88.9098
-8.60343	55.1427	93.9619
-41.8523	51.3708	64.3251
-46.4318	46.1215	56.7905
-35.048	55.0714	73.8375
-43.5589	54.78	61.9363
1.36153	43.2942	88.9613
4.31904	42.7291	88.7061
1.9984	44.0413	90.3754
-2.04899	43.9383	88.6746
0.541879	42.5026	86.6453
17.7886	32.3212	89.7664
18.2573	29.9766	90.6812
20.7285	33.9011	91.5746
17.3425	34.0986	89.1358
14.7291	30.2127	86.6346
-6.20704	12.5041	75.4792
-0.219527	13.5271	76.9388
-4.4495	15.479	75.2583
-13.715	12.4456	74.0216
-8.0998	8.88962	75.5816
-36.8981	28.489	62.8246
-34.0877	24.6022	64.7522
-33.5778	29.7808	64.5345
-37.8352	33.1103	62.5898
-40.0371	27.3858	60.9375
19.044	26.5726	92.3515
21.7059	28.0396	93.7198
16.1139	24.558	90.0039
-15.2774	49.8118	87.9419
-15.1946	47.9511	86.9252
-9.44945	49.8255	91.588
-20.7927	50.4146	85.2121
-26.441	50.0924	81.6661
-31.4792	47.6053	76.7532
-25.58	48.0066	81.4302
-32.6365	36.2986	66.7303
-34.9409	36.768	65.592
-32.1632	33.6378	65.7157
-30.197	35.6683	67.6198
-32.2963	39.0102	69.0092
-18.4873	37.2605	74.4396
-16.5471	37.9187	75.7686
-20.2888	36.5663	72.8427
-14.6131	38.5618	76.7472
-12.3736	38.8841	77.1153
-14.5658	39.1334	77.4944
-16.7681	38.5349	76.5018
-12.0693	39.4229	77.8062
-9.62422	38.9614	77.0199
-6.88153	38.7844	76.6186
-9.2095	39.4682	77.6432
-6.31727	39.2774	77.1817
-4.38974	38.3702	75.9282
-2.10687	37.5518	74.9628
-0.110138	36.4731	73.8855
1.22938	35.479	73.0605
0.946633	37.0405	74.381
-1.03942	37.9704	75.351
2.11583	36.0627	73.5974
1.95517	34.546	72.4159
2.00098	37.3977	74.9373
-0.0328993	38.4697	76.0714
-8.81561	40.0565	78.5407
-5.73567	39.8387	78.0918
-24.5126	33.4794	68.7214
-23.3501	32.4057	68.9397
-6.01525	44.6141	88.1328
-6.50466	43.5663	86.0056
-5.56466	45.9847	90.093
-10.4937	45.3394	87.0748
-22.4038	41.8964	78.6033
-21.027	40.2247	77.4253
-18.9734	42.5473	80.702
-23.5928	43.9239	79.8804
-13.4384	23.4407	72.1078
-6.94369	23.0715	72.9354
-19.031	24.99	70.8421
-14.1557	22.1998	72.1574
-2.06275	24.3054	73.2336
-2.26271	22.8961	73.5881
1.06651	26.0285	73.2212
3.9362	29.8554	72.926
3.31404	28.6035	73.0787
4.20522	30.8023	72.7787
-12.3339	26.2163	72.082
-6.69132	25.8546	72.5669
-17.3056	27.6476	71.2717
1.48911	29.6364	72.0114
2.0867	30.3187	71.8307
0.297016	28.5248	72.2774
2.55817	30.8629	71.7984
2.96136	31.5212	71.8472
7.27366	37.6928	79.2943
8.79603	38.9635	82.6676
6.21387	38.9313	80.0987
5.57592	36.4251	75.9184
4.33778	32.2922	72.9114
-2.76822	39.3397	77.2462
4.75895	35.7117	74.5772
3.96536	37.0264	75.2407
5.21474	34.2767	74.1466
-12.2172	27.5691	72.1257
-6.60067	27.1077	72.4499
1.23558	30.5453	71.546
0.138985	29.7533	71.8328
1.84409	30.9348	71.4772
2.15681	31.3537	71.3791
-21.6014	35.8902	71.2733
21.7613	45.1105	92.6077
21.9591	47.4413	93.4771
18.5842	44.2604	92.3714
21.902	43.3665	92.0107
3.55211	20.6291	76.3101
1.13233	19.2591	75.6537
3.47276	18.1053	77.2905
5.26615	22.1567	76.9905
3.47705	22.6662	75.4377
7.17712	23.9584	78.2114
9.38328	26.19	80.2064
6.12347	29.3226	75.0733
5.71804	31.0788	74.2904
7.75019	30.1086	76.8568
12.0266	36.82	83.8271
13.0467	37.6167	85.5381
11.0711	38.4127	84.2102
2.48641	27.3659	73.161
2.91799	26.1463	73.8132
3.31085	24.5301	74.5891
1.24194	22.9139	74.3282
3.79618	-37.0372	76.6817
6.84167	-36.8132	78.0416
1.16663	-36.9834	75.4739
3.87158	-36.935	76.4504
-0.49171	-37.1003	74.7483
-0.237871	-36.975	74.6377
22.1124	-31.5925	87.7509
22.0572	-32.8177	87.1451
22.2167	-30.343	88.1492
19.2134	-31.0416	87.7401
16.4881	-33.4447	85.7812
13.9691	-33.4785	85.0227
16.5742	-34.5885	84.6823
18.9977	-33.6356	86.171
16.6021	-32.1706	86.7076
11.312	-33.5615	83.9977
8.16397	-34.0675	82.3423
11.1485	-34.8183	82.7604
11.3358	-32.3407	84.8844
16.7469	-30.8135	87.4305
16.9132	-29.5278	87.9318
14.2214	-30.8637	86.716
12.501	-28.9343	86.6704
11.7491	-29.913	86.1738
15.2149	-28.7149	87.6807
12.9902	-27.8858	86.9609
4.34982	-35.3135	79.626
4.75116	-34.0666	80.9514
16.7582	-35.6153	83.2856
13.7583	-35.6427	82.4904
16.8477	-36.0898	82.1963
19.4514	-35.6249	83.8625
10.5716	-35.9485	81.1637
10.3661	-36.4587	80.1078
-0.929901	-36.1566	76.5815
-2.31712	-37.2941	75.097
3.64018	-38.1695	77.1311
3.5807	-38.4486	77.393
6.74097	-38.3897	78.6928
3.66733	-38.0507	76.8931
2.9962	-39.9646	77.837
5.6813	-41.2414	79.7653
3.25565	-39.4389	77.7979
8.87892	-41.9781	81.5682
8.36595	-42.8372	81.4783
11.9355	-42.0952	82.7285
9.16508	-41.0559	81.4172
16.3355	-39.7912	83.0639
19.3487	-40.0105	83.3278
16.6719	-38.5549	82.6147
12.9549	-39.8347	82.3396
15.8118	-41.0654	83.3552
21.4428	-43.0085	83.5348
21.6151	-41.6992	83.4688
18.7225	-42.5358	83.7179
21.294	-44.1952	83.4521
-0.918564	-38.4024	73.747
-0.655684	-37.9008	74.4859
0.938971	-38.5198	74.7825
-1.07463	-39.7527	72.7412
21.4936	-38.1556	79.4749
21.7419	-37.6913	80.7762
21.2076	-39.3885	77.9375
19.3241	-38.1547	79.4992
21.2124	-45.3534	83.2105
18.2883	-44.8047	83.5199
21.0642	-46.3935	82.8434
20.6954	-49.8199	80.4683
20.8448	-48.4291	81.5712
17.6041	-49.2319	80.9617
17.2052	-28.6799	88.1373
19.5063	-28.6661	88.3882
17.9186	-27.3835	88.3188
21.7495	-40.2339	83.2386
21.9093	-38.8806	82.846
21.9688	-38.1706	82.4881
21.9005	-37.8651	82.1801
19.6755	-38.0302	82.567
16.826	-37.9489	82.252
16.8978	-37.6811	81.9198
13.6384	-38.0331	81.5285
21.7948	-37.6783	81.674
19.6785	-37.5984	81.7156
10.2714	-38.3132	80.313
9.99153	-38.9022	80.6898
10.3601	-38.0399	79.9303
7.42948	-45.6236	80.7042
7.04172	-46.5918	80.0915
10.4427	-45.9932	81.8331
7.74631	-44.7336	81.1001
14.0906	-46.1263	82.6407
13.8037	-47.1996	81.9622
17.9916	-46.7296	82.7641
14.3912	-45.2182	83.0674
20.9575	-47.3735	82.3161
10.3166	-36.5408	79.5392
10.3792	-36.3804	79.0598
13.7013	-36.2068	80.7736
-0.532254	-37.7588	75.2004
1.03924	-38.1518	76.0877
16.5982	-38.1951	79.2956
16.874	-37.6519	80.4639
16.1637	-39.3922	77.956
13.484	-38.2746	78.785
16.9696	-37.5513	81.3636
13.8354	-37.6449	80.6323
13.6285	-48.6395	80.9623
9.84353	-48.3466	80.2744
8.07094	-43.7931	81.3656
11.1415	-44.1834	82.5514
6.66671	-47.9059	79.2523
3.68657	-46.684	78.0229
10.6586	-35.9494	78.724
7.6203	-36.2123	77.5996
11.2099	-34.4178	78.1398
13.6451	-35.4987	79.5335
16.6157	-35.3373	80.0814
16.8384	-35.9123	80.8225
16.1265	-33.8233	79.0793
18.9879	-35.1721	80.1646
11.7191	-31.1968	77.5066
9.29767	-31.4577	76.8172
11.8067	-27.2261	77.2187
13.989	-30.9172	77.9857
-1.4974	-43.0645	71.2552
0.390914	-43.1949	72.3183
-1.95367	-47.157	69.817
20.8841	-42.1698	76.1985
20.3081	-46.0508	74.8418
18.665	-42.1106	76.3543
16.1429	-30.7078	78.2657
16.3698	-26.7378	78.0162
18.3561	-30.529	78.3773
15.7955	-42.1243	76.3077
15.1999	-46.1618	74.8194
12.6041	-42.3104	75.9343
-5.12781	-37.4514	68.1868
-6.02133	-37.4924	66.8914
10.2991	31.3556	80.0337
11.2896	29.9026	81.7089
-77.3876	27.6344	-29.2377
-78.5969	26.7825	-27.4101
-77.8593	32.2582	-28.3905
-76.086	28.9109	-32.6792
-76.6864	23.0523	-29.3346
-70.6739	39.0947	8.80372
-68.862	40.3171	13.4513
-71.5432	42.8275	5.40613
-72.3582	45.9726	0.912994
-74.0394	46.8761	-5.62999
-73.1362	41.1063	-0.805199
-72.0489	51.7352	0.579174
-70.6551	1.29577	-25.051
-72.0176	5.5831	-26.0293
-69.3487	-3.43425	-23.3509
-72.7514	3.23618	-22.7061
-73.2471	9.69249	-27.3054
-75.1501	10.5108	-24.9369
-74.5519	14.06	-28.268
-71.181	8.27843	-30.8233
-79.9161	26.6483	-26.2866
-80.1612	31.7037	-25.6223
-79.3058	22.2881	-26.1596
-81.3578	27.1044	-25.592
-79.2373	8.65761	-21.2619
-80.1037	7.32904	-20.191
-78.1259	10.5149	-22.6168
-80.7336	6.31788	-19.1718
-82.0626	10.8134	-20.3771
-79.2539	1.76494	-17.535
-81.2597	5.62526	-17.9241
-84.9413	16.2196	-17.0361
-86.6206	21.4107	-19.1279
-84.7919	16.632	-16.2097
-72.9877	-8.63625	-11.6649
-73.7905	-6.30761	-14.3498
-72.4463	-7.31312	-13.7438
-72.2675	-9.74613	-9.85008
-73.346	-9.0353	-10.9069
-72.8824	-3.93311	1.61028
-72.5824	-4.4912	1.51557
-72.0154	-5.63912	0.98607
-84.6611	16.9255	-15.7697
-84.0215	16.1252	-15.0312
-87.7023	32.4581	-16.7158
-87.9948	33.4127	-18.0599
-87.3632	30.7992	-15.3546
-87.2525	42.2907	-12.7047
-87.4993	43.6837	-12.5456
-87.3924	45.5984	-11.2063
-86.4873	47.0897	-7.99525
-87.6217	46.1482	-11.4779
-86.4773	44.9686	-9.22694
-74.5576	19.5091	4.81621
-75.7307	25.2358	5.24286
-73.6615	15.239	4.65766
-73.8375	19.9965	6.07235
-68.9342	1.58351	8.54534
-69.272	5.89002	9.6337
-68.5749	-2.15634	7.54943
-67.6654	0.535044	10.9602
-73.8457	8.5304	1.22032
-73.7891	10.5614	1.36641
-74.3282	6.59149	0.502647
-73.1479	40.5299	-0.845079
-73.152	40.4901	-0.645029
-74.0139	42.5097	-3.84382
-81.0782	48.4829	1.20851
-82.4577	50.7653	-1.28752
-81.7183	47.5832	2.16942
-79.302	44.7692	3.2301
-80.4051	49.1036	0.0214859
-82.7808	52.3682	-5.97284
-81.5521	51.5654	-3.33979
-82.2455	51.5612	-7.57227
-83.8792	51.7842	-9.54667
-82.9664	52.4141	-5.44055
-86.3654	39.6272	-21.9331
-87.3222	39.77	-21.2033
-86.0488	45.1044	-18.1586
-85.6273	39.1863	-22.3146
-76.6005	30.0813	5.51897
-77.0101	28.948	4.77066
-88.6785	38.4023	-18.6315
-88.6091	43.1458	-15.5855
-88.7911	38.3665	-18.9917
-88.4775	35.6222	-19.3075
-85.3038	47.2293	-4.18145
-83.7664	45.907	-0.665096
-85.2705	48.1156	-3.42656
-85.2546	45.9882	-5.12972
-78.4288	31.464	3.28242
-79.0151	33.987	3.05491
-77.85	29.5389	3.46531
-87.766	38.5673	-16.0029
-88.2221	36.8625	-18.0922
-76.9664	24.7834	0.800519
-77.2505	26.2124	2.16698
-77.2215	25.2094	0.196783
-83.7792	28.4769	-11.5386
-85.9966	31.5319	-12.6168
-83.7196	27.396	-11.878
-83.4111	28.8056	-10.919
-69.6633	9.9593	10.1848
-68.5154	9.19762	12.4163
-70.3461	14.8386	10.1037
-80.0071	36.7092	-23.3328
-80.7476	39.049	-21.8694
-79.396	40.9949	-20.5766
-79.0658	36.3605	-24.7051
-82.5052	43.6171	-18.0622
-83.2301	40.0734	-21.4821
-84.3786	47.9965	-15.0622
-81.644	46.7992	-14.4166
-84.6069	38.1726	-22.628
-83.7506	32.7389	-24.4755
-83.4214	27.6167	-24.9904
-76.7476	10.9842	-23.6965
-77.7634	14.5874	-24.692
-75.5641	7.45829	-22.5718
-78.5993	18.3204	-25.5918
-77.1153	18.2856	-26.9133
-83.2943	15.9771	-14.1368
-74.3709	4.16031	-21.5234
-72.9964	0.0199755	-19.9916
-71.6404	-10.0045	-7.0908
-71.1168	-10.3033	-7.09086
-70.5284	-10.5643	-6.90735
-71.1697	-9.12555	-12.2108
-84.0256	26.7332	-12.4139
-86.2498	28.5699	-13.9752
-73.0699	20.4015	7.09851
-72.1511	20.5743	8.20406
-71.0385	6.18321	6.41894
-71.4562	6.1535	5.81446
-74.9407	2.9545	0.414899
-75.2127	4.26663	-0.234245
-76.1932	1.25402	-1.18007
-73.0972	12.0666	4.62892
-73.8395	12.3725	2.60384
-80.7733	48.0257	-11.1306
-79.2844	47.9993	-8.02573
-78.9864	44.7863	-14.8209
-78.4146	43.5673	-16.9475
-77.0202	44.9046	-12.6275
-78.1691	43.4732	-18.1076
-86.1936	38.7642	-11.1104
-86.0155	37.1693	-11.0522
-77.8404	26.2142	-0.987681
-79.1944	27.994	-3.14929
-83.2765	29.5554	-10.316
-82.4987	29.3348	-9.0887
-85.0921	33.4456	-10.5962
18.0549	102.881	83.2896
16.4555	111.448	77.0804
10.575	101.966	84.1187
19.231	94.695	87.8869
20.455	86.7606	91.3058
13.4914	86.4334	91.9047
21.3881	78.3868	93.9614
-1.30391	70.8807	95.0844
4.48082	70.6743	96.26
-1.52757	64.7376	96.4678
25.1084	-10.8243	97.5827
23.1209	-10.5812	96.6115
25.0259	-10.1745	99.8663
25.5399	-2.82625	107.095
25.4834	-4.51282	106.846
25.5059	-0.810436	106.869
22.8651	-2.66367	106.221
25.3547	-6.14038	106.054
25.1622	-7.61924	104.706
24.4466	-12.8848	91.5039
23.1624	-20.6007	88.4284
20.8392	-20.3184	88.453
25.0026	-9.00258	102.582
22.6357	-8.8032	101.381
25.5216	1.28604	106.225
25.4182	4.31426	104.847
22.9388	1.3089	105.42
21.523	58.1686	96.5742
21.5736	62.9185	96.7092
15.1009	57.9289	96.895
21.4213	54.4819	95.9279
22.7527	34.7112	92.0867
22.4284	36.7362	91.6094
23.2027	32.2446	92.8716
22.1774	38.5579	91.3807
21.9876	40.2134	91.4012
19.9722	37.6857	90.8596
21.3003	-35.0531	80.0069
21.7473	-36.0207	81.0829
20.9084	-33.4876	79.1132
21.8916	-36.3259	81.9056
21.9455	-36.2844	82.6344
19.717	-36.2001	81.9317
21.9467	-33.8424	86.395
21.8894	-34.8199	85.3715
21.944	-35.692	84.0719
22.2355	-29.3464	88.3091
20.8239	-30.4101	78.2995
21.0502	-26.4243	77.9579
4.2228	100.987	84.2244
2.20749	108.914	78.3579
-1.81078	99.6919	83.7532
5.82356	93.5902	88.4988
9.40852	59.0068	97.2416
9.84828	62.872	97.4822
3.74032	60.18	97.2686
8.02515	54.1348	96.1791
5.896	50.1493	94.6837
3.6756	46.7027	92.8273
0.794795	51.2243	94.6846
2.58302	45.0496	91.5447
-1.12919	46.0659	91.5725
6.36885	44.4783	91.4829
-1.88155	39.7915	78.2467
-5.16734	40.3483	79.1078
1.09315	38.9456	77.105
-1.28681	40.5576	80.2464
-3.58688	38.805	76.4116
-0.419318	41.3991	82.9857
2.4864	40.7921	82.3707
-3.70398	41.9811	83.4093
-24.9187	107.977	64.8536
-22.9772	101.128	71.4448
-18.5793	111.033	67.2885
-27.8511	115.021	55.6103
-7.58331	98.4711	82.4175
-13.943	96.9003	80.1113
-9.78073	105.489	76.916
-1.86729	61.1946	96.6312
-7.14156	60.9755	95.2832
-2.72472	56.8684	95.9631
-5.4648	47.5675	91.6057
-4.74634	49.6619	93.0934
-3.54898	53.15	94.7773
-7.10585	42.3097	83.3641
-11.1234	42.5123	82.7599
-7.96235	41.4323	81.2343
-21.033	95.05	76.4466
-19.1452	89.1351	80.4968
-28.5245	93.1865	71.338
-13.7882	60.6044	90.3946
-20.3491	59.9764	86.0395
-15.0563	40.5042	79.378
-17.8367	39.9521	78.1472
-11.8906	40.6867	79.7542
-15.0534	41.4495	80.595
-15.3982	46.1393	85.5238
-20.272	46.7743	83.7573
-15.2182	44.3805	83.9109
-15.1502	42.6838	82.1061
-17.1409	83.0007	83.8908
-25.0454	81.4282	78.7317
-35.8433	91.9586	64.5452
-42.5149	91.166	56.4203
-34.3759	85.8948	68.6725
-18.8398	37.8206	75.0792
-20.7027	37.055	73.3484
-20.3897	39.1986	76.4298
-22.2053	38.2031	74.3668
-19.3662	38.4068	75.7251
-24.6768	46.1066	80.9163
-28.5982	44.03	76.7945
6.79793	42.0172	87.876
7.89905	42.8052	89.6271
5.92492	41.073	85.0858
8.6628	41.0203	86.5331
9.41425	43.8364	91.1803
11.1958	42.791	90.338
4.65591	39.9649	81.3084
3.64658	38.9649	78.1692
21.4188	51.0509	94.8722
-59.1524	-35.1979	-6.13521
-60.2716	-34.172	-12.562
-60.5002	-30.6374	-3.19816
-74.4658	58.3978	-18.2902
-75.015	51.7006	-14.132
-73.4679	59.1768	-10.0726
-73.9116	64.9326	-22.057
-75.2432	55.5696	-24.4454
-74.6273	30.3754	-38.7101
-75.3843	36.222	-37.6267
-73.3253	31.3274	-44.5587
-73.6118	24.0641	-38.3737
-75.7284	42.3648	-36.1393
-76.8132	39.0769	-30.1074
-75.8176	47.535	-33.328
-74.7545	45.3813	-42.4525
-68.5027	5.47517	-35.966
-70.3923	11.7287	-37.1325
-66.0985	2.91253	-40.8244
21.2616	70.2888	95.8112
15.5039	70.0564	96.3952
9.8558	70.3428	96.5131
8.7668	78.4137	94.621
-3.16916	-79.4224	39.4721
2.56916	-81.4149	41.9554
-9.73229	-76.082	35.1612
-1.9007	-78.1647	32.3326
-30.3491	-63.0672	33.099
-30.8603	-61.5045	36.5911
-35.8308	-58.9588	30.5873
-24.1062	-67.6333	35.6501
-33.0583	79.663	71.8829
-40.3675	77.7103	63.9276
7.41722	86.2289	91.8563
-49.1962	90.5443	46.9021
-48.3685	83.1354	51.1064
-54.9377	90.2639	37.1869
-0.0542422	118.293	69.6514
6.82172	119.868	69.2763
-2.43029	127.651	58.8104
-6.35232	116.123	69.6669
-45.255	60.5127	59.3503
-46.265	68.1261	57.2981
-23.6435	37.1677	72.2082
-35.2279	44.7805	71.0764
-33.356	43.3066	71.9279
-36.7886	40.9824	66.6665
-31.4152	41.8995	72.4739
13.4684	-83.0542	21.9843
-42.6991	-49.4507	34.2054
-42.1082	-52.405	30.5698
-36.917	-54.079	37.8246
-43.2892	-46.2162	36.983
18.4329	-25.4217	88.3058
18.8547	-22.943	88.2628
16.6193	-25.6591	88.0134
1.48795	-30.1283	80.7915
4.3077	-28.537	82.693
2.41353	-26.2362	81.7891
15.2558	-21.4368	87.2272
15.9658	-18.9152	87.1303
12.5477	-21.928	86.1292
14.6165	-23.7514	87.2572
17.6249	-20.7234	87.9211
-7.28359	-33.2528	75.862
-7.12179	-29.4256	76.8297
-9.76425	-34.1758	74.3589
-7.23496	-36.5518	74.662
-43.5557	37.9286	58.9104
-46.2994	38.6019	55.9743
-44.4366	32.1463	57.421
-40.5812	37.5453	61.5739
-49.3186	39.4258	52.3559
-52.7925	39.7618	47.389
-27.7298	35.1764	68.3779
-27.9271	33.5755	67.4227
-37.9557	37.0585	63.6398
-77.2514	44.5734	-20.1258
-76.6279	46.3547	-15.9038
-76.4107	47.3901	-23.9166
-77.7656	41.4161	-23.8265
-75.6247	18.4331	-29.1311
-74.0829	18.5325	-32.615
-64.6023	-20.8091	-11.8096
-66.0041	-16.2115	-16.9766
-62.9773	-25.742	-15.5342
-63.1575	-24.1475	-6.08277
-66.0357	-17.0543	-8.55389
-77.9731	37.1111	-26.5675
-66.3145	-1.02844	13.7281
-64.6936	-2.81713	17.6333
-66.7955	3.41734	14.6454
-65.7838	-5.18799	12.6035
-58.2572	22.2071	38.8806
-61.9049	22.3342	31.0872
-58.1316	14.1215	38.917
-58.0206	31.07	38.9748
-31.3672	30.648	65.4891
-29.4421	27.7319	66.422
-29.3829	31.4172	66.3347
-27.7574	31.9856	67.0378
-26.143	30.2058	67.617
-62.5875	-4.52613	23.35
-63.2184	0.873366	24.0028
-62.0442	-9.37509	22.1833
-60.1981	-5.99655	29.4528
1.03079	6.43465	78.7531
4.08958	8.45501	80.5295
1.95612	11.2588	78.5064
-2.95611	4.96054	77.2563
-9.68846	4.32009	75.5474
-10.822	-0.389609	75.4057
-17.2304	3.98018	73.8041
7.41842	10.0623	83.3488
7.46404	6.01429	84.2697
10.8073	11.9723	87.1651
4.99095	-1.1904	81.8652
6.36088	0.843456	83.457
10.6888	-5.01111	90.8812
9.64521	-5.25654	88.9527
10.8549	-6.58387	89.8195
12.2253	-4.78585	93.2414
8.80261	-5.4957	87.1492
9.09592	-7.3557	86.0996
-13.8202	-15.6008	74.141
-13.2618	-10.4105	74.5802
-14.4719	-20.8514	73.6595
-8.60339	-15.2015	76.0792
-11.8956	-5.13112	75.0399
20.2911	-15.6102	88.9325
18.6294	-15.9566	88.1775
19.7503	-17.8647	88.4576
-38.3583	-29.991	53.1662
-36.8967	-36.4811	51.6109
-32.6809	-28.9745	59.1944
-39.4443	-23.5254	54.8345
-1.7092	-23.753	79.641
-4.07755	-24.2618	78.6241
0.694312	-23.1358	80.7074
-14.5813	-26.2114	73.0605
-9.90316	-25.4333	75.7265
-20.2002	-27.0486	69.5408
-14.3278	-31.2413	72.4545
19.2295	-20.3284	88.2952
-35.0704	-42.9536	49.9377
-32.0076	-48.7967	49.5394
-29.9548	-40.8437	56.6753
-39.5239	-43.6265	44.1736
-40.0359	-5.86332	60.1766
-46.15	-6.32213	53.7597
-40.3973	-11.6094	58.2593
-8.72716	-77.3	55.7588
-3.44068	-80.0013	60.7529
-8.91329	-74.9534	58.7407
-19.4194	-63.6491	53.4062
-14.2243	-67.9136	57.0719
-17.507	-60.1454	58.3792
-23.7573	-59.1049	51.5317
-34.8215	14.9854	65.7809
-28.2196	13.6877	69.5304
-32.0879	19.0858	66.7951
-23.4104	27.7495	68.9587
-24.6397	26.3243	68.6364
-29.9497	21.6823	67.341
-27.7668	23.4909	67.9431
-24.3063	19.5212	70.2325
-21.0551	30.2511	69.8788
17.514	-79.435	74.7726
-24.549	-38.9109	62.6831
-18.7406	-37.0627	68.0594
-25.6118	-33.6872	63.7108
-22.9152	-43.5937	62.1579
-15.1657	-56.1001	62.9143
-11.3722	-59.586	64.72
-11.9655	-51.6877	67.3354
-18.114	-52.0827	62.2652
-21.7075	12.9267	72.016
-19.6834	15.9845	72.2377
-23.3697	8.81315	71.8361
-26.6041	-27.8861	64.6888
-24.3552	4.01634	71.4751
10.9671	-69.5419	76.4638
6.62038	-68.4389	74.9267
11.4914	-63.7106	76.7324
1.94668	-66.9993	72.7127
2.88496	-61.6998	73.7998
-2.60285	-64.9956	70.1057
-17.9676	18.1428	72.2294
-10.3718	17.4376	73.7257
-16.4246	19.617	72.269
-26.0748	24.9693	68.295
-21.291	22.4456	70.5736
-15.2287	20.9401	72.2035
-8.2138	20.4813	73.3103
14.1106	13.7735	91.1203
13.6559	18.3947	88.9679
14.1661	9.16386	92.8583
14.152	0.379673	96.7167
13.9812	-0.806778	96.8037
16.9068	0.884225	100.433
14.1668	2.14626	95.9481
11.9835	28.2569	83.1857
12.556	25.8602	84.8629
2.92918	14.762	78.1223
23.7	28.8153	94.1779
-43.8142	26.359	58.1572
13.108	22.372	86.8667
-43.8816	-42.6654	39.2504
-49.0332	-39.5131	33.7105
-50.5163	6.58209	51.0454
-54.4316	6.83315	44.9644
-50.7793	-0.497069	49.2998
-49.3519	-18.6528	45.0564
-52.8618	-18.5882	39.5362
-45.2649	-18.1905	50.6174
-50.159	-12.6933	46.3384
-50.6445	-6.73441	47.7407
-54.281	-7.00238	41.7956
0.681869	-82.0341	63.8715
11.9046	-58.5857	76.9958
7.88613	-57.9404	76.1402
15.769	-59.0347	77.3924
3.96523	-57.2781	74.8614
-2.34844	28.2585	72.2416
-3.54032	17.8034	74.8208
-2.9999	19.7348	74.3739
-2.63636	21.3674	73.9466
19.3936	-59.3428	77.3794
17.6259	40.4066	90.4733
17.8536	38.6279	89.9674
19.5703	41.0114	91.2398
16.8214	41.8247	90.9518
15.8736	39.6463	89.29
3.25951	32.4909	72.0665
3.23173	33.6613	72.3773
5.46471	32.635	74.0083
14.3307	38.5782	87.4922
13.4261	40.1576	88.2248
21.9115	41.8219	91.618
21.302	-10.2224	95.4033
20.8673	-9.54679	97.1969
19.9365	-2.40418	104.233
16.7851	-2.08914	100.809
19.8812	-0.678763	104.039
8.89782	-10.5777	83.0195
11.4515	-12.0935	84.2596
9.53371	-9.80402	84.2552
20.1123	1.17077	103.657
17.3563	35.898	89.0762
16.0789	43.3622	91.7027
14.0762	42.4198	90.6834
2.89076	34.934	72.9389
12.4016	41.6022	89.2765
11.0455	40.6885	87.3749
10.0151	39.8247	85.2434
5.83634	-16.4944	81.335
4.62213	-19.6001	81.6834
8.88667	-17.0899	82.9494
3.31652	-22.8286	81.8321
6.38546	-22.4359	83.2629
0.468124	-36.5237	74.6242
2.26082	-36.5973	75.4981
0.674255	-35.3423	74.0935
0.40903	-35.4047	77.9499
2.35883	-34.3783	79.7036
0.896799	-32.1275	73.2419
0.999943	-28.2117	72.5279
3.93725	-31.9855	74.7824
11.6481	-17.3829	84.538
10.5886	-19.7952	84.6423
14.2734	-17.1252	85.9417
9.29611	-22.2318	84.6488
8.35643	-24.5839	84.6429
4.49403	-36.5487	76.4078
5.85451	-34.9921	76.3292
6.7086	-31.7254	75.9167
6.71794	-27.7153	75.4268
16.5471	-16.4969	87.2107
17.0536	-14.4976	87.409
13.6595	-26.1165	87.1129
10.4179	-26.4387	85.8137
8.21855	2.90658	85.9217
11.2038	4.04756	90.235
25.1642	8.31555	102.859
14.3	5.20303	94.7101
20.3769	-8.37556	99.6338
17.912	-7.97959	96.8435
15.293	-7.78984	93.9363
12.8796	-7.76148	91.0619
14.7292	-6.34645	95.1782
11.3333	-8.02524	88.8815
10.4551	-8.60986	86.9371
9.9256	-9.15276	85.4747
14.0607	-1.95872	96.979
14.2437	-3.32141	96.8983
14.3943	-4.84686	96.229
-29.5315	-114.006	-4.68902
-27.1408	-106.055	-2.2226
-34.0925	-112.035	-6.8009
-31.3143	-119.806	-6.4398
-24.568	-115.808	-2.69681
-24.1991	-94.9704	1.22864
-19.2896	-96.5882	3.69978
-22.112	-85.2783	4.46569
-28.9068	-93.2034	-1.26078
-22.8027	-71.5933	14.4609
-21.9897	-74.9944	10.1441
-17.6995	-73.7242	17.1252
-27.958	-69.2337	11.5583
-21.6907	-79.0594	7.21215
-26.6218	-77.2568	4.47241
-16.555	-80.475	10.2073
-21.0644	-47.9438	61.7151
-16.305	-44.9107	67.0144
-24.8993	-51.129	56.078
-28.477	-54.0078	49.8289
-30.28	-56.9159	44.609
-31.0582	-59.319	40.3029
-12.1923	-42.232	70.6407
-10.6278	-45.0349	70.547
-8.7643	-40.1045	72.9466
-12.9944	-39.1599	71.1827
-6.94182	-38.9967	73.9327
-5.88965	-40.7528	73.7591
-32.9409	-66.6706	8.55501
-37.9575	-63.9336	4.83628
-32.1248	-70.3896	4.64677
-34.6697	-63.4253	13.0406
-36.7982	-60.5796	18.2541
-39.064	-57.8492	22.8874
-41.2198	-57.5849	13.391
-40.9722	-55.0756	26.9357
-45.1908	-51.9948	21.967
-33.4813	-91.2099	-3.81711
-36.0526	-102.131	-6.85296
-31.8401	-81.7321	-0.95772
-38.0208	-89.4752	-6.64949
-38.3088	-110.08	-9.10788
-42.3758	-108.071	-11.7454
-40.3274	-115.98	-10.9174
-31.558	-75.1351	1.72708
-57.4379	-6.64962	35.7459
-57.8986	-0.388995	36.8762
-56.7897	-12.3275	34.7572
-48.2035	-49.5837	16.4639
-50.7112	-47.1835	10.0873
-46.5456	-52.2055	12.3304
-57.2898	40.2554	39.9325
-62.1168	39.8721	30.3454
-52.813	-37.1976	27.7267
-55.8406	-34.4662	21.0021
-55.9866	-17.8956	33.792
-58.8132	-16.5369	27.5884
-58.0309	6.84462	38.2679
-61.2025	6.54899	31.1333
-61.3583	-14.218	21.0759
-63.5498	-11.4778	15.1677
-49.7073	-58.0846	-8.12076
-46.3608	-59.6177	-3.90744
-50.1372	-54.2435	-5.57179
-52.6161	-56.7467	-12.3456
-49.4573	-62.5274	-10.4357
-49.3343	-67.682	-12.3276
-50.8349	-50.8143	-2.35225
-51.7724	-47.685	0.708827
-53.4699	-49.0341	-7.46369
-48.0191	-52.7109	2.59184
-65.0105	22.8559	23.4839
-64.3004	14.1643	24.5555
-65.5582	31.4837	22.2771
-66.0715	40.5442	20.8743
-66.4131	48.9955	19.858
-66.7995	57.6326	18.3492
-67.2074	66.2523	16.4025
-69.803	58.6377	8.47229
-58.2728	-31.2748	13.6235
-60.2554	-28.3999	6.19464
-63.7123	7.03889	24.7133
-65.7701	7.50664	19.0688
-42.595	-87.566	-9.856
-44.5419	-98.2081	-12.6672
-44.8967	-55.0676	8.07926
-43.4598	-58.0899	3.95688
-46.3643	-105.873	-14.8476
-48.1715	-111.44	-16.8133
-55.4599	-80.5137	-24.2039
-56.5808	-89.3842	-27.1775
-55.0993	-55.3148	-16.6189
-55.4731	-51.1083	-14.6721
-57.0697	-52.678	-21.0179
-56.0492	-47.0081	-12.4023
-57.6576	-95.9329	-29.8455
-58.6882	-100.926	-32.6866
-61.7976	-26.4511	-0.658634
-65.2056	-9.15886	11.2328
-64.7913	-12.5965	9.25991
-66.7365	-6.67219	8.53832
-67.2101	8.20101	15.3657
-57.8016	-58.4912	-30.4716
-58.0296	-52.6504	-28.0871
-57.7369	-53.0468	-36.5782
-58.6415	-47.1432	-25.8769
-59.1771	-39.6901	-30.7893
-61.422	-31.4817	-18.7389
-67.0367	-14.7998	-6.73725
-69.2737	-10.7951	-12.554
-57.8658	-80.6172	-53.6185
-57.2523	-72.9343	-50.6478
-55.8763	-76.6306	-60.5238
-58.5289	-87.7876	-56.3879
-67.6343	-10.2528	-20.702
-69.6863	-6.95088	-18.1294
-71.1898	-5.38794	-16.9411
-72.084	-4.70064	-16.4794
-19.4806	-117.367	-0.88974
-21.3701	-123.005	-2.99888
-14.424	-118.787	0.629114
-17.1858	-109.412	1.98816
-10.8616	-81.5159	13.6818
-11.2462	-78.2206	16.3882
-11.441	-87.7724	10.4099
-5.22848	-82.2004	16.9056
-15.6855	-73.0508	31.2693
-17.135	-72.4439	35.703
-13.7574	-73.8953	25.7749
-12.1631	-75.6748	20.3273
-6.47483	-77.238	23.4662
-14.0044	-97.8499	6.33498
-8.79369	-99.4811	8.595
-8.91508	-48.0596	70.5018
-6.22641	-44.7844	72.7437
-18.2434	-71.8277	39.3315
-4.72231	-42.7399	73.7799
-3.38796	-41.2027	74.4731
-2.7618	-44.9485	74.3352
-2.40515	-39.889	74.8626
-0.846904	-41.6184	75.5651
-7.26993	-62.8348	67.0449
-8.35298	-67.4578	64.4303
-8.97652	-71.5909	61.4873
3.57194	-38.9662	77.7348
6.35312	-39.5945	79.4228
3.8004	-38.0526	76.6488
6.95397	-38.1106	77.9194
3.68186	-38.1878	76.2567
1.09608	-37.7977	75.5982
3.61846	-38.6075	75.8139
3.40223	-40.004	74.8623
6.79	-38.6036	76.8794
3.08214	-43.3031	73.4064
6.22134	-43.0426	74.444
2.98468	-47.3384	72.2204
0.281197	-82.6188	19.5452
-0.78454	-89.8106	15.6758
0.110275	-80.0119	22.3393
-9.37761	-120.218	1.86554
-11.1868	-125.528	-0.46566
-4.44613	-121.328	2.81359
-7.1405	-112.434	5.25216
-3.85777	-100.916	10.5488
8.53072	-78.9368	28.8957
7.61276	-80.2701	35.6675
4.78137	-78.9065	27.8857
-0.174651	-122.118	3.37519
-1.80908	-127.218	0.975026
6.97847	-82.7189	43.2475
10.4792	-37.9248	79.4103
10.4396	-38.0344	78.73
10.3497	-38.4541	78.0276
9.80567	-39.6804	76.8335
9.40662	-42.677	75.3005
9.09898	-46.7311	73.9456
-59.3134	73.5453	34.3402
-53.7681	74.0665	44.5667
-59.8581	82.0027	30.9729
-63.938	73.8976	24.0466
-71.8414	59.2504	-0.950696
-72.0503	17.8602	-38.2205
-70.1415	16.9644	-43.7423
-52.8036	-55.2786	-59.7795
-50.554	-52.0765	-64.7337
-53.1651	-64.9947	-62.8265
-54.8046	-59.3805	-54.4553
-52.9752	-45.5686	-56.7268
-53.811	-73.4309	-65.7481
-51.4611	-70.8726	-70.5907
-54.6857	-81.4677	-68.4172
-56.8307	-46.1843	-43.0326
-57.7207	-38.2337	-39.935
-55.3353	-40.5403	-48.866
-56.4982	-55.351	-45.4153
-4.72104	136.572	45.8286
2.42835	138.539	45.1551
-7.27584	143.963	31.3305
-11.5632	133.769	46.3346
-22.1939	144.016	-54.9419
-15.0606	145.667	-57.3955
-24.0815	135.637	-69.7288
-28.9197	141.686	-52.1926
-19.8223	149.792	-37.8747
-25.7562	125.632	-81.0397
-19.2235	126.582	-83.7398
-27.2271	113.838	-90.3874
-32.1205	123.621	-78.2701
-16.8105	152.571	-20.1886
-13.569	152.373	-2.23908
-9.54932	154.565	-22.232
-23.6831	149.809	-17.7681
4.50613	152.865	12.3332
1.31747	155.739	-5.55282
-3.05235	151.556	13.757
7.5153	147.427	29.0338
-28.1623	101.827	-97.5209
-22.0324	102.914	-99.8752
-28.717	89.2256	-103.063
-34.0623	100.233	-94.6493
-28.9277	75.7165	-107.312
-22.9375	76.8912	-109.72
-28.8924	62.0784	-109.941
-34.8137	74.3928	-104.242
-26.13	22.1238	-106.213
-27.5701	35.6241	-109.655
-20.8557	22.4395	-108.306
-24.8946	9.15461	-101.031
-31.4889	20.9734	-103.196
-16.6822	50.4103	-115.392
-16.1696	37.1382	-114.177
-22.6653	49.8273	-113.39
-16.7267	63.6173	-114.486
-21.3858	-40.3094	-92.2556
-16.5371	-39.7221	-93.8032
-21.3944	-49.6495	-93.6147
-26.3461	-41.3389	-90.1635
-21.5949	-30.7738	-91.4675
-21.5199	-58.8301	-95.1129
-16.8262	-58.4053	-96.4456
-21.9137	-67.8837	-96.6228
-26.2607	-59.5461	-93.4224
-24.2645	-1.14394	-96.5967
-18.813	-0.49936	-98.496
-23.3454	-10.1754	-93.5932
-29.2018	-2.01679	-94.2415
-22.2307	-20.1974	-91.8213
-17.1999	-19.2109	-93.5683
-27.4711	-21.6453	-89.3356
-12.0672	-18.8487	-94.8708
-11.7155	-29.6282	-94.3793
-12.6429	-9.00351	-96.8026
-30.682	122.2	44.3716
-24.4773	126.552	45.6093
-33.8481	128.384	31.5832
-36.8071	116.969	42.9978
-49.2882	114.869	-66.3797
-47.7264	123.941	-55.5314
-44.1137	118.174	-70.6822
-50.5096	104.291	-75.096
-54.0341	111.024	-61.825
-45.6764	131.141	-42.1644
-50.6408	126.142	-38.4722
-43.6412	135.545	-27.1058
-40.5343	135.29	-45.6992
-41.6496	137.121	-11.9145
-39.808	135.952	2.9559
-36.0476	142.047	-13.6844
-47.1936	131.196	-10.1931
-36.952	133.177	17.548
-42.8974	127.408	17.393
-30.7661	138.188	17.5282
-51.1326	93.2227	-82.0646
-55.8013	90.2474	-77.2893
-45.9571	95.8053	-86.6099
-51.4383	81.3983	-87.5056
-51.2101	69.1615	-91.637
-46.2812	70.9707	-96.17
-50.6736	56.447	-94.121
-55.753	66.9349	-86.706
-49.5264	43.8423	-95.0585
-53.5609	42.3047	-90.2362
-44.9899	44.8582	-99.4877
-47.9988	30.4655	-94.0243
-46.5292	16.9073	-90.5452
-41.9661	18.2831	-95.2264
-45.1365	4.85971	-86.2257
-50.4994	16.4094	-85.908
-43.8039	-5.61956	-82.3727
-47.5836	-6.68406	-77.4032
-39.3331	-4.67217	-86.8935
-42.4997	-15.9113	-79.3171
-40.3156	-44.7487	-79.9079
-44.1364	-46.5034	-75.3507
-40.9614	-35.3915	-77.9389
-35.9457	-43.6448	-84.0412
-39.8592	-54.2963	-82.747
-30.9947	-60.5202	-91.2692
-35.6855	-61.8308	-88.492
-30.9588	-51.6798	-89.3906
-31.4974	-69.1497	-92.9971
-41.5577	-25.9427	-77.7581
-37.3781	-24.5509	-82.183
-45.3645	-27.207	-72.5492
-62.6394	107.53	-25.9652
-59.116	114.359	-30.6876
-63.8592	103.342	-37.274
-65.8138	99.7625	-20.8269
-61.6257	109.334	-13.9439
-60.4209	109.437	-2.36681
-58.9296	108.304	8.73322
-56.6365	117.419	-5.78022
-63.587	100.761	1.78042
-56.3012	107.054	19.2616
-52.7417	114.356	17.7458
-58.641	98.8281	22.8997
-59.7934	87.1967	-72.4222
-60.0261	76.0866	-77.7177
-63.315	83.6824	-67.4139
-59.2376	97.3658	-65.5748
-58.0717	106.984	-57.1961
-61.7647	102.232	-52.3008
-56.6688	114.819	-47.0482
-57.4008	40.6491	-84.6516
-55.5131	28.1528	-83.9317
-60.9503	38.7464	-78.561
-59.0102	52.7426	-83.6432
-59.7596	64.4362	-81.5199
-63.3338	62.1142	-75.9885
-53.9121	16.0514	-81.0219
-52.5066	3.77907	-76.3414
-57.0735	15.061	-75.2698
-50.8451	-6.91535	-72.3821
-53.7178	-6.14736	-67.5053
-48.977	-28.9924	-66.281
-48.1362	-38.9665	-67.4092
-51.7824	-32.7581	-59.6286
-72.9528	71.8568	-26.156
-71.7325	78.3089	-31.0154
-73.5837	67.3399	-34.5095
-42.2949	111.047	41.9904
-45.2431	117.109	29.8534
-67.1724	74.6992	13.7988
-66.8805	83.2992	10.3265
-68.5889	34.8839	-61.3474
-66.5848	24.5621	-60.5393
-70.4947	33.4533	-55.4683
-69.9969	44.5228	-60.9222
-66.4037	35.8003	-66.9439
-70.6175	54.0983	-59.8205
-72.4108	50.8589	-53.7711
-70.9217	62.7961	-56.702
-68.5898	56.8994	-65.3622
-70.8815	71.2653	-51.7283
-72.6324	66.3349	-46.1585
-70.6039	78.565	-44.8108
-68.7698	75.7632	-57.1681
-59.8582	-2.53815	-54.5234
-57.9482	-10.9811	-52.3917
-61.7974	-1.1465	-49.9895
-62.0011	5.81618	-56.7929
-57.8937	-4.04811	-58.8342
-68.2656	16.2537	-49.0216
-70.3302	24.1528	-49.7998
-66.3925	15.4719	-53.8038
-66.0462	8.32739	-47.3294
-53.8328	-36.4609	-54.0174
-55.0071	-27.6113	-52.2069
-67.9898	-9.50185	2.68694
-66.0228	-12.9848	4.14233
-68.2288	-6.34851	5.24827
-67.9419	-4.917	6.87201
-71.1729	21.5361	9.50726
-72.0711	27.332	8.42391
-88.1937	39.5253	-20.3462
-88.7098	38.9866	-19.6294
-87.7441	44.9112	-17.0335
-77.3018	-3.08389	-15.3235
-75.6225	-6.64361	-12.6664
-76.4036	-2.75157	-16.2527
-86.615	48.9613	-12.9259
-87.4201	48.1851	-12.3583
-85.1872	51.3272	-8.57786
-85.7366	49.3671	-13.4992
-77.4072	39.9661	4.67131
-76.2114	40.0796	3.81058
-83.7387	51.8385	-4.45337
-84.5568	50.9884	-3.70736
-83.5322	15.741	-21.768
-77.5686	-5.45043	-7.94753
-75.997	-7.4535	-9.00697
-76.6652	-5.90939	-5.35369
-72.6476	30.315	7.26191
-79.8922	49.2416	-1.12065
-77.7344	45.6014	0.534586
-79.1173	48.6278	-2.9105
-75.1253	40.5954	2.28566
-74.4858	41.306	0.727168
-85.137	49.2532	-13.8361
-73.974	41.3159	-0.785476
-75.5197	43.8309	-2.72839
-77.5074	46.4517	-5.5143
-75.6226	44.4452	-7.23634
-81.8683	5.75679	-16.2983
-80.7296	2.54304	-9.21633
-74.5225	-8.55425	-9.9591
-75.8414	-5.45558	-3.20655
-76.7206	-2.61669	-2.57677
-77.5605	-0.00177725	-2.98574
-78.1136	1.80816	-3.62575
-87.8012	26.6127	-20.67
-88.4548	32.5544	-21.01
-88.837	38.5937	-19.257
-88.6925	43.7981	-16.0165
-82.1385	46.8849	2.58716
-83.6838	49.1418	0.190493
-82.2851	46.1639	2.79762
-82.2496	45.5126	2.83322
-83.8529	47.8496	0.510478
-82.1463	44.4567	2.45629
-87.7566	47.5632	-12.0468
-87.8671	47.0202	-11.9838
-86.4614	49.6899	-7.71828
-85.0612	50.1847	-3.26999
-85.2879	49.5506	-3.21014
-85.2793	48.9088	-3.05811
-86.5891	48.5608	-7.52479
-87.7896	46.5855	-11.7523
-88.2628	34.0128	-19.0808
-82.0166	43.2347	1.67292
-79.3938	35.365	2.33177
-85.2016	44.5912	-6.0131
-87.0287	29.828	-14.7854
-86.9723	31.674	-14.1763
-86.7454	33.4438	-13.3192
-86.352	34.772	-12.2447
-85.7702	35.7525	-10.9126
-75.6598	4.91959	-1.32003
-77.1511	3.66288	-2.93434
-77.274	27.9757	3.75198
-74.0098	12.6284	1.50653
-78.265	2.66284	-3.99622
-8.47775	40.6097	79.5829
-12.3142	113.902	68.7929
-15.2604	122.315	58.5114
14.607	121.097	68.2535
12.4812	130.832	57.1523
-18.0552	130.558	46.1207
-21.0111	137.467	32.3312
10.1725	139.817	44.106
-10.2184	149.431	15.0949
-17.3259	146.435	16.2678
-24.0914	142.756	16.977
-27.2233	145.721	0.993638
-47.4983	75.6092	54.3394
-59.6821	90.3462	26.9041
-63.373	91.0331	16.6256
-48.0797	121.392	17.1302
-50.6169	123.567	4.52898
-1.92181	155.781	-23.946
-5.03779	152.79	-42.0456
-29.8571	146.404	-15.416
-32.5847	144.106	-32.5704
-65.5909	91.9711	6.12736
-67.1824	92.5151	-4.63334
-52.0326	124.867	-8.34044
-53.4704	123.96	-21.3945
-68.1682	91.8566	-15.6403
-69.135	89.4211	-26.4471
-69.9216	85.0567	-36.1861
-67.7207	91.1875	-41.652
-47.6968	-49.3096	-70.1154
-47.5971	-58.9156	-73.3099
-48.1683	-67.9186	-75.9458
-44.1581	-65.1906	-80.9941
-48.8609	-76.1528	-78.5894
-7.76635	146.716	-59.184
-10.2173	137.753	-74.312
-12.3573	127.088	-85.9035
-14.0828	115.461	-94.8865
-15.2806	103.593	-101.845
-16.0284	91.1151	-107.374
-16.475	77.673	-111.674
-28.476	48.8758	-110.785
-34.158	47.5444	-107.581
-15.1193	22.7797	-110.091
-14.0534	9.22073	-104.172
-13.262	-0.566957	-99.7587
-11.7532	-39.1661	-94.962
-11.872	-48.3616	-96.1015
-12.0184	-57.9042	-97.5118
-12.4001	-67.4009	-99.0058
-38.2448	121.15	-74.7943
-39.429	109.93	-83.8351
-36.7603	130.946	-63.4522
-34.8567	138.801	-49.3015
-40.1116	98.2541	-90.9113
-40.5615	85.877	-96.3757
-40.6529	72.8836	-100.469
-40.4683	59.3855	-102.967
-39.7514	46.2192	-103.747
-38.5149	32.975	-102.655
-36.8494	19.7023	-99.533
-35.2641	7.27791	-95.1506
-34.3732	-3.28677	-90.971
-33.6072	-13.1242	-87.7521
-32.5634	-23.0133	-86.1616
