1893
24.8579	-54.093	84.2905
29.1484	-53.6314	81.274
32.9451	-54.6533	79.4137
28.3414	-56.414	77.9259
19.7406	-60.8714	87.2809
26.9863	-58.6471	80.2255
22.878	-50.5339	88.8886
17.2277	-48.2568	93.5884
25.8376	-56.4958	80.5533
25.8654	-56.3788	80.2576
78.7427	-39.2797	-10.8401
80.5411	-37.8669	-11.9924
88.9688	-25.0892	-23.3239
88.551	-18.163	-25.3974
84.4683	-29.6723	-11.5895
82.1782	-29.1083	-8.01751
83.7587	5.51675	-9.77382
82.9663	-2.08043	-6.56333
92.5924	15.9292	-19.0847
92.2778	13.6504	-20.598
83.2903	-19.7053	-14.9418
86.9348	-1.92449	-13.4881
88.1103	2.72102	-13.8938
85.4817	-7.00104	-15.1279
87.036	-4.76236	-19.0717
93.5835	-5.64088	-32.6719
93.9209	-2.71786	-35.5547
89.8891	-20.3478	-27.8552
80.5647	-29.6055	-5.55034
81.5477	-23.8993	-5.96624
80.805	-20.3474	-3.54789
81.6563	-12.8638	-4.07885
81.9158	-18.5294	-5.6594
82.8195	-12.4246	-6.4494
83.2608	-15.4921	-14.3479
94.0386	6.87475	-32.8016
93.1403	8.27778	-28.1804
93.7592	5.22103	-31.732
93.5018	2.92204	-30.4927
93.8215	-0.671318	-32.3296
93.6762	10.5434	-29.0061
92.3403	5.296	-26.6232
87.9056	-0.436592	-17.1015
27.9259	-95.9733	55.3969
51.9494	20.5763	63.6839
74.0643	-48.6595	-9.77843
75.9501	-43.6673	-7.45328
73.3899	-49.6853	1.46969
6.78043	20.4317	80.4514
18.1315	-54.8988	86.7751
17.8778	-53.9702	89.4713
66.6399	-67.2608	-3.10251
63.5952	-74.2295	-5.61329
66.4182	-70.6805	-16.4425
77.8829	-10.6018	7.435
79.9513	-11.7226	0.122769
64.3775	-79.683	-19.1569
66.1232	-67.5527	-29.1587
62.1789	-120.429	-23.4365
60.6375	-113.809	-36.6856
26.0225	-57.7463	80.8807
29.2803	-56.2317	78.6461
25.9708	-56.8841	80.6865
30.0197	-56.7519	78.5306
18.9608	-57.6576	87.8153
19.2371	-59.0107	87.7961
32.1321	-92.2871	60.1231
43.8067	-59.8606	-73.9683
51.5522	-54.7887	-66.7363
53.0413	-63.5686	-59.5449
60.6469	76.32	26.7511
52.5759	88.3318	27.5969
50.538	79.4447	41.6602
93.8185	-2.07758	-39.1372
92.4293	-1.75506	-40.6538
92.2641	-13.2857	-35.5886
91.1108	-13.7666	-37.4302
88.7444	-23.2229	-32.4651
89.9729	-21.973	-29.7088
84.8714	-3.21183	-8.53245
83.0698	-22.8419	-8.57034
89.1788	-12.8493	-39.1226
84.7465	-19.8601	-36.9701
87.8324	-32.0282	-20.3309
84.7293	-36.7648	-22.2194
86.712	-30.8106	-28.3049
88.9247	-27.7922	-25.3462
86.4922	-32.6943	-15.8831
87.8542	-28.6621	-17.7586
78.1337	-40.5602	-20.7105
83.817	-37.6482	-16.7463
81.2976	-39.5784	-17.8664
89.6583	12.4489	-13.3177
86.8027	6.17066	-10.7487
92.8078	-11.194	-33.9369
94.348	3.66278	-36.5141
94.8015	9.26891	-34.1615
90.0232	11.5314	-14.0769
88.7007	6.37475	-13.0556
93.7359	13.559	-27.0386
94.1352	15.3348	-27.4311
92.6154	-6.48949	-30.7251
88.5212	3.16947	-16.2399
90.531	8.72764	-20.0811
89.4749	6.66807	-17.9369
91.3511	1.74146	-25.5392
90.8545	-11.7415	-29.4095
85.7945	-26.387	-13.8606
83.1002	-17.9296	-11.9912
83.6601	-21.6598	-12.6452
83.9133	-13.1433	-10.1743
83.8312	-13.5618	-12.1622
85.8273	-5.34281	-12.5812
85.8086	-3.57535	-10.193
86.4847	-25.2133	-16.6141
56.3713	-51.2656	-60.6073
26.9956	-31.1198	86.1351
33.3628	-30.4295	83.6401
25.3506	-23.1687	86.1251
20.5018	-29.6285	90.0198
21.8345	-23.0505	89.5425
55.0813	15.1623	59.4589
55.112	21.1374	61.1554
33.6105	6.67286	72.8645
46.0626	39.1586	70.339
56.1839	33.6398	62.2195
9.53392	-30.5751	98.621
5.97092	-32.2221	99.2404
10.235	-32.9163	96.5198
7.41862	-28.1498	102.947
13.4342	-28.2108	98.32
15.5558	-21.2252	100.065
18.1473	-21.9247	96.6494
16.2777	-19.1734	98.5325
64.1604	84.222	3.17976
68.9989	72.2472	8.51241
28.9504	-58.174	75.8723
28.8813	-54.7341	76.4375
-16.9191	-99.2888	79.3399
-24.034	-96.835	72.9386
-17.8667	-100.226	68.4761
-65.7729	-2.43103	50.2614
-69.7938	-7.7106	41.1813
-63.8718	-12.4601	57.2678
-59.4782	-0.585721	58.7343
-11.3142	31.3519	80.3362
-17.5307	36.7151	80.389
-49.7048	17.9393	64.6325
-45.8592	5.88368	68.8749
-8.92755	13.4368	80.3566
-8.88948	17.2597	79.0098
-10.4772	15.464	77.7602
-15.2794	16.4464	73.6572
-14.5228	13.2624	74.7863
-18.5521	10.1425	73.6855
-18.1336	6.44692	75.8547
-13.8956	9.77244	77.1419
-29.2316	-56.8531	79.4804
-29.0388	-56.7353	78.6128
-26.1271	-56.2172	81.5233
-29.3274	-55.9666	80.3911
-25.4178	-54.8583	84.7436
-29.9905	-54.3003	81.6731
-33.7567	-55.3592	79.8971
-29.1461	-57.1491	78.5762
-20.3731	-61.4794	88.3236
-27.5994	-59.4764	81.219
-17.5995	-48.9881	93.6626
-23.0635	-51.469	89.1435
-26.5837	-57.2542	81.2375
-26.5874	-57.1374	80.9296
-79.8421	-30.812	-6.3363
-79.7567	-39.0078	-13.0918
-77.832	-40.447	-12.0332
-86.3502	-23.2642	-21.7319
-88.0819	-25.9877	-24.0162
-87.6666	-19.0105	-25.9495
-82.8592	-35.6024	-12.7847
-81.6249	-30.2109	-8.76287
-82.9573	4.77795	-9.70212
-91.4547	13.0687	-20.6122
-91.7742	15.3598	-19.062
-82.4057	-16.4314	-14.7728
-82.4249	-20.6889	-15.4938
-86.1322	-2.70902	-13.6004
-87.306	1.99314	-13.9411
-87.0795	-1.17937	-17.2444
-86.1886	-5.54144	-19.3143
-91.9557	-11.8769	-34.3808
-79.6204	-33.1244	-30.9022
-79.5113	-38.0323	-25.9388
-92.7452	-6.2805	-33.0291
-93.087	-3.31836	-35.88
-89.0066	-21.1713	-28.455
-80.7477	-24.9743	-6.50915
-80.0515	-21.4119	-3.92865
-80.93	-13.8433	-4.24301
-82.062	-13.3751	-6.64784
-81.1451	-19.5543	-6.02359
-85.6134	-26.1863	-17.3032
-84.6501	-7.83564	-15.3636
-93.208	6.32354	-32.9953
-92.9273	4.65083	-31.9387
-92.987	-1.27682	-32.6143
-92.6685	2.32597	-30.7198
-89.7016	8.09379	-20.14
-92.307	7.70276	-28.3267
-92.8456	9.99432	-29.1348
-91.5044	4.68571	-26.7902
-28.9811	-95.8189	56.6662
-73.0416	-49.8184	-11.4348
-72.5168	-50.8466	-0.371153
-75.0068	-44.8386	-8.89234
-7.04892	19.3818	80.4954
-18.4581	-55.6554	87.3725
-18.1069	-54.659	90.0319
-65.5808	-68.4767	-5.5691
-65.0543	-71.9234	-18.4182
-62.3857	-75.6341	-7.94559
-77.3793	-11.6343	7.67639
-79.301	-12.7258	0.0884292
-62.9046	-81.0527	-20.9684
-64.5903	-68.7742	-30.753
-61.0976	-121.712	-24.3215
-59.5448	-114.929	-37.5536
-26.8046	-58.4741	81.6543
-26.7471	-57.6358	81.3911
-30.1594	-56.945	79.2671
-30.9239	-57.459	79.1628
-19.6954	-59.5264	88.8758
-19.4025	-58.2616	88.8002
-33.2305	-92.1946	61.5731
-42.9236	-60.3025	-74.4107
-51.9544	-64.2892	-60.3026
-50.5862	-55.366	-67.3369
-59.2062	75.8477	27.3461
-48.8243	78.9869	42.5175
-51.0167	87.9126	28.0388
-92.9886	-2.6411	-39.4636
-91.5946	-2.31293	-40.9777
-91.4068	-13.9696	-36.0671
-90.245	-14.4499	-37.9166
-87.8414	-24.0415	-33.123
-89.0864	-22.7927	-30.3417
-84.1037	-4.03849	-8.57127
-82.2561	-23.8694	-9.11569
-88.2991	-13.5265	-39.5986
-81.8517	9.06571	-13.3841
-80.8836	1.62345	-5.68989
-83.8212	-20.6231	-37.5768
-83.7865	-37.791	-23.2442
-86.9555	-33.0143	-21.1984
-88.0297	-28.6996	-26.1055
-85.7753	-31.7401	-29.1351
-85.7659	-33.7752	-16.6632
-86.9865	-29.6203	-18.5252
-77.1008	-41.6312	-21.9068
-83.1476	-38.6591	-17.6997
-80.34	-40.6502	-19.0541
-84.9536	-27.377	-14.5433
-83.9027	-30.7249	-12.2978
-88.8512	11.8164	-13.2371
-86.0131	5.46188	-10.6927
-93.9764	8.74791	-34.3373
-93.5189	3.11685	-36.763
-89.2192	10.8928	-14.022
-88.6339	8.15414	-15.1798
-87.9035	5.68026	-13.0419
-93.3062	14.8107	-27.5003
-92.9066	13.0188	-27.1196
-91.7692	-7.15703	-31.0868
-88.6494	6.00275	-17.9915
-90.5119	1.09065	-25.7441
-89.9886	-12.4814	-29.8525
-82.26	-18.8987	-12.4461
-82.8039	-22.6561	-13.2166
-83.0059	-14.4902	-12.5026
-83.1145	-14.0692	-10.4586
-85.0304	-4.39567	-10.2711
-85.0252	-6.17262	-12.7409
-87.7024	2.46065	-16.3187
-55.3415	-51.9436	-61.3223
-26.5093	-31.3788	86.6718
-23.6714	-23.2768	87.3468
-32.5879	-30.3838	84.4099
-20.4615	-29.5407	90.0565
-20.7689	-23.3608	90.5674
-54.596	13.7308	59.8425
-54.5991	19.5879	61.6464
-33.06	5.16716	73.7746
-55.4243	32.7507	63.1978
-44.9953	38.0557	71.497
-7.85025	-30.7145	101.406
-11.1039	-31.0615	98.553
-8.5664	-32.4703	98.9482
-9.82222	-28.5191	103.059
-16.7268	-21.941	100.357
-17.1324	-19.8899	99.0119
-18.4181	-22.6996	97.2911
-62.8909	83.8412	3.41685
-67.7697	71.8027	8.89361
-29.6611	-58.9501	76.5575
-29.5091	-55.499	76.9942
-14.3572	-28.8202	98.5449
5.01206	-30.5227	101.479
-11.4746	-33.4158	96.2888
80.5172	-37.0116	-24.8933
80.6157	-32.1904	-30.0061
73.5768	-43.217	19.5895
71.8387	-53.0621	17.7814
75.3957	-40.2813	5.50531
59.2946	-104.008	-12.2007
54.0755	-105.651	-3.34864
57.6107	-140.92	-6.94266
61.5094	-137.144	-16.6313
60.1999	-123.9	-13.9121
55.5153	-127.077	-4.77299
54.7397	-92.5534	-1.69388
47.3415	-94.8222	8.81431
46.3675	-108.027	6.23008
61.8893	-102.126	-21.5651
62.8037	-89.5295	-20.7026
59.8705	-91.5161	-11.1001
68.9962	-61.7679	15.1791
65.6421	-65.1482	30.9005
61.776	-72.7675	25.8327
64.8616	-69.6866	11.5029
76.1805	39.5367	7.8723
68.513	44.0518	29.6907
66.8163	28.7428	39.0328
75.1771	23.8513	14.9573
79.8068	32.9968	-33.8904
76.5138	46.1605	-44.2547
77.7263	52.161	-23.527
79.6791	37.2039	-14.187
4.90798	-107.685	47.4113
4.83596	-119.365	42.6077
10.665	-118.553	39.6812
10.9332	-107.425	45.0314
6.26701	-142.52	32.8254
13.7607	-141.343	30.2238
7.7532	-155.587	27.9774
-0.165593	-142.858	33.6364
-0.0762667	-155.932	28.8648
72.6278	-40.277	-34.8882
70.7869	-52.9044	-26.4722
66.3427	-51.5069	-40.5972
67.6906	-39.8272	-46.6607
74.589	-31.0622	-39.4952
62.7273	-133.206	-27.4769
60.5216	-128.767	-40.3769
-0.194009	-119.614	43.5725
71.1131	-44.8382	35.3152
68.8565	-55.5684	33.8568
70.249	-58.8484	-0.581471
2.65112	-87.1918	93.6774
2.29848	-95.0694	90.437
11.5483	-94.7651	85.7817
12.0577	-86.1473	89.5282
22.4059	-92.0396	77.7891
23.3636	-83.4038	81.3583
4.69722	-77.7904	93.1154
-2.31388	-78.0885	94.0323
-3.4716	-87.3926	94.4332
3.25649	-100.659	82.1123
5.17687	-102.357	70.3196
15.345	-2.10778	85.8966
22.066	-6.30917	82.2199
20.1976	3.21808	77.1943
14.6922	6.30525	79.8659
59.3906	-35.1525	67.129
59.3751	-24.5477	67.3931
45.5839	-23.1219	77.6588
47.5348	-33.246	77.6098
67.5038	-24.8467	54.1845
56.7527	-13.1266	67.3506
69.5171	10.3389	36.1235
66.1336	10.9913	44.71
47.5365	-42.6044	76.3932
58.2531	-44.9225	65.3554
2.82454	4.99575	93.0055
-0.933532	6.05542	93.3529
-1.75428	-4.42488	102.809
2.71963	-5.09337	101.923
25.4537	77.8337	64.7554
22.9392	65.2757	72.3177
32.5589	63.7268	67.9063
35.754	74.9332	60.0123
-0.881689	-103.411	58.6947
4.87313	-103.325	57.4477
-1.883	-102.599	71.4261
66.2242	-45.8234	50.7529
63.1718	-56.7939	48.6814
-3.60925	-95.8171	90.8517
-2.991	-100.907	82.89
34.0394	-86.9646	65.7295
42.6395	-86.1587	49.385
44.5152	-80.1993	56.4981
34.3469	-95.1346	34.5645
43.2532	-90.4683	24.2555
50.3093	-83.2896	32.0726
39.4842	-90.0222	42.9274
0.0038634	-107.702	48.2243
3.04484	-12.9852	108.549
9.51162	-14.3555	104.013
8.9322	-7.17625	98.0801
31.3157	-19.4993	82.5689
23.3538	-15.8018	86.1502
31.5706	-58.2314	78.1201
15.8463	-28.8846	95.6026
15.0572	-31.0162	94.4777
10.7479	-35.5983	95.9004
15.9628	-35.2177	92.7754
15.1337	-33.162	93.3304
1.89034	-30.5699	103.853
-1.67624	-30.7202	104.994
-1.69099	-32.8513	101.968
1.95404	-32.4931	101.292
21.379	-33.2914	89.3876
3.25926	-20.8049	111.822
3.16568	-24.4815	110.303
9.39046	-23.953	105.465
9.84921	-20.4196	106.581
31.5101	-70.6387	76.9026
29.0307	-64.5858	79.2794
21.6899	-67.5702	84.9215
23.0138	-74.3561	83.356
31.7215	-47.8315	83.796
26.7593	-46.4558	87.0496
-1.23652	-39.2271	98.9872
3.21792	-38.754	98.721
2.11752	-34.8596	99.7887
-1.64948	-35.2139	100.226
8.60891	2.00719	90.3652
19.8088	-19.521	92.5635
19.089	-20.4021	94.6981
19.8694	-22.5682	93.3252
5.55808	-35.0419	98.4791
18.9184	-27.1631	92.9299
0.175604	-49.6156	98.7909
6.00762	-48.0883	98.2917
4.78197	-43.3535	98.2466
-0.247331	-44.5286	98.5154
24.8612	-39.27	88.3977
29.8702	-39.6615	85.9159
13.5726	-65.3141	90.6686
5.97253	-66.2527	93.0376
6.15494	-69.911	92.4292
14.048	-68.9785	89.7664
23.8267	-52.7414	86.9517
28.6102	-54.5993	80.5372
15.8689	-16.7798	97.1779
20.5335	-63.6927	86.2424
-0.360959	-66.6197	93.727
-0.710869	-70.3	93.2634
61.4131	23.9577	53.5762
63.6796	25.3806	48.516
56.6907	36.86	59.8527
32.0485	53.1152	74.2657
44.6543	48.3208	66.3101
45.6117	58.7315	59.556
57.1234	41.4949	55.5281
58.2545	51.9592	47.2472
45.172	43.3056	68.9541
32.8322	47.4528	77.0942
20.2009	31.1723	77.7307
26.8054	33.0506	77.2302
24.979	36.2881	79.7497
17.9177	33.7298	80.3401
8.9478	9.78646	83.4903
3.26521	17.0787	83.535
3.22225	12.695	86.2376
28.7957	-9.55449	79.9884
42.218	-12.2748	75.9823
38.1648	-2.94312	73.9733
26.1455	0.0733137	76.0914
62.5395	11.7549	51.0073
58.4433	13.4896	56.0514
56.188	6.43289	60.0522
46.3471	35.2288	71.1991
35.1017	41.7111	76.7074
36.2346	37.0124	75.8196
54.8078	30.3542	64.2654
58.5173	22.5519	57.7731
49.562	19.6295	64.6833
36.7876	33.1264	74.9966
49.6092	24.6528	67.5922
44.8152	28.4467	71.9472
15.7178	26.3965	76.3288
12.8604	20.9291	75.9222
17.5201	21.6917	73.0295
-0.147458	34.162	82.2609
-0.549215	27.2385	81.8646
4.19409	27.0033	81.3619
6.78434	34.0333	82.2517
24.3684	5.44988	74.0073
10.7982	23.5684	77.9557
23.3289	8.94013	72.8947
18.0048	-54.8364	85.3865
25.4136	-55.6158	80.042
6.54104	-52.5464	97.334
6.52316	-50.3492	98.1548
0.191515	-51.7556	98.781
0.173472	-53.4673	98.1746
11.9562	-51.7212	95.4925
6.14822	-53.7895	95.9849
11.695	-53.2757	93.8541
18.2274	-52.311	91.364
11.6924	-49.8107	96.5559
18.1083	-50.3722	92.6754
4.81735	-54.4562	94.1453
11.2042	-54.1694	91.6883
29.5879	-55.9889	78.7374
18.2211	-55.8452	86.4038
18.3747	-56.0904	87.0358
18.6804	-56.8769	87.6521
11.7954	-56.695	92.4113
12.4418	-58.3382	92.4663
4.82455	-56.7591	94.8435
11.2647	-55.4443	91.9923
4.58867	-55.4986	94.3924
-0.125768	-58.6323	95.6599
5.14565	-58.6733	95.0006
-0.0657565	-56.794	95.4234
25.8038	-56.6759	79.8275
0.0774463	-55.3529	92.5891
4.46021	-55.4016	92.0123
-0.12221	-61.0099	95.4529
5.51785	-60.9797	94.7306
5.73912	-63.2382	94.0647
-0.198865	-63.476	94.754
10.1593	-48.0556	97.2775
0.02688	-55.6087	94.8579
4.59454	-55.198	93.871
0.0638047	-55.1999	94.1949
11.1259	-55.1589	91.4718
13.1957	-62.3408	91.6588
12.8359	-60.2554	92.2631
10.959	-54.0541	89.886
10.9086	-55.4835	89.7407
11.1362	-52.849	88.4126
16.6638	-53.6292	85.4803
25.6862	-58.486	78.9029
4.50095	-57.08	89.5851
0.00394912	-56.9976	90.1182
4.62481	-54.1721	92.0901
5.78288	-52.6174	89.9321
11.1324	-57.1745	87.5354
27.533	-48.9187	76.905
30.7483	-53.0844	73.5685
10.673	-47.4575	87.0024
15.9324	-47.7309	84.712
27.8488	-64.0442	75.2261
23.4281	-64.4166	78.826
5.48319	-47.3133	88.1333
10.5191	-62.6407	85.6399
4.52447	-62.2631	87.5238
30.5145	-60.1109	72.8959
82.6589	-12.6788	-41.6042
79.145	-12.3852	-46.5887
80.5452	-2.46848	-47.4118
83.7988	-3.87265	-42.4083
81.6354	2.41961	-5.78334
82.7075	9.73359	-13.425
80.0095	20.6046	-7.2963
79.1294	4.96288	1.57701
81.4458	19.979	-25.8363
82.3707	12.0108	-21.7625
79.6176	-26.8549	-35.1704
77.728	-33.8579	-31.0733
76.8329	-22.146	-43.7525
81.3105	-20.1289	-38.783
86.524	-1.977	-41.0671
85.9739	-12.5245	-40.0201
84.8243	-30.0686	-30.3493
87.1647	-21.867	-34.9178
82.0574	-37.9259	-23.4823
79.7412	-39.786	-20.284
82.6086	-34.7811	-11.4809
91.9226	-12.4434	-31.4191
94.053	1.82047	-35.4818
87.233	-22.3426	-21.1012
79.1205	-21.0558	1.08907
78.3876	-29.39	0.0306182
83.2913	-18.2119	-9.90201
83.6702	-22.2416	-10.4295
82.2984	11.3024	-20.4058
90.4556	-2.12156	-41.3229
91.9071	18.7501	-19.8712
90.2028	19.8389	-21.9917
88.9487	18.8754	-24.2204
95.0182	9.26347	-35.2545
89.4443	8.81617	-15.1889
87.3527	3.10034	-11.3106
92.9563	-2.9802	-30.3087
92.6448	-0.210372	-28.9648
84.1937	5.93741	-39.0769
86.1468	8.49908	-35.9431
82.7094	-26.179	-33.6398
88.5513	-8.43616	-24.5013
84.6739	12.6247	-28.9574
83.8485	11.6128	-31.4905
91.7352	11.0109	-21.7383
1.34653	79.8616	68.4061
14.7562	79.446	67.2567
16.0821	93.2238	55.8076
1.11885	94.5709	56.3255
1.1574	65.2899	76.0595
12.9969	65.4652	74.8184
21.6701	53.8196	78.3819
2.43682	-28.4175	106.789
-1.84599	-28.3318	108.572
3.33478	-17.3458	111.23
-2.01966	-17.1283	112.457
-2.03191	-21.0915	113.151
-2.03458	-24.8204	111.814
-2.04939	-12.4965	109.608
0.568235	51.5883	81.2964
0.442899	44.5902	82.7722
11.0971	44.0541	82.2639
11.7017	52.0989	80.1396
-0.59287	13.6059	86.6744
-0.600903	17.8713	84.0103
3.21538	21.4473	82.0708
-0.619732	21.9347	82.5649
0.0748827	-54.3183	92.6219
0.0503794	-52.558	90.4395
0.0797201	-54.705	94.5542
0.146252	-54.3485	96.9629
-0.118303	-47.3318	88.4607
27.8595	90.0133	54.1086
22.1034	48.0164	80.9185
23.5302	40.962	81.3397
29.7807	30.0994	74.9698
22.689	27.4034	74.6033
41.446	97.3945	31.6158
38.6154	85.5162	49.8917
37.8579	30.1372	74.1985
48.1588	69.5784	51.3854
45.8008	31.3854	71.723
59.9511	64.0751	37.9213
52.5392	27.1747	65.985
13.861	29.3787	78.7041
70.4146	-58.349	-14.2863
81.7068	15.462	-37.7376
78.7	24.682	-49.3703
73.8454	-14.3277	-57.2182
76.1259	-0.439595	-59.4615
77.442	13.1378	-57.5921
81.3248	7.79071	-44.7471
70.5193	-27.4744	-52.6966
12.2386	-102.575	54.2077
23.9036	-99.4836	45.5624
54.4098	-77.6553	39.4749
69.8725	58.467	19.3943
29.7713	104.038	34.0872
16.5738	108.405	35.0155
56.3568	-70.0719	47.8237
8.5487	-43.6757	97.4963
21.6025	-44.9215	90.6696
6.84484	-39.0443	97.8375
14.7379	-43.9441	94.8987
12.4154	-39.7995	95.5684
36.7045	-56.2411	77.7095
37.3656	-49.4171	80.4356
75.5649	-43.5379	-21.9951
76.4754	-31.4839	7.51175
77.1772	-22.2732	8.45381
74.8362	7.82643	18.6104
74.6419	-8.10035	21.6891
53.1077	10.7242	61.7534
74.6866	-21.696	21.6071
74.422	-32.871	20.5653
15.981	-10.9165	91.9967
15.2401	-24.7021	99.3325
17.9721	-25.672	95.5069
36.3777	-40.7053	82.8262
55.3941	-54.9224	63.5006
45.9437	-52.0602	74.4325
50.5667	-64.3672	62.9525
67.581	-35.5785	52.5588
42.957	-72.4994	65.8187
34.0593	-78.8466	71.7611
52.3506	-3.26702	67.3069
49.0091	2.92452	67.5131
43.0434	-59.4162	73.2104
38.0672	-65.4935	73.7835
13.5274	-76.5721	89.6349
35.4467	2.68362	73.0831
9.89451	-17.7528	106.093
71.9247	-22.6083	37.7299
71.9942	-34.3302	36.56
8.08236	25.7726	79.9055
18.757	-39.4741	91.9254
23.1248	-54.1427	81.0885
21.8225	-48.0145	81.1306
32.5318	-136.342	18.7963
35.4071	-150.574	15.6669
44.1997	-147.785	9.30843
41.112	-133.121	11.7211
39.3467	-98.6644	17.9202
31.3855	-102.363	26.8057
29.7596	-114.175	23.6384
38.3066	-111.266	14.8767
33.957	-60.7376	77.1243
50.5886	-86.5835	13.5611
56.4704	-79.3513	19.9887
48.6318	-130.051	4.16248
51.6727	-144.561	1.85054
60.5347	-76.3192	6.63869
61.2526	-82.2017	-8.92524
56.8594	-83.6552	1.56458
60.8187	-96.2983	-35.2858
77.5824	-35.8913	-2.30619
62.6416	-80.2967	-33.5864
55.4402	-124.328	-53.4948
54.9404	-107.359	-51.2624
22.9993	-138.919	25.3638
25.8119	-152.888	21.1052
20.7835	-105.818	37.8655
19.6141	-116.742	33.0933
27.9113	-61.2034	79.8824
18.0976	-56.1701	85.1863
18.2839	-57.66	83.8318
16.3039	-154.595	25.3559
17.2368	-63.5351	82.5761
76.1752	54.7473	-1.89235
50.0076	-81.7936	-59.5477
55.7428	-87.6277	-49.1015
48.7022	-102.78	-61.5744
48.8018	-120.573	-64.2496
58.8581	-66.6781	-47.9527
30.2935	114.654	6.14336
16.1126	119.592	6.09178
15.9162	112.438	-64.3445
30.6125	108.581	-61.1979
29.0238	89.4728	-89.9635
14.7292	92.2775	-93.5481
27.8393	64.6414	-106.635
14.4169	66.8018	-110.188
30.7617	117.003	-27.1282
16.1313	121.692	-28.9007
0.432516	123.243	-29.4515
0.572608	121.278	5.83752
26.8711	38.323	-114.78
14.1555	40.4388	-118.324
25.8225	10.6626	-116.564
13.2238	12.3133	-120.461
24.2154	-15.3181	-111.434
22.69	-39.041	-99.1748
11.6629	-38.6204	-101.641
12.3311	-13.7768	-115.426
0.14004	-13.188	-116.799
0.159152	12.757	-121.767
10.4556	-75.2749	-85.4891
21.1614	-76.6114	-83.0736
20.0946	-95.5053	-82.1933
10.0962	-94.3773	-83.9576
10.0348	-113.234	-83.4794
0.290759	-113.124	-83.8659
0.329495	-93.4968	-84.4376
22.5564	-57.1339	-88.6063
11.4798	-55.2687	-91.4824
0.318407	-55.3591	-91.8919
0.350283	-74.9892	-86.0616
54.8479	96.275	3.60089
43.2362	106.742	5.30206
53.2852	77.8514	-76.418
52.5516	56.0578	-92.0227
41.1437	60.8793	-100.233
42.0047	84.6464	-84.0219
43.0664	102.297	-56.8272
54.3728	93.068	-51.5619
55.956	98.152	-24.1168
44.1631	109.02	-25.5199
51.1618	32.07	-100.191
39.9034	35.4221	-108.344
48.9825	7.27635	-102.114
38.2806	8.82078	-110.171
45.8799	-17.477	-97.5334
36.0933	-16.7721	-105.102
44.7657	-40.4326	-85.3514
34.3391	-40.3072	-93.3271
33.684	-58.9443	-82.8252
39.894	-98.8378	-71.5277
30.324	-97.1574	-78.2335
32.1409	-77.8499	-77.8868
41.9292	-78.7612	-69.9446
30.2045	-114.984	-79.0251
19.9713	-113.736	-82.1736
64.3378	81.1551	-44.8145
72.5958	67.0219	-34.7595
70.7505	58.4804	-56.1303
62.7049	69.212	-67.5156
72.9628	69.919	-12.8915
65.7575	84.9445	-20.9958
61.7785	50.1392	-82.6491
60.3496	28.1977	-90.841
58.5247	5.19615	-91.8914
54.9173	-17.9852	-87.4411
52.697	-38.9457	-76.9356
74.8784	33.8459	-60.4358
62.4265	-17.5903	-76.9119
65.7669	3.18097	-81.5249
71.7179	1.24126	-70.3314
68.6392	-16.1363	-66.9607
67.4516	23.5614	-80.7546
73.2435	17.9952	-69.24
69.1617	42.7286	-72.0591
58.9317	-36.1153	-68.7699
64.8298	-32.122	-60.577
61.326	-47.268	-53.827
94.649	10.0082	-35.8796
92.8359	10.7093	-37.0949
91.6602	18.8469	-29.3024
93.5709	17.6776	-28.1722
87.6269	15.0472	-15.9703
89.3669	14.1234	-14.0245
85.5495	14.4631	-18.9352
91.1041	9.14717	-38.0247
90.4823	17.4591	-30.5826
94.0324	-1.9243	-38.0444
92.7054	17.5214	-19.1026
94.2097	16.409	-27.7334
0.838952	110.058	35.1814
0.376148	113.775	-65.2661
40.2151	-117.335	-72.974
0.2863	93.0672	-94.7329
0.155773	67.352	-111.352
0.171736	41.1626	-119.52
0.2196	-39.0115	-101.973
-72.7024	-44.4935	18.9411
-74.6044	-41.4966	4.36377
-71.0586	-54.1677	15.7813
-57.9959	-105.655	-13.5487
-52.7945	-107.475	-4.55803
-56.8298	-141.934	-7.44673
-54.5233	-128.456	-5.47144
-59.1426	-125.265	-14.7369
-60.6458	-138.19	-17.2048
-53.4184	-94.3883	-3.4361
-45.1652	-109.928	5.3867
-46.0813	-96.9274	7.3597
-58.5051	-93.1208	-12.8474
-61.3529	-90.9776	-22.3096
-60.5736	-103.6	-22.8811
-68.3066	-62.7337	12.2235
-64.0068	-70.8674	8.33392
-61.4147	-73.6708	21.9566
-65.7105	-65.6157	27.2913
-75.2938	39.0276	8.43886
-74.5323	23.2746	15.6777
-66.1939	28.374	39.9311
-67.5958	43.5991	30.5903
-78.8424	32.5821	-33.8701
-78.7189	36.7223	-13.958
-76.6633	51.7751	-23.3819
-75.5297	45.8575	-44.2424
-4.98304	-107.722	47.6818
-11.0096	-107.374	45.6119
-10.825	-118.596	40.1161
-5.16862	-119.377	42.8238
-13.9029	-141.562	30.2437
-6.54463	-142.605	32.8404
-7.87575	-155.688	27.9614
-71.5041	-41.2544	-35.9227
-65.092	-52.4813	-41.7188
-69.5155	-54.0037	-27.9072
-73.5501	-31.9228	-40.309
-66.6035	-40.6587	-47.5271
-61.8163	-134.208	-28.0867
-59.616	-129.659	-40.9676
-67.9211	-57.8041	31.65
-69.9858	-46.4262	34.4522
-69.2934	-59.9989	-2.89866
-9.60709	-87.2283	93.2002
-17.3511	-85.8302	89.4308
-17.2666	-94.68	85.6782
-9.73861	-95.2815	89.7446
-25.9679	-83.7548	82.3046
-25.0433	-92.1023	79.063
-9.17498	-77.8749	93.1049
-9.65015	-100.417	82.0311
-8.80355	-102.121	70.7356
-14.7694	-2.62906	87.0255
-13.7649	5.24915	80.8663
-19.0511	1.70822	78.5729
-20.2254	-6.74341	83.8615
-56.8931	-34.7975	68.9756
-45.5568	-32.5853	78.9491
-43.3569	-22.7877	79.1427
-55.4931	-24.6233	70.8215
-65.673	-24.9946	55.7635
-53.4278	-14.0775	70.2007
-65.3542	10.4614	46.0301
-69.04	9.76428	37.2751
-46.4334	-42.6463	77.2473
-56.7953	-45.3405	66.0674
-4.42678	4.91178	93.0141
-5.47532	-5.08114	102.02
-23.2681	77.594	65.8141
-33.7266	74.5954	61.3515
-30.8253	63.4977	69.8074
-21.2114	65.3077	73.7668
-6.46817	-103.163	57.9292
-64.9712	-47.0184	50.5436
-62.2418	-58.9278	47.5998
-35.083	-87.1145	67.2124
-44.7408	-80.9428	56.8884
-42.8488	-86.6095	49.6399
-33.477	-96.4076	34.8133
-39.1995	-90.8102	43.1322
-48.9958	-85.2249	30.4885
-41.6476	-92.7812	23.4659
-6.55475	-13.113	108.484
-10.477	-7.40182	98.5246
-11.7722	-14.7655	104.212
-21.4125	-15.766	87.7617
-29.3178	-19.8201	83.9314
-32.4772	-59.0179	78.7935
-16.1592	-29.4741	95.8042
-15.4935	-31.424	94.4474
-11.8325	-36.0613	95.7031
-15.6262	-33.4284	93.1995
-16.4859	-35.5478	92.6015
-5.15691	-30.6165	103.805
-5.24872	-32.4661	101.162
-21.7945	-33.2902	89.2057
-6.91549	-21.1209	111.709
-12.3367	-21.0131	106.558
-11.7591	-24.5589	105.48
-6.71741	-24.7691	110.21
-32.7213	-71.5997	77.7966
-24.9727	-75.0783	84.2646
-23.1104	-68.2649	85.7955
-30.1214	-65.372	80.1345
-32.5712	-48.4311	83.9307
-27.5903	-46.8135	86.9851
-5.42008	-34.7412	99.5907
-5.48745	-38.9237	98.6201
-9.33113	1.67367	90.7857
-19.2117	-20.1375	93.5603
-19.3876	-23.3934	94.2436
-18.9118	-21.1548	95.5181
-8.14165	-35.2819	98.1028
-18.7796	-27.6029	93.2384
-5.50447	-43.6759	98.3211
-5.86518	-48.186	98.5137
-30.2351	-39.8935	86.1683
-25.1714	-39.7158	88.5122
-14.5022	-65.6735	91.453
-15.9687	-69.3413	90.3116
-7.91729	-70.0684	92.8081
-6.47213	-66.1428	93.5507
-24.1189	-53.6221	87.2749
-29.4598	-55.2677	81.0295
-16.5751	-17.5159	97.8079
-21.4417	-64.4551	87.2425
-55.8267	35.9466	60.9897
-62.996	24.8586	49.5606
-60.7696	23.004	54.4462
-43.8342	58.3915	61.2696
-42.8018	48.0271	68.0322
-31.0368	52.1722	76.4269
-56.9192	51.6548	48.5752
-56.1766	40.8959	56.6115
-32.6018	46.8571	78.0426
-43.1922	42.9465	70.6046
-21.3471	29.8701	77.381
-20.0689	33.1418	79.0781
-27.6924	35.031	78.4694
-28.3482	31.8049	77.1728
-9.00776	9.07355	83.6917
-4.11756	12.4162	86.1998
-4.23334	16.6845	83.3853
-26.7285	-10.0762	81.5151
-24.6266	-1.09546	77.4806
-36.9635	-3.69391	75.0929
-40.6637	-12.4674	77.1538
-55.1916	5.47579	60.8274
-57.6915	12.1642	56.7646
-61.8079	10.7695	51.8808
-45.6751	34.1189	72.0574
-35.3712	34.9164	77.1236
-34.5108	40.2323	78.0479
-54.0615	29.3813	65.1624
-57.9561	21.239	58.4027
-36.193	31.5449	76.1055
-49.5126	23.1365	67.9974
-44.8556	26.8365	72.3166
-12.0778	19.4928	76.4574
-15.5959	25.2136	76.6098
-17.5572	21.1604	73.7906
-6.94597	33.5974	81.4903
-5.15313	26.8531	81.2671
-23.3869	3.72586	75.2816
-10.5253	22.3781	78.1928
-22.7979	7.24987	73.9555
-18.4028	-55.591	86.0573
-26.0794	-56.3669	80.7138
-6.28246	-52.6661	97.6115
-6.27356	-50.3725	98.4269
-11.9976	-52.0906	95.8128
-11.905	-53.5469	94.3181
-5.95514	-53.9553	96.2764
-18.4176	-53.1539	91.6658
-11.5605	-50.0596	96.8575
-18.4077	-51.1826	92.8289
-11.392	-54.5326	92.0772
-4.72769	-54.5907	94.3798
-18.7039	-56.7559	87.8063
-18.5798	-56.5541	87.0948
-19.0446	-57.484	88.5536
-12.6306	-58.6603	93.3005
-11.9673	-57.1666	93.1774
-4.64852	-56.7978	95.2103
-4.51291	-55.5857	94.6648
-11.4817	-55.9456	92.5663
-4.82872	-58.5498	95.4532
-26.5189	-57.43	80.534
-4.38393	-55.4962	92.2607
-5.10494	-60.6789	95.2957
-5.36954	-62.9386	94.6816
-9.97603	-48.1401	97.5894
-4.51321	-55.2702	94.1168
-11.2736	-55.5892	91.9044
-13.7314	-62.7003	92.4814
-13.2016	-60.5807	93.0913
-11.1524	-54.4467	90.3717
-11.038	-55.8864	90.2541
-17.0026	-54.2578	86.0264
-11.3119	-53.2188	88.8291
-26.3965	-59.2244	79.7156
-4.51467	-57.1608	89.8943
-4.56547	-54.2928	92.3392
-5.78907	-52.764	90.1849
-11.3277	-57.5374	88.199
-27.8573	-49.5511	77.2287
-31.0689	-53.8066	74.0587
-16.2655	-48.286	84.9007
-10.9527	-47.8646	87.1563
-28.6904	-64.8725	76.0434
-24.4041	-65.1779	79.7059
-5.10105	-62.3802	87.8812
-0.277769	-62.2148	88.2142
-5.731	-47.5173	88.225
-11.2157	-63.0042	86.3061
-31.067	-60.9348	73.5794
-81.7307	-13.3507	-42.0981
-82.8904	-4.46673	-42.7786
-79.6443	-3.01642	-47.7609
-78.221	-13.0181	-47.0655
-78.4754	4.17107	1.90504
-79.1679	19.9961	-7.01801
-80.512	19.4422	-25.8302
-81.4563	11.3895	-21.7942
-78.6202	-27.7109	-35.9281
-76.6828	-34.8125	-32.008
-80.3526	-20.8873	-39.4031
-75.8583	-22.889	-44.3834
-85.6386	-2.55587	-41.403
-85.0719	-13.1955	-40.5019
-83.8591	-30.9932	-31.1644
-86.2479	-22.6667	-35.552
-81.0521	-38.9629	-24.5488
-78.7301	-40.8546	-21.4445
-91.0627	-13.1626	-31.8805
-93.2219	1.25263	-35.7491
-78.4347	-22.1649	0.80089
-77.628	-30.5526	-0.630269
-82.4774	-19.1871	-10.3234
-82.8335	-23.2499	-10.9714
-81.3887	10.6694	-20.4272
-89.602	-2.69122	-41.6553
-89.3506	19.3005	-21.9574
-91.0769	18.2025	-19.8272
-88.0772	18.3356	-24.2184
-86.565	2.3634	-11.3027
-94.1956	8.75568	-35.4375
-92.1148	-3.62584	-30.6157
-91.805	-0.848342	-29.2242
-85.25	7.95149	-36.1353
-83.2849	5.39037	-39.3158
-81.7472	-27.0301	-34.3822
-82.2135	-2.92123	-6.54681
-83.7639	12.0574	-29.0552
-82.9266	11.0513	-31.6201
-90.9067	10.4127	-21.7912
-87.6833	-9.21548	-24.8629
-13.9139	93.0419	56.1473
-12.3077	79.3146	67.8262
-10.746	65.4579	75.5727
-21.6678	53.103	79.3466
-5.7527	-28.4734	106.899
-6.94601	-17.6049	111.155
-11.3679	51.6215	80.722
-11.7343	42.9302	81.5752
-4.22038	21.0032	81.9722
-25.802	89.7141	54.7104
-23.3116	46.0513	80.3719
-26.7278	39.1893	79.5186
-30.1239	28.7095	75.6015
-22.8718	26.1085	75.0799
-36.683	85.1299	50.7013
-39.7981	97.0472	31.9544
-37.8244	28.8496	75.0449
-46.3499	69.1171	52.7612
-45.4256	30.0615	72.3538
-58.5538	63.5884	38.9195
-51.8428	25.8121	66.8667
-14.1817	28.492	78.6085
-69.2213	-59.5231	-16.1742
-80.7798	14.9666	-37.8649
-77.7913	24.3201	-49.4744
-75.2703	-0.861438	-59.7667
-72.9518	-14.8622	-57.6668
-80.4187	7.2941	-44.9773
-76.5789	12.7762	-57.7861
-69.5446	-28.1532	-53.3293
-13.4234	-102.348	54.6964
-24.1219	-99.6676	46.1837
-53.8523	-79.162	37.4747
-68.7395	57.9824	20.0438
-14.9076	108.26	35.1178
-28.0971	103.781	34.3008
-51.859	18.7563	63.7309
-55.8035	-71.8122	46.8244
-8.84251	-43.949	97.6558
-21.919	-45.4629	90.7589
-8.45571	-39.2945	97.7024
-13.2185	-40.1567	95.4006
-15.1901	-44.5059	94.8772
-37.6046	-50.1634	80.8905
-37.1252	-57.1107	78.2693
-74.4584	-44.6249	-23.2814
-75.7853	-32.6974	6.99258
-76.6104	-23.4529	8.3917
-74.4242	7.04104	19.4408
-74.351	-9.18322	22.4508
-52.6885	9.38864	62.0484
-74.2265	-22.9742	22.1333
-73.6685	-34.1627	20.8762
-15.9108	-11.3632	93.004
-17.9689	-26.4678	96.1105
-16.2264	-25.3944	99.6527
-36.3428	-40.9052	83.3743
-54.6022	-56.1362	63.7308
-45.5813	-52.725	75.0143
-50.2833	-65.6516	63.2669
-66.0303	-35.7838	53.3803
-35.003	-79.6638	73.0175
-43.2307	-73.5568	66.4988
-50.3396	-3.67038	68.7238
-47.5679	1.91727	68.7066
-43.1709	-60.3844	73.7585
-38.7852	-66.4592	74.4324
-17.018	-76.7817	89.883
-34.5818	1.43831	74.1292
-12.3545	-18.2628	106.144
-71.1094	-23.5152	38.5898
-70.9728	-35.2815	36.6735
-8.53455	25.1746	79.9159
-19.2635	-40.054	91.8395
-23.6166	-54.8909	81.71
-22.1969	-48.6189	81.3572
-32.1205	-137.146	18.667
-40.432	-134.222	11.4133
-43.7079	-148.562	9.01872
-35.1048	-151.172	15.4881
-38.2094	-100.937	17.1206
-30.4825	-103.765	27.1499
-37.2612	-112.978	14.6261
-28.9514	-115.293	24.0268
-34.671	-61.6205	77.8437
-49.3766	-88.5865	11.403
-55.2313	-81.1841	16.9389
-47.7612	-131.34	3.65173
-51.0135	-145.477	1.44345
-59.4683	-77.7895	3.80848
-55.6184	-85.3745	-0.67552
-59.9327	-83.7173	-10.9804
-59.487	-97.5144	-36.4565
-76.7508	-37.0797	-3.32448
-61.0976	-81.5182	-35.0444
-53.9084	-108.237	-51.9909
-54.5829	-125.063	-54.0121
-25.6946	-153.292	21.0123
-22.8882	-139.393	25.351
-20.5754	-105.988	38.6359
-19.3088	-117.13	33.6885
-28.827	-61.9777	80.7345
-18.4826	-56.8858	85.8834
-18.7691	-58.2591	84.6612
-16.3358	-154.825	25.314
-18.1248	-64.1534	83.4284
-75.1225	54.2875	-1.53417
-48.9318	-82.5349	-60.2684
-47.7579	-103.473	-62.1525
-54.5237	-88.5795	-50.032
-48.0175	-121.149	-64.6677
-57.5754	-67.6031	-48.9754
-14.9458	119.496	6.07551
-29.0503	114.478	6.1447
-15.155	112.412	-64.3498
-14.1998	92.2704	-93.5321
-28.41	89.4684	-89.9624
-29.8097	108.527	-61.2086
-14.3585	66.8018	-110.113
-27.4618	64.6665	-106.63
-29.8102	116.891	-27.1603
-15.2429	121.634	-28.9225
-13.864	40.4581	-118.308
-26.5376	38.3593	-114.775
-12.9086	12.3376	-120.463
-25.5126	10.7101	-116.567
-23.9529	-15.2769	-111.449
-12.0525	-13.7559	-115.432
-11.2314	-38.6459	-101.679
-22.2338	-39.1015	-99.2574
-9.78714	-75.3654	-85.5706
-9.453	-94.4686	-84.0349
-19.4327	-95.701	-82.3512
-20.4475	-76.8113	-83.2499
-9.449	-113.325	-83.544
-19.3699	-113.921	-82.3088
-10.8639	-55.3366	-91.5523
-21.9081	-57.284	-88.7563
-41.9366	106.49	5.36938
-53.5457	95.9566	3.74466
-52.521	77.7905	-76.4197
-41.3149	84.6201	-84.0231
-40.6252	60.8939	-100.237
-51.9385	56.0418	-92.0341
-53.4441	92.9396	-51.5561
-42.2024	102.214	-56.836
-54.8778	97.9312	-24.0958
-43.1344	108.86	-25.537
-50.6652	32.0825	-100.218
-39.509	35.4686	-108.345
-37.9485	8.87914	-110.183
-48.5435	7.28647	-102.17
-45.4004	-17.5428	-97.6561
-35.7259	-16.769	-105.164
-33.7903	-40.4444	-93.4885
-44.095	-40.6862	-85.626
-32.947	-59.2147	-83.0896
-39.0732	-99.3229	-71.9242
-40.9991	-79.2877	-70.4313
-31.3324	-78.1956	-78.1953
-29.6053	-97.4768	-78.491
-29.5675	-115.277	-79.2392
-63.3103	80.9788	-44.7937
-61.8526	69.1008	-67.5243
-69.7985	58.2883	-56.1423
-71.4659	66.8074	-34.7178
-71.8154	69.5572	-12.6943
-64.6251	84.6654	-20.911
-59.7488	28.1496	-90.9019
-61.0742	50.0723	-82.6785
-54.2919	-18.1719	-87.6629
-57.9567	5.11445	-92.0118
-51.9076	-39.329	-77.3361
-74.0138	33.6001	-60.5139
-61.6797	-17.9061	-77.2303
-67.8037	-16.5689	-67.3568
-70.9365	0.935353	-70.5822
-65.0876	2.99655	-81.7085
-72.4521	17.7535	-69.3914
-66.7532	23.4311	-80.8569
-68.3695	42.5864	-72.1126
-60.2406	-48.0363	-54.6487
-63.883	-32.7245	-61.1698
-58.0487	-36.617	-69.2804
-93.8253	9.5074	-36.0566
-92.0033	10.2113	-37.2682
-92.7368	17.1725	-28.2262
-90.8113	18.346	-29.3529
-88.5566	13.5022	-13.9382
-86.7872	14.4398	-15.9013
-84.6728	13.8564	-18.9066
-90.2515	8.6359	-38.2184
-89.618	16.9504	-30.6528
-93.2017	-2.49695	-38.3661
-91.8842	16.9672	-19.0642
-93.3803	15.8977	-27.7962
-39.5141	-117.761	-73.2834
15.9094	-99.814	73.7154
12.8493	-100.718	74.2216
18.6092	-99.1838	69.7898
16.5132	-98.5909	76.4087
68.3121	-7.75835	48.5739
66.7841	-6.8053	51.9178
68.8409	-11.3189	48.1039
68.7258	-3.66113	44.7913
65.1792	-5.05914	54.1269
64.683	-0.661592	52.4639
63.3197	-6.57135	57.49
11.1294	37.155	82.8905
13.3176	36.0431	82.5381
13.7162	40.979	82.5605
8.66254	38.4843	83.0717
9.22387	33.1532	81.7711
9.74401	16.2024	78.7445
10.6474	15.3561	78.2281
10.2141	17.8997	77.9567
9.05216	16.478	79.3428
13.846	17.5321	74.7542
15.7163	16.456	73.1311
14.3868	19.2135	74.3367
12.0494	18.8326	76.2987
13.4204	15.8899	75.4476
46.7656	16.2903	66.7195
43.5303	14.4035	69.4242
48.4855	17.774	64.9332
17.6687	10.6754	74.1887
17.2721	11.728	73.8954
17.2969	9.55143	75.1549
19.2498	10.058	73.606
28.3556	-56.2615	78.1148
28.245	-56.1482	78.3625
28.4689	-56.3609	77.6815
28.2544	-56.211	78.4186
27.0958	-55.1156	80.8022
27.4976	-55.6725	79.3642
28.2324	-55.5216	79.6052
27.107	-54.6716	81.4956
25.2709	-54.8125	82.6228
31.2071	-56.2617	78.5016
31.2102	-53.9403	80.2161
28.7963	-56.5308	76.8594
28.3886	-55.7703	77.5559
29.4744	-56.504	75.5513
28.5647	-56.8587	77.185
23.0122	-59.3117	84.0904
23.3926	-60.0526	83.728
26.385	-58.1846	80.6443
22.9569	-58.7344	84.0988
19.4297	-59.8857	87.6271
20.9689	-51.0437	90.4124
20.5431	-49.6912	91.1876
17.7979	-49.5451	93.1647
21.2087	-51.82	89.927
23.4069	-52.1734	87.8244
27.4838	-56.2868	79.2424
27.5731	-56.3195	79.2242
27.618	-56.2831	79.117
25.8177	-56.3958	80.4145
80.1309	-34.8897	-8.45397
79.5682	-35.3065	-7.61925
79.7536	-38.3616	-11.4771
80.6727	-33.9191	-8.36971
87.9861	-25.6899	-20.0286
88.4722	-23.8413	-22.6812
86.8331	-24.0506	-18.8591
87.5173	-26.8488	-17.5786
88.4924	-27.0365	-20.6766
83.1272	-31.8188	-10.1912
83.1876	-29.1888	-9.51402
82.4905	-32.105	-9.46212
83.8328	-33.0867	-11.7928
82.9308	-19.3272	-13.4403
82.839	-18.2648	-14.3166
82.8517	-17.5358	-13.2205
83.199	-19.8473	-12.1126
83.41	-20.8801	-13.8395
87.6803	0.346524	-14.351
87.2274	-1.62791	-15.1109
87.9477	1.14731	-14.9109
87.7033	0.893391	-13.4376
90.8788	11.2457	-18.4403
90.8798	11.8416	-17.4539
90.5029	10.3003	-18.4137
92.0885	12.3748	-21.4954
85.3535	-17.1356	-20.3599
84.3693	-15.6642	-18.9576
84.9668	-20.9196	-17.7523
87.6526	-20.2692	-23.0985
87.5956	-14.6885	-24.2363
89.5522	1.71298	-20.7708
89.9098	2.85421	-21.1217
88.321	1.26752	-16.983
89.5411	0.399178	-21.8224
93.1152	-9.0764	-32.7591
93.0056	-8.86118	-32.185
92.3338	-12.1816	-32.351
93.4478	-7.94811	-33.7066
93.7147	-6.29128	-35.3587
93.8557	-4.15905	-34.2994
93.6387	-6.99161	-36.4112
93.9288	-3.23171	-36.5961
88.8872	-22.2017	-24.634
89.2819	-19.9549	-26.4433
89.3349	-23.255	-25.4385
90.7445	-8.55103	-28.6549
89.7787	-10.5236	-27.533
92.0335	-8.83707	-30.4949
90.7328	-7.2008	-28.3788
81.3002	-26.8811	-6.21773
81.4316	-29.1494	-6.92585
81.9104	-26.4571	-7.09513
81.0245	-26.0385	-5.55971
80.8459	-24.411	-4.8077
81.0965	-22.3525	-4.7819
80.4586	-24.5756	-3.92251
81.9591	-15.3256	-5.1204
81.709	-15.8814	-4.68679
82.3317	-15.6622	-6.0143
82.3045	-12.11	-5.31594
81.4148	-16.6751	-4.21238
81.0337	-16.5399	-3.28232
81.3331	-19.0883	-4.50544
85.0408	-22.5095	-16.4801
84.8873	-23.5597	-14.6722
84.5028	-10.4583	-13.6146
83.5366	-14.2758	-13.3524
84.4391	-10.9522	-15.113
85.5143	-6.64121	-13.8756
84.8409	-9.36928	-12.388
93.6094	7.20431	-30.5205
93.7265	7.94797	-30.7753
93.4602	6.7762	-29.9545
93.8716	6.01888	-32.2658
93.8748	2.33807	-33.0866
93.7078	1.22637	-31.665
93.9371	0.656913	-33.9874
93.9597	3.67284	-33.9133
93.6356	4.13457	-31.1567
90.3264	9.67598	-18.5838
91.2088	9.78533	-21.2039
89.7173	8.80457	-17.4593
92.2296	9.66615	-24.4893
91.8197	8.60647	-23.7894
93.3907	9.37396	-28.5459
92.7837	10.9463	-25.3631
41.4541	27.7741	72.8763
43.9954	26.7844	71.7299
38.3542	28.3695	73.5538
22.5527	-98.2882	64.0971
21.5158	-98.8633	60.6415
24.9841	-97.1047	63.668
49.2816	21.4843	65.9877
47.9911	23.5744	68.0558
50.1837	19.8223	64.4536
52.6697	23.1957	64.3307
54.5926	24.3677	62.97
51.0482	25.7152	66.8471
50.9364	22.6206	65.5224
53.5335	20.7574	62.469
74.2713	-47.7986	-4.03138
75.0663	-46.066	-8.63014
74.7027	-46.2232	-2.59511
73.5261	-50.0305	-4.43932
19.3678	15.9558	70.4745
19.8251	15.285	70.3451
19.3587	16.9025	70.5679
18.2015	18.4764	71.4548
19.3755	20.6754	71.8374
18.026	16.9435	71.2981
8.1446	17.5357	79.9198
7.39654	17.4723	80.6064
8.05675	19.6297	79.632
21.1561	-55.0519	85.2065
22.0643	-55.3855	83.441
21.5812	-54.788	85.6414
17.8522	-54.5438	88.2529
65.7586	-70.6207	-9.40559
64.9881	-70.7286	-3.97732
64.9647	-73.2883	-11.2988
66.8017	-68.0557	-9.96883
79.7532	-4.07516	0.478756
78.9988	-11.3336	3.14937
80.7236	-4.83892	-2.16808
80.4973	3.68058	-3.06913
78.4972	-3.04154	4.87375
65.986	-73.3104	-22.6989
65.337	-75.5149	-24.3804
66.871	-68.9293	-23.0961
65.2415	-75.6206	-18.0378
61.8894	-108.782	-28.1655
61.9697	-117.322	-29.5808
60.591	-105.216	-35.7702
61.9785	-99.7798	-28.0524
61.8459	-111.297	-22.1302
27.8195	-56.6801	79.2424
27.9636	-56.8254	79.1892
26.0494	-57.2109	80.7252
28.194	-57.0635	79.1338
22.6024	-58.328	84.3975
22.8459	-57.9371	84.0543
19.0201	-58.2119	87.8979
26.9597	-95.8934	63.3727
30.8982	-93.9498	57.3124
27.0995	-94.6677	66.7311
49.4175	-60.3508	-66.7567
48.1156	-56.5294	-70.7509
52.1059	-59.3393	-63.0411
48.453	-63.4697	-66.5627
55.0643	81.0862	33.3195
57.0846	83.0361	26.4738
51.2421	84.225	35.9323
55.7678	77.0479	36.1606
90.5516	-18.7576	-33.6321
91.7991	-13.7395	-36.4601
91.0653	-17.9531	-32.6161
89.4638	-22.926	-31.0769
89.9316	-18.8067	-34.8716
84.7636	1.47923	-8.73158
84.0057	-2.82169	-7.58873
85.7622	1.37869	-9.39658
85.5089	5.776	-10.337
83.4847	1.66728	-8.00208
82.9453	-19.8548	-8.27519
82.5102	-20.5369	-7.21449
83.454	-22.4757	-9.54563
83.3171	-20.1006	-9.84295
82.8803	-18.1764	-7.93859
82.9828	-26.3009	-8.71797
82.4409	-23.4767	-7.43844
83.8005	-26.0062	-10.0773
92.7396	-8.00739	-38.8556
91.9673	-8.00622	-39.6696
93.3266	-1.85587	-39.879
93.2074	-8.01398	-37.9973
90.9502	-7.87369	-40.3354
90.2162	-13.4022	-38.4189
89.901	-7.63094	-40.7164
91.3563	-1.86562	-41.1831
82.2648	5.69081	-9.28441
82.5348	7.92742	-11.0288
82.0091	6.74574	-8.97199
82.2988	4.03279	-8.11428
87.1811	-16.9544	-37.8123
85.4867	-16.3858	-38.587
87.8293	-12.5751	-39.5928
88.2461	-17.5676	-37.1137
86.1656	-20.8469	-35.9457
89.5137	-24.3249	-26.2275
90.0369	-21.2346	-28.6494
89.1586	-26.308	-24.0943
89.3886	-25.2693	-27.4378
86.9931	-32.9662	-24.2958
86.4279	-34.7945	-21.4686
85.6314	-34.3605	-25.3609
87.9116	-29.7829	-26.9652
88.3611	-30.2799	-22.8523
87.7532	-31.2258	-17.651
87.2335	-32.9362	-17.9988
88.2417	-30.124	-19.2308
87.337	-30.5461	-16.3329
77.3696	-41.6949	-13.753
76.821	-42.646	-14.2501
78.4219	-40.7721	-15.4389
77.4819	-40.7746	-9.42571
82.1616	-38.1654	-14.7941
82.4739	-38.9334	-17.1629
83.3722	-36.7972	-14.3657
81.7115	-36.3733	-11.7598
81.1041	-39.03	-15.0379
88.4024	7.96959	-11.5269
88.41	9.47173	-11.6262
87.0718	4.48643	-10.7163
88.7137	7.92929	-11.8884
88.3707	10.3992	-11.8536
89.6886	13.6686	-13.7498
88.0192	10.3933	-11.8663
93.4337	-7.83906	-37.2575
92.5772	-12.4908	-34.7849
93.9775	-2.20303	-38.5973
94.4332	6.41516	-35.2162
94.2312	5.40174	-34.9531
94.5641	5.75696	-36.0894
94.3774	7.95729	-33.691
89.4114	8.9859	-13.6101
89.2703	8.74852	-13.07
88.9871	7.42343	-13.8755
89.8996	10.5737	-14.5725
88.9064	7.87926	-12.2636
88.1308	4.71551	-12.2122
89.9325	12.0969	-13.6831
92.7378	-8.83279	-31.6039
93.3538	-5.90733	-31.8782
91.4968	-12.377	-30.5935
88.7062	5.85046	-15.4111
89.111	7.45429	-15.9205
88.6152	5.69877	-14.9428
89.01	4.93847	-17.1768
89.4921	8.25172	-17.0867
89.9866	7.84217	-19.0428
88.9619	-13.6042	-26.598
89.6058	-15.3934	-27.68
84.9844	-8.54863	-11.2294
86.0112	-4.16392	-11.2883
84.81	-8.53246	-10.1362
83.986	-13.2359	-11.2797
88.0774	1.56602	-15.2146
88.2951	3.30821	-14.6118
53.841	-57.3587	-61.1391
54.1208	-52.7829	-63.6995
55.2836	-57.5563	-58.4498
28.254	-27.2951	85.008
29.9414	-31.1392	84.9695
28.8169	-25.6173	84.5778
26.0614	-26.9449	85.9512
22.7738	-25.3841	88.0208
23.3506	-26.385	87.5483
23.322	-22.4043	87.6948
21.5551	-26.1188	89.416
50.9465	39.1721	66.0943
51.1124	37.14	66.9286
56.5142	35.2622	61.0924
51.0448	40.9029	64.9147
45.5327	41.1861	69.8068
8.47458	-31.9252	97.9081
7.58851	-31.3959	98.8156
8.14524	-32.6727	97.7342
10.0264	-31.8771	97.159
10.2259	-28.8737	100.087
8.40123	-29.2737	100.812
11.8729	-29.4852	98.279
10.8643	-27.8747	100.686
49.1139	18.6677	64.5792
48.7803	19.4067	64.9178
17.104	-20.6729	98.1893
17.1819	-21.6672	98.1341
17.6763	-20.486	97.3083
15.6852	-20.0249	99.7684
85.1357	-24.8556	-33.8386
84.051	-27.3961	-32.4376
83.7937	-23.2576	-35.2486
86.1764	-25.9886	-32.7387
65.0846	77.9401	13.983
62.7169	81.428	15.1528
65.6396	73.4237	18.4398
67.2716	78.498	4.44075
29.4447	-61.7255	74.1083
30.198	-59.952	73.5291
29.4042	-62.6765	73.782
28.4715	-61.4088	75.3812
29.7264	-51.4168	75.0392
28.3863	-51.5728	76.4693
29.5722	-50.4221	75.013
30.4388	-53.2513	74.1984
-19.4795	-99.4796	74.6891
-20.1328	-98.3911	77.4045
-21.5018	-98.8316	71.0876
-16.8679	-100.356	74.9374
-67.2406	-8.23023	49.9709
-67.9052	-4.15294	46.1029
-67.7462	-11.6868	49.4267
-65.4468	-7.35159	53.4811
-63.5243	-5.64765	55.9711
-61.2493	-7.13767	59.5383
-63.1434	-1.17385	54.2851
-11.735	36.7358	81.1994
-13.6776	34.3626	80.5311
-9.35679	32.6639	80.982
-8.83825	38.1709	81.6966
-15.2102	39.5628	81.0567
-9.20615	14.8701	79.1441
-8.68215	15.237	79.6011
-9.58535	16.4985	78.3792
-9.93486	13.9601	78.7649
-12.7577	15.9028	75.6827
-14.9037	14.8479	74.0494
-12.2665	14.2672	76.4316
-11.1467	17.3189	76.9484
-13.5557	17.7686	75.0739
-47.0992	14.5806	66.6484
-43.8393	12.6866	69.5669
-48.8318	16.074	64.7312
-16.3889	8.89682	75.4626
-18.176	8.18846	74.8583
-15.9628	7.82508	76.5015
-16.0991	10.0023	75.0604
-29.164	-56.9942	78.7505
-29.052	-56.8703	79.0023
-29.0676	-56.9397	79.0589
-29.2617	-57.1006	78.3314
-27.8649	-55.8121	81.3617
-29.1073	-56.2352	80.1344
-25.97	-55.5436	83.1463
-27.8841	-55.3551	82.0011
-32.0191	-54.681	80.6803
-29.5387	-57.296	77.5131
-29.3434	-57.5983	77.8508
-30.1121	-57.2926	76.178
-29.1352	-56.5077	78.179
-23.5616	-59.8548	85.193
-24.0918	-60.6677	84.7382
-19.9428	-60.3994	88.7099
-23.5057	-59.3301	85.1578
-27.1795	-58.897	81.4335
-21.147	-51.925	90.6757
-20.765	-50.5741	91.3711
-23.5992	-53.0782	88.1325
-21.3703	-52.6652	90.2445
-18.1176	-50.2982	93.2934
-28.2794	-57.0324	79.9021
-26.5497	-57.1551	81.0914
-28.413	-57.0288	79.7757
-28.3753	-57.0635	79.8833
-79.336	-36.1553	-9.37118
-80.0048	-35.1879	-9.25228
-78.846	-39.5623	-12.5972
-78.769	-36.4956	-8.56868
-87.1054	-26.6305	-20.7311
-87.5869	-24.7452	-23.3467
-87.6089	-27.9706	-21.4085
-86.6439	-27.8144	-18.3049
-85.954	-25.0047	-19.5207
-83.0214	-32.942	-11.0842
-83.7822	-34.1073	-12.7678
-82.5428	-33.1874	-10.4658
-82.6732	-30.2613	-10.226
-82.0687	-20.3035	-13.9658
-81.9769	-19.2401	-14.8218
-82.5447	-21.8639	-14.4235
-82.3507	-20.8366	-12.6217
-82.0012	-18.4905	-13.6801
-86.8718	-0.406004	-14.4406
-86.9027	0.141723	-13.5038
-87.1353	0.407873	-14.9976
-86.4111	-2.39858	-15.2445
-90.0576	10.6289	-18.4497
-90.0625	11.2239	-17.4459
-91.2618	11.7879	-21.5313
-89.6794	9.67392	-18.4321
-84.3245	-10.7065	-18.442
-86.6594	-6.81094	-21.5328
-83.7783	-13.1395	-18.9052
-83.5951	-11.8328	-15.4358
-85.2347	-6.91328	-17.3953
-89.4328	3.72637	-21.4583
-89.0749	2.17682	-21.2656
-88.1867	4.25188	-17.2434
-89.9608	5.35153	-22.245
-91.1428	3.23237	-26.3427
-81.8557	-29.7682	-32.5158
-83.0935	-28.2723	-33.1994
-80.6467	-29.5858	-33.0225
-81.6926	-32.1326	-30.9911
-92.2704	-9.74712	-33.1683
-92.6065	-8.60169	-34.1013
-91.4766	-12.8886	-32.8089
-92.1605	-9.53654	-32.5901
-92.8767	-6.92116	-35.7324
-93.0197	-4.77913	-34.6402
-93.0955	-3.82841	-36.9314
-92.8002	-7.61774	-36.797
-88.0023	-23.0757	-25.2691
-88.3989	-20.7973	-27.0344
-88.4487	-24.1219	-26.0955
-86.7679	-21.1579	-23.6895
-89.8831	-9.27311	-29.0403
-88.9094	-11.2813	-27.948
-89.874	-7.91339	-28.7405
-91.1802	-9.53536	-30.8929
-88.0833	-14.4006	-27.0662
-88.7278	-16.1883	-28.1848
-86.7127	-15.5244	-24.7179
-80.5285	-27.9679	-6.84761
-80.2126	-27.1391	-6.17952
-81.1267	-27.5401	-7.7169
-80.8134	-30.2632	-7.70994
-80.0494	-25.5001	-5.35744
-79.668	-25.6683	-4.46835
-80.3055	-23.4225	-5.25949
-81.2071	-16.3194	-5.37555
-81.5624	-13.0693	-5.4855
-81.5681	-16.6504	-6.29518
-80.9612	-16.8867	-4.95002
-80.6702	-17.6947	-4.48995
-80.5714	-20.1305	-4.86476
-80.3047	-17.5666	-3.53497
-84.1667	-23.4749	-17.1154
-84.0895	-21.8781	-18.3446
-84.0145	-24.5413	-15.3152
-83.6737	-11.3401	-13.8993
-82.6978	-15.1998	-13.7256
-84.0295	-10.2459	-12.6306
-84.6956	-7.478	-14.0832
-82.2719	-17.0778	-13.2787
-82.5114	-17.0594	-12.382
-92.7768	6.63854	-30.6962
-93.04	5.45796	-32.4663
-92.627	6.20332	-30.1306
-92.8944	7.38998	-30.9441
-93.0426	1.75731	-33.3358
-92.8743	0.62827	-31.9205
-92.803	3.55258	-31.3722
-93.1281	3.1074	-34.1512
-93.1048	0.0711996	-34.2627
-89.5019	9.04378	-18.6119
-88.8942	8.15527	-17.4828
-90.3784	9.17122	-21.2632
-91.397	9.07372	-24.5862
-90.9857	7.99799	-23.8913
-91.9525	10.3741	-25.4547
-92.5585	8.81173	-28.6832
-90.4375	6.72682	-23.0055
-91.8178	6.22849	-27.2158
-89.158	7.19373	-19.0992
-41.5251	26.2986	73.3945
-38.4241	27.1223	74.3119
-44.2114	25.1866	72.0581
-24.5156	-97.9649	65.6659
-26.7894	-96.7951	65.2207
-23.1243	-98.555	62.0498
-49.3383	19.7821	66.0511
-50.2778	18.1167	64.4373
-48.0735	21.8644	68.256
-52.3077	21.9407	64.957
-50.5799	24.3701	67.5951
-53.9988	22.8802	63.6604
-53.004	19.0723	62.9273
-50.9304	21.0712	65.7416
-73.336	-48.9534	-5.71937
-72.57	-51.1945	-6.2386
-73.7954	-47.3998	-4.20158
-74.0852	-47.2301	-10.1802
-20.3245	15.0509	70.6864
-20.6367	14.4185	70.6195
-20.5274	16.0592	70.7754
-18.6713	17.4901	71.8573
-19.939	19.5605	72.3007
-18.1928	15.869	71.8597
-8.02335	16.3442	80.0786
-7.94776	18.4532	79.8072
-7.44489	16.3903	80.7049
-21.5595	-55.8332	85.8493
-18.1152	-55.2552	88.8011
-21.937	-55.5795	86.2091
-22.4684	-56.2023	84.1254
-64.5447	-71.9047	-11.6345
-65.6084	-69.2773	-12.1774
-63.6886	-74.6171	-13.4448
-63.868	-72.0378	-6.41432
-79.1139	-4.9832	0.627748
-78.4074	-12.3498	3.22036
-77.9362	-3.95374	5.18137
-79.7761	2.88581	-2.88559
-80.0414	-5.74367	-2.11019
-64.4658	-74.5819	-24.4408
-63.8021	-76.9395	-19.9323
-65.3821	-70.1618	-24.8404
-63.7787	-76.8108	-26.067
-60.6804	-110.094	-29.2415
-60.8734	-118.539	-30.4759
-60.6411	-112.708	-23.2249
-60.6489	-101.123	-29.3119
-59.3847	-106.401	-36.784
-28.6401	-57.4342	79.9148
-26.8362	-57.9532	81.4521
-28.4801	-57.2876	79.9524
-28.7761	-57.5745	79.8728
-30.3726	-57.0544	79.2459
-29.5378	-58.3688	79.7097
-23.1671	-58.9507	85.4062
-19.4446	-58.7732	88.9443
-23.4199	-58.6159	85.0238
-28.6227	-95.6412	64.8894
-28.9822	-94.4664	68.1077
-31.9172	-93.8387	58.6849
-48.4362	-60.9364	-67.3618
-47.4571	-64.0598	-67.1648
-51.08	-59.9904	-63.7232
-47.1929	-57.034	-71.2686
-53.4791	80.6218	33.9584
-54.1836	76.569	36.9345
-49.5924	83.7593	36.5865
-55.5781	82.5908	26.9735
-89.6711	-19.5153	-34.2031
-90.9372	-14.4249	-36.9454
-89.0451	-19.5598	-35.4433
-88.5697	-23.7467	-31.7294
-90.1904	-18.7078	-33.1725
-83.9892	0.700558	-8.69945
-83.2458	-3.65735	-7.60338
-82.7107	0.878433	-7.95115
-84.7178	5.0516	-10.2761
-84.9862	0.609155	-9.37809
-82.1389	-20.8619	-8.71955
-81.7121	-21.5585	-7.66737
-82.0853	-19.1714	-8.32751
-82.4941	-21.0979	-10.3168
-82.627	-23.4903	-10.0854
-82.2137	-27.3644	-9.33685
-81.6371	-24.525	-7.99213
-83.0109	-27.0534	-10.7058
-91.8973	-8.62238	-39.258
-92.3663	-8.63239	-38.4006
-92.4959	-2.41552	-40.2023
-91.1197	-8.62065	-40.0731
