1932
-76.3787	-21.9394	-6.63423
-77.0007	-19.5837	-7.40046
-77.3785	-21.3881	-9.32678
-77.3116	-23.7396	-8.99398
-76.5251	-27.5602	-8.03798
-76.071	-24.8294	-6.81905
-77.4614	-27.2174	-9.4376
-89.1775	-8.59432	-38.5876
-89.6064	-8.6207	-37.741
-90.0845	-2.4507	-39.6394
-88.4388	-8.58149	-39.3868
-87.4613	-8.44248	-40.0367
-86.372	-13.9759	-38.0857
-88.1803	-2.45159	-40.9081
-86.4358	-8.2192	-40.3959
-78.3763	4.09492	-9.01734
-78.278	2.43113	-7.85681
-78.2018	5.09898	-8.70418
-78.8264	6.39245	-10.8252
-83.0823	-17.571	-37.4264
-81.4094	-17.0247	-38.1944
-81.7669	-21.4713	-35.5272
-84.1111	-18.164	-36.732
-84.0298	-13.1897	-39.2277
-84.4019	-25.0573	-25.8515
-85.2474	-21.9558	-28.2881
-84.3025	-25.9579	-27.0498
-83.8014	-27.0519	-23.7122
-81.3056	-33.5788	-23.8685
-82.7066	-30.9817	-22.4333
-82.5677	-30.3956	-26.5567
-79.9546	-34.9179	-24.9167
-80.4529	-35.45	-21.0112
-81.6907	-32.0733	-17.1522
-81.2185	-31.4536	-15.7816
-82.3475	-30.9173	-18.801
-81.1105	-33.7703	-17.4684
-70.1969	-42.3847	-13.0796
-69.9484	-41.5888	-8.72958
-71.4381	-41.459	-14.7787
-69.6605	-43.2964	-13.5704
-75.737	-38.6487	-13.9198
-75.9148	-39.5802	-16.4804
-74.2676	-39.7319	-14.3335
-75.4808	-37.0655	-11.2891
-77.2737	-37.362	-13.7179
-84.7934	6.58511	-11.3687
-85.1148	6.56652	-11.73
-83.1794	3.06419	-10.5329
-84.909	8.07883	-11.4787
-84.9414	9.00308	-11.7133
-84.5772	8.97213	-11.7165
-86.5199	12.3659	-13.6346
-91.3958	5.65375	-35.0107
-91.3613	7.16039	-33.4941
-91.5283	5.02145	-35.8845
-91.1328	4.63281	-34.7381
-85.9075	7.65062	-13.4514
-86.5184	9.27237	-14.4255
-85.3793	6.08721	-13.6996
-85.7462	7.41072	-12.9137
-85.3115	6.52795	-12.1038
-86.6494	10.8118	-13.5574
-84.3088	3.36056	-12.0216
-88.8019	-9.60045	-31.3156
-87.299	-13.1575	-30.2662
-89.607	-6.65878	-31.624
-86.0056	6.99724	-16.9053
-85.5472	6.17118	-15.7354
-85.0231	4.54786	-15.2118
-84.9111	4.37827	-14.7442
-80.0856	-9.88567	-10.8756
-81.4682	-5.53844	-10.9871
-78.6931	-14.5167	-10.8681
-79.8655	-9.91242	-9.77455
-84.09	0.266843	-14.9765
-84.4193	1.98896	-14.3946
-84.3629	0.0300853	-16.7433
-50.759	-57.3184	-60.4524
-51.9962	-57.5206	-57.7385
-51.1805	-52.7762	-63.0597
-22.5878	-17.146	87.2964
-21.4966	-16.7117	87.6484
-22.955	-14.7274	87.6269
-24.4697	-23.4134	86.5716
-19.2435	-14.9554	88.8424
-18.3615	-15.7018	89.54
-19.6219	-10.7833	89.4475
-19.7218	-16.3118	88.3809
-53.8765	39.3416	67.3242
-54.0906	37.3922	67.5161
-48.5025	42.298	72.6058
-53.8902	40.9988	66.5752
-57.6522	34.5072	61.9652
-5.80644	-19.384	96.4823
-6.08273	-18.576	97.0222
-6.48167	-20.2171	95.449
-4.67449	-19.685	97.2095
-6.45266	-17.5503	97.9201
-7.51861	-16.9925	97.6895
-5.30115	-17.3208	99.5577
-46.5195	17.4437	63.7822
-46.147	18.0897	64.1143
-15.1439	-6.84065	96.2872
-14.0432	-6.18958	97.3973
-15.5162	-6.79883	95.7573
-15.3543	-7.79691	96.1565
-65.4409	76.7959	14.6275
-67.2558	77.4381	4.92066
-66.0748	72.1687	19.15
-63.1962	80.3367	15.8658
-25.7912	-62.6142	77.6287
-24.858	-62.2253	79.131
-26.1673	-63.7765	76.5973
-26.2469	-60.6162	76.9184
-25.3542	-50.462	77.2743
-26.0328	-52.8433	76.6969
-25.4602	-48.8307	76.3627
-24.1216	-50.1816	79.1199
-8.98062	-16.6693	97.0014
-9.6583	-15.2974	97.7561
-10.2192	-17.9504	95.1475
8.74708	-17.5864	97.773
7.90912	-17.3529	99.5053
8.32374	-18.5361	96.8569
7.96937	-19.316	96.3056
6.91663	-19.8164	97.019
-7.11133	-21.1099	94.5768
-8.36183	-21.2563	93.8935
-6.89306	-21.9966	94.4131
75.8178	-35.3288	-26.0565
73.9943	-35.903	-25.8127
76.6886	-32.1199	-28.7454
76.9745	-35.6787	-25.4375
74.3107	-38.67	-22.5712
62.5801	-48.7914	13.0797
61.1512	-50.5233	20.9675
61.4734	-53.2626	11.9195
64.1552	-46.7333	6.15881
63.634	-44.0532	14.2407
54.5149	-115.091	-5.95706
53.5459	-104.927	-5.17228
51.9264	-116.093	-1.49226
55.9075	-125.386	-7.44478
56.5714	-113.878	-10.5424
57.12	-132.869	-8.96093
58.1388	-138.759	-10.3835
58.8186	-131.093	-13.6436
54.8129	-134.699	-4.32667
47.2344	-99.3211	5.4557
47.4708	-93.5561	6.59462
43.9277	-100.706	10.3379
47.639	-106.844	4.29041
50.4566	-98.386	0.23241
56.8185	-96.6603	-13.5203
57.1652	-103.509	-14.1378
57.8849	-95.4043	-18.8497
56.7291	-91.3388	-13.0889
55.2036	-97.1604	-9.0001
55.396	-68.1359	23.5351
56.669	-64.5155	25.1089
53.649	-70.0702	30.7252
53.9216	-71.7071	21.56
56.5737	-66.7045	16.1324
70.4948	31.4848	23.7146
71.6437	39.5943	19.4567
66.9502	34.5115	34.608
69.6237	23.7305	26.5739
73.7024	29.9595	12.0812
77.0697	42.0746	-28.6653
76.6004	39.0436	-38.3085
75.7598	49.1649	-33.7604
77.3448	43.8192	-18.0966
77.8984	34.6162	-23.9059
4.73352	-110.226	43.6909
1.84891	-110.14	44.3752
6.23739	-117.997	40.5767
8.36089	-110.15	42.5439
4.74059	-106.492	46.6391
8.28273	-129.83	35.6413
9.79223	-141.424	31.0239
11.6833	-128.919	34.3104
5.17915	-130.004	36.6759
3.54257	-149.913	29.7057
7.05735	-149.587	29.2163
3.0808	-142.062	32.4657
0.161302	-149.897	29.8959
4.00688	-155.153	28.0367
62.7188	-53.5983	-31.6516
65.0347	-47.6866	-29.436
61.8197	-59.9692	-26.3308
60.3435	-59.5207	-33.9158
63.8283	-46.0381	-35.9177
65.0192	-40.6236	-39.0263
61.5739	-46.2788	-42.3416
66.1572	-35.8925	-41.5349
67.9805	-36.1091	-35.9252
59.7766	-124.235	-29.957
60.1124	-130.844	-32.3633
58.3697	-121.443	-36.734
60.2647	-127.307	-23.5443
2.30671	-130.304	37.1845
0.890799	-118.328	42.0126
-0.412898	-130.26	37.3703
59.8802	-51.6109	28.2888
60.994	-46.1736	28.6989
58.489	-52.0162	34.8809
58.839	-56.4661	27.3859
57.8189	-65.125	8.46094
56.4969	-68.7764	6.9002
59.0517	-64.1562	0.532449
59.1344	-61.2612	9.65602
11.2895	-100.195	83.6945
7.61362	-100.803	84.8823
11.0306	-103.853	81.0321
15.3106	-98.919	82.1305
11.3715	-94.9691	86.0216
19.0838	-96.7679	80.3882
18.7797	-100.859	78.0189
23.1651	-94.4967	77.4543
19.1344	-91.8787	82.2526
4.14117	-90.2133	89.6069
7.35367	-90.0182	88.8846
3.96774	-85.0704	90.468
1.26643	-90.1004	89.9257
4.47051	-95.7733	88.0328
11.0542	-105.807	78.3229
11.1312	-106.8	75.2385
14.7275	-104.971	77.075
7.71771	-106.122	79.4441
11.0222	-106.999	71.2599
7.42026	-107.416	71.9771
10.6946	-106.338	66.566
16.3053	6.26113	82.7775
16.9036	3.87039	85.2976
18.2687	5.48235	81.9482
15.626	8.67818	80.1994
14.2009	7.54692	84.0028
46.2853	-23.1634	72.6525
52.4434	-25.9555	63.9512
45.6075	-15.6749	74.4169
39.4394	-19.8628	79.7888
46.495	-29.5889	71.2655
58.0114	-16.1917	56.58
61.3729	-16.8326	49.6578
57.1067	-9.46811	58.9018
51.8874	-11.6464	66.8784
57.8836	-22.2463	55.6712
65.2884	1.51256	41.0612
66.6046	0.246754	36.7491
65.1852	9.00832	40.6544
63.71	3.36593	44.8946
46.3715	-35.496	69.4639
45.8554	-40.9095	68.1502
51.2061	-37.037	61.7976
40.8739	-33.6242	76.4675
3.22257	6.9884	98.425
2.80709	10.9488	94.607
1.45382	7.19019	98.5377
3.47599	3.74949	102.073
5.17064	6.5947	97.8017
33.209	69.7365	70.4895
27.797	70.6017	72.6186
32.8497	63.3836	74.4092
38.8254	68.2753	67.6469
33.7176	75.6027	66.3563
2.94823	-105.852	62.2265
1.77517	-104.638	56.4119
5.88345	-105.729	61.7643
3.66124	-107.016	67.8411
0.142426	-105.798	62.405
56.855	-51.6189	41.1126
54.7254	-50.8817	47.4255
55.2807	-57.7159	41.0397
58.1992	-45.5562	41.3714
4.63622	-106.186	80.246
4.61161	-104.416	82.8606
1.80108	-106.021	80.7358
4.63375	-107.33	76.6288
4.2346	-107.567	72.4595
1.20733	-107.521	72.7155
35.6794	-89.6831	58.3886
31.2761	-94.0807	63.6335
34.7063	-92.0512	55.775
39.7941	-84.9676	53.8399
36.1431	-86.5647	61.5135
38.8824	-90.1946	36.0276
36.562	-93.4659	32.4003
42.5642	-87.0182	31.0749
40.85	-87.4846	39.5977
34.419	-93.7444	40.8898
0.241272	-104.344	51.1463
2.83747	-104.602	50.5592
-2.18831	-104.14	51.2656
-1.07281	-105.838	47.4685
8.12088	0.395475	102.838
8.67408	-2.12943	105.33
10.8724	-0.149771	100.153
7.84498	2.99967	99.7659
5.78109	0.576078	104.673
24.4435	-9.82816	87.0176
27.0172	-12.0112	86.104
23.4194	-4.44586	87.1223
22.4334	-7.51621	88.067
25.4083	-55.6125	82.4248
27.2833	-55.4896	81.5106
13.2605	-18.914	92.8156
14.9215	-16.9546	93.1057
12.5546	-20.1685	92.3899
15.0702	-19.1224	91.3153
12.5132	-23.7997	91.29
12.9044	-24.9652	91.3861
14.9129	-23.6874	89.6274
12.4465	-22.9002	91.3141
10.4394	-23.5412	92.6933
2.90451	-21.0288	100.09
2.98384	-19.95	101.866
1.50911	-21.2336	100.237
2.95516	-22.2471	98.7234
4.72041	-20.3184	99.3267
17.2771	-22.8995	88.256
19.4152	-21.3087	87.2859
16.9667	-21.9527	88.4923
17.6203	-24.044	88.2936
9.14903	-10.6636	107.738
6.57184	-12.1777	110.248
8.83999	-12.5337	106.62
11.7686	-9.20214	104.06
9.31009	-8.97054	108.185
24.6353	-71.9017	82.222
27.285	-68.7948	80.3539
23.3624	-68.1917	84.2582
21.2676	-74.3829	84.6532
25.7284	-76.2213	80.1948
26.2601	-47.0927	85.0137
26.0768	-41.3713	86.6269
24.4298	-44.9715	87.1422
27.9998	-48.7284	83.3434
3.02498	-27.7317	96.7907
2.91145	-30.2791	96.958
4.5018	-27.2014	96.4658
3.01928	-25.4074	97.1064
1.3031	-28.1534	96.9441
7.42426	5.83993	96.5769
10.0263	4.67211	94.6562
7.15419	9.08941	93.1328
19.5804	-8.49281	91.4468
18.792	-6.33748	92.8304
18.9974	-7.39027	92.8773
19.7519	-10.5818	90.8027
19.9848	-8.17195	90.6165
5.70322	-22.667	96.4365
5.60952	-24.631	96.0427
7.00885	-22.7632	95.3387
5.85961	-21.2373	97.0398
4.5405	-22.9058	97.2482
5.95315	-20.0029	98.1201
6.14625	-18.8357	99.64
18.1886	-6.24296	94.3307
17.8927	-5.46917	94.5707
18.683	-8.07998	93.722
19.4387	-14.2974	89.6664
19.0183	-12.3533	91.4248
18.4083	-17.8913	88.9463
2.31287	-37.866	99.3062
2.49772	-39.6852	100.019
4.55672	-37.0831	98.9534
2.32222	-35.4241	98.3118
-0.0614297	-38.4839	99.5327
22.6225	-25.9844	86.5463
20.4645	-25.757	87.5044
23.8226	-30.6422	87.4095
24.8083	-26.4029	85.8244
21.7753	-21.9694	86.3076
10.1124	-72.8803	92.5382
10.0614	-70.5227	93.9617
6.62226	-73.6615	93.2373
10.2038	-75.9113	91.0761
13.7131	-71.8938	91.2726
21.9121	-47.9612	87.9965
22.1186	-49.2188	87.2717
23.8706	-50.8816	84.9126
22.2288	-45.2454	88.912
17.661	-4.96725	94.3653
17.7129	-4.43679	93.2881
16.2182	-4.05622	96.2271
16.981	-70.5111	89.6699
17.2668	-73.0381	88.3344
19.8471	-68.5078	87.8755
16.7047	-68.5893	90.8625
3.69548	-74.0891	93.523
0.958758	-74.1816	93.6647
3.89608	-76.686	92.2957
3.43005	-71.9796	94.9036
59.6484	28.2309	57.2087
58.7492	27.4768	59.0435
60.828	22.0705	52.0519
60.3918	29.3666	55.1399
43.3048	55.1572	71.3986
37.6764	56.4791	75.3717
43.0471	50.2734	74.4632
48.9651	52.7021	66.8012
44.1377	60.487	67.6468
54.2303	49.3531	61.1271
53.7006	45.1137	64.5987
59.0546	44.8206	53.8239
55.0773	54.6688	56.8514
43.4255	43.2277	77.1357
43.233	45.361	76.704
38.1395	43.4951	81.4371
43.7868	41.0247	77.0359
61.5343	30.6701	51.6442
62.3441	33.7794	48.5393
57.9586	37.5495	60.2404
63.5576	24.1959	45.1509
25.9728	29.0587	81.2952
25.7724	27.7186	79.2605
29.9934	30.1655	80.6015
25.7641	30.6716	83.5273
22.0146	27.9791	81.3833
6.85824	17.7745	85.5755
9.30552	15.6313	83.6248
6.89563	19.4287	84.5949
4.34708	19.3565	86.8969
6.81632	15.5667	87.2081
27.6906	3.94337	81.6195
29.0342	1.31167	83.1053
33.9215	3.39986	80.1191
26.3292	6.73051	80.0482
22.7706	4.39146	81.9755
57.3234	7.09481	55.0094
59.4872	5.48057	52.266
58.0056	11.2276	53.9306
54.8777	9.24083	57.588
55.1826	5.0138	58.2956
6.95495	12.5758	89.7442
9.55979	10.7255	88.039
4.47064	14.0044	90.8354
44.0178	38.963	76.7982
48.3242	37.9674	73.6329
39.2164	37.8974	79.9301
43.8074	36.7384	76.5044
52.354	35.6119	69.8784
51.6825	33.6217	70.211
55.7742	31.605	65.2718
54.2892	16.3174	58.9678
54.4144	19.9662	60.6541
51.9706	16.596	60.9394
53.8425	13.2381	58.5241
56.1092	16.1056	57.0794
41.7613	20.8009	69.542
43.1403	19.9871	68.1656
40.1692	21.3151	70.692
38.2924	21.82	71.5234
36.0608	22.4212	72.0468
38.4914	22.463	71.8672
35.8832	23.0896	72.4534
40.6381	22.0316	71.0057
33.2706	22.8625	72.2883
30.4175	22.8399	72.2474
32.9536	23.4469	72.6568
29.8911	23.2742	72.5182
27.5219	22.2831	71.8054
24.7955	21.5202	71.4133
21.8681	20.3836	70.8722
19.2247	19.6895	70.9174
20.7047	20.6224	71.1125
18.3432	19.9914	71.2586
23.5542	21.7032	71.5565
17.5739	19.0118	71.0755
19.6358	20.7814	71.5243
22.6164	22.099	72.0444
32.769	24.2621	73.2954
29.495	23.9154	73.0696
46.3449	16.6941	64.8293
46.7201	17.3561	64.6355
45.1379	16.5963	65.767
34.097	31.6792	79.6525
38.6329	33.3856	78.2574
34.3824	33.3698	80.9105
33.5744	29.7654	78.2506
47.295	26.6043	70.4289
45.3123	24.4557	70.4258
49.2304	29.0537	70.3934
44.153	27.5578	72.6547
35.4131	14.3128	75.0431
41.0748	13.9669	71.4268
29.0493	14.2388	76.749
35.9407	13.6576	75.1437
23.1063	13.8795	76.0945
19.361	14.1183	74.7576
23.1083	12.9041	76.6795
16.5756	15.8935	73.292
16.1708	16.5601	72.8319
17.141	15.3372	73.7005
34.4612	15.6394	73.9329
39.3371	15.5253	71.6158
29.274	15.5866	75.0367
18.393	16.1785	72.5868
20.0256	15.6958	73.3988
17.7262	16.5135	72.1492
17.3075	16.7697	71.9131
16.9146	17.0999	71.7664
14.4618	21.7209	75.9203
13.7811	23.1357	77.9267
15.1133	20.1871	73.7672
15.9489	22.6974	75.7455
15.9472	17.4563	72.4361
25.9258	23.1762	72.5678
15.6101	19.5749	72.7583
15.2251	18.6628	72.9613
16.4877	20.4673	72.6501
34.3636	16.127	73.3548
29.2717	16.0215	74.3234
18.4519	16.6985	71.8129
17.847	16.8697	71.5821
20.1648	16.4819	72.4087
17.4278	17.1093	71.3966
43.9843	19.0931	66.8801
3.4045	30.3106	86.3947
0.627345	30.9802	86.5463
2.96487	28.6962	85.9557
6.20867	29.339	85.9053
4.19013	32.3931	86.9734
18.0714	9.01694	77.8147
17.6882	10.5818	76.6657
16.9627	9.56781	77.7486
18.7916	7.24124	79.4647
20.3572	8.59289	78.1954
15.4662	10.4384	78.3374
13.6828	11.7749	79.5574
15.1839	15.0219	74.9678
13.9912	15.3051	76.2051
15.212	16.4159	73.8996
10.7764	21.5525	79.6805
11.7528	22.8391	79.4073
10.0634	22.3348	80.7599
17.8228	14.7177	74.1236
17.5672	13.6195	74.945
17.589	12.1267	75.7743
19.3148	11.4898	76.2508
18.3811	-52.3996	86.8458
18.3675	-52.3719	86.6664
20.8763	-52.9087	84.3926
15.8498	-51.9195	89.1897
22.4558	-53.4237	83.0875
22.2336	-53.3139	83.0481
2.75446	-43.1529	100.412
5.24965	-42.8189	99.9477
2.67155	-41.777	100.481
-0.128367	-43.6312	100.573
2.75407	-44.8665	100.091
7.72127	-46.4566	98.1213
7.67218	-44.5079	98.8368
5.38988	-46.4719	98.9397
7.56803	-48.5303	97.1576
10.0832	-46.4628	97.0385
12.5671	-45.982	95.8205
12.5468	-44.1723	96.5534
12.6184	-48.1675	94.6493
15.3884	-46.1989	93.8835
7.55073	-42.7589	99.2769
9.8919	-42.6356	98.345
7.44171	-41.2702	99.478
11.416	-39.8966	97.8506
12.1319	-41.0287	97.498
11.0509	-38.7984	97.8811
9.02683	-40.0973	98.9045
18.556	-48.5714	90.2139
18.458	-46.1711	91.7225
7.13951	-50.614	95.9
4.67431	-50.5486	96.8611
6.80045	-51.7536	94.8912
9.9564	-50.4012	94.6966
12.83	-50.3378	93.0008
12.822	-51.4663	91.8609
23.2003	-51.6613	84.8284
18.6301	-53.5386	87.4323
18.5742	-53.4643	87.2313
16.0932	-53.7595	90.0079
18.722	-53.8434	87.7364
19.4354	-55.8056	88.2734
19.1705	-55.0932	88.2075
17.4442	-57.8729	91.2433
14.9097	-59.0875	93.7968
14.5519	-57.7396	93.559
12.0523	-59.8948	95.8096
15.3895	-60.3268	93.7682
7.66265	-57.0977	96.6289
8.18993	-59.1043	97.2104
11.0298	-56.6729	95.1294
7.23668	-55.1724	95.8775
4.65031	-57.6101	97.5688
2.5056	-62.1864	99.0382
2.65345	-63.721	99.1714
5.34416	-61.528	98.5871
2.34342	-60.3752	98.6893
-0.0665264	-62.4956	99.1666
22.6834	-55.2941	82.153
22.5605	-54.4166	82.9504
22.6773	-57.1723	81.2954
21.0563	-54.9287	83.8767
1.89164	-55.5638	93.2735
1.90395	-54.5831	94.7325
4.09987	-55.4578	92.9737
1.87423	-57.7842	91.7132
-0.091656	-55.6489	93.3204
2.78335	-65.0433	99.1045
-0.00604849	-65.4142	99.1914
2.90553	-66.1947	98.8493
5.852	-64.1488	98.7307
3.19859	-70.037	96.4035
6.41276	-69.2107	96.2303
3.0806	-68.3813	97.6734
0.35896	-70.3482	96.4136
7.17525	-40.2962	99.4989
6.49373	-38.9194	99.3734
5.07597	-40.2039	99.9437
2.19582	-58.125	98.0554
-0.0975897	-58.3281	98.1934
2.03714	-55.9496	97.2361
1.94529	-54.8616	96.6086
4.22781	-54.5567	96.1724
1.99594	-54.4832	96.1768
-0.108857	-55.0843	96.7567
7.04416	-54.2637	95.3359
10.1705	-54.0264	93.9902
6.95101	-53.9774	94.9641
2.02042	-54.365	95.6769
4.17735	-54.1561	95.3172
-0.116782	-54.5007	95.6802
13.1364	-53.74	92.235
13.0413	-53.4825	91.9031
13.5174	-54.6153	92.669
16.1174	-64.0592	93.2429
16.33	-65.3515	92.6634
15.9287	-62.8722	93.5669
13.3463	-64.9842	95.1829
9.78337	-65.4928	97.0571
9.98013	-66.7164	96.3792
9.58703	-64.4856	97.4228
6.2215	-66.2345	98.1256
2.98248	-67.2171	98.4152
0.109816	-67.6052	98.4464
12.8477	-51.6739	91.3734
9.79587	-51.7726	93.0917
12.7907	-51.6273	91.0075
25.3146	-54.1384	82.5872
24.2974	-54.367	82.8418
22.5302	-54.0068	83.7154
21.1046	-54.0436	85.2822
6.89206	-55.0969	92.4192
6.86694	-54.1598	93.6714
9.9558	-54.6341	91.4449
6.94142	-57.1775	90.9792
6.87186	-53.9079	94.4829
9.9569	-53.6473	93.1684
10.0453	-68.4335	95.3162
13.6027	-67.7658	93.692
15.6625	-61.6304	93.7546
12.8364	-62.6168	95.8081
16.5089	-66.9419	91.8327
19.0183	-65.1732	89.8873
12.3886	-51.1633	90.5702
9.62777	-51.1578	91.8181
11.6157	-49.2384	89.5785
15.1572	-51.4047	88.847
6.7486	-51.3986	92.768
4.39234	-51.5537	93.1494
7.02161	-49.5012	91.1553
6.68212	-51.9446	93.6979
10.9515	-44.8108	88.4275
8.8923	-44.9085	89.152
11.0725	-40.2442	87.674
13.145	-45.0617	87.4075
22.8149	-61.1878	80.2936
22.9326	-65.7321	79.609
21.0635	-61.1497	82.0683
1.95288	-61.9155	90.5376
4.14408	-61.7864	90.2747
2.48448	-66.651	89.9798
0.107778	-61.9807	90.6031
6.90034	-45.3716	89.6851
4.77669	-45.8338	90.029
6.77894	-40.679	88.8153
6.96243	-61.4817	89.6747
7.40067	-66.4927	88.9797
10.0101	-61.2972	88.6859
25.7338	-55.6724	75.3085
26.2098	-55.6471	74.0541
12.1289	16.4967	78.2314
11.6907	15.1542	79.8745
77.971	-8.78278	-43.1666
77.0508	-13.2097	-42.3807
76.2991	-8.11587	-46.5335
78.7647	-4.16668	-43.1876
79.3464	-9.31607	-41.4532
76.9723	9.35549	-6.19422
77.6462	12.3318	-10.4046
75.9625	11.4313	-1.3934
78.0005	14.5428	-15.5828
78.0247	20.0906	-16.886
78.1961	9.48985	-16.5937
78.7852	14.1837	-22.536
70.5202	-33.2006	-33.6242
72.9043	-30.9771	-32.0094
69.1735	-37.4	-30.9896
71.9575	-29.2915	-35.5009
73.2372	-25.6167	-37.6235
70.749	-27.541	-40.4739
74.6309	-21.6259	-39.4964
75.4112	-24.4711	-35.7749
80.7579	-9.26716	-40.5696
82.3202	-8.73939	-40.1968
79.9685	-13.4471	-39.625
81.3202	-4.24017	-40.7954
81.489	-27.6169	-30.4806
82.9089	-23.5481	-32.599
82.1057	-28.0648	-29.2815
79.9577	-31.6452	-27.9152
86.4789	-17.8485	-30.7079
86.447	-17.2994	-29.926
73.6122	-40.3965	-19.4604
74.0209	-40.622	-18.7677
72.9639	-41.0902	-17.4164
72.9401	-39.4647	-21.6039
73.9456	-33.351	-7.02658
73.5666	-33.9778	-6.97036
73.0834	-34.9697	-7.16923
86.3804	-16.9308	-29.5153
85.7766	-17.5391	-28.551
90.1621	-2.22783	-33.48
90.3225	-1.57274	-34.9877
89.923	-3.55443	-31.8352
90.7722	8.01717	-31.0878
91.1128	9.38302	-31.2069
91.2938	11.4737	-30.1873
90.6335	11.2684	-27.983
91.5131	11.9454	-30.5899
90.9302	13.5242	-27.1169
78.7711	-10.2491	-7.81777
80.4642	-4.71648	-8.4779
78.22	-9.53467	-6.49266
77.498	-14.3553	-7.17653
71.9407	-26.6553	-0.492894
70.8123	-27.1709	2.27247
71.1512	-30.4107	-0.931535
72.771	-22.3204	-0.052697
76.7396	-21.4593	-9.64429
76.9883	-23.5082	-10.1486
76.8639	-19.4605	-9.80783
78.1658	8.9819	-16.579
78.7297	10.3426	-20.0547
78.1962	8.97957	-16.3851
86.9452	16.685	-17.2246
88.1314	18.4243	-20.3644
86.1199	17.0878	-18.3751
85.212	13.4958	-14.2637
87.6778	15.9735	-16.2538
87.8322	19.1233	-25.3632
86.9141	18.8411	-22.3534
88.1263	19.2544	-24.8825
88.3942	17.8731	-29.0151
86.9634	18.0523	-26.7052
88.5111	3.78765	-39.5526
87.6908	3.30966	-39.7319
88.9949	9.77069	-36.7324
89.5589	4.03454	-39.0269
81.7517	-0.044686	-9.12125
81.9926	-1.29034	-9.76991
91.181	3.13734	-36.5073
91.7695	8.28209	-34.3015
90.75	0.317909	-36.6717
91.2436	3.04754	-36.8808
90.3073	14.3775	-23.1612
89.1984	13.7783	-19.1803
90.0543	13.0261	-23.8909
90.4338	15.3691	-22.5588
83.4134	0.78745	-11.9128
82.7123	-1.00473	-11.3188
84.1555	3.14449	-12.6507
90.6332	3.79484	-33.7889
90.7165	1.7426	-35.6242
87.5892	6.32253	-22.2321
87.0008	4.95958	-21.4534
89.0821	5.88745	-26.3881
81.0964	-6.04971	-13.0396
81.3051	-5.76204	-13.7483
81.6798	-4.42045	-11.9765
86.6512	-4.98941	-27.058
88.9428	-2.31142	-29.0011
86.3739	-4.55084	-26.4316
86.4834	-6.08904	-27.2074
73.5884	-18.3249	-0.132386
74.7051	-13.6995	-1.03074
72.6112	-18.6179	2.43361
81.7127	1.02097	-39.3475
80.6253	0.443302	-40.4713
81.679	5.70124	-37.2513
82.7591	3.53417	-38.4089
85.3215	8.52112	-35.7607
85.1247	12.2849	-32.5608
87.8564	13.1921	-33.888
85.4022	4.45105	-38.6385
86.5431	2.31944	-39.6862
85.1876	-3.22097	-40.4298
84.5455	-8.24801	-40.0311
77.144	-23.836	-34.944
75.9045	-26.9864	-33.0684
78.2277	-20.5732	-36.6729
79.1432	-17.1587	-38.3026
77.5255	-17.3978	-39.3143
85.1301	-17.4967	-27.5153
74.6649	-29.9352	-31.3041
73.2387	-33.5931	-28.8999
75.8824	-29.6274	-30.8731
72.8595	-37.4371	-24.2624
72.426	-37.4579	-24.5885
71.6935	-40.8914	-19.5897
72.5302	-40.8124	-14.6023
72.0138	-41.0667	-14.4548
71.4026	-41.2732	-14.1198
86.6886	-6.83094	-27.6818
88.8593	-5.41466	-29.8964
77.5972	-8.95496	-5.38041
76.8141	-8.58796	-4.13832
74.2538	-22.682	-3.62689
74.6135	-22.8361	-4.29826
77.3287	-27.021	-9.84014
78.2803	-29.0055	-11.4208
77.6428	-25.8952	-10.7256
76.664	-17.4029	-6.63004
77.2152	-17.486	-8.85583
84.7818	14.0844	-29.3744
82.2938	10.395	-32.1604
83.7346	14.676	-26.0406
81.3239	8.87087	-33.9483
80.9666	8.57484	-35.0152
80.6163	10.951	-29.6783
76.9762	-17.5106	-11.6616
77.1903	-17.4276	-10.7976
89.7463	4.94329	-28.7512
89.4882	3.4252	-28.4033
81.85	-5.02778	-15.1999
81.1057	-7.34542	-16.2182
83.0677	-3.74975	-17.8801
86.3596	-3.71304	-25.9334
88.394	-0.0657583	-27.1706
85.7178	-3.67615	-24.5448
7.48608	86.2558	66.0833
7.42633	78.9743	71.679
15.6228	85.3925	65.6587
7.76655	93.6014	58.8785
-0.889086	86.476	66.2494
7.25478	71.7035	76.2114
-1.0098	71.5454	76.5912
7.55928	63.726	80.1793
15.2699	71.4988	75.3825
32.0746	56.9839	78.2523
32.2416	51.4016	81.2459
27.5486	57.083	79.9307
3.06269	-18.945	104.139
3.42032	-17.797	106.402
1.73171	-19.0108	104.545
5.02764	-18.446	102.671
4.50324	-9.02518	112.062
6.77374	-8.39089	110.753
4.42513	-6.8358	111.488
2.44118	-9.32287	112.49
4.50367	-11.0909	112.063
4.38806	-13.0169	111.523
2.53769	-13.3983	111.848
4.1574	-14.7803	110.427
2.98274	-23.6105	97.7825
1.40366	-24.0622	97.8836
2.71152	-33.1178	97.5459
4.52178	-32.2121	97.2518
0.679413	-33.5781	97.6839
3.81302	-16.3525	108.723
6.07329	-15.6091	107.137
2.16542	-16.5617	109.102
4.2036	-4.67382	110.402
6.49145	-4.41671	109.175
3.95868	-2.19907	108.504
2.04313	-4.75078	110.774
7.18391	43.1338	87.1554
-0.0596382	44.7821	87.8263
6.66036	39.7961	87.5848
14.1525	42.4521	86.3761
7.42142	47.9388	86.0742
2.44264	20.1959	87.3543
2.43357	17.9245	88.8178
2.49469	22.0416	86.4174
0.998197	20.4894	87.4066
2.57787	23.6997	85.8471
4.53588	22.748	85.3609
2.64973	25.2195	85.5949
1.02697	23.9926	85.9628
2.10069	-51.5835	93.2297
-0.161386	-51.7109	93.3103
2.32947	-49.8299	91.7711
1.85708	-52.3975	94.6419
1.81362	-52.4678	95.4998
-0.144667	-52.6445	95.5567
3.93151	-52.2579	95.1066
1.91928	-52.1825	96.0479
2.73121	-46.6164	99.5254
2.58862	-48.4151	98.7142
-0.138173	-46.8881	99.6769
2.27675	-50.4856	97.4777
-0.126111	-50.7627	97.4863
2.65335	-40.8096	100.353
-0.132238	-41.4195	100.56
2.36342	-46.1859	90.2341
2.27517	-41.4325	89.0311
-0.183717	-46.524	90.3367
22.3293	84.3311	64.8148
22.1505	77.8353	69.9252
28.4896	82.8346	63.5704
22.7589	91.0708	58.0163
21.3778	43.7364	85.5077
21.4197	40.3806	86.0532
27.591	45.6462	84.7443
20.7305	48.6869	84.376
22.8286	36.9445	86.0615
24.4098	33.7454	85.5423
28.1603	38.934	85.3728
25.6183	31.9385	84.5995
21.4648	31.0048	85.5821
29.5974	33.7326	84.076
25.2221	23.6436	73.2203
25.1749	24.6537	74.5929
21.7041	22.5385	72.7401
29.1857	24.5711	73.7837
26.7102	22.6464	72.0497
25.1248	25.9346	76.5436
29.1658	26.8679	76.6363
21.5891	25.042	76.4286
46.7497	87.1561	41.6785
47.6188	92.4246	31.4727
41.037	90.7342	44.3487
46.4396	81.575	49.1046
34.0561	81.2508	61.6376
34.6292	87.1512	55.328
39.8605	79.1328	58.8387
32.6861	46.9213	83.3128
33.0422	44.8031	83.9189
37.6122	47.7736	80.6838
33.4986	36.2098	83.3149
33.9249	38.0679	83.6336
33.4231	41.6682	84.0515
32.7998	27.7675	76.452
32.6893	26.21	75.0322
37.0832	28.2247	75.6724
45.9047	76.4832	54.8486
51.7904	73.5686	49.6064
45.3285	71.4089	59.6176
43.2252	47.376	75.879
48.5528	45.5134	71.5417
39.4673	24.2836	72.7464
39.9399	25.8891	73.484
36.3373	24.9127	73.6205
42.0342	23.8689	71.6762
43.2805	34.3449	76.0213
42.1906	31.314	75.3315
47.2249	33.6164	73.4977
40.8691	28.1783	74.3343
44.6668	66.0648	63.8059
50.488	63.332	58.8104
57.0882	71.0945	42.7593
56.5101	65.782	47.919
61.6052	68.7642	34.5907
42.3308	21.4246	69.8049
43.7506	20.5306	68.3661
44.1817	23.1227	70.195
45.7213	21.8675	68.4785
43.0462	22.146	70.0527
50.7793	31.6709	70.3636
53.3897	28.187	66.6554
18.5176	26.8739	80.8472
15.5967	25.7516	80.1784
18.5311	25.6763	78.7605
18.1834	27.8664	82.4709
17.2722	29.0622	84.1227
14.1115	27.6079	83.2227
18.4025	23.8705	76.0148
18.4641	22.3945	73.835
6.0034	35.7413	87.5081
0.968283	37.7738	87.8212
59.9989	-64.8096	-7.18722
61.361	-59.8315	-5.49676
60.7663	-65.0285	-13.7299
77.9822	23.1114	-37.15
77.7379	19.2419	-42.8432
77.1528	28.8005	-41.8913
78.2555	25.3561	-29.0055
78.833	17.333	-31.9749
74.1392	-7.74438	-52.4273
72.9333	-13.7562	-50.8772
72.1408	-7.85852	-58.0596
75.26	-1.90981	-52.4774
76.0348	4.30426	-52.1182
74.3196	6.10892	-58.6174
76.7147	9.82631	-50.2668
77.8017	2.17046	-45.8464
67.458	-31.1196	-44.5509
64.4919	-34.433	-48.4075
69.4192	-25.3498	-47.0583
7.42499	55.7783	83.4962
-0.326147	55.5401	84.1171
14.9327	55.4951	82.7231
21.156	56.0791	81.5812
21.8252	63.9615	78.0381
18.9486	-102.904	56.251
16.984	-103.053	50.5356
24.7864	-99.9201	51.0172
13.5602	-104.498	59.3507
42.4042	-84.9798	42.9356
37.8852	-89.6284	47.8791
46.1368	-80.9949	38.1105
43.2227	-82.795	46.201
55.9406	60.1712	52.3717
60.6618	56.791	44.8092
21.9307	71.268	74.1494
66.0206	66.4086	24.8183
69.6499	64.3501	14.6885
65.7285	59.8701	30.5049
22.9702	98.7354	48.2757
29.3307	96.4538	47.6167
23.0651	106.001	36.3746
15.9335	100.367	48.813
63.3935	39.0431	44.4099
64.2221	46.1458	40.2751
46.2206	20.2538	66.8352
57.8024	26.6492	60.4439
58.016	20.9308	56.8756
56.3515	25.4961	61.9008
54.7595	24.2849	63.0234
-0.778464	-110.115	44.608
-3.02166	-109.945	44.592
51.1521	-72.0849	38.1465
52.096	-68.4115	40.2573
47.7502	-75.2978	44.4813
50.1644	-75.3989	35.2249
6.11845	-36.8265	98.7264
7.76078	-36.8	98.411
5.87716	-34.3886	97.8681
21.9151	-41.8736	89.6684
21.2152	-36.7975	90.6871
19.1638	-38.8279	92.609
9.4607	-31.6992	96.1301
7.32445	-31.7127	96.7261
9.78348	-34.1575	96.9605
11.9689	-31.5636	95.1432
9.07833	-29.142	95.2686
29.5507	-49.6763	81.9992
29.0484	-53.6848	81.0806
31.7025	-51.2747	79.9325
29.8357	-44.8825	83.1643
61.7956	15.8671	48.5503
60.039	15.7125	51.6932
62.0771	9.87669	47.6085
63.2635	16.3981	45.3227
64.7484	16.9747	41.5956
66.5584	16.7894	36.334
50.1165	16.9397	62.3832
49.9858	15.1619	61.9036
58.2827	15.6868	54.3757
79.8587	9.28259	-37.0445
79.7125	5.5364	-40.2334
78.6243	11.3684	-41.1252
79.9213	11.7816	-33.0684
75.8046	-17.6	-41.2397
73.8677	-18.0703	-44.4075
64.9207	-51.9572	-16.1827
66.5815	-47.7463	-13.9109
63.7924	-54.0978	-9.86703
63.0975	-57.413	-18.6314
66.0199	-48.485	-22.1915
79.343	0.859321	-42.232
69.6017	-28.1242	5.47776
68.619	-32.3257	4.97111
70.5864	-23.6983	5.75126
68.2487	-29.1005	9.90454
68.3679	-1.28029	29.6492
68.9481	7.17604	28.3008
67.5338	-9.09202	30.7863
70.2749	-2.52187	20.9462
52.9954	10.8836	59.2296
51.0422	12.6995	60.8815
50.8321	10.2779	61.547
49.2938	14.0925	62.3258
47.733	13.9624	63.8917
66.7491	-29.6904	16.2919
65.3722	-30.0373	23.1608
65.7056	-34.5561	15.6651
67.9698	-24.39	16.2719
22.3816	-0.441757	85.7939
25.449	-0.957329	85.1746
21.377	2.51961	83.9632
20.0542	0.353973	86.4469
30.0525	-2.36138	83.9889
36.6042	-5.11071	81.5193
31.1158	-7.85705	84.7149
17.6137	1.15093	87.613
15.0398	2.201	89.7211
18.1437	-1.42572	89.4058
20.9257	-7.4563	89.2522
19.7973	-5.14186	89.9273
17.5763	-9.02743	95.2437
16.349	-8.26075	97.1991
17.22	-11.5495	94.5882
18.232	-9.7889	94.0436
18.6116	-10.7699	92.8611
18.0036	-14.1073	91.9317
34.7602	-32.1717	81.3847
29.7572	-30.1466	84.5943
35.8795	-38.328	79.9662
33.5864	-25.1405	82.7973
32.0044	-15.9984	84.1275
5.66347	-26.9141	96.0189
5.80589	-29.3942	96.3767
6.91418	-27.0063	95.506
52.0431	-49.5425	54.0491
53.6194	-43.6093	54.1053
48.6837	-47.8881	60.872
50.293	-55.772	54.1147
24.9908	-35.7097	87.4528
22.762	-34.0625	89.0044
27.3199	-37.5172	86.1022
36.0665	-43.7244	78.2563
35.4297	-48.6919	77.4585
40.2679	-45.0307	73.593
32.3634	-41.5729	82.0581
5.85885	-31.7427	96.9688
48.3812	-62.1019	54.3412
50.8551	-63.7646	47.8694
45.2562	-59.3123	61.3664
45.8714	-67.7345	55.8953
56.9583	-27.6457	55.3863
56.0115	-32.8684	54.9403
59.8917	-28.0461	48.3523
26.5919	-98.0646	69.3074
27.2508	-95.2487	71.4212
22.0005	-101.168	73.1378
36.1683	-82.5687	64.7893
39.6196	-77.8162	61.5354
35.1018	-78.1259	68.8477
32.0761	-87.2772	68.8597
55.2776	-3.60995	60.6826
53.3598	1.71772	62.0158
48.4882	-0.330178	69.5947
45.0501	14.12	67.0921
46.109	12.7645	66.3881
51.4127	5.52048	62.9305
45.6157	7.35988	69.6022
49.0778	8.82577	64.3962
43.1244	15.8715	68.1628
4.54725	-101.084	85.5414
1.90268	-100.784	86.0083
41.8712	-56.7196	67.4831
40.159	-61.3664	68.2238
43.2876	-51.7741	67.3307
38.0452	-54.6805	72.9635
33.6979	-73.8563	72.3728
36.0739	-69.8912	70.7246
31.4765	-69.6239	76.0743
30.3829	-77.6122	75.0422
41.1753	1.97725	75.9476
42.6212	-2.34172	76.3187
40.066	5.70064	75.3858
44.7821	-46.3538	67.3824
44.056	-8.05767	75.5794
10.9599	-89.4735	87.6577
10.5177	-84.1234	88.8196
14.7814	-88.1939	86.0177
18.7092	-86.5615	83.8246
22.7112	-84.0813	81.1296
18.2373	-81.1845	85.2337
39.1385	8.44594	74.895
37.9082	10.8045	74.9167
31.8487	8.90132	78.2134
47.6301	10.8476	65.3088
43.1498	11.5506	70.468
36.8727	12.5497	74.9948
29.9736	12.5723	77.3879
12.5542	3.30827	92.3621
12.9526	1.15156	94.7026
12.226	6.07583	89.2937
14.042	-3.55796	99.6555
13.8567	-2.48874	98.6221
11.6469	-3.69291	103.443
14.3298	-4.39374	99.9778
11.6022	13.5375	81.4245
11.6602	11.5811	83.3884
20.0781	4.78686	81.9423
2.57247	14.7571	91.2786
0.99127	15.0774	91.2956
61.6419	4.12509	48.955
11.9359	8.95472	86.0821
53.2894	-63.9258	41.4505
55.9805	-62.265	33.8045
63.6352	-15.8607	43.6197
62.8096	-22.3352	42.7932
65.2418	-15.5768	37.5683
59.4316	-39.761	41.6418
60.6703	-33.9786	41.7637
57.6054	-38.9572	47.6821
60.8361	-40.464	35.5265
61.8064	-28.2346	42.1606
63.1565	-28.9032	36.0444
18.2472	-103.416	75.665
10.1962	-79.7541	89.8508
6.85844	-80.2772	90.7366
13.8795	-78.6084	88.5146
17.6776	-76.8911	86.705
24.5762	16.2401	73.4357
25.2097	8.58908	78.82
24.2391	10.3503	77.9686
23.5778	11.741	77.2614
3.92593	-80.4436	91.226
1.10028	-80.3972	91.4524
6.44725	25.3296	84.3828
7.95807	24.2738	83.285
7.22651	26.808	84.6291
4.68133	26.1877	85.1749
6.27867	23.603	84.2306
16.5655	17.5907	71.7154
16.4462	18.4536	71.5873
15.1558	17.4536	73.3355
9.1754	23.2522	82.0155
10.1826	24.7731	82.143
2.73307	26.8785	85.6159
0.869238	27.2443	85.7597
6.82407	-17.5661	101.23
7.54038	-16.2642	102.81
9.28915	-7.36862	108.215
9.27376	-5.72579	107.681
11.965	-6.05112	104.382
16.9526	-20.2273	89.0645
16.733	-18.7349	90.0712
14.651	-21.8552	90.0555
8.92297	-4.08223	106.934
6.75552	21.0255	84.11
8.53706	28.2889	85.0818
10.3284	27.2958	83.9861
16.9041	19.207	71.459
11.7972	26.3402	82.6697
12.7055	25.3528	81.1461
13.3027	24.3456	79.6721
18.44	-26.0047	88.6242
15.8971	-26.3133	90.2188
19.0364	-28.8843	89.6695
20.0562	-32.5008	90.3819
17.1579	-31.5534	92.2213
21.589	-52.7435	83.2486
21.2479	-51.3451	82.6199
19.8247	-52.3139	84.9115
22.1167	-50.0096	86.7375
20.586	-47.6751	89.3338
20.9392	-47.6993	81.3735
18.0759	-46.5234	84.014
20.7258	-43.2469	80.3174
13.5492	-26.7727	91.878
11.0109	-26.9694	93.4394
14.0107	-28.9578	92.8298
14.716	-31.4599	93.6878
15.2452	-34.0277	94.4524
17.7833	-51.9308	86.7401
16.4156	-49.8834	86.7238
15.4521	-45.438	85.9565
15.7239	-41.0108	84.9001
8.76251	-27.0361	94.6383
8.50221	-24.9488	94.2317
10.4826	-36.6986	97.5249
13.3514	-36.6179	96.2877
18.0338	-3.18336	91.1496
15.8248	-1.92641	93.7019
3.66799	0.633946	105.661
1.69483	0.728764	105.877
13.2965	-0.76357	96.9562
8.28887	-14.4163	105.006
10.6855	-13.2585	101.93
13.0915	-12.725	98.7596
13.8886	-10.3863	99.6254
15.24	-13.1062	95.8015
16.3346	-14.3597	93.7316
16.6684	-15.9	92.3079
16.6834	-17.3658	91.0925
14.374	-5.3296	100.364
14.3689	-6.57018	100.522
14.2481	-8.27181	100.292
37.8021	-142.715	14.5027
33.4016	-144.154	17.5605
39.1923	-148.807	13.2236
41.7684	-141.133	11.3508
35.9928	-134.421	16.3736
33.9047	-122.957	19.1035
37.838	-121.469	15.4777
32.6199	-113.021	21.6674
29.6914	-124.322	22.6487
34.7504	-97.0701	28.8074
38.6074	-94.6554	24.1202
30.6596	-99.3707	32.9806
33.6308	-101.227	25.6653
32.7779	-106.32	23.5487
28.4059	-107.796	27.9508
36.7136	-104.529	19.3149
38.4671	-65.7922	69.0081
40.9779	-69.2217	63.9124
35.3088	-62.5823	73.823
43.1602	-72.7964	58.0522
43.9412	-76.4548	53.4183
43.916	-79.805	49.5327
32.7069	-59.8891	77.0693
33.6623	-56.596	76.9387
30.2355	-57.7259	79.4507
31.1442	-62.8152	77.8653
28.5539	-56.438	80.7539
27.674	-58.3373	81.0771
42.0143	-92.2237	19.4753
43.5272	-88.2003	22.4015
41.0804	-96.9278	16.6987
45.1288	-90.2135	14.0182
45.4202	-84.5822	25.7491
47.7658	-82.5841	19.6813
47.3829	-81.219	28.8571
48.9294	-78.2924	32.2826
51.0283	-76.3033	25.7199
41.5479	-119.811	11.7097
43.5418	-131.253	9.62049
45.1372	-118.498	7.67426
40.3958	-109.835	13.5009
45.35	-139.605	8.04077
47.0265	-145.864	6.69143
48.7164	-138.093	4.39796
40.3828	-102.572	14.9619
64.2305	-29.6322	29.9165
63.13	-35.2299	29.4335
65.4412	-23.4568	30.3142
52.5319	-74.7967	19.2142
51.1052	-77.8059	16.2625
53.8643	-73.4145	12.1282
69.1886	16.0807	27.802
72.0071	14.0542	17.1478
57.766	-60.753	26.4009
59.0402	-59.217	18.8468
62.0238	-40.8034	29.1852
63.2033	-40.5456	22.3017
66.5701	-16.2607	31.0731
67.8875	-17.5975	23.4617
64.6258	-39.4315	15.169
66.2268	-37.8763	8.65909
52.8867	-87.2754	-2.41632
52.8743	-92.1781	-3.65773
54.9742	-86.8939	-7.39616
53.0874	-82.9766	-0.886716
50.5461	-87.8499	2.69866
53.0282	-97.6829	-4.39439
53.5788	-79.0197	1.30047
51.6738	-79.9321	6.99762
55.4321	-78.3482	-4.49752
54.2863	-75.4748	3.30177
72.0612	-3.44704	12.4113
73.2609	4.57176	9.69047
70.5953	-11.5286	14.9306
74.3644	13.0135	6.61359
75.2314	20.9746	3.98949
75.9895	29.0635	0.765482
77.4516	28.246	-9.85441
76.6436	37.0732	-2.91208
60.3337	-57.3761	10.8436
61.6396	-55.943	3.03178
69.2351	-18.3369	16.1702
70.5082	-18.9423	9.90958
48.6711	-117.136	3.20384
50.3752	-128.36	1.63396
49.8211	-81.1543	13.3759
48.6787	-84.7607	10.5577
51.9132	-136.474	0.257454
53.4366	-142.46	-1.21655
57.9476	-112.917	-14.9727
59.0006	-122.368	-16.5884
56.7618	-86.4019	-12.3486
58.0535	-84.7019	-17.63
56.9495	-81.8639	-11.4124
57.3392	-77.4003	-10.1806
59.8708	-129.434	-18.3224
60.5926	-134.986	-20.4706
62.7236	-55.3214	-4.05643
67.6409	-36.3859	4.21724
69.0925	-34.5261	0.98
66.8476	-40.067	2.81123
71.5458	-18.9927	5.78528
58.1129	-92.2628	-25.8288
57.1003	-88.0251	-32.7747
58.2923	-86.0171	-24.6752
58.8649	-80.1648	-23.7293
58.6434	-73.7784	-29.9556
61.4862	-63.5675	-20.3773
67.7556	-45.2377	-12.6928
69.702	-42.5157	-19.2926
55.9178	-118.612	-44.3645
56.391	-126.303	-45.9073
52.8924	-115.921	-51.4475
55.5015	-110.393	-42.7231
67.4986	-43.452	-27.0391
69.8265	-39.8461	-25.3975
71.4826	-38.1799	-24.7457
28.8181	-145.378	20.3948
27.1952	-137.122	22.6498
24.1932	-146.51	22.9023
30.2219	-151.301	18.7351
23.3365	-108.876	32.6669
18.122	-109.607	36.8912
23.3822	-115.367	29.9072
24.3969	-104.727	34.8146
29.9323	-96.8896	45.954
27.6838	-98.8448	41.7262
31.8559	-95.3274	49.7276
25.8028	-101.576	37.5882
20.6143	-103.2	42.146
25.0513	-125.321	26.291
20.3327	-126.678	29.5011
29.4998	-65.9338	78.7961
27.6996	-62.5697	80.793
33.4143	-93.9046	53.0385
26.4296	-60.3685	81.884
24.658	-62.5701	83.4497
25.3678	-58.5888	82.6273
24.4776	-56.9487	83.1031
23.0172	-58.6091	84.6766
26.8161	-81.3915	77.8909
27.4426	-86.4875	75.6863
27.7039	-91.4522	73.3227
18.8253	-54.5181	88.2068
16.6179	-55.3708	90.8204
18.4588	-53.5064	87.0757
21.0133	-53.6989	84.7217
18.5328	-53.7688	86.6225
15.861	-53.5267	89.343
18.5256	-54.5001	86.1085
18.4851	-56.6961	85.1591
15.8274	-54.4872	88.1386
18.4772	-61.2047	84.1241
18.6245	-66.2985	83.4932
15.6951	-61.2964	85.9263
12.9145	-110.007	40.315
13.7463	-106.577	42.9006
13.6013	-116.996	36.8675
19.4997	-147.682	25.1114
17.9681	-139.597	27.8055
14.8573	-148.572	26.9753
20.805	-153.26	23.2521
15.7578	-127.836	32.2741
5.71652	-104.82	49.8252
9.55872	-104.957	48.3628
7.57372	-104.531	55.1573
10.7812	-149.197	28.3071
11.9405	-154.551	26.4317
9.43943	-105.394	61.1802
12.9343	-53.4393	91.5116
12.8892	-53.6517	90.9062
12.8044	-54.3274	90.1755
12.9011	-56.642	88.6932
12.915	-61.2085	87.4337
13.0834	-66.4135	86.7835
72.4688	47.4322	14.7392
75.1806	45.9223	3.73681
72.8722	55.1122	9.57416
69.0774	49.7578	25.4892
78.0219	27.1127	-19.7102
71.1672	-19.6789	-49.4282
68.5996	-21.5124	-54.3178
49.5328	-94.552	-54.0174
49.8949	-84.3955	-52.853
52.2467	-97.6183	-48.4401
49.6747	-104.757	-55.2861
46.6463	-92.3077	-59.0161
50.0791	-113.698	-56.7413
50.7312	-122.204	-58.0736
47.0606	-112.036	-61.4962
55.2987	-82.4377	-40.1543
54.9163	-91.9472	-40.7148
53.0293	-77.9805	-46.5852
56.294	-74.0598	-38.7779
22.8429	112.46	22.3725
29.7172	109.631	22.1891
22.7311	117.153	6.95757
15.6305	114.445	22.5863
22.4572	101.924	-78.7448
23.0555	110.616	-62.8325
29.5287	99.9061	-76.8333
21.738	91.0625	-91.9278
15.0283	103.339	-80.1856
21.3286	79.1523	-101.471
28.164	77.507	-99.4588
21.0941	65.9742	-108.666
14.3723	79.9204	-103.089
23.138	116.482	-45.6922
30.2999	113.99	-44.0445
15.6527	118.296	-46.7789
23.0478	119.47	-27.7684
7.78645	122.935	-10.7753
-0.180553	123.352	-10.9325
7.72732	120.525	6.64492
15.4775	121.697	-10.4484
7.83723	122.613	-29.0295
20.8524	52.9877	-113.586
27.2805	51.6331	-111.524
20.538	39.5261	-116.863
14.3393	53.7514	-115.057
20.0302	25.461	-118.669
26.3553	24.4934	-116.467
19.5232	11.5816	-118.841
13.7169	26.3987	-120.186
17.3121	-26.9392	-107.845
23.0393	-27.6775	-105.654
16.8388	-38.5987	-100.442
11.7912	-26.8427	-109.025
18.229	-14.3764	-113.731
6.53773	-0.449155	-120.018
0.149194	-0.377786	-120.352
6.75746	12.7103	-121.441
12.7756	-0.873112	-118.995
6.22375	-13.2945	-116.444
14.6534	-85.2002	-82.7911
14.9666	-75.6924	-83.7337
19.7517	-85.9632	-81.4102
14.4686	-94.645	-82.4729
9.73825	-84.7613	-83.5897
4.78979	-103.189	-83.2413
9.61402	-103.644	-82.9186
4.91888	-112.838	-83.0837
0.142921	-102.96	-83.3577
4.87354	-93.5266	-83.5301
16.8487	-47.7787	-94.3012
21.9975	-48.344	-92.7088
16.3716	-55.9852	-89.6882
11.2557	-47.3258	-95.3346
15.5368	-65.4131	-86.036
20.9539	-66.5134	-84.2561
10.4206	-64.618	-87.0628
5.26128	-64.3256	-87.5401
5.51764	-55.0817	-91.2139
4.99509	-74.7844	-85.1223
0.0794193	-64.501	-87.6112
48.1688	97.4686	19.2197
53.8587	91.9487	17.8852
48.876	101.252	5.45054
42.3252	102.109	20.6215
47.015	70.4665	-89.3917
52.3951	67.3457	-85.139
46.7139	58.5088	-96.1835
41.2377	73.121	-93.2299
47.3465	81.3206	-80.2122
47.628	90.7826	-68.1793
42.0066	94.3959	-71.4406
48.2165	97.7866	-54.0203
53.0843	86.3723	-64.5871
48.878	102.034	-39.2533
54.5634	96.3675	-37.4919
43.1095	106.72	-40.865
49.6458	103.525	-24.3565
49.4065	103.417	-9.3291
43.3665	108.493	-9.19264
55.1539	97.5764	-9.44926
46.1276	46.3855	-101.097
45.4864	33.7931	-104.349
40.3209	48.2844	-105.041
51.4539	44.166	-96.7759
44.5361	21.038	-106.172
49.7357	19.6031	-101.816
43.532	8.12631	-106.276
38.9924	22.1572	-110.012
42.1505	-4.36178	-104.813
40.6659	-17.2043	-101.264
37.0451	-4.03898	-108.476
46.7914	-5.09567	-100.603
39.5647	-29.7319	-95.3449
44.0689	-29.4589	-91.4878
38.6661	-40.6041	-88.8837
34.4614	-29.1372	-99.3045
37.7805	-50.0266	-83.1261
36.8409	-59.4291	-78.1501
32.8518	-49.8399	-86.88
42.0747	-50.2193	-78.8152
34.6815	-87.7601	-73.2397
33.9128	-97.7087	-74.2333
29.8962	-87.343	-76.689
35.5238	-78.1838	-73.0953
38.9844	-88.7139	-69.1812
24.141	-105.2	-79.8979
24.3969	-114.029	-80.1564
19.2256	-104.502	-81.3615
24.3529	-96.1366	-79.6219
29.1008	-106.107	-77.7669
36.1064	-68.9017	-74.7034
40.439	-69.2399	-70.1144
31.4971	-68.2733	-78.5061
66.7519	69.9578	-51.2122
67.8229	73.8408	-39.703
70.5667	63.1675	-45.4086
65.9745	63.8526	-61.7028
62.5884	75.9319	-56.4283
68.5919	76.0265	-28.303
72.2039	68.1838	-23.199
64.4286	83.3655	-32.3908
69.0078	76.9342	-17.0399
68.2485	77.6292	-6.14477
70.9499	70.1698	-1.44154
64.6621	84.5944	-8.3791
56.1124	41.9164	-92.2351
56.7626	53.1233	-87.2865
60.3091	39.26	-87.3969
55.3968	30.0686	-95.4662
57.0763	64.0739	-80.655
57.4544	73.5862	-71.9559
61.4387	60.1703	-75.7278
51.329	-5.78969	-95.6082
53.2238	6.16604	-96.9847
55.6374	-6.61962	-90.026
49.3993	-17.7909	-92.4557
54.4232	17.9746	-97.0775
58.7239	16.601	-91.9617
48.0454	-28.9797	-87.3158
51.875	-28.9443	-82.151
47.1111	-39.9843	-80.4669
45.8649	-49.5702	-74.5155
49.2573	-47.9673	-70.4566
44.7083	-69.8759	-64.3801
48.2295	-72.3487	-57.7796
43.8028	-79.8584	-63.539
75.8402	34.8312	-46.9482
75.0449	28.9219	-54.4315
74.1042	40.285	-52.6094
58.9352	85.8426	17.1501
59.5942	89.5911	3.98929
76.6459	44.8472	-7.12373
76.215	52.618	-12.1387
65.389	-7.39356	-74.0924
62.518	-7.48348	-79.2712
67.0716	2.01659	-75.5672
68.0045	-7.74391	-68.4952
63.2684	-17.2066	-71.2101
68.0634	11.5222	-76.2358
65.3415	13.2949	-81.7225
69.0176	20.5573	-74.7538
70.6039	9.42626	-70.1366
69.9087	29.7215	-71.3821
67.1078	33.1931	-77.0641
70.8618	38.0991	-65.8828
72.3415	25.8695	-65.4303
56.8045	-42.1399	-59.5956
54.3768	-44.375	-63.1616
58.7941	-34.5364	-63.6023
59.2154	-39.9791	-55.7947
55.0559	-49.865	-55.7352
66.1112	-23.1382	-58.9731
63.8929	-30.4239	-55.6064
63.6796	-24.7445	-63.1261
68.2893	-15.697	-61.416
50.9187	-74.9432	-52.0537
52.1708	-65.9589	-52.1167
69.6445	-38.3661	-4.56998
70.2915	-34.8597	-2.56038
67.6324	-41.4213	-2.31292
70.266	-33.1717	-1.11238
76.0727	-7.43582	-2.77498
77.3327	-2.09411	-4.95432
90.5237	3.93272	-38.3018
90.8078	9.74875	-35.8802
91.1035	3.53494	-37.6093
77.9633	-35.8403	-24.6744
76.3217	-38.7059	-21.2732
90.4744	14.4464	-32.3379
89.5529	14.7582	-32.8212
89.8079	17.5678	-28.2103
91.3066	13.7795	-31.7908
83.1933	9.18989	-11.7038
81.8815	9.17978	-12.3808
89.0104	18.8551	-23.9557
89.8789	18.1428	-23.2263
84.4782	-19.105	-34.9976
78.7189	-36.7341	-17.3282
77.8179	-36.681	-14.6567
76.9264	-38.8126	-17.7911
78.0103	0.568738	-6.70407
85.4213	17.0284	-19.4437
83.2874	13.8872	-16.8086
84.3332	16.1564	-21.0057
80.6112	9.47893	-13.7885
79.7837	9.92686	-15.3626
88.9013	14.6036	-33.0396
79.0558	9.71209	-16.7848
80.4847	11.7372	-19.4176
82.2326	13.6991	-22.9808
79.9958	11.5428	-24.0585
82.8973	-27.6715	-27.8317
82.3194	-29.4228	-20.2517
75.3065	-40.0276	-18.1945
76.8875	-35.8876	-12.3628
78.2482	-32.985	-12.3559
79.4473	-30.5898	-13.2463
80.1181	-29.0014	-14.2008
91.2627	3.22468	-37.2044
91.8258	8.8463	-34.8706
88.1156	15.3825	-15.8221
88.2482	14.7394	-15.538
89.4701	17.0929	-18.8836
88.1787	14.1117	-15.3894
89.5938	15.8944	-18.3836
87.9421	13.006	-15.5519
91.6471	13.2365	-31.441
91.0939	16.1148	-27.3111
91.7383	12.7225	-31.2987
90.3875	17.4367	-22.753
90.5785	16.8372	-22.6279
90.5505	16.2245	-22.3484
91.1836	15.0393	-26.9289
91.6688	12.3295	-30.9718
90.4822	-1.19321	-36.1319
87.6103	11.6791	-16.0918
84.5274	4.31214	-13.6505
89.7985	11.5303	-24.5248
89.6158	-4.3626	-31.0612
89.7359	-2.47484	-30.7487
89.7145	-0.60515	-30.1536
89.5315	0.885006	-29.2417
89.1767	2.09307	-27.9893
88.1925	2.90702	-25.451
78.0394	-25.5135	-11.9359
79.3111	-27.0828	-13.5998
82.0548	-2.42707	-10.6856
77.2717	-17.4431	-10.0297
80.297	-28.2734	-14.6921
32.7382	25.1208	74.0182
35.1258	93.9714	46.2318
35.7908	100.405	34.8963
7.84019	101.55	48.9855
7.84834	109.171	36.7724
-0.669318	101.989	48.9572
36.0965	106.286	21.4637
36.4464	110.605	6.72475
7.76494	115.701	22.6621
-0.409084	116.176	22.5147
22.7642	119.654	-10.0055
29.9596	116.726	-9.56481
36.7299	113.058	-9.39215
37.0109	113.117	-25.818
65.1827	53.015	35.4311
72.3583	62.5614	3.94185
74.1841	61.3517	-6.83952
60.1068	91.4972	-9.48466
60.3906	91.3659	-22.4684
7.8609	119.411	-47.3499
7.8144	113.275	-64.8653
-0.0459695	119.788	-47.5219
36.7566	110.875	-42.2362
36.4811	105.569	-58.9001
74.5996	60.344	-17.6542
74.392	58.9182	-28.5601
59.5601	90.3538	-35.4086
58.7302	87.1376	-48.1454
73.5014	56.3147	-39.385
72.6107	52.0131	-49.6574
71.7008	45.9972	-58.508
68.8123	51.0773	-64.5099
43.144	-90.5546	-64.233
42.7398	-100.642	-65.5997
43.0546	-110.06	-66.663
43.4861	-118.716	-67.9006
38.4052	-108.233	-71.3593
7.55292	104.28	-80.8528
7.33094	92.8167	-94.3298
0.0574088	104.472	-81.2468
7.34386	80.3477	-104.014
7.42493	67.209	-111.038
0.132666	80.4634	-104.328
7.44544	54.1858	-115.94
7.30624	41.0046	-119.216
0.161953	54.373	-116.219
7.01731	27.0411	-121.113
0.168328	27.0681	-121.439
18.9455	-1.54986	-117.292
25.0901	-2.49385	-114.917
5.85764	-26.6463	-109.832
5.74248	-38.7526	-101.659
0.119559	-26.7645	-109.981
5.65852	-47.4374	-95.616
0.0705711	-47.646	-95.5865
4.93864	-84.2617	-84.0209
0.115517	-84.0282	-84.1711
34.7957	75.5092	-96.7036
35.2851	87.1593	-87.1979
34.4098	62.8644	-103.685
35.8414	97.3915	-74.556
33.8763	50.1199	-108.609
33.4027	36.962	-111.811
32.7628	23.4671	-113.535
32.1312	9.75071	-113.571
31.2671	-3.32393	-111.903
30.1107	-16.0603	-108.381
28.8363	-28.4013	-102.818
27.8289	-39.6483	-96.2074
27.4822	-49.1171	-90.2057
27.1357	-58.0687	-85.2566
26.3124	-67.3933	-81.8038
25.5988	-77.1548	-79.8574
24.991	-86.5963	-79.3608
33.9333	-107	-74.9161
34.3484	-115.835	-75.5607
57.9011	81.6492	-60.7237
65.3291	56.1635	-70.1475
64.7093	46.4966	-77.2041
63.8799	36.5939	-82.4156
63.0903	25.886	-85.6717
62.2206	15.124	-86.9982
61.1278	3.98713	-86.3928
59.2384	-7.29061	-84.6174
57.1276	-18.1	-81.5987
55.1371	-28.0766	-77.5038
58.1644	-27.4781	-72.3953
53.4453	-37.8258	-72.0276
51.914	-46.1919	-66.9005
53.6687	-57.9159	-52.7847
55.5379	-56.4246	-49.3845
74.1532	22.635	-59.9285
73.399	15.2502	-63.0787
75.7843	18.8038	-53.8857
70.1136	-7.83191	-63.4984
71.5912	0.0475849	-64.4286
60.9466	-26.2234	-67.779
72.5667	7.94379	-64.6108
61.6801	-37.6198	-52.1271
59.7413	-44.7659	-48.8138
14.9867	-104.461	45.9251
55.3809	-72.0347	5.29482
47.9368	-88.7849	8.44174
12.3791	-42.463	97.1152
15.2962	-42.5279	95.3697
18.2615	-44.3408	92.5802
8.6011	-60.7102	97.5518
8.99351	-62.0297	97.6709
9.30025	-63.3248	97.6403
22.4384	-65.6375	85.6091
21.7878	-63.6012	86.5881
21.1296	-61.7254	87.3592
16.1892	-37.0414	94.5138
34.6105	-52.92	77.0184
26.5043	-27.6163	85.3227
28.4175	-33.4898	85.4548
29.5213	-39.4162	84.2891
55.0671	-38.0694	54.1531
18.5907	21.3149	72.4086
77.2011	15.0385	-47.4593
79.3028	13.4573	-28.264
79.7803	11.4402	-25.8818
65.7817	-44.4012	1.16212
24.1949	15.5453	74.4727
53.463	42.5789	66.5779
8.57546	-23.2392	94.0402
44.6717	19.3983	66.869
12.1883	-21.4666	91.9254
79.6253	11.2383	-24.8561
55.0671	-101.385	-41.7
58.2905	-65.8434	-36.9481
57.7023	-59.2127	-42.2175
57.9414	-53.3267	-45.9986
21.9272	-17.6375	86.5814
13.9702	-56.1448	93.2265
22.5221	-53.9803	83.3912
6.66088	-52.0059	94.3615
-64.1698	-48.1212	11.8641
-65.0644	-43.618	13.2766
-65.6454	-46.0405	4.88749
-63.1915	-52.3224	10.4466
-62.8322	-50.0523	19.9166
-53.8456	-114.395	-7.91523
-52.9903	-104.07	-7.45006
-55.9848	-113.214	-12.4142
-55.2136	-124.857	-9.012
-51.1637	-115.37	-3.52824
-56.4628	-132.466	-10.2315
-54.1034	-134.282	-5.59487
-58.2035	-130.696	-14.8981
-57.5271	-138.426	-11.4146
-46.4832	-98.2579	2.73057
-49.9195	-97.3547	-2.34238
-46.7997	-105.898	1.77548
-42.9713	-99.611	7.49022
-46.9139	-92.4277	3.78688
-56.5837	-95.7966	-15.641
-54.9174	-96.2359	-11.2766
-56.6563	-90.4139	-15.2531
-57.6763	-94.6121	-20.756
-56.7763	-102.756	-16.1415
-57.7351	-66.0513	20.8453
-58.4843	-65.0558	13.7906
-55.9388	-69.6907	18.6927
-56.5694	-67.2849	27.6632
-59.1242	-62.5484	22.8122
-70.3816	31.0463	23.631
-73.7165	29.5964	11.9056
-69.4548	23.22	26.549
-66.7359	33.9921	34.598
-71.6351	39.2372	19.2574
-77.2606	41.9931	-28.9949
-78.1158	34.5154	-24.2496
-77.5367	43.6903	-18.4254
-75.9242	49.1021	-34.0682
-76.7934	39.0058	-38.6301
-9.26819	-109.376	42.6534
-9.92268	-105.089	45.2803
-11.8438	-109.12	41.153
-8.61304	-117.524	40.1841
-7.19623	-109.533	43.6213
-8.90812	-129.581	35.4007
-9.65873	-141.284	30.8472
-5.93925	-129.835	36.5352
-12.1632	-128.577	33.9319
-3.21444	-149.883	29.6648
-3.58292	-155.129	27.9977
-3.01493	-142.017	32.4189
-6.71675	-149.525	29.1288
-63.2639	-53.1048	-32.8348
-64.4216	-45.6345	-36.9406
-60.7414	-58.999	-35.1686
-62.3782	-59.3171	-27.7089
-65.7342	-47.2016	-30.5576
-65.5895	-40.2814	-39.9395
-68.6061	-35.7921	-36.8183
