1931
-25.2456	80.9932	-32.9117
-29.2207	86.6591	-20.5631
-13.4958	84.8804	-24.6734
-9.78894	85.535	-22.2559
-14.3673	85.7285	-24.1447
-6.52599	87.0674	-17.4943
-6.29469	86.7321	-17.8721
-3.23622	87.7231	-12.7945
-4.02061	88.0983	-7.80306
-3.54143	87.7761	-7.65578
-3.09274	87.3754	-7.38411
-38.8824	82.1586	-21.0482
-41.0913	83.433	-23.1381
-32.9626	73.3016	0.427763
-32.9001	72.2635	1.57953
-20.2891	78.1625	2.40157
-20.3176	78.6281	1.77343
-18.0298	83.8935	-3.29427
-16.8141	85.9722	-4.69349
-19.058	83.5993	-4.16935
-25.6328	77.4889	-0.570936
-25.7529	78.2564	-2.72076
-55.4056	69.3836	-23.7449
-51.0634	69.5046	-26.5879
-55.387	67.8313	-20.5349
-49.2995	69.6766	-28.3633
-48.8591	69.5966	-29.4377
-50.7261	67.5475	-24.2793
-25.6058	78.3173	-5.52109
-25.7502	78.3867	-4.64049
-50.2145	78.4988	-22.3525
-48.8122	79.0603	-21.966
-38.1619	75.8154	-9.11372
-35.8823	76.566	-10.0911
-39.7813	76.4202	-11.733
-41.3525	80.0098	-19.4655
-45.3745	79.8765	-20.6924
-41.085	79.3075	-18.1392
-77.3425	-42.2671	62.5195
-70.868	-39.262	68.5433
-80.2406	-35.4104	62.6757
-84.0166	-45.0216	54.933
-73.7944	-49.0089	62.1056
-64.4079	-36.329	73.5627
-60.8852	-42.4007	73.4198
-57.558	-32.8981	78.1877
-67.5329	-30.2818	73.2581
-61.6691	-11.7888	78.187
-57.2632	-9.28453	81.2411
-59.9342	-15.5911	79.6092
22.9823	7.0147	105.732
21.8022	6.72006	108.066
23.7131	5.732	106.074
21.981	8.64419	104.327
13.935	2.9096	113.624
12.7571	4.9442	112.612
12.1472	1.9138	112.995
15.0276	0.960619	113.84
15.5006	3.80249	113.702
17.0743	4.66044	113.252
18.1915	2.79486	113.525
18.5706	5.45575	112.262
26.196	9.16858	98.3941
27.1725	7.71942	98.4768
32.09	13.1862	96.4644
30.6431	14.6075	96.3065
33.4145	11.4669	96.4285
20.1557	6.17722	110.504
19.0952	8.00908	109.052
21.1523	4.42896	110.919
10.2983	0.753322	111.871
9.32476	2.85893	110.972
7.93311	-0.699596	109.929
11.2626	-1.23594	111.994
-42.0773	-25.1572	85.9415
-39.5186	-30.6614	86.0342
-38.9621	-23.9664	86.6229
-44.506	-20.7081	85.6772
-45.6403	-26.9428	84.6536
-16.6196	-14.998	86.8564
-14.4629	-13.7677	88.6613
-18.435	-15.9435	85.7066
-16.1037	-16.4265	86.8457
-20.2031	-16.7624	84.9282
-20.2994	-14.7339	84.531
-21.9382	-17.6406	84.5029
-19.5539	-18.3759	84.9594
43.2691	19.8984	89.9223
44.4133	17.9836	89.9188
42.1719	19.6857	88.9087
44.0402	19.9126	91.1778
44.2481	19.9429	92.1805
45.2777	18.2469	92.0874
43.1453	21.7237	91.9688
44.1466	19.9361	93.1165
42.1402	19.6739	96.3265
42.8743	19.9463	95.489
43.7497	17.2182	96.3846
43.5984	19.9622	94.4342
44.8948	17.9168	94.3502
38.6214	17.6681	97.4252
40.5718	15.3929	97.4504
40.1503	18.6754	87.7024
37.3222	16.8989	86.6864
41.3837	16.4568	87.6271
-82.3566	-29.5388	62.3138
-76.3045	-27.3087	67.7728
-83.8874	-23.8269	61.5306
-88.7413	-31.617	55.2038
-47.8824	-15.98	85.2601
-45.0188	-15.206	86.0137
-50.965	-11.9517	84.8696
-51.2312	-18.2874	83.851
-42.4603	-12.6301	86.3794
-40.1547	-9.77991	86.1795
-45.5015	-8.67473	85.887
-39.0024	-7.32383	85.3549
-36.9117	-10.0954	85.8605
-41.7544	-4.44068	84.9258
-34.1916	2.46331	74.8447
-34.7713	1.08964	76.0849
-31.3813	0.0765259	74.0659
-36.6409	5.08131	75.4021
-33.8104	4.76641	73.6729
-35.2996	-0.81259	77.859
-37.7239	2.01784	77.926
-32.9422	-2.98043	77.3721
-97.238	-8.15693	40.7147
-102.632	-8.76062	30.4412
-97.5436	-14.9336	42.8199
-91.8574	-6.72666	48.301
-85.1368	-18.4182	60.0185
-90.9204	-19.8478	53.4741
-86.1017	-12.3756	57.6844
-53.5422	-7.73564	83.661
-52.077	-6.32035	84.2376
-56.1168	-2.50513	80.8475
-45.1618	-0.9352	83.8577
-46.4972	-1.8932	84.3345
-49.4109	-4.2851	84.53
-39.954	5.31231	77.7053
-39.4073	6.97507	76.4844
-42.1834	9.54288	76.8413
-86.8139	-5.60517	54.207
-87.3513	1.46243	49.509
-81.7668	-4.48409	59.1812
-58.1299	4.02837	75.9824
-59.4494	10.4729	71.8389
-41.355	14.6305	74.5787
-42.3493	14.0813	75.095
-40.3198	11.3138	75.3766
-41.7991	17.5758	73.2501
-47.7624	12.4434	76.4672
-45.7364	13.144	76.053
-49.1856	17.3557	73.723
-43.7573	13.6383	75.5878
-76.4213	-3.32599	63.6147
-77.1463	3.87052	59.0454
-88.1182	8.07567	43.1867
-82.9407	9.48448	48.4821
-88.7312	14.1159	35.5541
-39.7517	19.6401	71.3369
-39.4132	21.7741	69.6525
-41.7856	20.3414	71.479
-41.3565	22.6312	69.6342
-40.6665	19.8296	71.5229
-49.5089	21.7978	70.5677
-48.5324	25.5381	67.3631
-32.4855	-8.05116	81.1139
-30.0404	-8.8829	79.8543
-31.6483	-6.50391	79.0604
-32.9504	-9.58478	82.7194
-33.5358	-11.3776	84.312
-31.2245	-11.968	83.1537
-30.1384	-4.59848	76.3314
-29.0834	-3.11504	74.396
-35.2811	-22.0045	86.8505
-34.1227	-26.3934	86.393
22.8723	90.2631	-0.437064
17.5041	88.6645	1.14156
23.1237	91.2385	-6.86777
-59.5587	59.5415	-32.3925
-56.1419	61.9014	-37.9096
-63.9525	56.3063	-37.4095
-61.6001	57.7905	-24.3598
-55.1444	62.8161	-26.9369
-31.3478	73.862	-46.579
-25.6632	75.914	-44.8836
-30.1309	72.5974	-52.3124
-36.8696	71.7362	-46.7877
-42.5413	69.0921	-46.6317
-43.1244	67.1692	-53.2885
-47.5914	66.6171	-44.9712
-41.7195	71.2354	-40.1817
-8.29093	80.123	-38.3417
-3.79817	79.5518	-42.2688
-14.1273	78.8525	-40.9014
-51.3097	-29.7841	81.8717
-47.6557	-35.0525	82.1097
-54.0494	-24.6841	81.6065
-56.8244	-20.3051	80.8708
-63.4469	-22.6389	76.9563
76.7943	64.1959	64.6006
80.7688	64.5933	57.4993
71.5144	69.0077	59.5562
81.3004	59.8278	67.4317
48.8238	79.0784	51.9416
54.4353	75.822	57.4518
43.8527	81.7207	46.529
45.9578	77.8861	55.6236
-77.5067	11.1551	53.0556
-77.4309	17.9326	46.0619
-70.1661	-25.1066	72.4361
-89.2711	20.2251	26.3436
-89.6655	25.5662	16.7087
-83.3029	22.5164	32.2422
-95.8569	-34.1074	45.1488
-96.8897	-27.7045	45.0258
-102.541	-36.3956	33.0121
-93.9471	-40.7447	45.1292
-64.0068	29.149	46.8007
-70.476	26.8457	42.4219
-40.3689	24.2092	67.9672
-50.29	29.5545	61.914
-46.3985	32.6357	58.9
-48.5091	28.9834	63.3241
-46.8371	28.3528	64.43
102.127	56.2416	48.6192
103.414	53.9953	48.4598
32.836	81.9248	46.1841
28.921	80.5739	48.2918
37.3505	79.0121	53.4572
36.6295	83.2155	43.1988
33.5233	18.8791	96.5128
33.0051	20.5716	96.1549
31.6296	17.1616	96.2078
30.2694	35.2722	88.7212
27.4934	32.6888	89.4024
30.2625	32.1295	90.7096
28.8304	19.5171	94.803
29.4237	17.2013	95.6107
30.506	21.1686	95.0765
27.978	21.9184	93.6412
27.1938	17.8192	94.5425
28.0482	44.8178	83.8085
30.9748	46.298	83.1217
27.6831	47.534	82.6398
25.4107	42.4498	84.5459
-43.9359	39.0005	51.7221
-42.9691	37.3085	54.3802
-38.8215	42.5261	51.3272
-45.0884	40.3766	48.8778
-46.4448	41.8283	45.4435
-47.4859	44.1419	40.4295
-39.2448	29.1431	63.6093
-37.2585	30.1519	63.0154
-42.0117	35.7857	56.6179
-48.8697	68.451	-31.5708
-45.6133	70.6032	-34.5993
-49.9518	66.665	-35.8064
-51.0388	66.8009	-27.7157
-24.1377	79.7603	-34.9544
-22.653	78.5793	-38.2247
9.49789	87.8542	-9.51806
4.82839	86.8777	-7.31899
11.4921	87.7928	-3.25285
15.4049	89.3463	-11.8483
6.30686	87.1755	-15.5214
-41.4596	72.9481	-36.4211
-13.9957	76.4348	11.2008
-10.1555	78.2117	10.8129
-17.9766	74.5484	11.36
-12.7626	75.3562	15.472
-34.3472	56.2021	34.2628
-41.3238	52.3531	32.774
-27.6895	59.7958	35.5713
-34.4839	59.7934	25.728
-34.435	34.3661	60.9498
-34.9709	32.2949	62.1728
-31.5224	33.7877	63.0808
-35.4118	30.4272	63.3601
-33.5299	29.7635	64.6947
-11.9259	73.6049	21.5986
-11.3283	71.6644	28.2121
-7.58409	75.8498	21.1479
-16.5717	71.3517	21.4545
-1.31628	18.2333	81.3486
-1.68066	22.1769	80.1033
-4.64115	14.7656	80.1278
-1.65884	14.5832	82.8909
-3.04539	27.8918	78.7274
-5.39885	34.0716	76.8555
0.495124	31.1375	79.7061
-1.95896	10.7355	85.5821
-2.52546	7.03196	88.9972
0.978937	12.8008	87.4148
5.30251	18.477	86.0639
4.24487	16.3048	87.3671
9.73201	16.3179	95.4618
10.031	14.9891	98.014
11.416	16.8947	94.7761
9.68307	17.1621	93.6224
9.8843	17.8841	91.924
11.9825	18.5408	91.2638
11.4598	40.9781	81.1436
13.5965	36.1725	82.9775
15.501	44.1241	81.3652
7.88085	37.8839	80.9159
4.18124	34.2399	80.4347
26.8882	13.2627	96.1836
28.389	14.5129	96.008
26.3503	14.5606	95.4794
14.893	68.8753	61.9484
9.33922	66.4852	62.0929
15.8117	63.9711	68.2869
20.5497	70.6901	62.2061
23.6367	34.7362	87.0461
24.221	32.5003	88.0886
22.9449	36.9879	86.0676
19.58	47.1157	81.2274
23.6605	49.6528	81.0697
18.1804	52.5681	78.1287
21.0612	42.6493	83.4826
29.8983	15.7651	96.0467
26.3845	72.0319	62.6686
26.0865	75.9764	56.2299
26.0788	66.9943	69.0203
32.0576	71.9238	64.5863
-5.11659	58.1929	63.1467
-0.576072	61.0019	62.9394
-6.91956	62.2469	56.3357
61.1253	62.9645	80.8587
58.3843	61.4385	82.5516
65.6374	59.9223	84.7033
46.8189	66.2744	74.578
42.1547	68.6158	71.07
44.3577	62.9913	77.4056
51.19	63.0102	79.0445
-21.4301	44.0885	64.012
-24.2948	40.0842	64.3994
-18.3784	39.0364	68.8018
-30.9508	28.2766	67.0156
-29.693	30.0897	66.5306
-26.1896	37.0817	64.7414
-22.9219	33.1078	68.6551
-27.3916	34.2554	65.4917
-32.8883	25.0539	68.1637
74.4936	40.727	95.2021
77.097	37.4105	94.8689
26.2343	61.8124	74.1368
30.4016	62.1953	74.9931
21.8727	60.4623	73.8603
26.7293	56.3212	78.2179
42.3371	59.5206	79.5479
38.4498	60.9896	77.7229
40.8084	55.3785	81.5622
46.291	57.1643	82.1518
-15.0637	33.1846	72.4161
-11.8689	36.6671	73.1522
-17.6878	30.0074	71.9899
16.8958	58.4988	73.6783
-8.44002	40.326	73.6121
63.4221	41.9505	93.9363
59.773	39.0723	92.7939
60.4911	45.1132	92.5163
57.3873	48.397	90.5616
54.0485	51.4821	88.0446
54.2352	45.5637	90.0104
-19.5184	27.7157	71.7273
-20.8088	25.6982	71.7862
-15.9996	21.4387	73.7887
-28.5521	32.1273	65.955
-25.3983	29.0209	69.1736
-21.9565	24.0432	71.863
-18.4719	17.8596	73.4354
-3.02555	3.59391	92.5696
0.237537	5.95712	95.3738
-6.67235	1.16706	89.18
6.49232	10.6166	101.254
5.20255	9.69385	100.045
7.28317	8.02344	105.584
7.34511	11.3847	101.583
-14.9129	-3.98678	80.4456
-12.9261	-2.79345	82.5925
-7.60909	11.1152	78.7199
-11.5784	-12.0178	91.5792
-11.1572	-13.4612	91.5462
-33.6097	45.0216	53.2399
-10.1113	-0.982562	85.5954
24.4627	79.2073	49.3551
21.1746	81.756	41.0961
-18.7301	58.8176	50.0749
-13.2075	62.4054	49.5355
-20.4525	60.9828	43.1941
1.87686	71.0321	48.6113
-3.26201	68.3051	48.7918
2.87994	67.9171	55.5191
0.769151	73.2582	41.9059
-8.2901	65.4363	49.0805
-9.28156	67.8336	42.1445
69.5989	57.3294	87.3344
56.5283	36.7642	91.895
58.7164	33.7816	92.3267
54.0287	39.9393	90.9729
51.5908	43.0735	89.6549
-23.0701	8.65639	72.0376
-13.4869	14.5562	74.6095
-14.9701	12.8616	74.0835
-16.1501	11.6256	73.632
60.6535	31.0921	92.4555
62.2591	28.4943	92.3216
-24.4802	-15.1025	83.3437
-24.3613	-13.3804	82.3236
-26.6332	-15.6244	83.6231
-24.2579	-16.7623	84.0229
-22.2475	-14.0104	83.2941
-21.0072	-0.611381	70.479
-21.9008	-1.45098	70.6101
-20.0612	-2.65672	72.1923
-23.8288	-11.6938	80.9528
-26.2008	-12.0576	81.2131
-23.9059	-18.588	84.3732
-23.0252	-20.4372	84.3795
20.9137	10.0142	102.78
19.5961	9.96736	104.615
11.2846	7.15599	110.424
9.80089	6.35432	109.884
9.61305	9.56714	106.604
15.9625	20.225	88.6995
15.2227	19.3204	89.8327
18.384	18.9256	90.0727
8.40189	5.2695	109.131
-19.803	-12.0381	83.3084
-29.0679	-15.9365	84.2888
-28.9893	-13.984	83.304
-23.4117	-1.75929	70.8222
-28.7916	-12.168	81.9922
-28.2238	-10.6301	80.4312
-27.4366	-9.33827	78.9292
20.432	25.0713	88.0117
22.0303	22.8882	89.6133
22.5986	27.3432	88.7255
24.9501	30.1272	89.1878
25.8326	27.2367	90.6804
34.8098	39.2728	83.1461
34.0455	38.6013	82.5374
35.7052	37.4849	84.203
33.4975	38.8021	86.1965
33.8698	36.4735	88.1746
31.9032	36.9538	81.4377
33.3263	34.0103	83.256
29.3823	34.8336	80.5538
23.5024	20.7969	91.2945
24.7306	18.5074	92.9647
25.1991	22.5682	91.7766
26.9032	24.7069	92.1362
28.6739	26.6531	92.4575
36.7714	35.078	85.4267
36.4022	33.2632	85.3768
34.5656	31.3086	84.6527
31.5717	29.5818	83.5756
25.6292	16.4005	94.4032
24.1851	15.2508	94.3523
32.2318	23.173	95.2607
31.2451	25.8329	94.0172
3.24333	13.7882	89.6389
3.11153	10.969	93.7002
4.80609	-2.5708	107.113
5.54355	-4.33731	107.169
3.06878	7.95288	98.1158
17.6687	9.69718	107.037
16.1103	11.6322	103.75
14.6252	13.7838	100.08
12.6133	13.5293	101.075
13.6294	15.8572	96.4333
13.352	17.2036	94.0547
13.7527	18.0714	92.3104
14.4301	18.7177	90.9284
8.30182	11.8979	102.019
9.48572	12.4192	102.208
10.9058	13.0502	101.813
106.102	106.023	23.8922
109.78	102.467	26.8091
110.507	109.854	23.0332
102.532	109.106	20.8528
100.087	100.9	25.115
91.5179	94.3169	26.7663
87.8737	97.4382	23.2265
83.6788	89.1346	28.296
95.2036	90.8248	30.2561
67.4491	82.3538	34.5954
63.0699	85.1696	30.0593
71.7499	79.1349	38.9005
72.3613	84.3428	31.1083
77.6101	86.2902	29.4168
81.7049	82.7264	33.6808
73.582	89.2063	25.395
34.3976	62.1233	75.9724
35.4711	66.6197	72.0638
33.8995	57.1353	79.267
37.1118	70.9603	67.1117
39.7162	74.015	62.9721
42.7208	76.3682	59.0515
33.4618	52.9177	81.1767
30.4787	52.4311	80.9574
33.3097	49.2329	82.3457
36.4818	52.3947	81.8434
33.3039	47.0011	82.86
35.2436	46.9287	83.0093
58.8839	87.4803	25.5796
53.9519	86.2998	28.697
63.985	89.42	22.7998
55.149	89.7	20.3854
48.9396	85.4374	32.7569
45.8344	87.4196	26.3328
44.3172	84.8343	36.4573
40.2927	84.1004	40.1388
37.5726	86.1471	32.8248
84.2127	100.2	19.5431
93.0286	106.714	18.5181
80.9238	102.948	15.6718
76.0811	95.0124	20.4303
99.2167	111.845	17.6358
103.694	115.986	16.7828
96.033	114.387	14.0847
69.589	91.6914	21.3172
-10.321	69.7655	35.3096
-5.40903	72.429	35.1573
-15.6439	66.8222	35.4341
35.256	87.5475	25.9284
39.1146	88.2259	22.9377
33.267	88.6386	18.8014
-48.6064	47.922	32.1
-48.6639	52.8625	21.6909
18.6529	83.4478	33.2122
16.3333	84.5459	25.2647
-0.468864	75.0193	35.0562
-1.91791	76.543	27.817
-21.6308	63.2245	36.0032
-21.7803	66.0945	28.2899
-3.12231	78.0118	20.8338
-4.74365	79.1684	14.5052
47.8013	95.6556	4.58146
52.4216	98.0706	3.56107
46.3187	97.3657	-0.202438
43.5527	93.6466	5.96313
49.6669	93.8038	9.50943
57.4486	100.823	3.0868
39.3838	91.9483	8.04498
41.1858	90.5292	13.6666
37.902	93.4007	2.37484
35.4365	90.6344	9.99474
-34.7036	63.0529	17.4029
-41.7317	60.0436	14.5865
-27.6383	66.0549	19.966
-49.1652	56.8517	11.3442
-56.1818	53.7223	8.50136
-63.3201	50.539	5.00159
-63.5035	53.5051	-5.46241
-70.4193	47.4072	1.02888
14.4623	85.407	17.2533
13.1566	86.3041	9.48571
-21.7744	68.7386	21.2513
-21.7747	71.0675	15.2446
77.634	105.582	11.3843
86.5983	111.88	10.7491
43.3212	89.0929	20.0024
47.6782	90.2256	17.1365
92.8428	116.734	10.0369
97.2441	120.667	9.06302
68.5187	112.277	-6.11116
76.4042	117.506	-7.08825
44.947	98.7291	-4.96899
42.7891	99.098	-10.1153
40.5992	96.624	-4.22103
36.174	94.6824	-3.15265
82.2206	121.511	-8.3414
86.7973	124.742	-10.1171
12.6555	87.2858	2.48889
-6.37578	79.9187	10.1817
-8.41421	80.3477	7.02865
-2.90802	81.5818	8.90758
-22.1517	72.5299	11.2905
49.861	103.064	-17.8466
46.7327	100.339	-25.0001
44.0695	100.151	-16.9908
38.4058	97.7061	-16.2671
32.9873	94.4659	-22.7128
21.8383	91.3048	-13.441
1.99459	86.4323	-6.12364
-0.914345	86.9254	-12.6347
74.8141	114.321	-35.1217
81.3539	118.365	-36.2327
74.0607	110.707	-42.5375
67.7546	110.039	-33.9479
1.47901	85.9283	-20.4347
-2.9056	85.8667	-18.7949
-5.21018	86.3308	-18.0882
113.363	98.6376	29.4695
107.399	93.6029	31.1643
116.878	94.733	31.7865
117.537	102.504	28.1615
85.918	78.1667	38.2298
90.0699	73.0942	42.3717
91.4772	81.07	36.3643
81.157	76.5122	40.2376
66.5421	73.3045	54.3525
71.3122	73.8276	48.8137
62.5336	72.8778	59.1795
76.3162	74.9447	43.7876
80.8995	70.2177	48.1532
98.8157	86.69	33.7927
102.732	82.6013	36.9286
39.5492	51.7683	82.7058
38.2981	48.631	83.308
59.2483	72.3478	63.2101
37.398	46.586	83.5306
39.9279	45.4494	84.6805
36.7273	44.8728	83.6759
36.1045	43.4479	83.7421
38.133	42.5356	84.8235
50.2858	54.6231	85.0138
52.8395	57.2242	84.4566
55.6717	59.7623	83.5164
37.8617	36.8483	86.8809
39.3106	33.8864	88.9612
37.4962	36.4416	85.7913
36.0243	39.2759	84.2582
37.6409	36.6251	85.412
38.9425	33.1611	87.4397
38.0169	36.8647	85.0933
39.0956	37.578	84.5721
39.5052	33.5644	86.4647
41.6678	38.9751	84.0727
44.7322	40.3964	83.9322
42.773	35.6024	85.2442
93.6966	68.2504	45.3932
89.5331	66.5735	47.6788
98.9171	71.9691	43.0119
120.448	90.7893	33.7828
114.667	85.7595	36.0096
123.74	86.7846	35.3976
124.33	94.5184	32.1944
106.346	78.5658	39.5799
91.2161	57.3363	54.5222
88.9529	60.8108	53.3731
87.6728	56.7289	61.4384
126.5	83.22	36.4796
130.237	86.7953	34.8188
84.4991	56.3802	69.1058
40.1644	30.0049	89.187
40.4363	30.0877	88.4559
40.9284	30.3376	87.8037
41.7435	31.2144	86.9648
43.9222	32.5444	86.1773
47.0426	34.5438	85.6278
-76.6571	36.39	17.8049
-77.0212	40.8372	7.13313
-83.5253	33.5303	12.3188
-76.5771	31.0048	28.0829
-62.9162	55.6918	-15.1979
-19.7708	77.4601	-43.3411
-16.7743	76.5339	-48.3122
57.0057	97.568	-46.4141
47.8071	92.8386	-45.7153
58.2334	101.273	-40.536
65.9404	102.701	-47.1621
56.5714	94.1001	-51.6861
73.5951	107.394	-48.1228
80.7234	112.044	-48.9718
73.7185	104.142	-53.1603
42.9145	96.1998	-32.7548
51.6229	100.6	-32.9039
40.3222	92.182	-39.5498
34.8371	92.8187	-31.6771
-108.314	-38.4414	18.836
-109.195	-31.2317	19.2592
-112.534	-39.4475	3.34561
-106.534	-45.5312	18.4526
-99.5398	-24.523	-81.2264
-107.356	-29.7279	-65.7219
-101.321	-17.588	-78.7109
-89.7704	-18.582	-93.9286
-97.0576	-31.5065	-83.2763
-79.2401	-12.1714	-102.938
-81.2369	-5.6253	-100.352
-67.6975	-5.18781	-109.542
-76.4247	-18.4176	-105.104
-112.449	-34.0804	-48.9119
-113.847	-26.8273	-46.6391
-110.3	-41.3272	-50.6242
-114.937	-37.2232	-31.2175
-110.32	-53.5169	-15.5875
-106.749	-60.5356	-16.3454
-108.109	-53.8661	1.81416
-113.042	-46.3449	-14.6488
-110.123	-51.7379	-33.7238
-56.32	1.49744	-113.893
-58.3674	7.53742	-111.302
-44.5007	8.21746	-116.594
-53.7207	-4.37453	-115.881
-32.0655	14.9422	-117.818
-34.3912	20.693	-115.11
-19.7919	21.4334	-117.423
-29.7204	9.15989	-119.844
14.7111	37.8798	-105.026
12.4729	43.0687	-102.392
25.1153	42.8107	-97.2758
17.3965	33.1314	-106.615
3.34193	32.8233	-111.326
-2.87914	16.3251	-119.05
0.253209	10.8067	-119.867
-14.3862	10.0831	-121.022
-5.63103	21.8292	-117.542
8.40995	22.1472	-114.966
67.1378	63.1774	-78.1195
58.6461	58.7634	-79.4532
65.1577	68.0197	-76.3157
75.4861	67.6908	-77.3763
69.315	58.6308	-79.3201
87.9867	63.3946	-78.5035
85.8661	67.8798	-77.7752
96.2901	68.2846	-77.8696
90.209	59.1602	-79.0054
79.525	58.6817	-79.2395
33.1472	47.0391	-90.8673
31.0148	51.7471	-88.8711
40.5972	50.4646	-86.037
35.5949	41.9732	-92.342
49.3216	54.2487	-82.1166
47.4872	59.5036	-79.886
51.2668	49.3762	-83.5671
53.6763	44.6983	-84.4563
45.3656	40.5414	-88.4334
63.0397	49.5397	-81.6517
56.5133	40.1982	-84.9323
-107.634	-9.41306	18.1364
-105.641	-1.76482	17.4591
-111.553	-9.2487	4.38949
-108.799	-16.7573	18.9143
-84.584	13.2947	-88.6303
-84.5816	19.1357	-83.8686
-74.0834	19.6005	-94.8878
-83.9864	7.31147	-92.9906
-94.1379	7.35176	-79.9476
-102.449	1.80166	-68.3715
-102.774	-4.5579	-72.1849
-108.766	-2.45585	-54.5521
-101.352	8.38828	-64.2091
-112.706	-5.34836	-40.0082
-110.619	2.19275	-37.6031
-113.905	-12.4873	-42.2299
-114.278	-6.81698	-25.2204
-113.912	-8.405	-10.3183
-115.333	-16.0828	-10.8321
-111.689	-0.598061	-9.77486
-63.2926	25.5734	-99.2917
-52.0671	31.5876	-102.03
-62.0151	19.9327	-103.727
-64.0574	30.9346	-94.5055
-40.5464	37.2966	-103.364
-41.94	42.1863	-98.5845
-28.8667	42.908	-102.987
-38.7159	32.2363	-107.646
-17.3708	47.8836	-101.104
-5.52391	52.8319	-97.1489
-15.0603	43.544	-105.138
-19.1056	51.9978	-96.5436
5.85216	57.8575	-90.8556
3.28608	61.4279	-86.6972
15.7073	62.2359	-84.0936
7.95127	53.3372	-95.187
24.3295	65.9674	-78.0966
32.997	69.6887	-72.8737
26.7353	61.7222	-82.2066
22.2299	69.6349	-73.476
58.9273	81.8027	-66.9526
68.0088	86.0762	-67.5137
61.0788	77.4956	-70.7756
50.1147	77.7654	-67.1951
57.4855	85.9302	-62.5322
79.6571	81.3587	-73.5548
87.2285	85.9463	-73.3512
81.6066	76.7353	-75.4287
71.6401	77.0602	-73.6989
77.8638	86.0939	-71.0059
41.6659	73.6815	-69.1388
39.6506	77.496	-64.2316
43.5439	69.448	-73.2965
-93.9683	27.1821	-49.2078
-97.7911	25.065	-37.859
-90.0141	33.3539	-42.8669
-88.3541	30.5556	-59.4271
-97.0601	21.0734	-54.954
-99.9558	23.51	-26.5766
-94.9641	30.0382	-20.8951
-104.253	16.6677	-31.2594
-100.822	22.2782	-15.4055
-100.869	20.1296	-4.67704
-95.71	25.6447	0.531536
-105.145	13.8452	-7.46325
-64.4662	35.7221	-89.551
-74.4817	30.2334	-85.0666
-64.2974	40.2967	-84.3176
-53.8626	41.329	-92.3051
-84.1011	24.4327	-78.9241
-92.501	19.2203	-70.6609
-82.9188	29.7373	-73.5366
-20.8431	55.9568	-91.226
-32.1153	51.6329	-92.9532
-22.3643	59.7458	-85.3398
-9.52261	60.1798	-87.7414
-42.9186	46.7112	-93.4605
-43.933	50.7482	-88.0017
0.792488	64.4193	-82.2872
-1.26517	67.4457	-76.8914
10.7325	68.8819	-75.1235
19.6399	72.4354	-68.9455
16.4117	74.3977	-64.7287
37.8967	81.3584	-58.1914
38.1105	85.4802	-51.264
47.1432	85.5681	-56.9733
-68.4124	52.5168	-42.7918
-62.9603	55.5642	-50.0378
-72.1946	48.7331	-48.7801
-102.839	5.60066	17.3726
-106.735	5.75337	4.21929
-77.0368	43.9114	-3.53471
-83.5055	40.1644	-8.9108
-26.8454	67.5805	-68.7586
-25.2386	65.4696	-74.1111
-35.749	64.268	-70.4799
-27.9577	69.6603	-62.9921
-17.392	70.6566	-65.6648
-44.4023	60.2762	-71.4725
-44.501	57.4113	-77.1963
-52.6506	56.3418	-70.3147
-43.9484	63.1004	-65.1397
-60.984	52.1466	-67.2911
-62.53	48.4147	-73.2883
-68.6704	48.2233	-62.1147
-58.9398	55.7376	-61.0361
7.17443	77.4672	-53.6789
10.4707	76.6777	-57.2971
-0.33732	75.4059	-57.7841
3.94062	78.2627	-49.8121
14.7049	79.821	-49.689
-14.0053	75.5145	-53.0661
-6.71126	77.2663	-49.6142
-11.2926	74.4869	-57.3186
-21.4258	73.6217	-55.6192
38.8756	88.9618	-45.2723
30.2607	85.4904	-45.6314
-5.24105	83.5823	1.78393
-8.55217	81.8907	3.65796
-1.85168	83.4828	3.98228
-9.97827	80.7291	5.00201
-33.4928	70.7785	2.8195
-38.4186	69.1339	0.563714
-49.6349	80.5862	-31.7475
-54.6997	77.5168	-29.5661
-49.5967	81.2373	-30.9912
-10.3534	90.5219	-17.5251
-7.29169	90.527	-14.1738
-58.5112	74.4038	-26.265
-58.3089	73.4779	-26.8337
-60.8185	71.7683	-22.3361
-58.3688	75.4275	-25.6235
-50.5493	68.7588	-6.0879
-49.8864	67.7161	-6.84991
-61.5041	69.9475	-18.2064
-61.341	71.0154	-17.3841
-27.3142	87.5683	-27.9666
-10.3116	91.1805	-10.1433
-10.0706	90.2304	-7.5802
-7.66683	90.8832	-10.6661
-40.9001	68.4552	-1.20904
-58.1846	67.3403	-13.9075
-54.5034	66.8978	-11.3323
-56.9326	67.0354	-15.5122
-49.5074	66.6296	-8.36935
-49.4764	65.8621	-10.015
-57.8529	73.0005	-27.0895
-48.9207	65.5111	-11.4906
-51.3149	65.9293	-14.0778
-53.822	66.7554	-17.5662
-50.9115	66.111	-18.7561
-19.5386	90.405	-20.6001
-18.0673	90.3429	-13.0361
-5.86816	90.2363	-11.1744
-10.4071	88.8218	-5.44117
-13.4864	88.3091	-5.43679
-16.0022	88.0136	-6.32715
-17.5932	87.7565	-7.26383
-49.4277	81.4996	-30.5617
-54.4587	78.7815	-28.4354
-58.1259	70.1495	-10.0317
-57.6622	70.5984	-9.72174
-60.2414	70.7578	-13.0424
-57.116	70.8595	-9.5595
-59.3164	71.4567	-12.501
-56.0895	71.2588	-9.68938
-58.0839	75.976	-25.2232
-60.2404	73.5685	-21.2778
-57.7059	76.3055	-25.0548
-60.999	71.7926	-16.8478
-60.5935	72.2615	-16.6896
-60.0786	72.522	-16.385
-59.3995	74.1612	-20.8445
-57.3527	76.4153	-24.7162
-45.3753	83.085	-29.3806
-54.8286	71.7392	-10.1954
-47.1953	72.8047	-7.72364
-55.7689	74.5962	-18.4189
-42.3112	83.6197	-24.2697
-43.9591	82.6702	-24.0319
-45.5266	81.5878	-23.5219
-46.6981	80.542	-22.6938
-47.5482	79.4686	-21.5273
-47.7619	77.9425	-19.1166
-19.5407	83.8197	-5.35727
-18.8209	85.933	-6.82949
-40.4187	74.0819	-4.7246
-25.7714	78.4015	-3.87459
-18.2766	87.5331	-7.76875
-38.7736	8.13332	75.6443
-97.5059	-21.5864	44.1486
-103.805	-22.8967	32.668
-91.1604	-48.008	44.6831
-97.9933	-50.7102	32.2011
-87.5381	-55.2452	44.0337
-109.392	-24.1401	19.1319
-113.567	-24.5347	4.37008
-103.804	-52.808	17.9137
-100.248	-59.947	17.1612
-114.862	-39.1353	-13.5937
-115.868	-31.5725	-12.513
-116.023	-23.9889	-11.6997
-116.339	-22.2678	-27.9931
-76.959	24.8342	37.385
-89.7559	30.0196	6.32368
-89.8619	33.4265	-4.19334
-108.873	6.64371	-9.19138
-109.064	8.24663	-22.0504
-107.393	-48.5381	-51.8177
-102.067	-44.0041	-68.9935
-103.788	-55.5157	-52.5925
-114.351	-19.8893	-44.2349
-109.669	-15.9998	-60.6007
-89.3604	35.4561	-14.8661
-88.1683	37.1423	-25.6515
-107.888	9.28451	-34.9128
-104.774	11.3722	-47.4873
-85.5652	38.7698	-36.3674
-81.481	41.1767	-46.4591
-75.8745	44.2658	-55.0634
-78.7873	39.7217	-61.4576
56.9002	90.331	-57.2085
65.9706	94.9808	-58.1122
74.0655	99.8718	-58.6869
81.4388	104.459	-59.4653
74.8641	95.0816	-63.7944
-94.1433	-38.3622	-84.5402
-84.0903	-31.6754	-97.4759
-90.5705	-44.8858	-85.5017
-73.2794	-24.6148	-106.573
-61.9225	-17.3969	-112.986
-69.7747	-30.867	-107.433
-50.6486	-10.4612	-117.299
-39.1641	-3.73065	-119.997
-47.1687	-16.8138	-118.134
-26.9269	3.14063	-121.301
-23.5258	-2.7532	-122.144
-8.12986	27.3455	-115.358
-10.384	32.9187	-112.498
20.2007	27.959	-107.871
30.8534	33.2986	-99.3291
23.1814	23.0651	-108.448
38.5387	37.1388	-93.0568
41.5687	32.3343	-93.4601
71.3925	54.154	-80.1486
73.7146	49.7619	-80.6951
-82.8273	0.857654	-97.0287
-93.1624	-5.35938	-88.0422
-71.6782	7.43381	-103.453
-102.293	-11.0922	-75.8688
-60.367	13.7461	-107.838
-48.727	20.1582	-110.496
-36.7134	26.4803	-111.675
-24.516	32.7768	-111.167
-12.759	38.4213	-109.02
-1.15887	43.5566	-105.049
10.173	48.2895	-99.1221
20.4503	52.676	-92.2094
28.8781	56.8147	-85.9433
36.8786	60.7665	-80.7323
45.4797	64.5681	-77.0051
54.4162	68.7436	-74.7193
62.9885	72.8903	-73.8439
76.12	90.6787	-67.7444
83.6537	95.3783	-67.921
-99.6655	14.5556	-59.8122
-81.4148	34.6327	-67.5332
-72.7724	39.5961	-74.1747
-63.8122	44.3309	-78.9893
-54.1759	49.3405	-81.8241
-44.4591	54.1638	-82.7493
-34.3208	58.8518	-81.7595
-23.6734	62.8683	-79.6767
-13.3262	66.4008	-76.3991
-3.75931	69.5886	-72.0808
-5.91823	71.6332	-66.8155
5.45463	72.8776	-66.3854
13.4149	75.6424	-61.0919
22.4014	82.6859	-46.5284
19.9949	83.4262	-43.0606
-57.1195	58.5178	-55.3
-50.4114	61.952	-58.1738
-54.7169	61.4113	-49.013
-29.0327	71.2019	-57.8677
-36.4947	68.4181	-59.0042
-8.51878	73.1469	-62.0823
-43.7336	65.1549	-59.4469
0.513954	78.987	-46.065
7.58988	80.9451	-42.6512
85.2198	65.3056	51.5397
31.3652	89.6424	11.965
52.1025	91.7561	15.0279
35.4011	26.9571	94.6119
34.553	29.8947	92.9171
34.2572	33.4004	90.4675
44.9365	27.0045	93.6579
45.6096	27.7609	93.7632
46.4185	28.4938	93.7909
42.7988	43.7001	86.4767
41.8375	42.272	86.6712
40.9187	40.9541	86.8834
30.5377	28.9628	92.3063
27.2012	51.4566	80.9151
15.1035	32.8489	83.9896
18.6777	36.1761	84.7489
22.1616	39.3376	84.9766
4.02985	63.847	62.3175
-28.1566	-2.11299	73.0995
-52.2781	64.0562	-42.3622
-52.1627	64.9073	-23.047
-50.7581	66.1717	-20.564
1.31069	83.3725	7.40025
-21.8273	9.1424	72.3843
-60.0501	17.3066	66.9257
22.8421	14.5574	94.4002
-38.8417	23.5585	67.9641
19.6257	16.7737	92.1865
-50.5218	66.0545	-19.5678
59.9842	105.323	-33.413
26.3884	90.2725	-30.0464
21.0426	86.5132	-35.6232
15.8952	83.7693	-39.628
11.6133	23.9125	84.4594
40.6008	30.8732	90.8097
35.2077	40.7818	83.471
41.8073	24.0118	91.403
74.2578	-38.2498	7.01658
70.2889	-41.2381	8.47469
73.4644	-39.4948	-0.0868139
77.961	-35.2701	5.56102
74.878	-37.0825	15.3343
132.49	8.60701	-9.14314
123.476	3.6775	-9.43813
132.097	6.53071	-13.8066
141.536	13.1736	-9.49309
132.458	11.1043	-4.52237
148.144	16.2705	-10.1982
148.722	18.9084	-5.26143
147.273	14.2441	-15.0861
153.333	18.671	-10.9773
116.67	5.28639	0.590626
116.789	2.17751	-4.71674
123.289	9.3134	0.304636
116.915	8.81252	5.7183
111.603	1.51866	1.12021
117.014	-3.03239	-18.2186
117.068	-1.85533	-13.8765
112.194	-6.02473	-18.1894
116.04	-3.99014	-23.2676
123.204	0.587942	-18.2401
88.8964	-24.1962	16.0895
88.4285	-25.0095	8.87003
91.9223	-20.5902	13.8423
89.4191	-22.6017	23.7435
85.9713	-27.2693	18.1863
5.80346	-78.0012	17.9559
9.13988	-79.4669	5.86349
11.9305	-73.7639	21.449
1.11029	-76.8626	29.0406
-0.39746	-82.6138	12.9519
1.46266	-85.2548	-36.4403
8.27697	-82.8293	-31.4261
-0.119098	-87.1535	-25.8734
-5.26725	-87.1056	-41.7277
4.02529	-82.6277	-45.9763
107.27	47.5129	46.1009
103.419	44.6426	48.1151
108.705	44.7639	44.5185
112.919	51.0033	44.5255
105.985	49.6287	47.1717
122.312	55.7539	40.7737
131.766	60.562	36.7944
120.682	58.6189	42.2907
123.549	52.2926	38.8072
134.81	70.5478	36.6761
139.197	72.7903	35.0821
128.48	66.9477	39.1605
136.502	67.214	35.7547
79.8808	-28.3696	-36.9846
73.5311	-32.4195	-41.2698
84.0925	-22.9333	-38.9165
85.2667	-25.2854	-31.7624
75.6082	-33.6905	-35.0547
69.1783	-35.5992	-44.4264
66.5297	-40.7644	-41.649
65.4573	-38.4681	-46.9893
72.6045	-29.3671	-47.3087
141.261	11.3264	-31.5414
144.351	11.8764	-25.1313
137.918	11.8239	-38.1716
146.867	14.8552	-33.3168
119.237	61.4093	43.2412
110.242	55.8629	46.8014
75.8138	-35.4036	23.2754
79.9196	-32.3737	21.9407
75.7775	-34.0877	30.7337
71.0531	-38.7836	23.9869
87.7318	-25.8028	1.48332
84.5637	-29.1491	2.81894
87.662	-25.912	-6.17637
90.7821	-22.3351	-0.0930722
83.1333	27.0987	91.4264
79.2836	25.4439	92.1767
85.018	23.7974	89.0998
86.815	28.991	89.6423
81.2877	30.5695	93.0852
86.3624	20.3705	86.2702
82.4012	18.2414	87.0228
87.1661	16.4531	82.6155
90.0553	22.7352	84.6659
71.9209	29.9185	94.3259
75.7775	32.0442	94.7499
67.8618	27.7641	93.145
73.5387	26.8653	93.3766
89.7596	31.1048	87.0598
87.7199	34.4664	88.7512
91.575	27.9925	84.8731
92.0955	33.1745	83.4316
93.8711	34.7201	78.9799
95.1945	36.1856	73.4326
91.9676	38.6125	80.2181
6.42961	-19.9929	79.1871
3.15387	-19.2052	81.4902
2.33356	-21.0031	76.8897
9.12846	-21.1903	77.0214
10.7452	-18.8052	81.3327
46.9358	-32.4957	68.9515
51.4676	-31.0679	68.5336
42.8618	-28.6192	72.902
42.2918	-34.0847	68.9564
50.4439	-36.4798	63.5613
43.596	-44.2106	57.346
48.5834	-42.2976	57.0317
40.8929	-39.9852	63.7248
38.12	-46.0008	57.6722
45.2927	-47.9596	49.9006
29.7453	-59.808	37.875
27.3481	-59.0841	41.9478
22.5009	-63.2433	36.9578
31.106	-60.6707	33.1562
55.75	-29.2144	67.8883
51.8528	-25.2642	72.8418
59.3153	-32.7404	61.7353
60.0756	-26.7883	67.5257
-1.34434	-9.87159	100.012
-0.0073264	-11.1356	99.1886
3.02614	-7.66861	103.762
-6.25982	-12.4218	95.4394
-45.4147	-67.5248	64.6362
-49.764	-70.8397	59.8924
-41.6814	-71.0689	61.2528
-40.5095	-63.541	69.9207
-48.429	-63.8368	67.3019
93.2079	44.8569	68.9205
91.5506	43.448	75.7049
94.8878	41.8026	67.9976
94.9724	46.1779	61.7568
75.0607	-32.6805	38.2163
70.0941	-36.2806	39.0898
79.8596	-28.7667	37.671
73.6098	-30.9911	45.9316
85.6222	38.135	89.8683
88.1132	40.3157	85.8893
82.7259	36.1735	92.5269
90.0261	42.0251	81.1326
94.1201	4.88018	61.5391
91.0293	2.60672	64.5886
93.7206	-0.932633	55.5597
96.5003	7.33853	58.8798
93.9845	10.2535	67.6849
102.947	5.59985	34.3334
102.919	10.8206	40.8868
100.215	1.16731	38.5193
102.427	0.509014	27.5612
106	10.229	29.7609
97.3018	47.5268	54.5912
100.745	49.0252	49.8558
98.806	45.1879	53.6006
10.1578	-9.31727	103.783
8.20295	-7.55305	105.837
6.33496	-10.7647	100.85
12.6361	-11.125	100.336
13.3513	-8.19901	106.194
31.5077	-17.2976	79.4694
27.4077	-15.9241	81.2545
26.4826	-18.4012	79.4466
34.8253	-19.7394	77.9733
63.4576	-4.27342	78.8097
62.6932	-2.45304	79.2828
62.163	-3.49083	79.1778
30.1159	-4.4539	91.6539
31.0641	-5.87802	89.5868
30.613	-3.42798	91.2447
29.6947	-6.32328	91.6099
33.3308	-2.07832	89.5819
32.0937	-0.644795	91.4139
32.4944	-2.41632	89.781
34.5037	-4.02659	87.4657
34.7491	-1.78311	89.4231
26.134	5.18865	100.809
26.7929	3.62582	99.726
27.0208	5.63567	99.1934
25.3679	4.74811	102.855
35.0361	-6.41278	85.5269
36.4876	-6.15701	85.4307
33.9989	-6.55683	85.9086
34.7499	-8.9314	83.8691
21.34	-3.98402	108.942
20.0303	-4.9515	109.373
22.4646	-6.50545	104.69
22.7542	-2.83069	107.819
20.4071	-1.51257	111.52
71.7631	5.5085	81.9047
75.4165	6.36233	81.1145
71.1941	9.37864	84.6264
68.5535	4.98447	82.6396
71.6491	1.7926	79.563
57.3547	-5.95625	81.7624
58.9229	-7.42075	80.4461
55.6691	-4.41994	83.371
53.7242	-7.08516	82.984
30.669	7.42384	96.6506
29.0618	6.64889	97.3122
31.3005	5.71641	96.0527
32.4431	8.35547	96.3062
2.04807	-12.6227	97.312
-2.30051	-14.8429	93.1091
4.89219	-14.1343	94.2537
26.6239	-12.7246	87.3766
26.3534	-13.2013	86.1361
27.9665	-12.0888	86.6061
25.7871	-12.7121	89.3368
24.8199	-13.0505	89.4422
28.9811	2.98635	96.3109
28.4666	4.34482	97.3531
28.1486	2.51905	97.0009
29.8585	1.84381	94.8652
30.2271	3.79064	95.7446
27.4075	2.28189	98.2219
26.6239	1.87889	100.042
24.6028	-12.6379	91.4339
26.2513	-12.1314	90.4182
23.6948	-12.8636	91.7719
30.0406	-10.7137	85.883
31.6968	-9.04163	85.8119
28.7868	-10.8889	87.966
38.634	11.463	96.6826
36.404	10.334	96.3242
39.325	9.00896	96.2238
40.423	12.1353	96.9974
40.7118	-10.2169	82.5658
36.8752	-10.7712	82.276
41.7109	-12.1527	81.4793
44.8885	-9.45123	83.1413
39.7863	-8.10495	83.9354
62.4278	17.6063	90.5359
63.9295	14.3944	89.3602
64.5426	18.3554	90.2278
60.6984	20.7075	91.3195
60.707	17.0317	91.0641
56.7827	-1.35804	84.074
55.348	-1.88839	84.9643
59.1373	-2.80901	81.3203
57.543	-1.42244	83.3869
23.01	-12.9738	91.6993
21.3692	-12.3935	94.6402
22.3483	-13.3581	90.3759
65.0976	11.2264	87.745
63.3277	10.7414	88.3232
65.8376	8.03773	85.6972
67.2315	11.8996	87.276
59.114	23.3649	91.7177
57.7386	22.6719	92.1259
60.883	24.3012	91.5838
2.30425	-69.3214	51.006
1.69661	-70.2828	49.0635
8.22424	-66.8909	46.8665
2.64909	-68.2813	52.8663
-28.2089	-67.9995	65.2339
-32.7661	-71.3691	60.9507
-23.3912	-71.1989	59.9962
-24.1572	-65.1531	68.8487
-31.9605	-64.7153	69.8493
-17.8476	-73.8465	54.177
-22.108	-77.1526	49.6093
-11.6291	-75.6892	47.098
-14.3405	-71.3248	58.0294
-17.3821	-61.61	72.0667
-19.6794	-62.6646	71.4755
-14.8857	-60.4643	72.2358
-20.7296	-58.6344	76.8454
1.27102	-71.5295	45.782
8.07113	-69.5588	40.3596
-5.95879	-71.5754	53.925
-0.787589	-73.3171	42.7825
-16.9431	-42.4447	78.0787
-17.8202	-38.9631	78.674
-18.3939	-42.8875	79.1902
-15.5149	-46.0927	77.0228
-15.2774	-41.8834	76.5086
-11.0996	-19.5309	84.3666
-9.06428	-18.4325	86.1063
-13.5702	-18.5697	85.9416
-12.6978	-20.4643	83.1591
-8.20185	-20.0732	82.0245
19.2676	-27.9382	72.5758
14.9697	-24.1576	74.556
14.675	-28.2131	71.8718
23.4885	-33.1187	70.1734
24.2034	-27.4265	73.5036
20.6636	-55.5769	51.0767
22.8	-52.2123	54.6009
17.8425	-54.8022	53.1313
17.0544	-58.5007	49.3375
23.1064	-56.3416	49.0542
-6.18506	-16.8186	89.1842
-8.65267	-15.6514	90.7208
-3.05711	-17.734	86.9464
-12.8188	-59.5629	72.0885
-11.2027	-58.4279	71.9231
-16.2502	-56.2432	76.2741
-10.1041	-63.3737	68.2845
-6.67536	-66.2882	64.129
-1.85732	-67.4357	59.4974
-5.26722	-64.9033	64.7352
10.8158	-58.6889	53.9901
11.675	-59.9259	52.0449
13.439	-56.4609	53.7709
9.86139	-57.374	55.8959
7.56428	-61.2251	55.3402
1.44277	-52.3999	65.7095
-0.262783	-51.5499	67.2222
3.23189	-52.9912	63.922
-1.98631	-50.371	68.4568
-3.6186	-48.6006	69.3219
-2.67028	-50.9186	68.8461
-0.82423	-52.3027	67.5269
-4.42986	-48.8941	69.7698
-5.2444	-46.3446	69.8753
-6.47785	-43.8749	70.1356
-6.08126	-46.5062	70.2988
-7.3499	-43.8313	70.5218
-7.21779	-41.3572	70.1023
-7.52322	-38.7152	69.8248
-7.58252	-35.6402	69.2746
-7.53881	-32.6523	68.616
-8.80396	-34.8379	69.6072
-8.58164	-38.0563	70.1413
-8.69436	-31.7933	69.0177
-7.19823	-30.5097	68.0908
-9.8734	-33.8996	70.052
-9.72303	-37.5117	70.6707
-6.99614	-46.7867	70.8513
-8.32282	-43.8992	71.0845
8.73321	-53.2283	59.5904
9.0488	-51.9144	60.4138
-13.7069	-49.7299	75.8213
-12.1504	-48.8613	74.6142
-15.4055	-50.7181	76.9014
-11.5186	-53.4777	74.0526
-1.16498	-59.1457	65.6502
-0.240802	-56.8653	65.9547
-3.61019	-57.243	68.1814
-2.49151	-61.4084	65.4142
11.005	-40.1914	67.6938
7.59341	-34.555	69.5889
12.9141	-45.0623	64.8245
12.7749	-39.7543	67.4863
3.96601	-30.4603	69.9331
5.40191	-29.6259	70.2577
0.944646	-27.7004	69.9009
-4.1897	-25.9207	69.6017
-2.65971	-26.1626	69.7501
-5.24551	-25.9324	69.4594
7.87554	-41.1268	68.0187
5.01521	-36.2696	69.4165
9.39734	-45.802	65.6178
-2.45083	-28.7502	68.3837
-3.39151	-28.2488	68.1563
-0.821053	-29.9132	68.7772
-4.16652	-27.8634	68.1201
-5.0492	-27.6214	68.1826
-13.1666	-27.6801	73.7184
-15.0291	-28.2723	75.7383
-13.8072	-30.2757	73.6488
-11.1224	-27.2294	71.5113
-6.73014	-26.3495	69.4419
-9.21074	-40.8294	71.0158
-10.1057	-27.4681	70.4337
-10.7951	-29.5051	70.4401
-9.13284	-26.2235	70.5371
6.73008	-41.7431	68.0884
3.93636	-36.9027	69.346
-3.10889	-29.3254	67.7932
-1.8065	-30.5744	68.2337
-3.78973	-28.7026	67.6933
-4.36461	-28.4546	67.5812
4.81494	-53.1467	62.281
-25.6691	-25.4785	84.4425
-27.8747	-27.6384	84.8842
-24.0661	-27.2639	83.7068
-23.7304	-23.6507	84.1123
4.47971	-23.3427	73.2561
7.16727	-25.0986	72.3547
7.3222	-22.9373	74.3521
2.22172	-22.435	74.1134
2.54704	-23.8521	72.4074
-0.280993	-21.6121	75.4728
-2.99502	-21.0357	77.2345
-5.128	-23.5636	72.2523
-6.55774	-24.4122	71.3587
-6.63573	-22.7385	74.0828
-14.0696	-24.2939	77.701
-15.1483	-24.4378	78.8288
-15.2772	-26.2209	77.253
-1.09738	-26.5562	69.8675
-0.276659	-25.493	70.7125
0.944897	-24.5048	71.5644
3.52243	-25.9468	71.1044
56.9273	3.09284	83.1161
54.6118	5.7141	85.5179
58.848	0.645625	80.8548
56.7795	3.18164	82.8805
59.9446	-0.622411	79.7127
59.6808	-0.404816	79.6845
43.4585	13.5908	96.9387
44.3686	14.1986	96.5485
42.3769	12.9936	97.1426
44.4006	10.9691	96.3668
47.5199	10.1237	94.3889
48.7773	8.26802	93.3484
48.1427	10.792	93.5935
46.2917	12.1424	95.2823
46.6219	9.55191	95.0762
50.3309	6.49739	91.8735
52.5069	4.71084	89.6258
51.1329	7.06762	90.9243
49.5685	5.89989	92.4969
45.5502	8.99157	95.582
44.4634	8.43738	95.8671
46.9959	7.18757	94.4663
46.4652	5.02315	93.8184
47.6656	4.96903	93.3659
44.7432	6.78653	95.2024
45.3426	4.82682	93.9918
55.3954	2.58058	86.1824
54.4148	2.25523	87.4444
48.5967	11.6489	92.5047
50.1557	9.46916	91.2845
48.7369	12.2644	91.5619
47.2602	13.6802	93.4725
52.031	7.47338	89.521
52.4053	7.85131	88.4942
59.3863	-1.94026	81.1815
61.1387	-2.25249	79.5895
57.8144	3.28961	83.6903
57.9742	3.31601	83.9703
55.59	6.07939	86.4198
57.7351	3.33293	83.4579
59.1006	3.40422	84.4877
57.3917	6.12776	87.4943
58.6868	3.37917	84.405
55.9462	8.63326	90.0007
56.7867	8.64297	89.9857
54.6882	11.0416	91.6226
55.2548	8.50708	89.7928
51.1254	13.2842	92.3424
49.5331	15.5397	93.1201
50.3021	13.1169	91.9747
52.8376	10.8026	91.1533
52.1483	13.5215	92.6496
50.3924	18.3605	94.122
49.3776	17.8808	93.8833
51.569	16.2847	93.694
51.3896	18.8762	94.2463
61.259	-0.0734265	79.0178
60.7166	-0.281081	79.6077
60.2114	1.41325	80.5021
62.3405	0.676018	78.4331
47.6668	17.7216	89.7701
47.1551	17.2669	91.0015
48.6806	18.4856	88.5887
48.8258	16.0757	89.3925
52.3832	19.4257	94.2493
53.5831	17.188	93.8355
53.3423	19.9453	94.1158
56.3829	21.9009	92.7649
55.2046	21.1029	93.4075
57.5393	19.4315	92.4928
43.5608	8.19633	95.9664
42.3213	9.97755	96.6215
42.0922	8.10481	96.0431
48.367	17.4107	93.5194
47.596	17.1442	93.1423
47.2801	17.0611	92.8761
47.1461	16.9792	92.5575
48.3776	15.1767	92.4462
49.9128	13.0602	91.683
49.7328	13.0848	91.4057
51.6461	10.7462	90.4877
47.082	16.9917	91.9511
48.1563	15.2684	91.5788
53.5181	8.48375	88.8453
53.8423	8.43666	89.1347
53.3797	8.52024	88.4789
59.4667	9.38499	89.6974
60.5021	9.7001	89.334
58.4478	12.0756	91.3408
58.554	9.11164	89.903
56.9464	15.1462	92.595
57.943	15.635	92.2233
55.355	18.131	93.5105
56.0516	14.7767	92.8215
54.2557	20.4957	93.8398
52.4379	8.09519	87.7752
52.2786	8.20595	87.2008
50.4389	10.2975	89.4808
60.5097	-0.44912	80.2472
59.8049	0.95523	81.6513
50.3348	14.0404	88.7532
49.7638	13.5603	89.8704
51.3974	14.6432	87.7255
52.0508	11.7118	87.7845
49.6178	13.2495	90.8227
51.3529	10.9793	89.6092
59.1427	16.3682	91.7111
60.677	13.0873	90.491
57.6416	8.87765	90.0138
56.5742	11.477	91.6928
61.8351	10.1955	88.8611
62.5366	7.31586	86.7518
51.8653	8.29703	86.8537
53.8098	6.1602	85.101
50.6882	8.20025	86.2284
49.9342	10.2947	88.109
48.2358	12.4369	89.0799
48.5317	12.6559	89.9094
47.5438	11.6725	87.905
46.8554	14.2286	89.4951
48.2917	7.39341	85.1935
49.8794	5.65343	84.074
45.2799	5.71863	84.1501
46.8107	9.01071	86.0293
64.6918	2.33935	77.9751
63.5489	3.84816	79.5423
67.0222	4.45984	78.1319
50.7297	19.871	87.4951
53.8308	21.4916	86.8712
51.8664	18.1568	87.2506
45.4837	10.6102	86.6451
42.4639	9.11424	85.6886
44.1677	12.3208	87.1073
53.3974	15.9793	86.7259
56.5637	17.5938	85.9631
55.1733	13.5596	85.8756
62.2612	-2.65116	73.5696
62.2074	-2.90601	73.0096
-8.59026	-22.0548	76.4641
-7.32092	-21.2181	78.0954
46.8791	-61.0407	-49.7313
47.9956	-62.2018	-48.12
43.1661	-63.8517	-49.8892
45.5164	-59.5019	-52.9525
50.3624	-58.301	-48.8199
29.381	-71.763	-12.5703
26.8882	-72.149	-7.58619
27.2622	-73.385	-17.0038
25.6649	-74.2899	-22.3722
26.5453	-74.2379	-29.4912
30.2288	-72.1272	-23.3193
20.8603	-76.7281	-23.8418
65.0932	-44.6546	-39.5878
62.2677	-47.4252	-41.5384
68.2352	-41.9359	-36.9028
64.2152	-47.9825	-38.172
59.5835	-49.927	-43.7307
59.5891	-52.5941	-42.0685
56.6862	-52.7106	-45.703
60.1439	-46.4881	-46.3411
48.6458	-63.5501	-47.3433
44.4496	-66.3208	-47.682
51.9861	-61.0546	-46.2904
48.962	-65.14	-47.0966
62.8941	-56.1851	-39.2166
64.3707	-56.6106	-38.159
60.8682	-55.706	-40.5785
65.43	-56.9495	-37.1762
62.4835	-59.7368	-39.3944
68.2896	-54.1654	-34.5303
66.131	-57.4242	-36.024
59.0604	-65.6064	-37.7895
55.863	-68.7519	-41.1042
58.5328	-65.9236	-37.0161
73.0033	-46.2061	-25.9686
71.8147	-47.075	-28.9854
71.8588	-45.6832	-27.9438
73.2822	-45.6473	-23.9288
73.4037	-46.5474	-25.3295
66.8306	-52.0978	-13.7471
67.1814	-51.5803	-13.7118
67.9536	-50.453	-13.9413
58.1612	-66.0842	-36.6071
58.3936	-65.4129	-35.599
46.9788	-75.5128	-41.0144
46.4853	-75.8095	-42.5493
48.0263	-74.8507	-39.3245
38.1649	-80.9524	-38.8514
37.1292	-81.8585	-39.0257
35.3525	-83.0694	-38.0598
33.3037	-83.9694	-34.9865
35.0535	-83.4383	-38.4896
35.1709	-82.5977	-35.7896
47.8254	-64.7885	-14.24
43.7365	-68.5035	-15.0232
50.8668	-62.0737	-13.5245
46.8448	-64.7455	-12.8312
58.9548	-53.1437	-6.57624
55.3778	-55.581	-6.06532
62.0598	-50.957	-7.06619
58.7435	-52.305	-3.67899
57.0161	-58.2248	-16.0677
55.2978	-59.1324	-16.2285
58.9882	-57.5184	-16.5905
30.6665	-71.8659	-23.3652
30.6769	-71.9028	-23.1545
29.8743	-72.6666	-26.9682
28.2964	-82.7574	-24.7021
27.4271	-84.333	-28.0155
29.2561	-83.1304	-23.7561
30.1463	-80.0733	-21.508
27.5632	-82.1607	-25.8186
26.7789	-84.0029	-33.09
26.5013	-83.3348	-29.9486
27.3092	-82.6719	-34.3692
28.2431	-83.5974	-36.8186
26.8026	-84.3627	-32.6379
40.9408	-76.206	-47.1025
41.2404	-77.2779	-46.6524
35.8395	-79.6603	-44.4503
40.9469	-75.2709	-47.2112
40.2284	-71.5418	-15.7943
41.4993	-71.1655	-16.4802
42.7667	-78.54	-44.2172
38.4795	-81.6247	-42.1576
42.887	-78.5119	-44.5896
45.0562	-76.8618	-44.2954
32.1549	-84.1655	-30.9611
32.0305	-83.2657	-26.8275
31.3338	-84.7775	-30.3805
33.2417	-83.2609	-31.6532
40.4276	-73.1019	-18.7937
38.7225	-74.704	-19.6287
41.6548	-71.7758	-18.1223
41.8671	-78.6471	-41.4703
43.7483	-77.601	-43.2769
45.3888	-68.0843	-19.7293
44.2045	-69.3663	-18.702
45.2536	-68.3184	-20.4636
47.5803	-71.9261	-34.2999
46.3596	-74.8693	-36.4529
48.4824	-71.2771	-34.4234
47.0362	-71.9498	-33.6559
52.1478	-57.8284	-6.11692
51.7871	-57.1249	-3.41518
48.5522	-60.5332	-7.04663
39.9579	-69.2176	-46.363
38.25	-71.3562	-45.5584
35.7812	-71.548	-44.3515
39.9403	-67.8894	-47.3994
35.0775	-76.0622	-43.1873
38.761	-73.9768	-45.9934
32.1855	-80.5526	-41.5812
31.5897	-77.9227	-40.0419
41.2397	-73.8603	-47.0696
45.4955	-70.0619	-47.6232
49.6537	-67.2538	-47.0807
59.871	-54.4769	-41.3634
57.4892	-56.6641	-43.1684
62.0852	-52.2368	-39.4213
54.8897	-58.8037	-44.8748
54.3	-57.1875	-45.7667
58.0196	-65.0104	-34.5332
64.1247	-50.0836	-37.597
66.7218	-47.5461	-35.1371
72.7629	-45.8319	-21.0709
72.7304	-45.2856	-20.8335
72.6313	-44.7397	-20.494
72.5364	-44.2677	-25.8671
49.254	-71.0693	-34.9042
49.101	-73.3131	-37.2928
45.9543	-64.5499	-11.6531
45.1738	-64.1452	-10.3351
56.6159	-56.3112	-9.82208
56.9597	-56.4765	-10.5348
62.3397	-56.4137	-16.3459
61.4979	-57.0034	-17.2262
64.6929	-56.2442	-17.9703
53.1715	-60.173	-12.9447
53.6382	-60.3626	-15.2562
29.7722	-78.7435	-36.8381
28.6537	-78.4031	-33.409
31.8483	-74.682	-39.4142
32.7675	-73.0113	-41.1012
30.5012	-73.744	-36.8347
32.8519	-72.4561	-42.1354
40.3354	-78.8823	-36.3659
41.5443	-77.9971	-35.9708
44.915	-68.9604	-21.9834
44.4536	-70.2944	-24.8047
46.2682	-72.3612	-33.1632
45.8827	-71.966	-31.7206
44.0517	-75.5947	-34.609
-69.908	-55.546	61.2574
-76.1915	-58.8673	53.6222
-65.6262	-61.5292	60.1983
-63.6842	-52.262	67.3253
-57.6956	-48.7391	72.4191
-54.2728	-54.7557	71.0438
-51.3795	-44.987	77.0625
-35.0821	-60.5719	73.9115
-37.9021	-56.637	76.4137
-30.5699	-58.3514	77.1651
24.4575	4.40565	105.522
25.3733	2.63628	103.779
23.5914	3.6932	107.785
16.2388	-1.0639	113.344
17.7955	-0.145942	113.436
14.4451	-2.14255	112.676
17.5111	-3.32878	111.936
19.3291	0.777092	112.982
20.7892	1.69086	111.976
27.9368	6.0567	98.1391
34.5283	9.45881	96.2112
35.1995	7.41536	95.7888
22.2157	2.64519	110.244
23.3147	0.763432	108.51
12.5098	-3.15423	111.546
9.99397	-4.39201	109.604
13.9303	-5.19622	110.255
-36.4411	-35.9034	84.813
-39.9634	-38.2257	83.6502
-34.1013	-41.3286	83.5783
-33.5452	-33.8928	85.1848
-15.1367	-17.5145	86.6269
-16.8758	-18.5842	85.4607
-13.0487	-16.2592	88.4287
-18.5085	-19.6867	84.656
-20.0883	-20.7307	84.2185
-16.8627	-20.6458	84.0085
45.5478	16.0622	89.7037
46.0425	16.5137	90.9663
44.7341	15.3915	88.6627
46.2563	16.5144	91.9505
46.2586	16.3188	92.889
47.3009	14.7254	91.5329
45.077	14.6563	95.9839
45.6698	15.1717	95.1639
46.0452	15.7739	94.1496
41.5378	12.5222	97.1342
42.7737	14.3045	87.4385
39.8019	12.8177	86.4143
-61.816	-66.2542	58.8296
-67.2724	-69.6294	51.6223
-57.8882	-70.3177	57.1171
-56.5589	-63.0361	64.4425
-32.4845	-46.4874	82.3035
-34.928	-48.4926	81.4748
-30.6622	-51.7283	80.6475
-28.9331	-44.6611	82.549
-25.5865	-43.8582	82.0425
-22.0444	-43.5696	80.9897
-23.7326	-48.951	80.5166
-19.9792	-43.3034	80.1134
-18.6078	-47.4525	78.9242
-21.0292	-39.1131	81.0304
-10.2796	-40.514	71.696
-9.27061	-43.979	71.721
-10.9382	-36.8731	71.42
-11.5602	-40.7596	72.8004
-8.1577	-41.0468	70.4678
-13.1975	-41.0497	74.3733
-13.9721	-37.4715	74.4698
-11.9897	-44.6575	73.9563
-52.8822	-86.2693	33.5566
-48.5131	-83.52	41.1668
-58.5813	-83.5355	36.4864
-56.7902	-89.0727	23.1745
-54.1224	-73.8648	54.7373
-49.7429	-77.3195	51.5025
-58.6441	-77.0747	48.0793
-28.3848	-56.7404	78.4178
-25.1677	-60.3425	76.3647
-25.1123	-55.1013	79.0658
-17.0379	-51.8499	77.6915
-19.2864	-52.6965	78.4566
-22.3507	-53.7106	79.0513
-10.4819	-47.9403	73.3352
-8.30943	-51.204	72.1333
-9.01816	-47.5212	72.2278
-44.7068	-80.6978	47.1336
-40.9664	-77.7618	52.1686
-39.384	-83.8235	41.6335
-21.5742	-63.6799	70.5358
-17.6183	-66.7072	65.9127
-3.85844	-52.4833	69.5013
-1.71683	-54.2884	67.8417
-5.9478	-50.0089	70.7236
-4.80172	-53.3216	69.951
-9.28619	-57.3351	71.4217
-7.01856	-61.1123	68.4398
-7.55307	-55.8726	70.936
-5.9622	-54.4849	70.3974
-37.0761	-74.592	56.7123
-31.7832	-77.7953	51.328
-34.5654	-86.67	34.6892
-30.2906	-88.9808	26.4935
-30.5639	-83.7104	40.076
1.04051	-53.2132	65.9068
2.94965	-53.7271	64.0469
0.458409	-55.5043	65.8703
2.54277	-55.7448	63.9618
0.706644	-54.137	66.0123
-3.96356	-63.4037	65.1338
0.0419163	-64.0201	61.429
-17.8736	-35.4412	78.4961
-19.4181	-35.5984	80.0021
-16.2303	-34.7736	76.6408
-17.3189	-32.1195	77.887
-21.2127	-35.2759	81.3532
-20.4274	-32.3695	81.0019
-14.1767	-33.7122	74.101
-12.5489	-33.3399	72.2524
-30.7613	-31.2414	85.1781
88.8646	-24.879	-13.5991
89.4399	-24.1043	-19.8222
84.7816	-28.9561	-11.9818
18.6326	-76.3989	-44.407
24.036	-74.918	-39.1116
16.6444	-78.3892	-36.2961
13.3025	-77.9404	-49.2666
21.9996	-73.8619	-49.9858
44.1665	-57.1234	-58.6127
39.5415	-60.8267	-58.8713
43.2903	-54.689	-64.0013
48.9187	-53.446	-56.8818
34.4203	-64.4532	-58.7154
37.1263	-65.658	-52.5826
29.8666	-67.8304	-57.0625
32.0031	-63.1262	-65.059
61.7795	-41.4091	-50.0588
57.5517	-45.468	-52.7084
63.2999	-36.7272	-53.5525
-45.0783	-41.7841	80.8754
-42.4449	-47.0816	79.8091
-40.0404	-52.1571	78.2296
-45.6821	-56.2595	73.935
99.947	28.3418	60.2183
98.1603	33.7956	64.3309
101.353	21.9028	53.8907
101.711	31.6749	53.3592
97.7658	-2.51178	42.0229
95.408	-4.97425	45.7211
96.9	-7.95916	34.7989
98.464	4.06754	49.1785
-26.2737	-80.5136	44.8242
-20.9052	-82.5929	37.3746
-51.3493	-59.6932	69.3075
-25.9674	-91.0676	16.7336
-20.7157	-87.867	22.827
-22.2397	-92.6372	6.5812
-73.7103	-73.0163	41.5253
-78.3665	-68.1044	42.5742
-79.9614	-75.8305	29.3885
-68.8356	-77.0339	40.4406
-4.6848	-76.4135	38.4092
-10.1457	-80.3002	33.6533
4.56394	-55.6225	61.9997
3.0865	-67.0725	54.4385
3.53184	-65.37	56.1562
7.95216	-64.4934	51.3427
3.91914	-63.4791	57.6893
104.724	51.8741	47.9666
90.1176	-19.2847	33.0966
93.2148	-16.0539	29.5993
91.2597	-13.6303	42.2663
87.1258	-22.1084	35.7263
40.1973	7.60415	95.8123
38.0572	6.86164	95.517
41.3595	6.30406	95.2288
53.2844	-2.45543	85.7245
50.5689	-0.975918	88.1879
49.6164	-3.68266	86.5038
38.6559	3.41198	93.6365
36.3731	2.83223	93.3733
40.3146	1.52296	92.0692
