1889
-20.3647	-56.7082	81.8751
-20.2955	-56.6016	81.4761
-75.1414	-31.3533	-3.35358
-75.0583	-39.532	-9.91903
-72.9675	-40.998	-8.72607
-82.8888	-23.7732	-19.372
-84.6479	-26.4388	-21.7074
-84.5981	-19.5044	-23.8173
-78.2768	-36.1269	-9.73654
-77.1061	-30.7437	-5.83842
-80.6145	4.03996	-8.23922
-89.6745	12.4836	-19.3578
-90.0623	14.7626	-17.8626
-78.9481	-17.0787	-12.4849
-78.7584	-21.2956	-13.0101
-83.4509	-3.30969	-11.8946
-84.8888	1.37366	-12.3919
-84.5654	-1.76863	-15.5959
-83.51	-6.11951	-17.5244
-89.5372	-12.3065	-32.6343
-76.2417	-33.6617	-28.3951
-75.7112	-38.5532	-23.1697
-90.4973	-6.69896	-31.4247
-91.0145	-3.75501	-34.3488
-85.9759	-21.6197	-26.3518
-76.4776	-25.5284	-3.78245
-75.9222	-21.9835	-1.32734
-77.3694	-14.4558	-2.04615
-78.5771	-13.9699	-4.4663
-77.2553	-20.118	-3.55893
-81.7927	-26.7015	-14.7567
-81.7187	-8.45227	-13.459
-91.4011	5.85811	-31.6461
-91.0368	4.18377	-30.5487
-90.9083	-1.70888	-31.1171
-90.6707	1.86506	-29.2765
-87.69	7.49392	-18.7602
-90.4514	7.19211	-26.9717
-91.0973	9.49995	-27.8408
-89.4986	4.18003	-25.3626
-27.6517	-98.2488	56.0711
-68.0204	-50.4487	-7.73742
-66.6335	-51.5263	3.77344
-69.7955	-45.4581	-5.27104
-6.9919	20.9221	82.498
-14.9611	-52.1337	88.5844
-15.0834	-50.6272	91.1829
-60.7688	-69.1874	-1.52538
-61.3004	-72.5176	-15.1316
-58.3093	-76.2485	-4.35241
-73.7499	-12.2837	9.80452
-75.7019	-13.3895	2.28214
-59.762	-81.573	-18.0394
-61.4169	-69.3384	-27.9516
-59.6874	-121.856	-23.0172
-58.1445	-115.099	-36.188
-21.1691	-58.3141	82.1278
-20.6625	-57.1848	82.0386
-23.5327	-56.6285	78.9326
-24.4601	-57.2617	78.6019
-17.0635	-59.348	89.0409
-16.6962	-57.954	89.0373
-31.3763	-94.5967	61.5417
-41.9327	-60.5591	-73.3237
-50.3721	-64.6402	-58.6583
-49.2202	-55.6793	-65.9451
-61.1494	75.4021	28.4714
-51.9693	78.8667	43.9454
-53.1855	87.5848	29.2549
-91.0407	-3.01477	-38.0186
-89.7113	-2.67708	-39.5343
-88.9739	-14.3632	-34.3191
-87.8604	-14.8214	-36.1742
-84.9141	-24.4307	-31.0439
-86.0802	-23.2144	-28.2472
-81.2306	-4.67739	-6.81143
-78.1754	-24.4014	-6.47935
-86.0148	-13.9079	-37.863
-79.7802	8.23753	-11.9035
-78.3238	0.828474	-4.08724
-81.1732	-21.0905	-35.5978
-79.8623	-38.2379	-20.5347
-83.0938	-33.4605	-18.5988
-84.5956	-29.1245	-23.7651
-82.3994	-32.1321	-26.7718
-81.577	-34.2627	-13.8663
-83.116	-30.0849	-15.9742
-72.9392	-42.2044	-18.8505
-78.7799	-39.1717	-14.7203
-75.9626	-41.1909	-15.9471
-80.9513	-27.8705	-11.928
-79.5759	-31.2459	-9.45816
-86.9091	11.1755	-11.9684
-83.7083	4.76121	-9.25856
-92.2891	8.29402	-33.0563
-91.6962	2.67976	-35.3844
-87.2357	10.2523	-12.7251
-86.5304	7.50433	-13.7999
-85.6562	5.04364	-11.606
-91.7046	14.2889	-26.2972
-91.2352	12.5024	-25.8798
-89.4082	-7.61142	-29.401
-86.5053	5.39868	-16.5566
-88.3288	0.575538	-24.2134
-87.3609	-12.9489	-28.0008
-78.595	-19.4429	-10.0798
-78.9505	-23.2038	-10.6914
-79.6147	-15.0315	-10.3358
-79.6932	-14.6061	-8.30252
-82.181	-4.99766	-8.50313
-82.1307	-6.75987	-10.9077
-85.3484	1.84166	-14.778
-53.6713	-52.3077	-59.652
-22.5031	-24.7182	84.2843
-19.8906	-15.4245	86.1958
-27.822	-23.9437	83.4298
-16.9847	-22.8455	86.7181
-17.2771	-15.5749	88.3365
-50.3149	13.4284	60.7174
-51.1056	18.7734	62.8537
-29.3831	9.31744	75.1716
-55.7429	30.1762	64.651
-47.5838	34.3146	74.5083
-6.79238	-22.5841	96.1006
-9.02718	-23.368	93.4941
-7.26954	-24.7908	93.6277
-8.25943	-20.3981	97.8678
-13.3791	-13.1944	96.2366
-13.7166	-11.3	95.1075
-14.7564	-14.0068	93.5963
-63.9191	83.4018	4.25449
-68.6789	71.2211	9.75618
-23.4462	-58.8243	75.7291
-23.6859	-54.8596	75.6563
-11.5222	-20.9722	93.9027
4.08998	-22.0539	95.6826
-9.34167	-26.3086	91.4758
77.0069	-39.6401	-24.3124
77.4323	-34.6129	-29.447
67.7757	-46.5865	21.7269
66.0573	-56.9799	18.8177
70.4291	-43.8953	6.94664
57.2927	-104.936	-12.9304
52.3134	-106.299	-4.27012
56.8588	-141.161	-7.68886
60.5789	-137.469	-17.3006
58.9012	-124.405	-14.6664
54.4387	-127.409	-5.64752
52.3399	-93.689	-2.57004
45.6373	-95.3256	7.60635
45.1464	-108.245	5.03985
59.8459	-103.228	-22.1803
60.2308	-91.0792	-21.1764
57.2894	-92.9204	-11.7191
63.5614	-65.5735	15.4176
60.2398	-69.4601	29.8928
57.0935	-76.4221	24.7626
60.0283	-72.8234	11.1435
74.8875	37.2372	9.14058
67.7548	41.5729	31.3306
65.3296	25.2847	40.2823
73.5402	20.9766	16.3934
78.3516	31.518	-33.1509
75.3827	45.0697	-43.6395
76.5608	50.7722	-22.6836
78.1985	35.3516	-13.2126
7.92914	-110.824	43.3788
6.75059	-121.53	39.4766
12.4981	-120.29	36.6861
13.5726	-109.736	41.1055
7.22407	-143.056	31.2313
14.6302	-141.774	28.6581
8.38111	-155.803	26.9095
0.792683	-143.479	32.049
0.593463	-156.191	27.8313
69.5562	-42.5619	-34.4979
67.2701	-55.4665	-26.2338
63.5612	-53.5123	-40.4067
65.1956	-41.6624	-46.34
71.8551	-33.146	-39.0387
61.7105	-133.6	-28.0564
59.5247	-129.197	-40.8439
1.63536	-122.044	40.3693
64.3845	-47.3952	35.3761
62.6375	-59.703	32.8974
65.4418	-62.2164	-0.211183
5.70589	-84.9114	93.9782
6.18622	-93.325	90.4292
13.7222	-93.2982	86.6316
13.4117	-84.2159	90.3652
21.8883	-91.3286	80.4801
22.0356	-82.7555	83.5263
5.45112	-75.8866	94.3125
-0.860934	-76.5409	95.1413
-0.755422	-85.5788	94.9543
6.13754	-99.7172	82.3867
6.57592	-102.987	70.3805
12.5455	2.22893	85.2411
17.0237	0.12315	83.2724
16.5557	6.20857	77.9851
12.6214	8.39323	79.5604
51.1183	-32.3731	67.6514
51.1054	-20.4928	69.3789
37.7233	-15.3517	80.3348
39.7689	-27.918	78.6802
60.7952	-23.5665	54.4439
48.7383	-7.63065	70.5428
67.0556	7.41358	37.7893
62.9655	9.01429	45.8095
40.48	-39.1912	75.8976
50.4476	-43.0336	65.0126
2.64872	7.12993	92.3248
-0.778185	8.04557	92.9391
-0.923981	-0.57308	100.258
2.92805	-1.13484	99.2272
26.9779	77.5608	67.9079
25.9509	65.0509	75.5298
35.592	63.6924	70.8146
37.65	74.7498	63.0123
0.976275	-106.186	56.4345
6.85264	-105.78	55.3953
-0.319322	-103.299	71.2799
58.8127	-46.1192	50.1061
56.9264	-59.7827	47.4382
-0.550143	-94.0618	91.2893
-0.666561	-100.009	83.1668
32.1645	-88.322	69.2012
41.4691	-89.1009	50.7266
42.6127	-82.8501	57.9419
34.1859	-96.6098	33.8781
42.0066	-91.6762	23.4243
47.6629	-86.4013	31.366
38.5528	-92.7548	43.4655
2.81986	-111.376	44.3428
3.07723	-6.81304	104.418
7.93164	-7.62171	99.3941
7.56297	-2.36756	95.1324
24.1967	-9.75347	84.1862
16.7904	-7.31852	86.4163
26.8507	-53.7956	78.2478
11.3573	-21.2358	90.5103
11.0186	-23.0708	89.2051
8.17231	-26.6224	90.8345
12.2032	-25.6572	88.0524
11.3414	-24.7054	88.1705
1.76503	-22.4428	98.2665
-1.36293	-22.967	99.5581
-1.37851	-24.9394	96.6212
1.86966	-23.9941	95.7757
16.5959	-23.6328	85.7536
3.36836	-14.0619	107.161
3.09508	-17.552	105.411
7.35846	-16.5455	100.138
8.09339	-13.1994	101.339
28.8706	-69.5696	77.8596
25.6445	-61.5967	79.9227
19.4325	-65.2799	85.941
21.0148	-72.7489	84.7706
27.901	-41.443	81.8849
23.6583	-38.146	85.2173
-1.19488	-32.3119	95.0735
2.57607	-31.1564	94.6398
1.98896	-26.5225	94.4949
-1.32446	-27.5482	95.1852
7.54651	4.79751	89.2096
14.1068	-10.9753	89.8881
13.62	-11.9413	91.2336
14.1704	-14.2622	90.2089
4.43542	-26.3656	93.0988
13.7121	-19.1026	88.9552
-0.895873	-41.9402	98.4744
4.20051	-40.1931	97.9039
3.45611	-35.9316	96.0951
-1.07104	-37.7072	96.6141
20.8238	-29.9254	85.755
25.8488	-31.8462	83.6412
12.0057	-63.5231	92.2566
5.26859	-65.0378	95.1233
5.70493	-68.845	94.2839
12.5418	-67.657	91.3145
20.1405	-43.9863	87.8524
23.8313	-47.6197	81.0433
11.7159	-8.80071	93.1964
18.1054	-60.7192	87.3362
-0.180212	-65.7676	95.8249
-0.277328	-69.2294	95.1021
58.5528	21.0473	54.9996
61.4178	22.7287	49.8865
56.214	33.5091	61.6694
35.5979	48.9556	77.4724
46.9103	45.1031	69.1844
47.4166	59.0519	62.1757
56.9951	39.3076	57.4874
58.6121	50.6527	49.5603
47.3321	38.1532	72.1566
36.5473	39.8804	80.8742
21.612	25.6779	78.3665
29.7153	27.0693	78.474
29.2841	28.8709	82.6698
19.5028	27.1225	82.8816
7.87566	11.2952	83.6166
3.0058	18.1292	85.3991
2.77676	14.3194	87.2415
22.9173	-1.86628	82.2357
35.0103	-4.57273	79.4972
32.9583	2.64367	76.7612
21.1585	4.34827	78.0837
58.7164	9.96055	51.6284
54.3265	11.5392	56.1063
51.4043	6.56448	59.8652
47.0616	29.678	73.4462
37.7994	33.6561	80.736
38.2932	30.0608	78.8089
53.4748	26.1603	65.6822
55.3028	19.7081	58.7485
45.5115	17.8645	63.724
37.918	28.2773	76.8571
47.1575	22.0983	67.1162
43.3963	25.373	71.5505
14.6939	23.9677	77.058
11.7451	21.1928	76.0552
15.6944	21.2417	72.2911
0.0793953	32.8921	87.4719
-0.305438	27.3673	86.1992
4.57849	26.5958	85.4159
6.18853	30.8228	87.0412
19.826	8.08133	75.0598
10.3539	23.129	79.3009
19.9026	10.6848	73.2373
14.5875	-46.6469	86.7754
20.2396	-48.1641	81.6213
4.81585	-44.5456	97.8871
4.59031	-42.1717	98.3423
-0.889626	-43.8145	98.9677
-0.885088	-45.8828	98.6478
9.84616	-43.3103	96.0526
4.77767	-46.3547	96.646
9.68444	-45.2912	94.7138
15.5153	-43.4437	92.202
9.39422	-40.9984	96.7784
15.3795	-41.2547	93.2305
3.93264	-47.6647	94.8522
9.2025	-46.6467	92.5438
24.5241	-49.4305	79.1158
15.0928	-50.5254	86.7991
15.3942	-50.9515	87.7219
15.9019	-52.0613	88.5384
9.90914	-53.6304	93.6296
10.5303	-55.6329	94.035
3.80237	-55.0501	96.3546
9.43253	-52.0574	92.585
3.69915	-53.4771	95.1103
-0.246883	-57.8514	97.6008
4.07283	-57.0504	96.9665
-0.245239	-56.0461	96.9841
20.4545	-50.4778	80.799
-0.368866	-54.3216	92.0043
3.73959	-53.1932	91.421
-0.252098	-60.1643	97.5927
4.35786	-59.4781	96.9295
4.76726	-61.8854	96.2601
-0.261602	-62.6689	96.9309
8.01749	-39.3493	96.9323
-0.337239	-54.5945	95.6715
3.75387	-52.8944	93.8301
-0.417213	-54.0713	94.3111
9.26245	-51.5004	91.4096
11.4807	-60.3176	93.3067
11.0364	-57.9805	93.9209
8.91648	-46.657	90.4231
9.13858	-51.8071	89.3058
9.09723	-44.8564	87.8816
13.6374	-44.6872	85.4449
20.5822	-52.5222	79.4807
3.82576	-55.0188	89.2465
-0.249456	-56.1525	89.7121
3.64933	-47.7867	92.5887
4.48841	-45.9097	89.4732
9.42977	-53.6464	87.2614
24.8247	-39.6629	73.9533
28.07	-44.966	70.8505
8.99397	-37.8327	85.099
13.8599	-37.2331	82.6954
25.9123	-57.4227	74.015
21.9102	-58.6103	78.0412
4.30224	-39.108	86.3087
9.90602	-59.1407	85.6781
4.3075	-59.7486	87.875
28.1665	-52.9008	71.0752
80.3779	-14.5485	-41.0615
77.0478	-14.0638	-46.0812
78.636	-4.03205	-46.8827
81.7272	-5.61327	-41.8374
79.1793	-0.286101	-4.58423
80.4751	7.31607	-12.3461
78.1258	18.2788	-6.19868
76.8462	2.11248	2.97021
79.6226	18.1114	-24.9965
80.2587	9.89574	-20.8549
76.7847	-29.0702	-34.6214
74.5747	-36.273	-30.535
74.4455	-24.0141	-43.2728
78.7588	-22.1706	-38.2463
84.441	-3.7004	-40.4821
83.6424	-14.3863	-39.4752
81.7645	-32.388	-29.7911
84.4858	-23.9346	-34.3617
78.4716	-40.5939	-22.8883
75.9345	-42.6097	-19.6638
78.5449	-37.8584	-10.5557
89.4151	-14.4806	-30.784
92.0271	0.0768942	-34.8591
84.0445	-24.8988	-20.3017
75.4803	-24.3133	2.5972
74.1865	-32.7707	1.42284
79.9567	-21.0653	-8.79973
80.1545	-25.1368	-9.3749
80.145	9.17147	-19.4903
88.4883	-3.75409	-40.7635
90.0834	16.8517	-19.06
88.422	17.9766	-21.1878
87.1246	17.0122	-23.4189
93.1718	7.63291	-34.6353
87.2447	6.5844	-14.2455
84.9258	0.679669	-10.2715
90.6947	-4.91969	-29.6227
90.4262	-2.15988	-28.2519
82.2573	4.23105	-38.4221
84.1855	6.7661	-35.2635
79.8109	-28.4103	-33.089
85.9427	-10.7021	-23.7108
82.6854	10.7534	-28.1683
81.8654	9.77775	-30.6993
89.6965	9.0225	-20.9143
-0.365538	79.6293	71.4994
15.0952	79.1458	70.4632
15.7154	92.8022	58.3008
-0.425128	94.2355	58.6676
0.25976	64.94	79.8551
14.9498	65.1374	78.3914
25.467	48.1438	82.2132
2.2813	-20.7427	101.517
-1.18424	-21.0075	103.477
3.39792	-10.7101	106.758
-1.12455	-10.7658	108.375
-1.02602	-14.3958	108.866
-0.98489	-17.8404	107.319
-1.14224	-6.55912	105.753
0.120392	49.4412	86.254
0.30321	42.2704	87.9977
11.206	36.3504	87.1735
13.3154	47.5117	84.8716
-0.621304	15.2194	87.9837
-0.518515	19.0755	86.2302
3.25982	21.9655	84.7101
-0.465235	22.8005	85.5906
-0.635524	-48.8037	93.1433
-0.579577	-46.9691	89.9358
-0.621563	-48.6321	95.4874
-0.849827	-47.5009	97.5168
-0.551218	-40.3988	86.7204
28.3066	89.5489	56.6793
25.0206	38.1799	85.0563
27.8938	31.5418	84.7905
29.8134	25.9378	74.3323
22.064	24.1037	73.5869
41.3926	96.7151	33.4179
39.4573	85.0123	52.4502
37.1598	26.521	73.9766
49.556	69.2715	54.1319
45.6687	27.3757	72.8717
60.3086	62.9045	40.1682
50.9313	23.8399	66.6039
13.1075	25.715	81.1624
66.3253	-61.2983	-14.0183
79.9355	13.8522	-37.058
77.3041	23.4556	-48.8131
72.0461	-15.7036	-56.843
74.5793	-1.6475	-59.056
76.0397	11.991	-57.1305
79.5351	6.27035	-44.1608
68.3899	-29.0743	-52.3407
13.7874	-104.52	52.4129
24.5166	-101.136	44.4691
51.2913	-81.6473	38.7223
69.305	56.6767	20.9992
29.4573	103.489	35.7932
15.872	107.965	36.5989
52.5343	-74.0223	46.7903
6.86213	-35.231	95.4232
18.4149	-35.3956	89.2725
5.50575	-30.6788	93.8192
12.2811	-34.5093	93.1421
10.0469	-30.3084	91.9263
31.9109	-52.8481	76.8049
32.5134	-45.279	78.687
71.7977	-46.3447	-21.4635
71.9913	-34.9044	9.30727
73.4304	-25.5814	10.383
72.8239	4.6425	20.3751
71.905	-11.3902	23.9411
48.5321	10.4554	61.2224
70.7203	-24.698	24.3122
69.2719	-35.7224	23.3909
12.1295	-4.35484	89.7981
11.1119	-16.6735	94.3654
12.8302	-17.8812	91.2674
31.5679	-35.3434	81.2449
48.763	-55.0271	62.9545
39.9995	-49.7711	73.3013
45.8648	-66.0433	62.8891
60.1597	-34.6574	52.3989
39.8778	-73.8142	67.0879
31.6953	-79.4523	74.0955
46.1227	0.954532	69.4399
43.9928	6.11013	68.5145
38.0912	-58.3364	72.641
34.4169	-64.5374	74.1015
12.9791	-74.7223	90.9398
31.1981	6.73622	75.1556
8.25811	-10.6293	100.995
66.8652	-23.5472	39.2896
65.7538	-35.4982	37.5179
8.21674	25.1016	82.9518
15.2958	-29.546	88.7682
18.5272	-45.6373	81.6501
19.3503	-37.7358	78.7121
32.7102	-136.486	17.4711
35.4812	-150.675	14.7113
43.9814	-147.9	8.42387
40.8152	-133.219	10.5466
38.8159	-98.6298	16.4669
31.5957	-102.723	25.1815
30.0261	-114.435	21.8016
37.7809	-111.266	13.4391
29.6082	-57.4574	77.1649
48.1761	-87.761	12.4073
52.7706	-81.8413	18.5913
47.9086	-130.215	3.1341
51.1697	-144.725	1.03395
56.4652	-78.7837	5.9609
58.1216	-84.0933	-9.45034
53.7188	-85.4098	0.748122
58.8415	-97.4572	-35.741
73.0743	-39.3307	-1.12477
60.1075	-81.9411	-33.8544
54.5539	-124.748	-53.8409
53.6707	-108.043	-51.5987
23.6097	-139.209	23.8831
26.1459	-153.01	20.0838
22.3716	-106.925	34.8704
20.8292	-117.733	30.5683
23.6728	-57.3922	80.9136
15.0382	-50.817	85.4993
15.3462	-52.6775	83.855
16.8265	-154.762	24.2929
16.1856	-58.8829	82.2218
75.136	53.0445	-0.74099
48.5583	-82.7427	-59.6443
54.0026	-88.7021	-49.3198
47.641	-103.397	-61.7843
48.0686	-120.949	-64.4904
56.6522	-68.2027	-47.9585
29.702	114.247	7.06404
15.4605	119.269	6.88867
15.5624	112.222	-64.0773
30.1972	108.307	-60.8957
28.7744	89.3028	-89.8036
14.5477	92.1517	-93.4115
27.7443	64.5772	-106.567
14.3872	66.7725	-110.145
30.2352	116.638	-26.6418
15.6392	121.401	-28.481
-0.0542078	122.998	-29.0566
-0.191289	121.008	6.57848
26.855	38.316	-114.753
14.1541	40.4375	-118.319
25.8134	10.6629	-116.549
13.2235	12.3134	-120.46
24.2089	-15.2911	-111.411
22.4641	-39.2516	-99.0413
11.5454	-38.7791	-101.498
12.3281	-13.7711	-115.417
0.140184	-13.1834	-116.793
0.159153	12.7571	-121.767
10.2478	-75.5863	-85.2477
20.7407	-77.0017	-82.9014
19.7689	-95.8014	-82.1066
9.92918	-94.6203	-83.7989
9.90697	-113.398	-83.3987
0.275634	-113.259	-83.7099
0.29644	-93.7096	-84.195
22.1478	-57.5103	-88.3918
11.2604	-55.567	-91.2205
0.249228	-55.6249	-91.557
0.293199	-75.2665	-85.7384
54.3501	95.5164	4.7297
42.7148	106.191	6.3464
52.8122	77.5021	-76.1393
52.1912	55.807	-91.8425
40.9342	60.7435	-100.118
41.6572	84.4065	-83.8109
42.5758	101.94	-56.4595
53.786	92.5839	-51.1134
55.3295	97.5071	-23.4221
43.594	108.54	-24.9291
50.8791	31.8927	-100.072
39.7932	35.3701	-108.279
48.7027	7.11524	-102.022
38.2037	8.80439	-110.12
45.4623	-17.7546	-97.4261
35.9158	-16.8839	-105.036
43.9783	-40.9976	-85.1964
33.8824	-40.6587	-93.1798
32.987	-59.4712	-82.6489
39.1025	-99.3389	-71.6165
29.7945	-97.5356	-78.2229
31.437	-78.3757	-77.7826
40.8682	-79.4843	-69.9234
29.8151	-115.234	-79.0878
19.7229	-113.936	-82.1634
63.6235	80.4776	-44.26
71.6925	66.0343	-34.0625
69.9028	57.7216	-55.6447
62.0729	68.7057	-67.1547
72.1111	68.6898	-11.9256
65.0391	84.07	-20.1904
61.2304	49.7331	-82.3959
59.8484	27.8476	-90.6538
57.9647	4.80371	-91.7275
54.1612	-18.537	-87.2662
51.5561	-39.7703	-76.7635
73.8051	32.9415	-59.9841
61.3022	-18.4267	-76.6769
64.897	2.54776	-81.2949
70.5044	0.325045	-70.0187
67.166	-17.2495	-66.655
66.6928	22.9998	-80.4947
72.1729	17.1534	-68.8812
68.3817	42.109	-71.7157
57.454	-37.2071	-68.5448
63.0087	-33.4802	-60.2859
59.195	-48.8121	-53.598
92.8248	8.41416	-35.2717
91.059	9.12903	-36.4763
89.9394	17.1538	-28.6031
91.7938	15.9759	-27.4716
85.6067	12.9028	-15.0242
87.3365	11.9502	-13.0642
83.5119	12.3624	-18.028
89.3127	7.54088	-37.4092
88.7433	15.7582	-29.8779
91.9793	-3.63568	-37.469
90.8267	15.6026	-18.2726
92.4042	14.6833	-27.0158
-0.341438	109.712	36.654
0.0523439	113.592	-65.0061
39.6575	-117.647	-73.1202
0.134	92.966	-94.6006
0.154501	67.3375	-111.317
0.171724	41.1623	-119.519
0.180983	-39.1506	-101.793
-65.6149	-44.6691	22.9698
-68.5987	-42.0296	8.22582
-64.0307	-54.9303	20.3466
-56.0048	-105.841	-11.6738
-51.0264	-107.535	-3.06383
-55.8878	-142.012	-6.83356
-53.3307	-128.486	-4.65169
-57.7951	-125.351	-13.592
-59.6138	-138.261	-16.3819
-50.9361	-94.6913	-1.22793
-43.8954	-109.777	6.09356
-44.2315	-97.0175	8.80039
-55.8782	-93.4794	-10.3484
-58.7739	-91.393	-19.8111
-58.5604	-103.88	-20.9206
-61.8451	-63.8117	17.105
-58.5041	-71.8768	13.0475
-55.8049	-75.1432	26.5832
-58.7949	-67.0704	31.4879
-74.7184	38.0008	9.15319
-73.1327	22.0249	16.3774
-65.3445	26.1588	40.2737
-67.8782	42.2526	31.2735
-77.9976	32.0495	-32.8758
-77.9085	35.9939	-13.0433
-76.3752	51.2141	-22.5577
-75.1179	45.4476	-43.4348
-2.78752	-111.541	43.9401
-9.87402	-110.844	41.8532
-9.69579	-121.003	36.9294
-3.55205	-121.905	39.5877
-13.1031	-142.217	28.8386
-5.64004	-143.262	31.3091
-7.20543	-155.974	27.0079
-68.3423	-41.7795	-33.3842
-62.3058	-52.981	-39.2964
-65.8107	-54.6002	-24.9366
-70.7896	-32.414	-38.0715
-64.1462	-41.1189	-45.3816
-60.7558	-134.282	-27.1413
-58.6147	-129.738	-40.0015
-60.3068	-58.471	34.8974
-62.201	-45.8064	36.7696
-63.8016	-60.7571	1.34476
-6.67899	-85.8322	93.8928
-14.1245	-85.107	89.9525
-14.1371	-93.6092	86.4553
-6.55946	-93.5698	90.7022
-22.6722	-83.7386	82.4131
-22.4717	-92.0163	79.2168
-6.87198	-76.7343	94.0386
-7.29954	-99.744	82.444
-7.13968	-103.043	70.1759
-13.2186	1.94916	85.9818
-12.7913	8.30063	80.5888
-16.7693	5.59298	78.8276
-17.8593	-0.480456	83.3202
-51.3796	-31.0485	67.7847
-40.4118	-27.724	78.8068
-38.3166	-15.413	80.5368
-50.3227	-19.2168	71.0191
-60.7766	-21.4674	53.9926
-48.1281	-7.00656	71.526
-62.6961	10.0491	46.1392
-66.6605	8.74707	37.6571
-40.6734	-39.6187	75.7563
-50.3386	-42.2976	64.8507
-4.15295	7.0455	92.503
-4.59494	-0.967397	99.4016
-27.8984	77.6706	68.1067
-38.662	74.8489	63.1433
-36.9363	63.7875	71.279
-26.8666	65.2171	76.2178
-4.93141	-106.044	55.3877
-57.5623	-44.7164	50.5353
-55.0008	-58.9457	48.7263
-32.3886	-89.3352	67.3817
-42.0486	-83.7269	57.0598
-41.0473	-89.7631	50.1079
-33.3439	-97.9275	34.0778
-38.2457	-93.4732	43.3238
-46.1933	-87.1962	32.9428
-40.4125	-93.4456	24.4946
-5.23058	-6.80886	104.585
-9.09531	-2.35383	95.7467
-9.80037	-7.62283	100.06
-18.1541	-7.97504	86.8763
-24.8386	-11.0241	84.4914
-26.3378	-58.9763	77.8606
-13.0019	-22.2052	91.4143
-12.561	-24.5202	89.9957
-9.91629	-29.0676	91.3525
-12.8004	-26.774	88.9502
-13.636	-28.642	88.7618
-4.54155	-22.6727	98.3876
-4.62747	-24.5494	95.8193
-18.1755	-26.5843	85.9376
-5.56939	-14.0004	107.38
-10.2101	-13.0113	102.039
-9.64965	-16.5091	100.812
-5.34881	-17.4613	105.665
-28.5239	-71.9171	77.1235
-21.4023	-74.7884	84.0327
-19.6409	-68.1064	85.6016
-25.159	-65.2063	79.5543
-28.2259	-45.9239	81.5523
-24.1087	-42.9237	85.1191
-4.77545	-27.3024	94.4272
-5.13011	-32.4762	94.5968
-8.67675	4.65925	89.8372
-15.6524	-11.5927	90.8855
-15.7289	-15.0315	91.2172
-15.2175	-12.5027	92.2891
-7.12596	-28.1868	93.0615
-15.2545	-20.2471	89.712
-5.61298	-37.8375	96.186
-5.87944	-42.1774	97.9514
-26.392	-35.0645	83.4911
-21.471	-33.5882	85.8962
-12.2125	-66.3166	92.2807
-12.93	-69.8259	91.182
-6.32982	-70.012	94.2125
-5.5917	-66.4324	95.12
-20.1322	-50.0426	87.9685
-23.61	-54.3284	80.8737
-13.435	-9.29479	94.1876
-18.3015	-64.3045	87.3088
-56.6028	33.9147	62.3852
-61.5361	23.1954	50.2814
-58.6873	21.4017	55.755
-48.4539	58.9801	62.476
-47.3624	45.7335	70.1545
-36.1333	49.5327	78.9386
-59.1641	51.0801	49.6608
-57.5427	39.8788	57.6944
-37.1424	41.0659	82.0493
-47.1625	39.2321	73.5692
-21.2029	26.4132	79.1868
-19.1558	28.0869	82.7251
-28.8414	29.7661	82.1933
-28.7692	27.9898	79.4712
-8.56216	11.3617	84.1681
-3.93171	14.3094	87.2931
-4.01703	18.1256	85.4257
-23.2448	-2.38697	82.0897
-21.0608	3.76776	78.562
-33.0031	2.45107	77.2309
-35.6947	-4.48965	79.3027
-50.9642	7.0385	60.9723
-53.9035	11.5524	57.4686
-58.6418	10.3751	52.2345
-47.2146	30.6881	74.374
-37.5398	31.3741	80.8835
-37.8638	35.0586	83.0578
-53.8378	26.8415	66.322
-55.3774	19.8853	59.6841
-36.7348	28.8505	78.1251
-46.5597	22.2796	68.5174
-42.7342	25.616	72.7325
-11.8073	21.4365	77.0958
-14.6102	24.3345	77.9732
-16.3164	21.7208	73.3707
-5.90118	31.0505	86.4828
-5.23917	26.8703	85.3503
-20.0646	7.72255	75.9863
-10.4089	23.4113	80.0775
-19.8008	10.5696	74.3048
-14.9285	-52.2517	86.8066
-20.1469	-54.8478	81.4153
-6.35825	-46.7392	97.8556
-6.22819	-44.2821	98.343
-10.7795	-47.2957	96.1363
-10.4727	-49.3638	94.7736
-6.21912	-48.6771	96.5672
-15.7337	-48.6444	92.5558
-10.5119	-44.8045	96.8976
-15.7516	-46.1758	93.5536
-9.80346	-50.8262	92.5126
-5.09633	-49.8611	94.7091
-15.6421	-56.0551	88.0421
-15.2537	-55.7526	87.0823
-16.1825	-56.9348	88.8314
-10.9565	-59.3904	94.1831
-10.4592	-57.6248	93.8149
-4.2179	-57.1045	96.5159
-4.22782	-55.5231	95.2154
-9.9609	-56.0929	92.7795
-4.41059	-58.9925	97.0813
-20.0506	-57.0927	80.7559
-4.24214	-55.233	91.402
-4.71349	-61.1689	97.0045
-4.99891	-63.3477	96.3459
-9.41443	-42.7146	97.0771
-4.36924	-54.9693	93.8843
-9.66965	-55.5197	91.5756
-11.7917	-63.5265	93.3471
-11.428	-61.4316	93.9924
-9.51614	-50.8833	90.6362
-9.41979	-55.8185	89.3892
-14.0982	-50.3954	85.7083
-9.67811	-49.2205	88.2613
-20.1861	-59.2959	79.3695
-4.2412	-57.0647	89.2274
-4.76081	-49.9621	92.697
-5.46261	-48.3927	89.6812
-9.6739	-57.6689	87.3086
-24.7964	-46.9729	73.9815
-27.6571	-52.4593	70.7662
-14.4342	-42.9574	83.0112
-9.82741	-41.9911	85.4454
-24.9481	-64.6066	73.9639
-21.023	-65.0411	78.1719
-4.55696	-61.7367	87.8864
-0.182677	-60.6529	88.5864
-5.3408	-41.2906	86.5263
-9.82891	-62.9502	85.7431
-27.3917	-60.3834	70.9025
-79.5275	-13.8508	-40.3339
-80.9808	-4.95294	-41.2176
-77.9366	-3.43498	-46.3022
-76.2374	-13.432	-45.3939
-76.0093	3.30487	3.34249
-77.6093	19.1662	-5.93825
-79.1174	18.8037	-24.6281
-79.63	10.6945	-20.4091
-75.7133	-28.2418	-33.6639
-73.3832	-35.3607	-29.4489
-77.802	-21.4106	-37.4068
-73.5114	-23.3382	-42.4513
-83.6973	-3.01547	-39.8817
-82.7762	-13.6485	-38.7553
-80.621	-31.4255	-28.7992
-83.4791	-23.0767	-33.5097
-77.1593	-39.4618	-21.7476
-74.5466	-41.4005	-18.4484
-88.4972	-13.6065	-30.0541
-91.3031	0.804397	-34.3099
-74.0471	-22.7279	3.50023
-72.6055	-31.0887	2.51623
-78.7394	-19.715	-7.93717
-78.8726	-23.761	-8.4345
-79.5022	10.0121	-19.0462
-87.765	-3.0755	-40.1785
-87.8951	18.7131	-20.8315
-89.5323	17.6234	-18.7091
-86.575	17.7272	-23.0493
-84.1117	1.73715	-9.77348
-92.5302	8.32401	-34.1673
-89.8886	-4.08904	-29.01
-89.6466	-1.33319	-27.6721
-83.5431	7.45055	-34.7633
-81.6072	4.8873	-37.8997
-78.7288	-27.535	-32.1526
-79.3745	-3.61361	-4.81017
-82.0818	11.4839	-27.7142
-81.2493	10.4811	-30.2289
-89.037	9.84867	-20.4754
-85.0128	-9.7643	-23.0024
-16.5776	92.8318	58.2937
-15.9052	79.23	70.5493
-15.0125	65.3314	78.7445
-25.7984	49.152	83.0386
-4.74173	-20.8519	101.738
-5.60856	-10.6663	106.938
-13.2769	47.8914	85.369
-10.5162	36.5001	86.6488
-4.11799	22.0289	84.7389
-29.1719	89.6114	56.6571
-24.8528	38.3026	84.8601
-27.7491	32.3082	83.7576
-28.4775	26.3452	75.3991
-21.4833	24.4091	74.553
-40.3028	85.0924	52.4107
-42.0567	96.7782	33.2736
-35.6553	26.874	75.0142
-50.4077	69.3193	54.2216
-45.6833	28.1262	73.8624
-60.8607	63.1656	40.0913
-50.8552	24.2062	67.5691
-12.8034	26.273	81.7701
-64.7536	-60.2174	-12.5674
-79.4002	14.468	-36.6317
-76.8857	23.9252	-48.478
-73.9715	-1.17515	-58.5754
-71.3067	-15.1996	-56.2342
-78.935	6.85779	-43.6713
-75.5403	12.4423	-56.7362
-67.5017	-28.5487	-51.5685
-12.3064	-105.049	52.1648
-23.6256	-102.055	44.1837
-49.8431	-81.6048	39.8817
-69.5034	57.1687	20.9055
-16.5768	107.979	36.5284
-30.1505	103.523	35.6774
-47.5755	18.4469	64.725
-50.7577	-73.9484	48.0097
-8.73431	-38.3565	95.6781
-18.8407	-39.8934	89.6729
-7.89937	-32.9387	93.8907
-11.5662	-33.498	92.3904
-13.2901	-38.3569	93.5584
-32.3192	-48.6012	78.41
-31.0816	-56.9591	76.4323
-70.393	-45.2217	-20.1884
-70.2228	-33.117	10.376
-71.8665	-23.9192	11.2227
-72.0636	5.99758	20.4369
-70.7823	-9.75417	24.2129
-48.1025	10.6062	62.6516
-69.113	-23.1269	25.0126
-67.2832	-34.0024	24.3722
-13.5646	-4.68585	90.511
-14.421	-18.5035	92.3072
-12.9508	-16.9113	95.4688
-31.6058	-37.4365	81.1472
-47.7871	-55.18	63.1147
-39.21	-51.3453	73.2548
-44.5684	-67.0777	62.9773
-59.7211	-32.7122	52.1789
-31.5251	-81.0749	72.9516
-39.0974	-75.5983	66.3396
-45.544	1.96312	70.1578
-43.0776	6.75757	69.8428
-37.1825	-60.6554	72.2567
-33.6556	-67.3286	73.4578
-13.876	-76.2665	90.4475
-30.9023	6.55039	75.9561
-10.2724	-10.5106	101.648
-65.9916	-21.6651	39.1549
-64.1659	-33.7907	38.1031
-8.56215	25.3694	83.1557
-16.3425	-33.2962	89.2291
-18.7589	-52.4823	81.6665
-19.6565	-44.5008	78.8729
-31.4637	-137.451	17.9956
-39.6649	-134.325	11.2501
-42.9906	-148.711	9.05454
-34.4565	-151.38	15.2086
-37.409	-100.639	17.4535
-30.3171	-104.439	25.7564
-36.5673	-112.848	14.2552
-28.7073	-115.809	22.3238
-28.8344	-61.5338	76.7049
-46.6177	-89.1035	13.8658
-51.154	-82.2738	20.7125
-46.7938	-131.353	3.99467
-50.1892	-145.58	1.78329
-55.0161	-78.6213	7.7383
-52.2638	-85.9391	2.27166
-56.6434	-84.2245	-7.97279
-57.5766	-97.8294	-34.5944
-71.4441	-37.6411	0.118293
-58.6065	-81.9474	-32.6567
-52.7066	-108.402	-50.7455
-53.7157	-125.144	-53.1209
-25.0646	-153.555	20.4383
-22.2084	-139.938	24.2198
-20.4575	-108.235	35.3029
-18.8787	-118.768	30.9279
-23.3056	-61.9937	80.7016
-15.0734	-56.1867	85.6303
-15.3546	-58.1095	83.8893
-15.6876	-155.116	24.5081
-15.6728	-64.1671	82.3621
-75.1004	53.5661	-0.730509
-47.5906	-82.817	-58.8603
-46.7696	-103.642	-61.0968
-52.8863	-88.8634	-48.3223
-47.3135	-121.23	-63.9054
-55.4537	-68.0194	-46.9115
-15.8566	119.273	6.82073
-30.1244	114.263	6.94607
-15.4644	112.242	-64.0781
-14.335	92.1735	-93.3891
-28.5377	89.3646	-89.7823
-30.1248	108.35	-60.8937
-14.3612	66.7789	-110.073
-27.4704	64.6285	-106.559
-30.3853	116.661	-26.6983
-15.7561	121.41	-28.515
-13.8629	40.4572	-118.305
-26.5252	38.3539	-114.754
-12.9082	12.3377	-120.462
-25.5016	10.7109	-116.547
-23.9218	-15.2317	-111.39
-12.0473	-13.745	-115.415
-11.1824	-38.7525	-101.459
-22.067	-39.1906	-98.9515
-9.65853	-75.5935	-85.144
-9.33358	-94.6455	-83.698
-19.1462	-95.8605	-81.8953
-20.1105	-77.0201	-82.6745
-9.35157	-113.439	-83.3041
-19.1526	-114.018	-81.9719
-10.7609	-55.5523	-91.1343
-21.6028	-57.4769	-88.2019
-43.1427	106.232	6.21185
-54.7336	95.6236	4.59571
-52.629	77.6292	-76.0727
-41.4458	84.4939	-83.7705
-40.6322	60.8282	-100.089
-51.9107	55.9371	-91.7742
-53.764	92.6947	-51.0827
-42.5356	102.011	-56.4499
-55.5051	97.6049	-23.4704
-43.772	108.59	-24.9926
-50.5491	32.0194	-100.009
-39.4612	35.4456	-108.259
-37.878	8.88403	-110.097
-48.342	7.24935	-101.949
-45.0441	-17.6034	-97.2897
-35.5694	-16.7823	-104.975
-33.4031	-40.5605	-92.9923
-43.3937	-40.8517	-84.8806
-32.3506	-59.4181	-82.321
-38.3284	-99.4939	-71.1297
-40.045	-79.5305	-69.3591
-30.7279	-78.4089	-77.4011
-29.1111	-97.6338	-77.8845
-29.2102	-115.364	-78.782
-63.5583	80.666	-44.2101
-61.891	68.89	-67.057
-69.6841	57.9876	-55.509
-71.5356	66.3773	-34.0027
-72.1398	69.0235	-11.913
-65.1475	84.2617	-20.2066
-59.5061	28.0379	-90.5291
-60.9575	49.9209	-82.2825
-53.6615	-18.3229	-86.9927
-57.5588	5.00936	-91.5587
-50.8775	-39.5641	-76.3041
-73.4674	33.2977	-59.7322
-60.7121	-18.1294	-76.269
-66.4971	-16.8573	-66.1319
-69.9701	0.698427	-69.6383
-64.4326	2.8321	-81.0255
-71.7456	17.5041	-68.5804
-66.3204	23.2628	-80.2927
-68.0923	42.3708	-71.5418
-58.1984	-48.4532	-52.7071
-62.1763	-33.086	-59.5786
-56.6942	-36.9217	-67.9483
-92.1945	9.09317	-34.8127
-90.4507	9.78503	-36.0196
-91.2332	16.6746	-27.0897
-89.4094	17.8272	-28.2276
-86.7076	12.8289	-12.6862
-84.9944	13.7476	-14.643
-82.9021	13.1788	-17.6253
-88.6934	8.18913	-36.9376
-88.1934	16.4231	-29.4889
-91.2272	-2.91418	-36.887
-90.2465	16.4019	-17.9171
-91.8227	15.4006	-26.6226
-38.9886	-117.843	-72.6774
16.334	-99.7902	75.2017
13.7144	-100.635	75.3412
18.6236	-99.6886	71.5331
16.9697	-98.2145	78.1219
63.546	-7.7099	49.2368
61.6752	-6.4703	52.4486
63.8753	-11.0308	48.8326
64.7264	-4.46484	45.7469
59.9291	-4.51488	54.5889
59.9205	-0.687813	52.9021
57.5102	-5.05743	58.2633
10.5921	31.1537	87.0216
13.3896	29.6211	86.2462
13.9982	31.8458	86.8235
7.58259	33.4293	87.6187
8.49112	29.2634	86.1854
8.76639	17.1832	78.9313
9.49293	16.4029	78.1784
9.26694	18.658	78.2069
8.18172	17.4532	79.7564
12.3278	18.6332	74.168
13.9694	17.5886	72.1366
12.9029	19.978	73.8483
10.8719	19.5797	76.2761
11.9137	17.1627	74.8119
42.8255	15.5705	65.6302
39.7452	14.4565	68.4247
44.4253	16.5647	63.8823
15.4142	11.7988	73.7306
15.1728	12.8085	73.279
14.961	10.7652	74.8724
16.7071	11.2931	73.3794
22.6269	-49.3114	78.3957
22.4897	-49.2882	78.7837
22.7578	-49.2298	77.8373
22.5014	-49.4155	78.8251
22.0339	-47.8462	82.0698
22.1799	-48.7293	80.3361
23.0791	-48.7896	80.2019
22.2974	-47.2523	82.7454
20.3932	-46.9366	84.6091
26.6122	-50.5257	78.4404
26.6196	-47.919	79.6896
23.4201	-49.3358	76.7721
22.7283	-48.4546	77.7156
24.8912	-49.3066	74.8766
23.0234	-49.8654	77.3302
19.6042	-54.8916	85.3176
20.0193	-55.8894	84.9019
21.7796	-53.2623	81.8376
19.4844	-54.2571	85.3507
16.9092	-56.0611	88.7599
17.86	-41.8286	91.0505
17.527	-40.5508	91.4269
15.0555	-40.4339	93.5462
18.0755	-42.5209	90.7458
20.0686	-43.2317	88.3307
21.9272	-50.0348	79.9955
22.0809	-50.12	79.9347
22.0018	-49.9498	79.6681
20.5515	-50.287	81.6409
75.9193	-38.1084	-7.47473
75.2929	-38.5704	-6.62624
75.5441	-41.4995	-10.647
76.5099	-37.1182	-7.37786
84.6676	-28.2945	-19.2674
85.3112	-26.3287	-21.9555
83.5059	-26.7083	-18.0243
84.0713	-29.5546	-16.7658
85.1667	-29.6046	-19.9613
79.1566	-34.8971	-9.20495
79.3093	-32.2543	-8.47572
78.4653	-35.2171	-8.45536
79.8759	-36.1176	-10.8693
79.6007	-22.2259	-12.3893
79.5625	-21.0898	-13.3129
79.5808	-20.3576	-12.1886
79.8137	-22.7097	-11.0725
80.0132	-23.7345	-12.8185
85.1883	-2.0488	-13.3705
84.667	-4.04459	-14.14
85.4902	-1.22083	-13.9437
85.2233	-1.51517	-12.4401
88.8013	9.16465	-17.5634
88.8083	9.74046	-16.5638
88.3935	8.19976	-17.5317
90.0913	10.4053	-20.6722
82.2956	-19.6799	-19.5059
81.3181	-18.2472	-18.0684
81.6922	-23.6185	-16.8412
84.6027	-22.7299	-22.327
84.7655	-17.0452	-23.4575
87.199	-0.463631	-19.9179
87.6	0.708673	-20.2774
85.89	-1.04024	-16.0565
87.1636	-1.77117	-20.9865
90.753	-11.015	-32.1412
90.632	-10.8169	-31.5544
89.868	-14.1836	-31.7307
91.1455	-9.84365	-33.0995
91.4946	-8.12744	-34.7614
91.6647	-5.99284	-33.6868
91.4269	-8.80801	-35.8297
91.8096	-5.00485	-35.9994
85.8449	-24.607	-23.9285
86.3701	-22.2729	-25.7529
86.2998	-25.625	-24.7735
88.2483	-10.6414	-27.9555
87.1865	-12.6928	-26.8153
89.595	-10.8589	-29.8308
88.2654	-9.28106	-27.672
77.4208	-30.0384	-5.04785
77.4475	-32.317	-5.80749
78.0839	-29.5713	-5.94782
77.1824	-29.2072	-4.3719
77.0886	-27.5768	-3.58314
77.4694	-25.4764	-3.5353
76.6656	-27.7723	-2.65682
78.7447	-18.2994	-3.86738
78.4608	-18.8841	-3.41793
79.0981	-18.6128	-4.7832
79.2374	-15.0213	-4.07798
78.115	-19.7127	-2.92261
77.7265	-19.606	-1.9564
77.8972	-22.1593	-3.23174
81.6655	-25.2561	-15.5444
81.4213	-26.3681	-13.7263
81.5498	-13.117	-12.5877
80.4073	-17.0225	-12.3191
81.4841	-13.5919	-14.1214
82.7295	-9.20679	-12.8622
81.9311	-12.0007	-11.348
91.6131	5.40327	-29.8305
91.7543	6.16333	-30.088
91.4429	4.95596	-29.2578
91.8792	4.25051	-31.6015
91.8117	0.552235	-32.4437
91.5926	-0.60167	-31.011
91.8527	-1.12537	-33.3597
91.9447	1.91596	-33.2719
91.577	2.32028	-30.4852
88.1973	7.56467	-17.7032
89.1213	7.75211	-20.3687
87.5432	6.63901	-16.5582
90.1908	7.72666	-23.7073
89.7357	6.62207	-22.9929
91.4169	7.54763	-27.8266
90.8017	9.06091	-24.5977
39.5867	24.7232	71.3087
41.798	23.949	70.239
36.8346	25.1705	71.9041
22.2256	-99.3899	66.1136
21.5007	-100.211	62.1207
24.5108	-98.3034	66.0023
45.5735	19.4158	65.0186
44.97	21.2324	66.9303
46.1541	17.9744	63.6032
49.7149	20.592	64.292
51.8619	21.4666	63.5638
49.1171	22.8431	66.917
47.7048	20.2596	65.0535
49.818	18.3929	62.2874
69.4707	-51.3083	-3.25379
70.5303	-49.3929	-7.89884
69.8552	-49.7732	-1.71546
68.7538	-53.4977	-3.75324
17.426	16.5641	69.3987
17.8094	15.9647	69.3394
17.4504	17.3299	69.3977
16.3424	18.851	70.2558
17.6143	20.1406	70.404
16.0954	17.8859	70.2087
7.5156	18.4157	80.6693
6.88459	18.3715	81.5638
7.65972	20.1926	80.6901
17.014	-46.8064	87.267
17.5435	-47.305	85.6199
17.5233	-46.3795	87.6257
14.5428	-46.2028	89.8703
61.9225	-73.144	-9.54712
60.9053	-73.3758	-4.1482
61.3569	-75.6325	-11.5272
62.8606	-70.7046	-10.0246
77.104	-7.05655	1.90165
76.0031	-14.4845	4.73343
78.0115	-7.76847	-0.845982
78.1162	0.915056	-1.81367
75.9466	-6.09484	6.46007
62.7548	-75.4827	-22.8496
62.2583	-77.5662	-24.5933
63.5168	-71.237	-23.1764
61.9602	-77.7784	-18.2695
60.1663	-109.678	-28.765
60.524	-118.012	-30.1818
58.8869	-106.135	-36.2742
59.9438	-100.955	-28.6004
60.1383	-112.141	-22.7926
22.5184	-50.9442	80.02
22.7252	-51.2305	79.9267
21.1599	-51.7256	81.9638
23.0184	-51.6458	79.899
19.2162	-53.7859	85.5801
19.2733	-53.1606	85.2877
16.4478	-54.1185	88.9882
26.2645	-97.2074	65.9727
30.1359	-95.9293	59.8598
26.1428	-95.7487	69.6211
48.005	-61.3555	-66.6416
46.8291	-57.4394	-70.6163
50.5133	-60.4683	-62.9306
47.0591	-64.4476	-66.4647
55.3624	80.1827	35.3699
57.106	82.0449	28.2921
51.6096	83.425	38.0492
56.187	76.1461	38.3339
87.9377	-20.7868	-33.0732
89.4142	-15.6161	-35.9175
88.4442	-20.0072	-32.0381
86.6383	-25.0904	-30.5023
87.3528	-20.7991	-34.3237
82.2514	-1.09613	-7.62219
81.3179	-5.50375	-6.43487
83.251	-1.16316	-8.30896
83.1628	3.30157	-9.28679
80.9697	-0.945516	-6.87132
79.5274	-22.7953	-7.13711
79.0482	-23.5276	-6.05086
79.908	-25.4078	-8.44971
79.8974	-22.9867	-8.74706
79.5336	-21.1081	-6.76512
79.2203	-29.349	-7.62071
78.796	-26.5235	-6.27228
80.1	-28.9918	-9.02334
90.5656	-9.74308	-38.32
89.8126	-9.72411	-39.1345
91.321	-3.48781	-39.3352
91.012	-9.77413	-37.456
88.8171	-9.57781	-39.7973
87.8897	-15.2309	-37.879
87.7825	-9.34124	-40.167
89.3887	-3.47723	-40.6297
79.8829	3.15704	-8.1598
80.2143	5.47549	-9.96551
79.6728	4.18683	-7.8476
79.8679	1.45118	-6.97039
84.711	-18.8957	-37.2648
83.0252	-18.3314	-38.0431
85.5241	-14.412	-39.0416
85.7577	-19.5111	-36.5642
83.5275	-22.8974	-35.3925
86.4793	-26.6678	-25.5898
87.179	-23.4648	-28.026
85.9893	-28.739	-23.4394
86.3699	-27.5819	-26.8238
83.634	-35.472	-23.7026
82.8948	-37.4295	-20.8367
82.272	-36.8531	-24.7982
84.7486	-32.159	-26.3849
85.0267	-32.8011	-22.2032
84.1807	-33.9577	-16.8777
83.6114	-35.6827	-17.2555
84.7735	-32.7705	-18.5035
83.7277	-33.3205	-15.5143
73.1658	-44.8012	-13.0319
72.6222	-45.7396	-13.5529
74.3359	-43.7941	-14.7346
73.0744	-44.0425	-8.5859
78.1022	-41.1703	-13.9979
78.5153	-41.8456	-16.4389
79.3649	-39.7793	-13.5469
77.584	-39.4712	-10.8744
77.0443	-42.0336	-14.2796
86.1503	5.63585	-10.5119
86.2079	7.157	-10.6156
84.6823	2.05784	-9.67014
86.4682	5.61318	-10.8825
86.2021	8.09808	-10.8489
87.6428	11.4972	-12.7954
85.8492	8.07598	-10.8539
91.2238	-9.62909	-36.6995
90.1798	-14.413	-34.209
91.9333	-3.88631	-38.0425
92.5176	4.72965	-34.5902
92.2822	3.69201	-34.321
92.655	4.09156	-35.4789
92.4644	6.2501	-33.0421
87.2114	6.72483	-12.6424
87.0615	6.47591	-12.0932
86.7358	5.13684	-12.9052
87.7564	8.36915	-13.6284
86.6643	5.57407	-11.2675
85.7795	2.35031	-11.2018
87.8349	9.91353	-12.7293
90.3419	-10.8106	-30.9605
91.0584	-7.82358	-31.2374
88.9588	-14.4456	-29.9414
86.4146	3.56998	-14.4618
86.8764	5.21858	-14.9846
86.3145	3.40077	-13.9844
86.7092	2.70129	-16.2601
87.2948	6.06025	-16.1743
87.8009	5.70393	-18.1642
86.2435	-15.8527	-25.869
86.8712	-17.6185	-26.9822
82.102	-11.1817	-10.1606
83.3102	-6.7212	-10.2261
81.9135	-11.2	-9.03087
80.8938	-15.9452	-10.2183
85.6364	-0.791628	-14.2528
85.9118	0.964114	-13.6422
52.1436	-58.5684	-61.0159
52.4907	-53.949	-63.5485
53.4612	-58.8522	-58.3229
21.4233	-17.9191	84.1524
23.7852	-22.973	83.6679
21.6329	-16.263	84.3349
19.5872	-17.4978	84.5948
16.6236	-16.4072	85.9843
17.1685	-17.2487	85.5412
16.8731	-13.4762	86.4737
15.7208	-17.4324	86.7629
51.8323	33.73	68.5391
51.7514	31.4547	69.0749
55.8112	31.4327	62.9699
52.0071	36.14	67.4084
47.4268	35.4836	73.025
6.11381	-23.7322	92.0834
5.54013	-23.1284	92.9504
5.9757	-24.3221	91.9586
7.23861	-23.7634	91.3819
7.44697	-20.7609	94.4019
6.2893	-21.0421	94.97
8.46854	-21.5157	92.6586
7.88441	-19.8121	95.1507
45.016	17.0988	63.5862
44.7971	17.7785	63.8443
12.4574	-12.2803	93.7582
12.513	-13.3146	93.6367
12.7981	-12.0883	93.0649
11.6417	-11.7262	95.0451
82.3177	-27.025	-33.2853
81.1067	-29.6481	-31.8802
81.0366	-25.3962	-34.7026
83.316	-28.1761	-32.1825
64.7184	76.7094	15.4604
62.4032	80.2869	16.6578
65.3252	72.0912	20.0509
66.701	77.3286	5.66573
26.2757	-54.6945	73.3312
26.7757	-52.8917	72.6913
27.2647	-55.7721	72.3189
24.5919	-54.5989	75.2162
26.6167	-43.1864	72.4761
24.6183	-43.2402	74.6314
26.8401	-41.7443	72.0432
27.1826	-45.4392	71.9743
-17.3229	-99.7846	74.4288
-17.8939	-98.2681	77.4254
-19.5031	-99.66	70.6389
-14.7095	-100.653	74.7
-63.5548	-6.10344	48.6669
-64.5459	-2.84865	45.3457
-63.88	-9.26591	48.124
-61.7029	-4.98699	52.0806
-59.6924	-3.10169	54.7673
-57.1604	-3.62396	58.6559
-59.5666	0.518936	53.378
-9.62558	31.286	86.0292
-11.7664	29.506	84.925
-8.06626	29.7272	85.7926
-6.93805	33.4958	86.8241
-13.1316	32.209	85.7299
-9.03036	17.345	79.7823
-8.50482	17.5833	80.513
-9.43745	18.8153	79.1236
-9.73722	16.5887	79.0671
-12.4631	18.7003	75.3229
-14.2999	17.5454	73.2039
-12.0059	17.0851	76.0192
-11.0063	19.809	77.2854
-13.1017	20.1792	74.9544
-42.251	15.5883	67.2156
-38.9854	14.2788	69.9659
-43.9845	16.653	65.4926
-15.256	11.7391	75.0115
-16.5213	11.1548	74.6725
-14.8562	10.7328	76.1065
-15.0444	12.7228	74.5822
-22.122	-56.5208	78.3867
-22.0317	-56.405	78.7546
-22.0265	-56.4651	78.7983
-22.2243	-56.6192	77.8167
-21.8433	-54.5404	81.9151
-22.9351	-55.5488	80.0626
-20.2521	-53.2577	84.615
-22.1298	-53.8883	82.5754
-26.3268	-53.9442	79.5032
-22.8713	-56.8722	76.7052
-22.4155	-57.331	77.2991
-24.3107	-56.9671	74.7969
-22.3047	-55.9392	77.6967
-19.6591	-59.5475	85.4979
-20.0725	-60.4444	84.9573
-17.2566	-60.2458	88.8726
-19.5466	-58.9972	85.5424
-21.5219	-58.708	81.8011
-18.0311	-47.074	91.415
-17.781	-45.4754	91.8282
-20.0433	-49.1315	88.5827
-18.1953	-47.982	91.1104
-15.5033	-45.1038	93.8726
-21.6616	-56.6467	80.0087
-20.2851	-56.6049	81.6922
-21.6971	-56.6599	79.7465
-21.786	-56.6911	79.9488
-74.5081	-36.6947	-6.20455
-75.238	-35.7163	-6.14904
-74.079	-40.0905	-9.36926
-73.8457	-37.0426	-5.35163
-83.4608	-27.1174	-18.3009
-84.1596	-25.2204	-21.0235
-83.956	-28.4286	-18.9899
-82.8207	-28.3092	-15.7744
-82.2984	-25.523	-17.0599
-78.5005	-33.4566	-8.12432
-79.2947	-34.6238	-9.81585
-77.9568	-33.7064	-7.46777
-78.2435	-30.7923	-7.33553
-78.3858	-20.9722	-11.4805
-78.3737	-19.8815	-12.4055
-78.7698	-22.4529	-11.8765
-78.5823	-21.4089	-10.1616
-78.399	-19.1136	-11.3133
-84.3385	-1.01346	-12.8139
-84.3782	-0.471492	-11.8959
-84.6549	-0.203902	-13.3964
-83.7868	-2.99982	-13.5498
-88.1352	10.0263	-17.1367
-88.1463	10.6046	-16.1481
-89.4486	11.2207	-20.249
-87.715	9.07237	-17.0939
-81.3293	-11.2943	-16.4543
-83.9914	-7.37962	-19.714
-80.673	-13.719	-16.832
-80.4324	-12.4629	-13.362
-82.4182	-7.50767	-15.5432
-87.2566	3.17029	-19.9752
-86.8214	1.62148	-19.7387
-85.9436	3.64366	-15.7584
-87.8757	4.79877	-20.8078
-89.0675	2.72582	-24.8753
-78.6708	-30.2559	-30.1745
-80.0056	-28.7381	-30.9292
-77.479	-30.1057	-30.6777
-78.3655	-32.6185	-28.5566
-89.8901	-10.1773	-31.4651
-90.302	-9.02798	-32.4407
-88.9616	-13.3264	-31.0089
-89.7678	-9.97299	-30.8787
-90.6785	-7.34965	-34.1236
-90.8669	-5.21071	-33.0729
-91.0348	-4.26163	-35.3974
-90.6091	-8.04005	-35.1866
-84.7361	-23.5503	-23.0281
-85.3092	-21.2687	-24.8909
-85.1898	-24.5747	-23.8704
-83.4995	-21.6597	-21.4355
-87.3531	-9.75095	-27.2644
-86.2548	-11.7756	-26.0904
-87.3856	-8.39524	-26.9988
-88.7134	-9.99292	-29.1437
-85.2634	-14.8975	-25.0947
-85.8789	-16.667	-26.1884
-83.7502	-16.042	-22.6529
-76.041	-28.5154	-3.96866
-75.7566	-27.6899	-3.33254
-76.7262	-28.083	-4.87823
-76.2374	-30.8007	-4.77507
-75.6781	-26.0574	-2.58121
-75.2348	-26.2248	-1.65672
-76.0917	-23.9823	-2.57912
-77.5213	-16.9009	-3.06323
-78.0773	-13.6738	-3.33514
-77.8805	-17.226	-3.97095
-77.2212	-17.4709	-2.60276
-76.8518	-18.2818	-2.09065
-76.5879	-20.7015	-2.34779
-76.4522	-18.1605	-1.12782
-80.4391	-24.021	-14.591
-80.5082	-22.4397	-15.9102
-80.1578	-25.0768	-12.7638
-80.4988	-11.9574	-11.845
-79.2845	-15.8169	-11.508
-80.8972	-10.8143	-10.6397
-81.7521	-8.09064	-12.1891
-78.7407	-17.6645	-10.9839
-78.961	-17.5916	-10.1062
-90.9317	6.15486	-29.3366
-91.1902	4.99042	-31.0953
-90.7547	5.71812	-28.759
-91.0825	6.90642	-29.6019
-91.0839	1.30968	-31.8999
-90.8467	0.184469	-30.4553
-90.8629	3.08968	-29.9592
-91.2352	2.65242	-32.7418
-91.1097	-0.367812	-32.799
-87.5096	8.4395	-17.257
-86.8377	7.53245	-16.104
-88.442	8.59194	-19.9149
-89.5196	8.52773	-23.2458
-89.0474	7.43706	-22.5182
-90.1516	9.8461	-24.1502
-90.7555	8.30589	-27.357
-88.4256	6.16786	-21.6009
-89.8837	5.71639	-25.8229
-87.0858	6.58796	-17.693
-38.5066	24.776	72.4589
-35.4598	25.4192	72.9605
-40.8839	23.8738	71.5002
-22.6811	-99.4868	65.119
-24.9288	-98.4657	64.7655
-21.5987	-100.442	61.108
-45.0437	19.5311	66.6531
-45.7236	18.1431	65.2742
-44.1593	21.2281	68.4277
-49.3407	21.0791	65.9489
-48.7712	23.2121	68.207
-51.5456	21.6975	64.8685
-49.0356	18.5748	64.0514
-47.2982	20.4761	66.5759
-67.8347	-49.6052	-1.8427
-67.119	-51.8644	-2.31244
-68.1919	-48.0344	-0.318102
-68.9497	-47.8599	-6.5204
-18.6105	16.6868	69.8238
-18.8319	16.129	69.8233
-18.782	17.4101	69.8134
-17.3818	18.9156	70.8703
-18.4325	20.1568	71.0417
-16.9268	17.7014	70.9405
-7.87793	18.4685	81.3268
-7.94562	20.3303	81.3214
-7.32065	18.4087	82.1143
-17.1881	-52.5655	87.3942
-14.7952	-51.4842	90.0618
-17.6158	-52.2205	87.7315
-17.6578	-53.2871	85.6268
-60.3882	-72.5133	-8.01437
-61.3144	-69.9217	-8.50959
-59.8262	-75.1877	-10.0177
-59.3909	-72.698	-2.54431
-76.0704	-5.74664	2.45106
-74.7802	-13.0149	5.3993
-74.9155	-4.73076	6.92373
-77.2724	2.0529	-1.36143
-76.9777	-6.49107	-0.253064
-61.1325	-75.153	-21.4301
-60.3802	-77.5025	-16.8149
-61.8938	-70.7557	-21.7775
-60.6365	-77.3547	-23.2041
-58.9959	-110.322	-27.6159
-59.4484	-118.7	-29.1205
-58.9585	-112.908	-21.6175
-58.6612	-101.453	-27.3846
-57.7378	-106.638	-35.1766
-22.1417	-57.1443	79.9871
-20.9216	-57.5718	81.9802
-21.9214	-57.0282	80.1181
-22.2964	-57.3064	79.8966
-23.7961	-56.7654	78.8338
-23.1231	-58.1942	79.6267
-19.2936	-58.5896	85.7634
-16.8231	-58.5947	89.1517
-19.3438	-58.1588	85.4474
-26.6977	-97.4524	64.5094
-26.8236	-96	67.8572
-30.3928	-96.3255	58.5047
-47.1476	-61.2468	-65.9756
-46.1937	-64.3662	-65.799
-49.6038	-60.3267	-62.1946
-46.0272	-57.3195	-70.0365
-55.9715	80.338	35.2288
-56.8127	76.3069	38.2156
-52.2838	83.525	37.9355
-57.6396	82.2148	28.1306
-86.9605	-19.9104	-32.2775
-88.5189	-14.8057	-35.1993
-86.3837	-19.9417	-33.5309
-85.5884	-24.1524	-29.6371
-87.4697	-19.1182	-31.2474
-81.3947	0.00853721	-7.11251
-80.3698	-4.32359	-5.86177
-80.1121	0.16189	-6.36889
-82.393	4.32025	-8.8357
-82.3957	-0.0630872	-7.79595
-78.2618	-21.3989	-6.24057
-77.7541	-22.1006	-5.13567
-78.2925	-19.7269	-5.89469
-78.6449	-21.6208	-7.84541
-78.6152	-24.007	-7.50198
-77.9153	-27.9003	-6.54369
-77.4618	-25.0697	-5.29526
-78.808	-27.5794	-7.96732
-89.7524	-8.99271	-37.6781
-90.1934	-9.0134	-36.8135
-90.5802	-2.78259	-38.7623
-89.0036	-8.98481	-38.4917
-88.0159	-8.84856	-39.1531
-87.011	-14.4508	-37.162
-88.6613	-2.79191	-40.0515
-86.9918	-8.62368	-39.518
-79.1058	4.1887	-7.69332
-79.0571	2.5277	-6.49321
-78.9141	5.19852	-7.39282
-79.481	6.4588	-9.53184
-83.7839	-18.1043	-36.4863
-82.1053	-17.5604	-37.2685
-82.539	-22.0651	-34.5529
-84.8204	-18.7008	-35.7808
-84.6615	-13.6624	-38.3235
-85.3663	-25.6277	-24.6814
-86.1286	-22.4897	-27.1675
-85.2578	-26.564	-25.9085
-84.8298	-27.6423	-22.4971
-82.4017	-34.3565	-22.6728
-83.8097	-31.6601	-21.2013
-83.578	-31.111	-25.4108
-81.0289	-35.7594	-23.7545
-81.6293	-36.2514	-19.7591
-82.9196	-32.6966	-15.8132
-82.4708	-32.0374	-14.4131
-83.5238	-31.5353	-17.4886
-82.3567	-34.4564	-16.1384
-71.6693	-43.4102	-11.7335
-71.5387	-42.5161	-7.27836
-72.8747	-42.4484	-13.4602
-71.1276	-44.367	-12.2426
-77.1424	-39.4831	-12.5576
-77.2528	-40.4932	-15.1756
-75.6874	-40.6303	-12.9911
-76.9408	-37.7986	-9.85564
-78.6597	-38.1324	-12.3226
-85.4163	6.62731	-10.0784
-85.7352	6.60045	-10.4478
-83.8884	3.10524	-9.19636
-85.4995	8.12623	-10.201
-85.5112	9.04953	-10.4441
-85.1568	9.0228	-10.4475
-87.0055	12.3891	-12.4185
-91.8438	5.43248	-34.091
-91.802	6.95989	-32.5574
-91.9777	4.78868	-34.9756
-91.5956	4.40468	-33.81
-86.4965	7.66794	-12.2089
-87.0684	9.28206	-13.21
-85.9977	6.09352	-12.4495
-86.3427	7.43169	-11.661
-85.9311	6.55554	-10.8301
-87.171	10.83	-12.3363
-84.9954	3.37218	-10.7219
-89.4717	-9.95969	-30.2808
-88.0339	-13.5587	-29.2068
-90.2289	-6.9868	-30.5996
-86.5791	6.96305	-15.7133
-86.1451	6.14726	-14.5191
-85.6569	4.52295	-13.9771
-85.5523	4.36078	-13.4997
-81.0771	-9.97569	-9.47546
-82.3665	-5.57678	-9.61272
-79.7823	-14.6808	-9.44852
-80.8797	-9.97361	-8.34889
-84.8091	0.214374	-13.71
-85.1097	1.95973	-13.1286
-85.0651	-0.0554265	-15.5043
-51.2122	-58.3938	-60.2422
-52.4909	-58.6555	-57.4936
-51.6052	-53.7507	-62.8309
-22.8153	-20.0734	84.5753
-21.0693	-19.8771	85.0305
-23.0792	-18.0558	84.8149
-24.8204	-25.086	83.866
-18.1464	-18.2272	86.6354
-17.25	-18.9969	87.4162
-18.4029	-14.7834	87.2701
-18.7679	-19.3433	86.0551
-52.3032	34.5267	69.3223
-52.2833	32.4789	69.7226
-47.3513	36.6738	74.2648
-52.4191	36.7393	68.3281
-56.21	31.8675	63.7238
-7.62624	-23.4164	94.3378
-7.81088	-22.7626	94.8812
-7.99254	-24.1324	93.4373
-6.75638	-23.5079	94.947
-8.02851	-21.9445	95.8056
-8.71768	-21.5851	95.66
-7.1603	-21.5901	97.2034
-44.6376	17.216	65.2155
-44.3693	17.9449	65.5558
-14.1664	-12.606	94.8286
-13.4629	-12.0744	96.0211
-14.4647	-12.4815	94.174
-14.222	-13.6211	94.7344
-65.0665	76.9591	15.3278
-66.9647	77.5809	5.56993
-65.6779	72.3815	19.9144
-62.7951	80.5011	16.5117
-25.4533	-62.2671	73.2193
-23.88	-62.071	75.1028
-26.3679	-63.1552	72.1795
-26.0181	-60.5402	72.5544
-26.2246	-50.8679	72.5428
-26.7048	-53.1577	71.9478
-26.6236	-49.177	72.0195
-24.3739	-50.872	74.6621
-9.6841	-21.3691	95.1574
-10.0997	-20.2704	95.946
-10.4597	-22.3117	93.5104
5.4063	-21.4345	95.1961
4.57838	-21.1837	96.6948
5.15664	-22.0754	94.3707
4.96207	-22.5743	93.9224
3.98967	-22.8328	94.6071
-8.37791	-24.9248	92.6283
-9.14526	-25.0528	92.0621
-8.23962	-25.6951	92.3682
78.8745	-36.8718	-26.9773
77.123	-37.4629	-26.7625
79.5367	-33.5785	-29.5773
80.0311	-37.2414	-26.3485
77.6392	-40.314	-23.594
68.2498	-50.5774	12.2988
66.9885	-51.9384	20.3976
67.2062	-55.3202	10.7205
69.4439	-48.669	5.21864
69.1526	-45.5381	13.8905
55.7711	-115.656	-9.10323
55.073	-105.599	-8.62225
53.0991	-116.555	-4.76772
56.963	-125.941	-10.1432
57.899	-114.532	-13.5561
58.0679	-133.431	-11.2973
59.0009	-139.318	-12.4074
59.8013	-131.684	-15.9537
55.7102	-135.227	-6.66564
48.5956	-99.7169	1.46731
49.0597	-94.2741	2.59683
45.0488	-100.732	6.10768
48.8557	-107.124	0.449337
52.0859	-99.0624	-3.52286
58.8114	-97.6704	-16.6628
58.8505	-104.363	-17.2168
59.9107	-96.4627	-21.7489
59.0207	-92.5063	-16.2243
57.1405	-98.1165	-12.3391
60.6527	-71.1489	20.4719
62.2388	-67.4745	22.5864
58.8261	-73.2277	27.5501
58.7255	-74.5103	18.0008
61.897	-69.3324	13.4256
70.6331	30.6151	25.0718
71.7004	38.8272	20.5643
66.6094	33.7445	35.8906
69.921	22.7755	28.1437
74.2354	29.0634	13.2131
77.6143	41.4579	-28.3749
77.1993	38.4676	-38.1305
76.1933	48.6533	-33.5238
77.8292	43.1687	-17.6597
78.608	33.8972	-23.5577
9.92939	-114.714	40.1731
7.47232	-115.155	41.1262
