1423
19.057859 -71.773201 166.866287 
24.158339 -73.769936 165.079971 
34.622459 -20.745720 157.217941 
28.611000 -15.943175 164.039932 
-0.722183 -4.503816 184.057190 
-4.896414 -4.156308 184.204788 
22.006800 -11.608722 170.623260 
8.343107 -32.574600 183.085190 
13.934052 -32.183460 178.652328 
19.956240 -32.334839 173.773621 
21.662638 -28.998178 175.608902 
25.597260 -33.933060 168.243835 
28.842300 -36.073978 164.217224 
29.955959 -38.634480 161.017731 
30.026339 -40.938122 158.468399 
22.912739 -21.140999 177.322495 
22.631760 -23.282640 177.572510 
22.381918 -26.053379 176.889404 
73.907455 -262.398590 26.601479 
65.455383 -265.190399 31.973400 
75.631317 -272.726990 24.576658 
81.525780 -259.356598 21.048298 
71.726578 -248.349594 29.391119 
69.623459 -228.812393 33.064739 
77.234756 -225.689407 27.066240 
68.742363 -211.561188 36.574379 
61.456680 -231.732010 38.893322 
73.921677 -180.575989 50.717159 
81.654114 -176.153397 43.586098 
65.662376 -184.800598 57.175560 
71.538841 -189.577789 43.976879 
69.707703 -199.409393 39.703320 
61.261921 -202.841995 46.040581 
77.381638 -195.649200 33.315479 
77.963577 -116.824310 129.774948 
84.324417 -122.408813 120.907616 
70.175873 -111.563820 137.843826 
89.975342 -128.730240 110.000343 
92.243156 -135.329041 101.259895 
92.682358 -141.560272 93.773331 
63.736919 -107.337051 142.897690 
65.381218 -102.035522 142.598160 
57.983578 -104.155197 146.223526 
60.402596 -112.064041 144.166138 
54.306000 -102.245934 147.819962 
52.478279 -105.267960 148.193268 
88.557655 -171.677338 36.025738 
91.967392 -163.558258 42.061317 
86.302795 -180.995392 30.245758 
94.906433 -167.901474 26.468639 
96.141960 -156.094742 48.602520 
101.160538 -152.796417 37.535217 
100.500656 -149.250412 54.395100 
103.989418 -143.271179 60.417896 
108.455940 -140.484955 48.020580 
84.352142 -222.260391 20.741400 
86.241959 -242.072998 17.651861 
91.099258 -219.439804 13.898627 
83.697838 -204.715805 23.630939 
88.353363 -256.404602 15.188418 
90.513351 -267.130798 12.962195 
94.709518 -253.468781 8.715870 
84.487854 -191.604599 26.481239 
132.336533 -53.508240 53.947979 
131.241776 -63.949142 53.668438 
133.417618 -42.355801 54.088200 
111.652199 -137.998795 35.986679 
108.402115 -143.829178 30.805378 
114.123955 -135.677155 23.166359 
135.409500 29.018877 48.761459 
140.636703 25.132679 30.065397 
122.869446 -111.977097 49.526096 
125.716675 -108.714600 35.222218 
130.002838 -74.237755 53.536140 
132.873291 -73.497238 40.016880 
134.249039 -29.149017 54.984779 
137.684158 -31.737598 40.628342 
135.050034 -71.999641 27.341099 
137.052902 -69.509338 15.794190 
109.085396 -161.838715 -3.339558 
108.336052 -170.808304 -5.610564 
112.453560 -160.869781 -12.344976 
110.170975 -153.896393 -0.537968 
105.094612 -163.159912 5.948172 
107.837097 -180.826187 -6.999138 
111.806816 -146.496414 3.448674 
108.647453 -148.210922 13.904675 
114.645775 -145.136520 -7.119846 
113.826599 -139.793396 7.096878 
142.807144 -6.565590 21.549961 
143.725510 7.866090 16.827173 
141.467224 -21.143518 25.931160 
144.381241 23.020559 11.457288 
144.748260 37.307697 6.851250 
144.944824 51.820019 1.165143 
146.893845 50.273277 -17.761589 
144.985855 66.219833 -5.361192 
127.611717 -105.518883 20.616659 
128.874237 -103.113358 6.377292 
140.147263 -33.422039 28.120859 
142.119720 -34.800838 17.302050 
97.637939 -216.516602 6.199506 
99.059219 -236.212204 3.634722 
105.258598 -150.367142 25.662960 
102.425575 -157.409637 20.449080 
100.699554 -250.320602 1.346512 
102.594780 -260.704803 -1.201561 
113.955116 -207.507584 -25.866539 
114.590698 -224.283585 -28.780560 
115.147255 -159.681595 -21.255838 
116.942757 -156.320999 -30.726358 
116.089920 -151.382523 -19.594259 
117.428398 -143.184586 -17.403011 
115.198196 -236.782806 -31.944960 
115.682037 -246.650391 -35.929798 
129.579117 -102.121559 -6.465474 
138.813110 -66.939659 7.859484 
140.717514 -63.612354 2.048148 
137.562302 -73.758781 5.481954 
143.602020 -35.025837 10.100376 
115.223579 -169.839539 -45.519657 
112.717262 -161.965256 -58.182301 
116.252281 -158.536987 -43.489258 
117.854996 -147.862610 -41.801941 
116.795517 -136.057144 -53.112778 
124.025215 -117.404816 -35.815140 
136.817444 -83.559959 -22.234138 
138.954956 -78.537956 -34.210258 
106.754936 -216.664200 -79.225922 
106.802277 -230.319000 -82.050117 
100.674538 -211.607986 -92.116798 
106.819733 -202.031998 -76.273201 
133.545776 -80.326439 -48.058559 
137.903748 -73.649155 -45.208080 
140.930634 -70.535332 -44.064178 
56.631599 -267.577209 36.904861 
54.699478 -253.769394 40.178520 
47.717278 -269.778595 41.278679 
58.510078 -277.502380 34.292698 
51.606899 -205.941605 52.409157 
41.524921 -209.010590 57.792240 
50.964657 -217.299591 48.906719 
53.558640 -197.539200 56.403179 
63.983700 -174.296326 84.994202 
59.935856 -180.833389 74.341263 
67.502342 -168.865738 93.995461 
56.241356 -188.794800 63.894958 
46.033741 -192.563995 69.861778 
52.455059 -234.048584 44.753040 
43.241402 -236.950211 50.026138 
56.996098 -116.857796 145.543488 
52.860416 -111.835976 147.968445 
70.212059 -164.244598 101.367180 
50.086437 -108.413818 149.163651 
46.531078 -111.704582 151.173538 
47.750576 -105.789963 149.911743 
45.915119 -103.561195 150.329697 
43.017479 -105.949257 152.329865 
52.827660 -138.328201 146.073593 
54.819359 -145.278168 143.472244 
56.187000 -152.432281 140.364716 
34.836117 -99.836823 155.638611 
29.934359 -100.113472 158.858093 
34.065178 -98.609398 153.808014 
39.151981 -99.306358 151.574036 
34.073460 -98.994957 153.290161 
28.322639 -97.811096 155.930756 
34.040340 -99.908279 152.725861 
34.296841 -102.686577 151.674667 
28.238041 -98.933937 154.697037 
34.713539 -108.737274 150.434280 
34.773479 -115.794357 149.936584 
28.892517 -107.894699 152.488068 
32.110378 -210.884384 62.028362 
33.327179 -203.439606 65.992142 
32.182919 -222.112808 58.995358 
38.627457 -271.988983 45.112320 
36.717117 -258.605988 49.045135 
29.647619 -273.675598 48.339897 
40.475700 -281.248169 42.178680 
34.263180 -239.396393 54.604439 
19.187639 -198.511185 80.222397 
26.167320 -197.683197 77.837753 
20.703419 -193.890594 96.675301 
21.743818 -274.847382 50.614738 
23.453640 -283.696167 47.642937 
22.309200 -190.621796 112.982582 
22.207680 -96.711479 158.786987 
22.077539 -97.104057 157.792847 
22.007521 -98.030159 156.907791 
22.687738 -100.777321 155.434326 
23.110739 -107.047623 154.121933 
23.491261 -114.827576 153.611099 
137.091049 84.822121 26.127178 
141.755219 82.123917 6.544224 
136.821426 98.649353 17.003519 
130.818237 88.943398 45.227341 
147.297058 48.205978 -35.396278 
135.397263 -36.707939 -88.552078 
130.208755 -40.024261 -97.345612 
95.328171 -173.156219 -96.875275 
96.557755 -154.843384 -94.805634 
100.920418 -178.916931 -86.762154 
94.977173 -191.464203 -99.141479 
89.481239 -168.880676 -105.935753 
95.081757 -207.422989 -101.736000 
95.611137 -222.569992 -104.129814 
89.130783 -204.247803 -110.381935 
108.496254 -151.666016 -71.694717 
107.249397 -168.899933 -72.689041 
103.487221 -143.406906 -83.456093 
110.938499 -136.423447 -69.214317 
42.265980 201.781784 41.010838 
54.798298 196.747192 40.572540 
41.822102 210.329987 13.165812 
29.158197 205.286392 41.509979 
40.748760 183.306595 -141.485397 
41.909218 198.896393 -112.769997 
53.576458 179.672394 -138.054230 
39.357719 163.804123 -165.297424 
27.298439 185.849991 -144.064255 
38.530262 142.409882 -182.550598 
50.908497 139.445267 -178.923065 
38.014381 118.729797 -195.566406 
25.959959 143.793900 -185.464798 
42.132061 209.397598 -81.853195 
55.154156 204.915604 -78.909477 
28.553219 212.651993 -83.779739 
42.063122 214.702194 -49.521240 
14.487605 220.789795 -18.743761 
0.052055 221.498993 -18.952559 
14.561351 216.309586 12.760433 
28.439640 218.595596 -18.215818 
14.466960 220.321793 -51.708958 
37.537922 95.377861 -204.456589 
49.088337 92.948944 -200.763000 
36.971458 71.147881 -210.360596 
25.810379 96.750000 -207.098999 
36.056698 45.830158 -213.611389 
47.449440 44.089199 -209.658585 
35.144459 20.846338 -213.920990 
24.690779 47.517658 -216.336594 
31.357260 -48.647701 -194.153397 
41.841179 -50.048462 -190.193405 
30.817617 -69.938278 -180.797394 
21.328381 -48.436562 -196.275589 
32.833797 -25.901098 -204.757187 
11.768220 -0.809406 -216.034195 
0.268538 -0.680605 -216.635391 
12.163374 22.878540 -218.593796 
22.997519 -1.573247 -214.196396 
11.204891 -23.939819 -209.613602 
27.430738 -155.014008 -149.173904 
28.046158 -137.790359 -150.873108 
37.062538 -156.461029 -146.669220 
27.011160 -172.071182 -148.578659 
18.180901 -154.189804 -150.626328 
8.831538 -187.478989 -149.998489 
17.849880 -188.296204 -149.389008 
9.031967 -204.834595 -149.690689 
0.141522 -187.066803 -150.236282 
9.029736 -170.051041 -150.525177 
31.122900 -86.791862 -169.763763 
40.706100 -87.881218 -166.891678 
30.459780 -101.854980 -161.502106 
20.780640 -85.927315 -171.622620 
29.052719 -119.087273 -154.982697 
39.280140 -121.172401 -151.770599 
19.451160 -117.595802 -156.830750 
9.820782 -117.060478 -157.685577 
10.268208 -100.153618 -164.246582 
9.320743 -136.111847 -153.377991 
0.138032 -117.380699 -157.819672 
88.723976 174.975479 34.892998 
99.338760 165.061081 32.370480 
89.773552 181.807190 10.158732 
77.917320 183.295792 37.531261 
85.284538 126.721802 -160.761597 
95.194077 121.075729 -153.093246 
84.655792 105.222054 -173.034714 
74.703415 131.522583 -167.685120 
85.983833 146.226242 -144.188629 
86.611137 163.219315 -122.482254 
76.310822 169.737289 -128.350266 
87.807411 175.782959 -96.954483 
96.662872 155.261337 -116.019714 
89.150574 183.380386 -70.341835 
99.656998 173.168274 -67.196518 
78.550377 191.822403 -73.220940 
90.723595 186.011993 -43.505459 
90.496078 185.759995 -16.438265 
79.360023 194.889603 -16.138584 
101.160355 175.247635 -16.714529 
83.515862 83.418114 -181.918793 
82.300674 60.760437 -187.804794 
72.858780 86.870155 -189.041397 
93.355560 79.381798 -174.115067 
80.561523 37.799278 -191.113205 
90.232559 35.154541 -183.230988 
78.807777 14.528466 -191.309387 
70.340042 39.863522 -198.059387 
76.481819 -8.022779 -188.666992 
74.137497 -31.285080 -182.246399 
66.982498 -7.361730 -195.292801 
85.229820 -9.440550 -181.038605 
72.720360 -54.100620 -171.559616 
81.320038 -53.720818 -164.556900 
71.737198 -74.000519 -159.904800 
63.059223 -52.894981 -178.722885 
70.724342 -91.309502 -149.551727 
69.518158 -108.578163 -140.626968 
61.227539 -90.828171 -156.358612 
79.145103 -91.805214 -141.715256 
65.705399 -160.053665 -131.823181 
63.971458 -177.902634 -133.576202 
56.420280 -159.161026 -138.100510 
67.438622 -142.795258 -131.591339 
74.167915 -161.942032 -124.423195 
45.098816 -191.179794 -143.860321 
45.416698 -207.077393 -144.262985 
35.850597 -189.874802 -146.530258 
45.659698 -174.867844 -143.388535 
54.486179 -192.884384 -139.982941 
68.464439 -125.913231 -134.465408 
77.072754 -126.700378 -126.121315 
59.459759 -124.618851 -141.366959 
122.343292 125.618576 -91.962898 
124.520042 132.581528 -71.254616 
129.771362 113.347801 -81.532082 
120.748314 114.646133 -110.847778 
114.400078 136.411911 -101.341614 
126.191338 136.477081 -50.749737 
133.348679 122.317383 -41.607182 
118.160637 149.719849 -58.071236 
127.221840 138.069534 -30.507120 
126.091072 139.301102 -10.949454 
131.638321 125.840515 -2.574954 
119.094116 151.861496 -14.906916 
102.032097 75.286079 -165.915710 
103.255379 95.454895 -156.978729 
109.928696 70.451637 -157.179062 
100.736099 53.950321 -171.752045 
103.883575 115.153015 -145.006546 
104.663338 132.251572 -129.313614 
112.063675 108.083878 -136.121582 
93.886200 -10.798866 -172.002411 
97.039978 10.828296 -174.490921 
102.198776 -12.403223 -161.916656 
90.822235 -32.569736 -166.297684 
99.041580 32.147999 -174.663361 
107.202774 29.599199 -165.413879 
89.012337 -52.967518 -157.002106 
96.547676 -53.030159 -147.668762 
88.168678 -73.135437 -144.623154 
86.651459 -90.762657 -133.896240 
93.396599 -87.959877 -126.527573 
85.704483 -128.058838 -115.711563 
93.097618 -132.787979 -103.736519 
83.993034 -146.194733 -114.187500 
140.742004 62.183514 -84.301018 
139.095184 51.527157 -97.750076 
136.928879 72.061020 -94.486679 
108.924118 154.081619 30.924900 
109.798378 160.838455 7.359462 
143.983261 80.190361 -12.844854 
142.225189 94.203362 -21.801958 
121.488297 -14.083938 -133.092896 
115.746468 -14.162202 -142.455597 
124.076332 2.990952 -135.756897 
126.832855 -14.796936 -122.982300 
118.268997 -31.936678 -127.889275 
125.497444 20.212738 -136.990433 
120.053329 23.488018 -146.898529 
127.031212 36.546478 -134.340302 
130.697647 16.352674 -125.982903 
128.566254 53.083080 -128.276642 
123.005524 59.404495 -138.523132 
130.333496 68.180214 -118.374481 
133.539658 46.075321 -117.549530 
108.611099 -77.597633 -106.975975 
103.699440 -81.601738 -113.397476 
111.552658 -63.627838 -114.174538 
113.546524 -73.726021 -100.110237 
106.065361 -91.819801 -100.035538 
125.145714 -42.923519 -105.767998 
121.849197 -56.266201 -99.700378 
120.243050 -45.780838 -113.293083 
128.484726 -29.343420 -110.182137 
98.823235 -137.705948 -93.367615 
101.296974 -121.327728 -93.480659 
141.218826 -70.787697 -7.760610 
142.358032 -64.295815 -4.251618 
138.254745 -76.381912 -3.643020 
142.336975 -61.169403 -1.707280 
149.203613 -14.117255 -5.147064 
150.559921 -4.440798 -9.016686 
169.699127 6.374772 -68.730484 
169.987854 16.938810 -64.410301 
170.851685 5.640714 -67.453735 
152.180817 -66.269699 -43.792740 
150.056274 -71.558281 -37.599659 
169.354431 25.456860 -58.054680 
167.606995 26.023140 -58.935234 
168.280365 31.109041 -50.640839 
170.963806 24.238798 -57.055138 
158.959259 16.010424 -21.092039 
156.552307 15.988571 -22.273020 
167.100479 33.427258 -43.008839 
168.784912 32.134857 -41.682419 
161.058411 -35.607239 -62.598778 
154.817444 -67.836952 -30.443579 
153.705597 -67.714020 -25.693020 
151.745941 -71.710022 -31.217218 
151.245712 0.338357 -12.122118 
161.428329 30.175560 -35.062920 
158.170868 24.483601 -30.295797 
159.444183 28.576620 -37.837978 
154.121933 16.477180 -24.804720 
152.468826 17.266176 -27.610920 
166.429611 25.728840 -59.325840 
151.062469 16.798409 -30.156660 
153.154434 20.471220 -34.889221 
155.744095 24.026579 -41.284801 
151.856995 20.073778 -43.136818 
159.917221 -51.251038 -49.517277 
160.136459 -54.417961 -35.809196 
148.935959 -73.932114 -32.023079 
152.412292 -66.236397 -21.671101 
154.566544 -60.895081 -21.721861 
156.288406 -56.508839 -23.349419 
157.165558 -53.609756 -25.041599 
171.206284 5.076216 -66.708717 
172.005829 15.276978 -62.551075 
166.588562 27.132479 -28.445940 
166.906967 25.953840 -27.911520 
168.527878 30.213537 -33.892918 
166.864319 24.833158 -27.653038 
168.930725 28.060019 -33.020641 
166.558670 22.864859 -27.971819 
171.660583 23.234760 -56.409477 
170.807037 28.447741 -49.003738 
171.874619 22.304520 -56.165039 
169.813614 30.841740 -40.821480 
170.228516 29.741940 -40.602242 
170.263077 28.666979 -40.141441 
171.093597 26.526060 -48.363659 
171.814499 21.616920 -55.607220 
170.261993 -2.876508 -64.841217 
166.067444 20.476259 -28.951019 
161.608673 7.108110 -24.544619 
169.145462 20.151720 -44.018276 
169.478104 -8.716896 -55.596779 
169.576736 -5.278428 -55.063618 
169.457214 -1.876086 -54.019981 
169.114670 0.833510 -52.403580 
168.525177 3.027330 -50.169239 
166.986725 4.497372 -45.620098 
153.563766 -47.224976 -21.095819 
155.697113 -50.084099 -24.040800 
158.263199 -5.175414 -19.157040 
151.591309 -32.597641 -17.783676 
157.349152 -52.262638 -25.954559 
64.330383 46.192318 133.143646 
64.969734 168.738647 83.658417 
66.097076 180.205185 63.309422 
15.639515 181.789200 89.537575 
15.351678 195.569992 67.370216 
0.300044 182.348999 89.782738 
66.466797 190.774796 39.159718 
66.879539 198.602997 12.610386 
14.891777 207.464401 41.781059 
0.076387 208.223999 41.666401 
41.686199 214.943405 -17.464733 
54.801357 209.690994 -16.714638 
67.179962 203.101196 -16.446960 
67.520699 203.281189 -46.068478 
123.135117 94.663437 62.852760 
134.995499 112.092659 7.007526 
138.042358 109.933556 -12.281058 
110.435936 164.300934 -16.834661 
110.712952 164.101685 -40.185181 
14.439906 214.644592 -84.770103 
14.304654 203.668198 -116.376480 
0.130380 215.303391 -85.034157 
66.929756 199.306793 -75.670204 
66.324059 189.809982 -105.716881 
138.458160 108.151016 -31.670280 
137.679306 105.626343 -51.259678 
108.975418 162.327057 -63.472858 
107.278915 156.578751 -86.408279 
135.724304 100.960022 -70.707954 
133.809662 93.230812 -89.179916 
131.962311 82.405617 -105.101639 
126.208794 91.609558 -115.908836 
82.418579 -165.486237 -115.410782 
81.203041 -183.591003 -117.860939 
81.310860 -200.464203 -119.758499 
81.569878 -215.954987 -121.967094 
72.326874 -196.950592 -128.298416 
13.779900 187.540207 -145.242538 
13.316795 166.959167 -169.603546 
0.231183 187.878586 -145.925110 
13.278780 144.562317 -187.127991 
13.353209 120.954056 -199.837799 
0.275792 144.768250 -187.682388 
13.401234 97.531738 -208.686584 
13.151214 73.808098 -214.586990 
0.291681 97.867981 -209.186981 
12.631158 48.673977 -218.003387 
0.302987 48.722580 -218.590195 
34.109638 -2.795076 -211.143600 
45.184856 -4.500756 -206.890198 
10.588697 -48.060001 -197.729996 
10.515204 -70.172279 -182.991592 
0.222712 -48.267899 -197.996399 
10.462626 -86.115593 -172.132187 
0.153822 -86.486755 -172.082703 
9.189234 -153.304550 -151.412033 
0.143147 -152.898666 -151.699677 
62.956615 135.838974 -173.951996 
63.943916 156.768478 -156.777481 
62.160301 113.112541 -186.577194 
65.059196 175.140900 -133.957428 
61.096500 90.200157 -195.487183 
60.122520 66.548698 -201.311981 
58.976097 42.241856 -204.416992 
57.841019 17.542475 -204.494400 
56.288879 -5.994216 -201.535187 
54.474117 -29.028957 -195.119995 
52.554600 -51.452995 -185.079590 
51.194698 -72.003059 -173.158371 
51.016140 -89.390335 -162.377106 
50.759998 -105.825417 -153.508850 
49.477497 -122.882568 -147.339355 
48.227398 -140.642090 -143.860138 
47.017979 -157.700516 -142.949692 
63.710278 -194.590805 -134.784164 
64.152893 -210.492004 -135.885239 
105.608337 146.735992 -109.068291 
119.462036 100.820702 -126.063362 
118.272598 83.424957 -138.785767 
116.739357 65.593803 -148.183914 
115.359657 46.291679 -154.053177 
113.938019 26.863018 -156.441055 
112.260231 6.719472 -155.336945 
109.258377 -13.719006 -152.135269 
105.971214 -33.361919 -146.680740 
103.013100 -51.565857 -139.268341 
109.123199 -50.588818 -130.035965 
100.754997 -69.434998 -129.362579 
98.713074 -84.819962 -120.111832 
104.004356 -106.621017 -94.691696 
108.011879 -103.964394 -88.516792 
137.383377 40.186260 -107.635323 
136.113480 26.843039 -113.294159 
141.021713 33.219177 -96.751076 
131.207947 -15.022710 -113.958359 
133.429123 -0.710809 -115.654129 
114.724075 -48.395336 -121.698357 
134.817474 13.614353 -116.021690 
118.545471 -69.470276 -93.454735 
115.704170 -82.615494 -87.491341 
35.587799 -195.456589 75.065399 
116.528755 -133.253281 10.717236 
100.336136 -165.103378 16.374924 
22.147560 -81.795601 166.540680 
27.307619 -83.733833 164.039032 
33.207836 -87.166435 160.140045 
14.563726 -104.665672 168.540649 
15.294763 -106.890663 169.011185 
15.841926 -109.017891 169.211517 
42.051060 -115.568642 154.174866 
40.536716 -112.459137 155.104187 
39.187977 -109.611542 155.818436 
29.534941 -76.325752 162.520920 
66.650757 -95.796898 142.419785 
50.998859 -57.353580 146.445297 
52.454700 -66.045418 148.301819 
53.906399 -74.987816 149.518250 
108.015114 -68.895714 104.021454 
38.706299 41.495758 128.227509 
144.360184 26.373779 -85.178162 
150.050156 23.570459 -50.796356 
151.370636 19.959120 -46.555561 
135.745026 -81.801178 2.667348 
50.733356 22.284000 123.598801 
96.560631 77.043060 120.335213 
11.793960 -46.263058 162.772202 
86.399452 34.179119 114.389816 
19.574999 -45.383221 159.586197 
151.211166 19.566721 -44.624699 
106.761421 -185.898590 -74.435219 
115.106758 -121.414139 -65.873695 
113.223953 -109.197723 -75.473999 
112.968903 -98.346420 -82.357918 
42.000477 -43.992718 147.347275 
24.287760 -100.134537 162.416153 
42.252121 -99.600838 150.138367 
11.226060 -91.982513 162.174057 
-132.696533 -84.205620 24.444719 
-134.075699 -75.809525 27.061020 
-134.592468 -81.182877 11.573442 
-131.118835 -92.275917 21.681000 
-130.464890 -86.920013 39.256737 
-108.054184 -211.138199 -16.354656 
-107.918091 -192.648590 -15.547302 
-111.716278 -208.571396 -24.110640 
-108.979019 -229.589996 -18.057779 
-103.295517 -213.375595 -8.826066 
-110.129936 -242.893784 -19.964520 
-105.765663 -246.448792 -11.790863 
-113.238174 -239.441391 -28.201139 
-111.148735 -253.326599 -21.837780 
-97.488899 -183.479385 2.002338 
-103.614296 -181.056595 -6.605334 
-96.945480 -197.209793 0.179819 
-90.913498 -186.708588 10.065222 
-99.137337 -172.739700 4.148604 
-114.335632 -176.629135 -29.427120 
-111.870903 -177.887878 -21.931740 
-114.962578 -166.682343 -28.547100 
-115.698601 -174.079788 -38.257919 
-113.959435 -189.323990 -30.452940 
-121.037033 -119.899261 39.201660 
-122.886719 -117.617760 26.349300 
-118.040756 -127.140114 34.371181 
-117.974510 -122.616005 51.640919 
-123.359390 -112.816261 43.648376 
-135.057236 55.835640 46.668060 
-140.885818 53.373779 25.255079 
-134.399338 42.461102 51.687359 
-127.771553 60.452099 66.758759 
-136.171066 70.000740 38.885578 
-143.396637 75.113998 -49.746780 
-145.820328 61.800121 -41.029560 
-144.396179 78.111717 -30.353218 
-140.186874 87.838020 -59.092918 
-142.153549 69.802376 -67.419540 
-10.810908 -213.386383 65.404442 
-11.021130 -206.197189 69.073196 
-17.586432 -212.612381 63.286377 
-12.166614 -225.140396 63.305637 
-5.535486 -213.712189 66.704582 
-15.329862 -243.363586 58.905895 
-17.941788 -262.056610 53.218258 
-9.109079 -243.819000 61.146900 
-22.187698 -241.653595 55.920597 
-5.551380 -276.175781 52.513199 
-6.501204 -284.817596 49.892399 
-4.629420 -263.291382 56.504879 
-12.427704 -275.576416 51.341938 
-124.651978 -96.644333 -58.141796 
-125.816757 -82.941483 -65.436478 
-119.829056 -107.660873 -62.666096 
-124.095421 -108.080093 -49.004101 
-129.303726 -85.635719 -53.729099 
-127.195557 -73.141197 -70.784637 
-132.893448 -64.791542 -64.913940 
-128.613602 -64.622337 -75.095459 
-120.536987 -83.614319 -77.075279 
-114.694382 -226.475998 -56.858219 
-115.737831 -232.182007 -45.551697 
-111.788452 -221.297394 -68.802116 
-114.358681 -238.361404 -60.874020 
-3.312036 -244.393204 62.486279 
-1.515631 -226.182587 66.552116 
-127.436584 -89.972816 53.241840 
-126.172440 -98.854378 50.730118 
-124.013878 -90.953094 65.836258 
-128.847961 -79.834503 54.661499 
-124.333923 -114.997856 12.840426 
-127.007812 -107.418961 15.946200 
-125.091896 -113.917862 -1.431889 
-121.352219 -122.391541 9.117990 
-18.897659 -168.777725 161.095490 
-19.129141 -160.876083 162.669052 
-26.229420 -167.607544 157.167175 
-18.690660 -175.926773 157.545532 
-11.981844 -169.528320 163.650589 
-35.128258 -164.773254 151.400330 
-35.669338 -156.315048 152.964355 
-44.569981 -160.389175 144.246414 
-34.783920 -172.103577 148.067444 
-6.540516 -153.730621 166.477509 
-6.159744 -162.186111 166.601334 
-6.277392 -144.522888 165.180588 
-12.688146 -153.099350 165.032272 
-18.740879 -181.112381 152.562057 
-12.065849 -181.727997 155.042816 
-26.395199 -179.917206 148.572708 
-19.559700 -185.059784 145.192490 
-20.664000 -187.727386 135.571869 
-20.488680 -189.548996 124.114136 
-12.782645 -188.954987 137.708984 
-32.136662 2.751930 142.939987 
-26.744579 7.527743 146.735809 
-30.108240 9.762750 138.780167 
-37.288799 -0.985669 139.744064 
-34.810200 -4.767534 146.639877 
-88.544159 -42.455162 129.861359 
-90.054535 -51.104156 128.797729 
-77.997955 -41.823898 135.714600 
-87.258598 -33.983818 130.208206 
-99.624954 -43.236359 121.054504 
-107.405281 -24.674040 112.305779 
-108.983513 -34.035480 111.015541 
-96.762596 -25.209539 122.625175 
-105.199379 -15.838002 113.507812 
-117.047333 -24.442558 99.484375 
-126.840599 4.391478 78.164642 
-122.331772 7.560719 85.980240 
-126.217072 17.143379 77.073296 
-130.455719 2.164572 69.623276 
-91.029961 -59.934235 127.160278 
-80.000999 -59.266075 134.884262 
-101.651764 -61.473778 116.883171 
-90.991615 -70.009018 125.931953 
-5.680494 8.871876 171.980453 
-9.322127 7.805285 171.114838 
-7.397820 1.858518 178.053299 
-4.257612 17.329859 165.340073 
-59.628780 122.215317 131.785019 
-60.962940 132.884995 123.554329 
-69.877800 119.163780 126.708656 
-57.880615 109.969200 140.665848 
-49.829937 124.117561 135.491028 
-4.681332 -193.701599 114.102898 
-5.860350 -191.546997 127.762917 
-11.307024 -193.147202 112.545357 
-3.360240 -196.235992 98.409775 
-119.802597 -90.832855 77.754059 
-121.402435 -79.360733 79.354797 
-117.709190 -102.233513 76.062241 
-114.739914 -89.211235 89.465935 
-5.440662 -182.280594 156.223434 
-5.700042 -186.616806 148.524292 
-5.224140 -177.147888 161.283417 
-5.949630 -189.529190 138.903122 
-74.207878 -157.227661 105.604195 
-74.884682 -151.252731 111.684959 
-84.073853 -151.035126 96.097137 
-72.375298 -162.290512 100.477974 
-64.266479 -161.983261 116.571602 
-82.407600 -166.016342 59.897522 
-72.933655 -171.470520 69.226379 
-87.518517 -159.378296 67.597023 
-91.030861 -160.293777 49.964581 
-77.083015 -173.308136 50.857738 
-1.601341 -199.742401 81.803162 
-0.426665 -206.216995 70.825851 
-6.880842 -199.808990 80.329498 
-17.198639 -7.107066 180.133194 
-12.714875 -5.555502 182.597397 
-15.450191 -0.824918 174.876480 
-22.391998 -9.462204 175.993912 
-18.405178 -12.125970 184.127396 
-54.718018 -38.465279 143.002792 
-48.983757 -33.264000 145.485535 
-52.513020 -29.745180 143.002792 
-59.546700 -40.849018 141.681061 
-54.787498 -103.807259 144.518936 
-50.756939 -104.281738 145.236786 
-51.960598 -102.493797 145.118332 
-26.892179 -43.421940 161.253357 
-30.382381 -44.696518 158.122803 
-25.160040 -45.124378 160.135193 
-30.601259 -41.186878 161.991180 
-25.030619 -51.320160 157.075378 
-21.421438 -49.598816 159.468842 
-24.716160 -49.574699 157.505753 
-29.703779 -52.272900 154.131119 
-25.938360 -53.987221 156.804306 
-7.176906 -42.283619 173.214722 
-10.312848 -42.095158 171.702728 
-7.204139 -43.974899 170.687332 
-7.595172 -40.597378 176.561981 
-35.159039 -51.750538 151.262451 
-35.943478 -54.313198 151.050949 
-34.498260 -49.914181 151.976517 
-40.512959 -49.525921 148.875839 
-19.588678 -26.835659 187.082993 
-19.855619 -23.868538 187.878586 
-24.550379 -26.932499 182.089798 
-19.065420 -30.108059 185.279388 
-15.073848 -27.291059 190.272598 
-48.902760 -127.027977 146.741943 
-51.309540 -133.397095 144.363602 
-41.753880 -130.433395 150.972656 
-46.191418 -121.511879 148.835342 
-54.884518 -122.825157 143.418243 
-52.183796 -92.040115 148.378326 
-55.823040 -93.344933 146.680191 
-48.428097 -90.343262 150.415741 
-51.926579 -84.491638 149.329437 
-7.726662 -51.528957 166.577209 
-7.457454 -48.076920 167.552811 
-10.962000 -51.343376 165.609543 
-7.875630 -55.741138 166.401001 
-13.713479 5.783076 169.346329 
-12.400235 12.968927 163.329300 
-19.055159 2.595816 166.018494 
-41.614559 -32.374798 156.401276 
-42.383881 -32.167439 154.085388 
-41.708519 -35.378281 154.700455 
-40.453018 -30.071697 160.350845 
-40.094276 -28.270620 160.663849 
-13.050486 -45.394737 166.184814 
-10.424809 -45.389698 167.749023 
-12.995244 -43.708141 167.401443 
-15.548238 -46.290779 164.065491 
-12.884670 -48.185818 165.128571 
-12.842549 -42.210178 169.535339 
-13.020534 -40.652821 172.448456 
-38.619900 -27.538559 164.310654 
-39.589020 -30.838320 162.229126 
-38.097900 -25.879320 164.992142 
-40.753620 -39.896641 152.914673 
-38.389858 -44.059319 152.305191 
-39.995640 -36.807121 157.000687 
-8.608013 -70.133034 169.495026 
-8.335728 -65.215973 168.082199 
-13.777847 -69.274254 168.625977 
-9.169596 -73.555016 170.431549 
-46.447556 -58.552563 147.361496 
-45.599937 -51.618061 146.572372 
-50.299198 -58.483078 146.046234 
-47.946239 -66.544205 148.767471 
-42.170940 -58.623299 149.116669 
-17.678087 -125.197380 163.043640 
-25.410240 -124.389717 160.637039 
-17.718660 -129.365097 162.158569 
-10.728539 -125.459099 164.302368 
-17.590302 -121.747490 164.228745 
-43.968422 -94.816437 151.421036 
-44.411400 -91.239471 152.326431 
-47.692078 -98.113136 148.248718 
-44.329498 -96.335457 150.704285 
-37.565639 -24.737761 164.811234 
-34.200176 -21.923279 169.381973 
-37.776237 -23.837038 162.422638 
-32.731739 -123.115135 157.317474 
-32.119019 -119.857498 158.416565 
-38.859657 -120.827881 153.809814 
-33.226200 -127.154327 156.309113 
-5.055408 -125.424179 164.819870 
-4.903200 -122.375336 165.973312 
-5.153886 -129.376617 164.064957 
-110.314262 48.499561 107.359024 
-112.324318 50.607182 103.781334 
-113.783035 38.827080 98.463959 
-107.981277 46.838879 110.653557 
-77.601418 94.875298 133.544342 
-79.497360 104.755493 126.704880 
-88.344177 90.125999 125.087387 
-75.567963 86.273819 139.482346 
-67.639679 98.118179 141.024597 
-99.264236 84.219833 114.742256 
-101.402817 94.231804 106.971298 
-109.723679 76.863594 101.680016 
-97.148155 76.201561 121.625999 
-74.501816 73.442520 144.240646 
-74.461678 77.686195 143.522461 
-74.718361 68.749023 144.131210 
-66.219833 77.139359 151.274155 
-115.388451 52.952217 97.668182 
-120.985016 42.593040 85.741196 
-106.145279 63.026817 113.741463 
-117.561409 58.150257 92.020134 
-43.787697 60.231060 148.438980 
-37.074600 58.656960 147.881699 
-43.389359 63.750599 150.508789 
-50.145657 60.129719 148.049820 
-43.941959 55.763821 145.326416 
-10.449143 31.246199 150.968521 
-10.841904 26.459459 153.494278 
-4.892040 34.949162 153.346664 
-10.173437 35.324821 149.304413 
-15.622488 26.578798 147.253326 
-57.493076 -10.100880 134.370178 
-48.105537 -7.449300 136.442337 
-53.688599 -3.398670 132.517807 
-68.544716 -11.118690 132.018295 
-61.418339 -17.530991 136.158829 
-106.225739 12.500622 103.714737 
-101.557434 7.013880 109.282501 
-100.971359 14.707621 107.457832 
-108.050217 19.657799 101.426041 
-110.873878 10.469879 99.985321 
-11.404872 20.240280 157.822906 
-6.603768 23.382900 159.471710 
-16.526665 16.045759 155.027527 
-75.081238 64.668236 143.543686 
-74.539261 60.774479 142.810379 
-66.439972 68.259598 149.570267 
-84.653641 62.434799 137.721069 
-93.526199 59.104259 130.802933 
-100.575897 52.190819 122.562180 
-92.147758 55.500477 131.377304 
-99.603714 26.663759 109.522797 
-103.512779 27.188099 106.550819 
-98.582397 21.223259 108.811440 
-95.427895 26.161200 112.295700 
-99.801537 33.178680 112.785118 
-75.278160 31.870979 127.922401 
-71.921524 33.517262 130.640762 
-78.426361 30.294720 124.786980 
-68.183456 35.150578 132.743164 
-64.067215 36.536758 134.224915 
-68.704018 36.889198 133.819016 
-72.804962 35.137978 131.570816 
-63.981358 38.224438 135.250381 
-59.272022 37.570320 134.828461 
-54.454140 38.053440 134.340469 
-58.844517 39.216599 135.682373 
-53.681938 39.665878 135.017639 
-50.002197 37.978199 132.937012 
-45.792000 37.004398 131.134674 
-41.504219 35.315819 128.903397 
-37.996380 33.561180 126.591293 
-39.302097 36.694981 129.178970 
-43.813076 38.338379 131.439957 
-35.809196 34.642262 126.998093 
-35.801636 31.801498 124.883995 
-36.996120 37.835640 129.631149 
-42.003540 39.970619 132.240417 
-58.574879 41.189400 136.814407 
-53.007835 41.603580 136.082153 
-85.483803 23.434019 116.961655 
-83.267639 21.798180 117.924484 
-57.055500 58.920837 147.089874 
-57.021118 54.882359 144.686874 
-57.499016 63.054718 149.175003 
-65.256660 57.452759 145.126968 
-85.193817 43.122780 130.873489 
-81.864716 39.181320 130.441498 
-79.188301 45.332100 135.106186 
-88.143837 47.491199 131.288025 
-64.469337 10.264626 126.530815 
-53.309158 11.316906 128.100601 
-74.676964 11.569212 123.482346 
-66.114716 7.714602 126.475914 
-45.093597 14.318873 127.894318 
-46.143360 11.500992 128.512985 
-39.059460 17.411165 127.308769 
-32.318279 23.978699 126.133743 
-33.989941 21.921120 126.492470 
-31.479118 25.574039 125.800911 
-62.134922 15.476184 126.752220 
-52.380722 16.499628 127.758965 
-71.305916 16.764442 124.435616 
-37.243797 23.690519 124.628220 
-35.934841 24.734339 124.110718 
-39.920219 21.946859 125.541718 
-34.842777 25.611300 123.942421 
-33.837658 26.758440 123.973373 
-25.989120 40.372200 134.349655 
-24.303598 44.717937 138.306778 
-28.664459 43.230598 135.322205 
-28.164240 35.958958 129.914627 
-30.828959 28.086840 125.900459 
-47.461678 41.281200 134.372330 
-29.525938 34.143299 128.009155 
-31.381559 36.688679 128.920319 
-28.707298 31.634459 127.713959 
-61.680782 17.545841 126.878036 
-52.235638 18.619560 127.640335 
-37.574280 25.128719 123.700310 
-39.919861 24.005520 124.617233 
-36.273602 25.687979 123.403130 
-35.496719 26.367479 123.123421 
-80.696877 28.709639 121.781876 
-3.996864 59.763962 153.291962 
-5.394096 64.857239 154.820511 
-9.074754 59.005615 152.491318 
-2.373894 55.446297 152.127350 
-36.869579 8.253413 132.708420 
-42.132957 5.324922 131.830750 
-38.580479 3.246894 135.170822 
-33.195957 11.056842 133.739456 
-36.002342 11.856095 130.927505 
-29.098978 14.215734 135.946259 
-24.703739 17.986589 139.315491 
-28.280519 23.176620 130.209473 
-28.346939 26.108101 128.694778 
-25.199459 24.798239 133.358032 
-18.489780 40.556698 140.268250 
-17.042040 42.677097 142.258682 
-20.473021 44.110077 140.200195 
-35.999458 19.825741 126.812698 
-35.624519 17.740620 128.001419 
-35.485199 15.012863 129.361847 
-40.114979 11.990447 129.145859 
-37.186920 -99.684181 149.121536 
-31.900860 -97.856812 152.132034 
-42.021900 -100.847336 146.851013 
-36.939236 -99.557999 148.828857 
-45.084240 -101.469238 145.393555 
-44.523540 -101.238472 145.269363 
-9.573713 -79.935120 170.791565 
-9.259560 -82.553215 170.296371 
-9.512010 -77.477043 170.977676 
-15.421031 -79.343277 169.621201 
-19.419119 -85.528793 166.606552 
-22.903561 -87.423302 164.574173 
-18.286739 -88.535522 165.247375 
-14.733881 -85.048737 168.116943 
-19.877939 -82.650955 167.596741 
-26.784361 -89.058235 162.153000 
-31.819681 -91.298157 158.605011 
-26.424540 -91.771378 160.492844 
-27.277559 -86.468758 163.268997 
-19.956060 -79.813255 168.256073 
-19.860298 -77.316841 168.616425 
-23.778898 -81.584457 166.437363 
-26.411039 -79.077599 165.379135 
-27.436859 -81.349197 164.723221 
-22.572718 -76.776115 167.499893 
-25.815058 -76.801865 165.596039 
-37.488239 -95.363998 153.511734 
-37.502098 -92.574898 155.303452 
-16.598970 -91.297974 163.437302 
-21.474180 -92.639336 161.169846 
-15.438599 -92.716736 161.917374 
-11.944152 -90.396721 165.218216 
-26.513998 -94.489021 158.074371 
-26.364420 -95.809319 156.447540 
-46.481400 -99.374939 147.983566 
-48.763077 -101.930397 145.644119 
-37.514160 -101.427116 150.241501 
-37.689121 -101.786758 150.766373 
-32.036938 -100.308060 153.861481 
-37.347118 -101.315872 149.860077 
-38.752918 -104.236740 152.030884 
-33.944580 -104.921822 156.643204 
-38.348816 -103.334038 151.763214 
-28.517401 -105.427620 161.080917 
-29.352779 -107.060219 161.181549 
-22.618799 -105.571434 164.599014 
-28.032660 -103.724098 160.464417 
-15.064973 -100.420013 165.500824 
-9.609101 -100.288795 167.155014 
-15.021719 -97.756561 163.951904 
-21.450060 -100.964699 162.843643 
-15.242021 -103.402618 166.864502 
-5.082192 -106.181633 170.098022 
-5.093082 -103.462555 169.274887 
-9.602225 -105.885536 169.332306 
-5.097852 -108.571854 170.535233 
-45.617760 -104.074020 144.172623 
-45.257938 -103.011475 145.234970 
-42.080399 -103.700699 146.328659 
-45.763020 -106.551178 142.984070 
-5.296356 -96.973198 160.241577 
-5.457510 -95.647675 162.115921 
-4.870764 -99.995033 158.178955 
-9.344106 -97.326897 159.551285 
-5.104800 -110.766777 170.635147 
-9.763002 -110.474098 169.988403 
-5.173272 -112.742638 170.409592 
-4.883040 -119.358170 167.521667 
-5.053932 -116.688232 168.954300 
-10.042776 -118.902237 167.175903 
-19.320299 -75.451500 168.690781 
-15.117300 -74.761200 169.823151 
-18.043200 -72.912422 168.696350 
-5.232546 -100.397156 167.995071 
-5.330826 -97.492134 166.439697 
-5.373756 -96.044754 165.325317 
-5.578074 -95.485680 164.490646 
-9.707796 -96.062401 164.518738 
-14.939531 -96.488640 162.914932 
-14.843916 -96.068878 162.232559 
-20.604778 -97.587357 160.569183 
-5.699502 -95.313774 163.492737 
-9.758430 -95.441399 162.808014 
-26.292059 -99.002159 157.511337 
-26.762579 -99.958313 158.381271 
-26.082359 -98.651154 156.764343 
-30.785580 -112.457161 160.898224 
-31.274460 -114.425995 160.263367 
-24.797340 -113.389374 164.388596 
-30.344038 -110.699997 161.222580 
-16.953497 -113.814178 167.612396 
-17.291197 -115.866356 166.791229 
-9.895391 -114.196678 169.394760 
-16.556255 -112.011299 168.076431 
-5.136624 -114.631912 169.870316 
-26.238239 -96.148621 155.528641 
-25.993980 -96.020996 154.707306 
-20.646719 -94.375443 158.522583 
-45.207897 -102.561653 146.347382 
-42.294598 -102.725456 148.309189 
-14.335002 -98.035202 158.229904 
-14.448204 -96.557579 159.921005 
-14.237046 -100.904579 156.495605 
-19.947060 -98.975151 156.253494 
-14.636933 -96.021179 161.327530 
-20.132820 -97.148697 158.946838 
-17.386486 -118.549263 165.642120 
-25.295938 -118.034279 162.740692 
-29.810158 -108.887756 161.356674 
-23.904360 -109.622520 164.964233 
-31.683781 -117.015114 159.418243 
-36.972179 -114.976440 155.845078 
-25.454159 -95.324043 154.089539 
-30.482821 -96.811920 151.437408 
-24.538139 -92.636452 152.667542 
-20.432699 -93.590096 156.232788 
-15.263369 -92.312454 158.058899 
-15.001632 -93.002571 159.659988 
-16.086168 -89.928894 155.436295 
-10.889964 -91.370514 158.893204 
-23.921280 -86.832001 150.485580 
-28.061279 -88.217636 148.858734 
-24.118200 -79.516441 148.555786 
-20.028599 -85.476418 151.759430 
-46.120678 -112.003197 141.674042 
-42.485760 -111.796196 144.045532 
-46.088280 -117.937431 141.029816 
-4.182930 -106.285316 156.595306 
-4.329288 -114.018478 156.211380 
-8.236314 -106.476120 156.101044 
-16.247789 -84.331261 152.728546 
-16.069553 -77.076897 150.855835 
-12.193128 -83.323074 153.512451 
-13.596318 -106.899300 155.046783 
-13.748777 -114.734695 154.396805 
-19.654921 -107.640541 153.385193 
-52.678619 -102.598732 134.306641 
-53.781658 -101.811775 132.537048 
-21.053699 28.015739 137.742477 
-20.283480 25.349760 140.627518 
-147.667313 -15.590897 -77.013901 
-150.450104 -16.471727 -73.874878 
-148.733994 -7.327062 -76.948380 
-144.208435 -14.512356 -83.123100 
-146.458435 -23.512320 -75.701874 
-148.043869 17.171118 -8.822556 
-146.363754 20.848679 0.102946 
-148.597382 22.383179 -16.510265 
-148.544098 26.239140 -25.993620 
-149.356613 25.593660 -38.828518 
-149.335190 17.339670 -28.015018 
-147.913742 36.012779 -28.254778 
-137.652832 -59.357700 -60.570358 
-139.629242 -52.339138 -63.790916 
-136.010345 -66.887817 -55.993320 
-142.079041 -55.216438 -57.500637 
-141.290100 -45.739620 -67.481094 
-145.436386 -43.563599 -64.037697 
-143.187119 -38.584438 -70.728119 
-136.516678 -49.384441 -72.756355 
-153.161453 -16.370623 -72.256500 
-153.755096 -7.363152 -72.537300 
-152.181168 -23.860260 -70.645500 
-155.891693 -15.445476 -71.616058 
-153.831589 -45.745918 -58.322701 
-155.705215 -47.732937 -56.347198 
-151.416718 -42.932697 -60.860336 
-157.129929 -49.168800 -54.484741 
-159.011627 -41.916962 -58.201740 
-155.134430 -56.332798 -49.982399 
-158.471634 -49.955936 -52.256336 
-165.088608 -31.563360 -54.477898 
-167.292542 -23.460299 -60.143761 
-165.081772 -30.547258 -53.051941 
-146.322708 -71.632797 -35.215740 
-146.821136 -68.696281 -40.681622 
-144.653030 -70.138077 -38.919418 
-145.622513 -72.821518 -31.477858 
-147.188873 -72.051117 -33.927658 
-149.882767 -58.332058 -12.223763 
-149.362564 -59.316116 -12.198276 
-148.252502 -61.485298 -12.737592 
-164.984756 -29.873161 -52.296658 
-164.106903 -30.943439 -50.551380 
-169.851959 -3.657762 -59.203262 
-169.931152 -2.475954 -61.982101 
-169.694824 -6.039882 -56.178356 
-170.284683 14.652269 -54.644581 
-170.754654 17.089830 -54.846539 
-170.987579 20.833019 -52.961216 
-170.424530 24.500340 -47.299137 
-171.299149 21.671638 -53.695438 
-170.021149 20.452681 -48.888359 
-153.496613 -17.504929 -12.260969 
-155.688660 -7.727922 -13.312314 
-151.898224 -24.746038 -11.225034 
-152.585815 -16.191557 -9.813204 
-144.691910 -46.137775 0.481145 
-145.533768 -38.489578 1.480368 
-143.846634 -52.815418 -0.485069 
-143.103775 -46.925999 5.566014 
-151.252197 -37.411560 -16.070814 
-151.187210 -33.917580 -16.284527 
-151.854660 -41.022717 -17.040888 
-149.341858 16.474283 -28.048859 
-149.411163 16.467678 -27.647459 
-149.877899 18.782640 -34.406818 
-163.919876 30.079979 -28.998362 
-165.532852 33.168240 -34.722538 
-165.325500 28.819981 -27.209160 
-161.470444 24.484138 -23.612219 
-162.356567 30.813480 -31.129917 
-164.542679 34.406277 -44.000820 
-163.231918 33.934319 -38.463657 
-163.061996 32.533558 -46.514698 
-165.316666 32.164742 -50.740917 
-165.079971 34.663681 -43.062660 
-165.717361 6.955560 -70.230598 
-167.631302 7.413534 -69.257881 
-166.354370 17.664120 -64.987373 
-164.324692 6.105132 -70.553337 
-157.303085 0.530006 -14.374944 
-157.824890 -1.691532 -15.611165 
-170.897751 5.907582 -64.644302 
-171.721802 15.108084 -60.520138 
-170.975708 5.730066 -65.300400 
-170.357941 0.866925 -65.012756 
-169.579971 26.042219 -40.031639 
-168.009476 24.996239 -32.720581 
-169.760162 27.807480 -38.910961 
-169.189911 23.611139 -41.361839 
-159.873291 1.970208 -19.534500 
-160.835205 6.145110 -20.854441 
-158.912460 -1.200499 -18.476820 
-170.149307 7.114482 -59.680260 
-170.291519 3.446532 -63.099358 
-156.522415 -10.145898 -21.808800 
-157.453552 -7.263360 -19.789200 
-156.774597 -9.644616 -23.110559 
-164.646896 -8.509050 -47.523418 
-168.158157 -3.751362 -51.019199 
-164.444397 -10.474272 -47.818077 
-164.192032 -7.715304 -46.376637 
-146.355652 -31.456078 1.486791 
-144.927353 -31.864138 6.186672 
-147.549423 -23.321339 -0.017492 
-154.164230 2.049768 -69.789597 
-155.903748 6.566706 -68.061058 
-153.946793 10.410407 -65.860374 
-152.060760 0.989233 -71.879219 
-160.178391 15.463566 -63.180538 
-160.370270 8.173818 -68.517181 
-164.419556 23.808060 -59.729397 
-159.811920 22.202999 -57.269337 
-162.460983 4.359492 -70.491592 
-160.394394 -5.567202 -71.959854 
-159.710754 -14.572566 -71.330582 
-148.654434 -42.407997 -62.455681 
-150.052124 -36.590397 -65.488144 
-147.005463 -48.029758 -59.183636 
-151.173004 -30.493799 -68.339699 
-148.120560 -30.920580 -70.208458 
-163.121399 -30.836340 -48.688919 
-145.317230 -53.281799 -56.120037 
-143.484482 -59.806438 -51.932518 
-145.357010 -72.166138 -26.227980 
-144.451797 -72.640976 -25.905239 
-143.483948 -72.998634 -25.365780 
-142.934570 -72.657539 -35.298180 
-164.813583 -11.805335 -48.696117 
-168.199554 -9.305603 -52.703278 
-151.531021 -15.124986 -7.784010 
-150.246170 -14.421653 -5.522094 
-147.784683 -39.284279 -5.088060 
-148.348801 -39.580921 -6.329016 
-152.956970 -47.241901 -16.580250 
-153.195114 -45.298260 -18.120060 
-154.738800 -50.835598 -19.483559 
-150.914871 -30.099777 -10.348992 
-151.643158 -30.365458 -14.409233 
-159.335281 25.426079 -51.406200 
-157.707169 26.496359 -45.258118 
-155.032913 18.836100 -56.493721 
-153.368820 16.064693 -59.775654 
-152.321045 19.832760 -51.958439 
-152.581863 15.517709 -61.808216 
-168.963837 9.173105 -50.392799 
-168.669708 6.463980 -49.770538 
-157.486679 -8.376480 -25.758179 
-159.176514 -6.155658 -30.646080 
-164.136414 -6.211638 -45.447838 
-163.153610 -6.123852 -42.904800 
-167.183105 0.276862 -47.623676 
-14.347529 153.530807 121.465805 
-14.901049 166.845245 108.136253 
-28.789919 151.594742 121.007698 
-14.114861 140.361481 131.922348 
-13.454136 127.272957 140.497910 
-27.555481 126.455040 139.596115 
-13.045824 113.117393 148.137115 
-57.137039 100.100517 146.647614 
-46.854717 101.370239 149.852524 
-56.656979 92.253593 151.234924 
-8.076852 -38.780640 180.610184 
-11.422925 -38.879280 178.339310 
-8.967653 -36.639542 184.278595 
-10.428426 -21.127680 193.194000 
-10.518750 -24.402599 193.107590 
-10.355814 -17.632620 192.459595 
-15.066990 -21.081419 191.314804 
-10.502244 -27.683819 192.203995 
-10.317834 -30.785040 190.501190 
-7.359336 -45.765717 168.919907 
-8.060885 -60.677277 167.028122 
-12.198365 -60.568016 166.343399 
-9.846738 -33.751980 187.878586 
-13.895621 -33.704102 185.660995 
-10.048572 -14.340096 191.071793 
-9.600012 -10.093302 188.305191 
-14.367402 -14.706413 189.406784 
-10.487448 83.491196 157.651733 
-11.211696 90.559799 156.702240 
-22.711319 84.847855 156.837784 
-9.812537 77.872498 157.471741 
-0.749693 36.672657 154.114014 
-0.445207 40.788719 152.601654 
-1.555646 31.732380 156.412430 
-0.380590 44.483757 151.686890 
-0.758939 47.998619 151.294678 
-4.680450 42.787800 150.883743 
-6.454026 -90.742317 159.339783 
-5.818284 -92.086380 161.837097 
-7.149366 -88.094513 156.890518 
-5.686056 -92.307236 163.411194 
-5.912910 -91.965240 164.353851 
-9.919439 -92.395256 162.576172 
-8.948591 -84.961258 169.467117 
-8.215560 -87.488998 168.203323 
-6.992856 -90.031502 166.414139 
-9.526608 -75.654358 170.833862 
-7.475004 -82.548538 154.126617 
-7.299990 -75.470215 152.028717 
-40.741020 149.366867 119.748421 
-41.769539 161.663757 107.042755 
-51.791401 146.375458 117.749512 
-40.089958 137.534027 129.541321 
-34.125839 86.955116 156.224335 
-34.726318 91.403275 155.609451 
-45.261898 88.077774 154.856873 
-34.754040 80.451180 156.119751 
-37.448639 75.924896 155.193649 
-41.039997 70.853577 153.579590 
-47.300037 76.831383 154.280350 
-42.771599 67.248901 152.186035 
-49.780800 67.624374 151.695175 
-34.271099 65.242439 152.099640 
-45.949677 43.103519 135.471603 
-52.220520 43.606800 137.228394 
-39.885479 41.788078 133.369736 
-45.240658 46.067398 137.751297 
-48.633480 39.482998 133.446060 
-44.277657 50.061958 140.878265 
-38.093937 48.825897 139.618256 
-50.760540 50.412060 141.670074 
-85.852974 154.114731 77.801216 
-85.118034 143.698685 91.634575 
-75.274200 160.705612 82.445580 
-87.539574 164.005371 58.973034 
-61.915676 143.269196 114.420235 
-72.593636 139.190933 109.499573 
-63.277020 154.122467 102.543480 
-55.938782 88.132858 152.750504 
-65.377258 84.877022 150.839447 
-55.541157 81.909897 153.575821 
-57.964863 67.320183 150.944580 
-57.100681 71.739716 152.333817 
-55.768677 77.010475 153.355850 
-57.095280 50.036579 141.871490 
-64.357735 48.106800 140.551376 
-57.968639 46.194836 139.638412 
-83.900337 134.219864 102.412079 
-82.542061 124.815956 111.430260 
-95.149979 128.910049 93.027420 
-74.818436 81.237953 142.162018 
-84.657600 77.059799 134.858521 
-70.452362 40.639320 135.832504 
-75.636177 38.749859 133.094513 
-64.567795 42.075539 137.508835 
-71.042938 43.312138 137.090515 
-74.313354 56.301659 141.527527 
-83.389862 55.058758 137.032013 
-73.062897 51.548759 140.102997 
-71.951042 46.840858 138.471848 
-80.945099 115.012619 119.432877 
-92.312820 109.906738 110.290863 
-105.460732 124.530304 80.692558 
-114.368034 120.799797 65.832840 
-104.422134 114.701759 90.380341 
-76.365715 33.255177 128.671906 
-79.504913 31.378319 125.323380 
-80.058777 36.618660 129.643204 
-82.843018 34.002178 126.015114 
-77.733536 34.725780 129.295074 
-90.518219 51.987240 131.560196 
-95.878441 46.052280 124.798309 
-30.908697 55.661400 146.158020 
-29.334419 58.850456 148.912186 
-31.712399 51.440941 142.393677 
-26.316540 51.939358 143.875793 
-26.734138 61.945557 151.233292 
-22.435379 57.847858 149.488205 
-32.648762 46.268639 137.357452 
-33.858540 42.332039 133.557480 
-8.297729 72.013138 156.560577 
-125.067955 -115.795265 -15.444755 
-124.827660 -116.666275 -27.130499 
-128.049667 -106.278114 -11.688264 
-145.901886 41.361839 -65.414162 
-148.334946 31.102198 -56.046959 
-146.871170 45.368820 -50.478302 
-143.617676 51.528419 -74.030579 
-145.266296 34.451099 -75.872520 
-139.624023 -13.967135 -93.807899 
-141.265976 -3.478284 -93.783234 
-135.372238 -14.239008 -104.026497 
-138.027237 -24.768719 -91.136520 
-142.307098 7.676604 -93.016441 
-146.264206 3.930138 -81.655739 
-143.369644 17.584326 -89.552162 
-138.451859 10.882980 -104.799599 
-130.175812 -56.030758 -80.313118 
