1926
68.7926	-79.0848	37.5108
71.0919	-75.1507	32.5747
69.314	-75.0853	40.763
66.1936	-83.0274	43.496
80.9472	-8.95421	25.9983
79.4265	-3.62323	27.6195
78.2788	-9.56375	33.5483
73.0955	9.06707	34.9009
74.0499	7.02128	33.7941
78.0115	-0.100278	29.1124
75.3673	-1.2357	35.0961
76.4817	2.63214	31.0459
71.6256	12.4628	36.8759
46.648	-96.5757	75.227
44.7269	-96.8045	76.5959
76.2404	-57.2265	34.3413
74.8885	-61.0199	35.7776
77.307	-53.1467	33.8243
74.7259	-55.4023	39.8738
69.3565	-71.5931	43.3906
71.4036	-68.2264	40.301
68.8564	-68.1661	46.2025
66.91	-74.87	47.7073
74.1977	-9.04846	40.2171
75.9845	-14.3818	39.9722
72.5198	-4.38086	40.5831
78.2185	-48.5975	33.8096
77.2787	-19.8525	39.353
52.6321	-86.6051	70.9215
52.9153	-82.1115	70.6902
55.8981	-85.3006	66.894
58.9859	-83.5739	62.3927
61.7619	-81.007	57.5834
59.215	-79.1552	62.7723
71.0485	-1.07609	40.9085
69.788	1.38676	41.537
65.9298	-0.118873	46.0241
75.2194	4.8994	32.3875
72.8198	3.67277	37.0338
68.7045	3.54695	42.0335
63.624	4.20547	46.623
54.4928	-2.40322	71.5883
56.2577	-6.08522	73.5809
52.7384	1.71245	69.0806
60.0622	-13.4749	78.0705
59.3162	-11.9323	77.1773
58.9221	-12.6825	82.7382
60.5435	-14.6099	78.1952
49.1031	11.7543	62.5842
49.8558	9.33526	64.2602
58.0962	-2.21793	56.285
44.6164	12.6978	75.3568
43.1828	13.0467	76.2155
82.0036	3.90333	12.5058
51.1272	5.842	66.4845
75.2946	-62.4363	5.04907
73.5259	-60.6604	-4.28667
82.7134	-17.5421	5.83223
82.0495	-24.3086	4.77284
81.1471	-15.8293	-2.46648
79.9932	-41.0195	2.96251
80.722	-35.7962	3.41576
81.1886	-41.4137	11.013
78.0686	-40.6568	-4.84555
81.3995	-30.1779	3.98855
79.5418	-29.382	-4.24905
56.0198	-99.4876	57.3841
53.3571	-78.4433	70.6888
50.2748	-79.1812	73.3884
56.5393	-77.3699	67.2128
59.5112	-75.8861	63.248
57.7412	12.7761	48.417
61.0221	1.45563	49.7911
59.9126	3.70693	49.7811
59.0787	5.41858	49.7261
47.355	-79.6089	75.5337
44.6235	-79.8196	77.2369
45.1528	26.5036	66.9218
46.1513	25.5333	65.3838
45.9709	28.8342	66.8106
43.8694	27.1573	68.3517
44.9612	23.8883	66.9408
50.4076	15.6443	51.8409
50.3066	16.7974	52.0658
49.5472	15.7793	54.1888
46.8639	24.1698	63.7479
47.8136	26.5857	63.3865
42.3892	27.8064	69.5814
40.5543	28.0066	70.7042
53.3776	-26.1789	83.2032
54.7664	-24.7867	84.3932
58.4486	-15.5839	87.957
58.1614	-13.9088	87.5434
59.7559	-15.4694	83.3069
59.3727	-27.6768	65.7692
59.6206	-26.4431	67.0033
57.6136	-29.0016	68.0035
57.4571	-12.1877	87.1881
45.4796	20.5799	66.6829
47.4115	31.4192	66.8424
48.5896	30.4196	65.1318
50.7726	18.185	52.0867
49.4132	29.2356	63.3516
49.7392	27.7905	61.6
49.8619	26.2307	60.1173
60.7036	-33.938	63.3585
58.9972	-34.2345	66.2556
62.1496	-37.0338	62.8246
63.7433	-40.6439	61.9161
61.8996	-40.0257	65.1801
63.4094	-53.6192	53.3549
62.8808	-52.5672	53.047
62.2842	-53.9533	55.7887
65.2822	-52.4077	56.0597
64.5067	-51.7855	59.5557
61.8484	-49.7987	52.7322
60.091	-49.9033	56.607
60.6404	-46.6457	53.1328
57.326	-34.4161	69.0961
55.4544	-34.2291	71.987
58.4834	-36.9091	68.9187
59.9859	-39.7128	68.3379
61.2566	-42.3154	67.9006
60.8576	-54.416	58.8543
59.5919	-53.1049	59.8727
58.3074	-49.9619	59.977
57.4339	-46.0813	59.5062
53.5778	-33.7565	74.579
53.0065	-31.793	74.8501
58.1185	-43.3806	73.6092
60.3984	-44.06	70.4848
60.6251	-12.9673	66.8011
59.3225	-11.066	71.0804
51.1808	-5.486	88.4782
49.3564	-5.25563	89.6491
57.9145	-9.3259	75.659
56.4125	-22.7309	85.8397
57.5896	-22.4051	81.9631
58.8771	-22.283	77.8242
60.0302	-20.3343	78.1315
60.1364	-22.5267	73.8051
60.7357	-23.1506	71.0927
60.6143	-24.1563	69.3355
60.1219	-25.3108	67.9985
60.7791	-15.7051	78.5055
60.8269	-16.9856	78.675
60.623	-18.5757	78.4861
42.2902	-143.399	-6.62813
39.9046	-145.148	-1.42888
42.5862	-149.416	-8.28167
44.2486	-141.527	-11.6521
42.0058	-135.241	-4.41
41.9839	-123.927	-1.77628
43.6555	-121.873	-7.26554
42.5049	-113.991	0.0924026
40.0822	-125.907	3.89902
48.4224	-96.969	4.13719
49.8051	-93.4686	-1.97546
46.8541	-100.296	10.3177
45.6468	-101.462	1.6841
43.7102	-106.966	0.763116
42.1759	-109.638	7.03263
45.0912	-104.239	-4.92161
73.3563	-64.7076	37.4762
73.7184	-67.6528	32.749
72.2865	-62.0615	41.8619
73.3315	-70.9033	27.1342
71.9522	-74.461	22.8197
70.0489	-77.7299	19.3552
71.2816	-59.5959	44.7049
72.3164	-56.6397	44.0428
70.289	-57.2159	46.754
69.8766	-62.2336	46.1726
69.3843	-55.9051	48.161
68.444	-57.72	48.8923
50.7901	-90.2984	-7.74364
54.1611	-86.1132	-6.0011
48.0797	-95.4065	-9.60132
50.9207	-88.0764	-14.2292
58.1876	-82.4131	-3.96086
57.1568	-80.1136	-11.1356
62.1881	-79.0068	-2.21516
65.7672	-76.0704	-0.239698
64.1217	-73.8656	-7.90024
45.0421	-119.702	-12.6981
45.313	-131.335	-14.7129
46.1979	-117.97	-18.1993
45.2679	-109.35	-11.3505
45.7636	-139.735	-16.5845
46.2783	-146.038	-18.3563
46.9083	-137.984	-21.6611
46.231	-101.579	-10.5391
77.2259	-28.382	-12.2022
76.4208	-34.2413	-12.4699
78.0603	-22.0259	-11.7817
61.8496	-72.2088	-15.1857
58.6872	-75.2324	-16.6635
59.1214	-70.9876	-22.3397
78.8763	17.594	-12.1647
75.9182	15.437	-23.1982
70.914	-58.9687	-12.795
67.7009	-57.3009	-20.8546
75.6348	-39.8579	-12.5504
72.9013	-38.7513	-20.0619
79.0045	-14.8059	-10.8432
76.36	-15.5006	-19.096
70.3655	-37.6666	-26.6689
68.2241	-36.2329	-32.5583
49.3569	-85.2869	-32.9319
48.4086	-90.2752	-33.645
48.5381	-84.9962	-38.2645
50.6227	-80.926	-32.068
49.9804	-85.7762	-27.2487
47.8554	-95.9148	-34.0045
52.4864	-76.91	-30.8166
53.8734	-77.6455	-24.834
50.9729	-76.3781	-36.7004
54.4383	-73.3121	-29.8373
73.8967	-1.91601	-28.9291
73.2955	5.93895	-31.128
74.1652	-9.81961	-26.9269
72.3437	14.2155	-33.6722
71.3799	22.031	-35.8662
69.9609	29.9634	-38.639
65.5044	29.0135	-48.6545
68.1742	37.828	-41.8541
64.5267	-55.4904	-28.2227
61.3524	-54.1476	-35.1341
73.8739	-16.4657	-26.0376
71.7468	-17.2894	-31.9241
47.0729	-116.27	-24.0101
47.3186	-127.856	-25.5148
55.6312	-78.6965	-18.1018
52.7495	-82.4519	-19.6032
47.6486	-136.149	-27.0553
47.9889	-142.278	-28.8161
45.9462	-111.628	-44.5702
45.6514	-121.355	-45.9768
47.4357	-84.5847	-43.3439
45.7571	-82.9796	-48.4178
48.3212	-80.0165	-42.9507
49.5429	-75.5424	-42.4255
45.24	-128.635	-47.5652
44.5434	-134.415	-49.526
58.3091	-53.6212	-41.2446
66.9753	-34.8211	-36.6861
66.3859	-33.0243	-39.8471
65.6267	-38.5051	-37.6296
70.4628	-17.4563	-35.842
41.0395	-90.7967	-54.7563
36.4752	-86.703	-60.1216
42.045	-84.4867	-54.2166
43.2485	-78.5928	-53.9988
39.7519	-72.3614	-59.1278
47.8188	-61.9953	-53.225
57.7585	-43.798	-50.4613
55.6372	-41.1769	-56.5737
28.2949	-117.897	-68.0316
27.677	-125.746	-69.332
21.9045	-115.28	-72.5192
29.0222	-109.54	-66.7238
49.3231	-42.1918	-61.563
52.2354	-38.5949	-61.3867
54.0275	-36.932	-61.6597
37.227	-146.676	3.67309
37.3298	-138.756	6.28943
34.3425	-148.082	8.51559
37.3454	-152.375	1.54602
40.26	-111.995	14.2992
37.9801	-114.077	21.7051
38.7359	-118.237	12.9864
42.2455	-107.501	15.2486
53.6303	-96.7921	24.0672
49.0033	-99.891	20.855
57.696	-94.2367	26.7787
45.0437	-103.494	17.6507
42.903	-106.133	25.18
37.8344	-127.559	9.94796
35.2997	-129.493	15.7742
68.3411	-65.1019	48.1301
67.8261	-61.9404	49.4967
60.8634	-92.0358	29.1267
67.3235	-59.7876	50.3198
65.9797	-62.0874	52.8371
66.736	-58.1626	51.0849
66.1741	-56.762	51.6673
65.1724	-58.6917	53.9451
64.4352	-78.2155	52.4577
64.1804	-82.4283	51.1482
63.6593	-86.983	49.5921
62.5528	-56.7534	59.3935
61.3858	-58.2806	63.5438
61.755	-55.7756	58.3628
63.5238	-54.9215	54.6932
61.6801	-55.8843	57.9451
59.9132	-56.6864	62.5024
61.521	-56.32	57.6513
61.2049	-57.858	57.1234
59.5153	-57.1535	61.5719
60.5242	-61.5638	56.7458
59.6085	-66.0596	57.2758
58.4664	-62.1671	60.2787
35.5143	-115.409	28.1931
37.6665	-111.353	29.5487
33.9049	-121.515	25.6816
31.2209	-149.491	13.121
31.6404	-141.898	16.2822
27.9601	-150.57	17.3729
31.1689	-154.75	10.7348
32.6458	-131.109	21.1084
34.8339	-110.033	41.2543
37.2279	-109.527	37.554
37.9002	-108.315	45.3733
24.9257	-151.334	20.8201
24.7645	-156.338	18.3998
41.6732	-107.235	49.8084
58.0584	-56.8228	66.5833
57.6822	-56.9889	66.0415
57.3431	-57.4738	65.5069
57.021	-58.8938	64.4158
56.2956	-62.4118	63.5559
55.5033	-66.7035	63.3967
73.2038	48.1827	-23.9012
69.9844	46.608	-35.0045
70.463	55.7149	-28.5149
75.4057	50.5322	-12.6026
60.7011	27.7988	-57.5207
39.6456	-18.9156	-80.8558
34.7521	-20.8002	-83.6267
17.9285	-93.7607	-73.4915
19.0336	-83.5257	-72.9635
23.3115	-96.7509	-70.2203
17.2127	-104.065	-74.3734
12.711	-91.588	-76.1789
16.6323	-113.11	-75.5675
16.3253	-121.733	-76.8136
11.4584	-111.502	-78.0425
30.8682	-81.2813	-65.4054
30.0426	-90.8586	-65.3886
25.3515	-76.9604	-69.6141
32.6888	-72.8503	-65.0406
31.1743	112.729	7.70237
37.049	109.917	4.12856
23.4306	117.368	-5.503
25.0394	114.702	11.4739
-19.7646	102.016	-79.4614
-11.2494	110.727	-65.9863
-12.6476	100.006	-81.3606
-27.027	91.1301	-90.5147
-26.9467	103.425	-76.9794
-32.1979	79.1948	-98.5693
-25.2422	77.5592	-100.261
-36.0423	65.9911	-104.675
-39.0516	79.9558	-96.481
-2.57649	116.609	-51.1931
4.4955	114.128	-53.3666
-9.63712	118.415	-48.3742
6.33433	119.617	-35.6428
1.57456	123.092	-13.3025
-5.41923	123.505	-9.44108
10.2505	120.718	1.7364
8.42182	121.862	-16.8778
-7.53282	122.745	-29.0973
-38.7343	52.993	-108.806
-32.1421	51.6399	-110.248
-40.646	39.5275	-111.483
-45.1113	53.7535	-106.817
-41.9887	25.4613	-112.791
-35.4093	24.4942	-114.057
-42.5139	11.5813	-112.686
-48.2142	26.3988	-110.944
-38.8784	-26.9049	-102.144
-32.7639	-27.6237	-103.174
-35.5109	-38.472	-95.6394
-44.2785	-26.8144	-100.369
-41.0786	-14.3885	-107.629
-54.3473	-0.44939	-107.208
-60.0467	-0.377821	-104.302
-54.8682	12.7103	-108.549
-48.434	-0.873677	-109.442
-52.8334	-13.2969	-103.959
-28.5028	-84.9326	-79.4239
-28.6891	-75.4072	-80.4631
-23.2316	-85.6616	-80.9238
-28.5228	-94.411	-78.975
-33.3098	-84.5178	-77.5287
-37.5672	-103.035	-74.512
-33.0985	-103.472	-76.7484
-37.3676	-112.722	-74.3839
-41.7751	-102.821	-72.1922
-37.6355	-93.332	-74.8659
-32.3764	-47.5821	-90.4674
-27.0055	-48.1283	-91.7683
-30.4538	-55.7355	-86.3243
-37.8393	-47.1379	-88.4756
-29.3425	-65.1336	-82.7695
-23.5892	-66.2012	-84.0933
-34.4316	-64.3569	-80.9729
-39.2722	-64.0709	-78.6959
-40.8655	-54.8502	-82.0097
-38.3142	-74.5327	-76.4256
-43.9347	-64.252	-76.0601
51.7804	97.8138	-7.58111
56.2216	92.3215	-11.5566
45.6028	101.545	-19.8735
47.2985	102.433	-3.47438
-3.70867	70.5653	-101.059
3.16734	67.4649	-100.115
-7.40678	58.591	-106.793
-10.7028	73.202	-101.457
1.21704	81.4383	-93.2742
7.52971	90.9213	-82.995
0.959497	94.5192	-82.977
15.1755	97.9468	-71.0316
14.1441	86.5298	-82.6535
23.1877	102.216	-58.5787
29.1035	96.5706	-59.9317
17.3021	106.884	-57.0623
31.3562	103.736	-46.0677
38.6885	103.665	-32.9372
33.4217	108.719	-29.7852
43.7444	97.8485	-35.9338
-10.4095	46.452	-110.753
-12.6189	33.8465	-113.251
-17.4896	48.3286	-111.216
-3.53792	44.2581	-109.737
-14.3675	21.0794	-114.362
-7.56633	19.6772	-113.273
-15.2723	8.16343	-113.975
-21.184	22.1707	-114.853
-15.6825	-4.31383	-112.073
-15.0846	-17.113	-108.368
-22.0521	-4.02398	-112.598
-9.4115	-5.00434	-110.864
-12.8981	-29.5543	-102.904
-6.88536	-29.2259	-101.971
-10.247	-40.3247	-97.1019
-19.4684	-29.0086	-103.62
-7.95832	-49.6633	-91.8962
-6.14265	-58.9923	-87.292
-14.3356	-49.5367	-92.4785
-1.82504	-49.7783	-90.53
-5.56568	-87.2887	-81.8551
-6.82845	-97.293	-82.153
-11.6839	-86.9413	-82.2513
-4.70246	-77.6845	-82.2991
0.456605	-88.165	-80.6985
-18.591	-104.943	-81.7434
-18.538	-113.819	-81.9905
-23.7309	-104.28	-80.43
-18.2168	-95.8334	-81.7186
-13.0585	-105.807	-82.5177
-4.99177	-68.4158	-84.018
1.35726	-68.6645	-82.4716
-11.1463	-67.8568	-84.7805
33.1195	70.201	-78.1004
39.9157	74.118	-68.6623
39.5705	63.4612	-75.0889
27.1132	64.068	-86.8055
26.7164	76.1384	-80.4539
46.4113	76.3294	-59.1594
52.4039	68.5448	-56.6303
40.5201	83.6255	-60.5468
52.5276	77.2663	-49.5825
57.3884	77.9994	-39.7163
62.4211	70.6034	-37.0276
52.9015	84.9248	-39.8198
2.88161	42.0353	-108.207
5.94792	53.2529	-104.231
9.07186	39.4093	-106.202
0.636404	30.1817	-110.67
9.5704	64.2145	-98.6276
14.2965	73.7425	-91.273
15.947	60.3369	-96.6132
-2.80823	-5.63598	-108.965
-1.9383	6.29011	-111.001
3.91231	-6.39175	-106.468
-2.76961	-17.5791	-105.422
-0.996253	18.0861	-111.618
5.44545	16.7567	-109.457
-1.16148	-28.6818	-100.527
4.96463	-28.5609	-98.1932
1.73342	-39.5659	-94.4334
3.86554	-49.0511	-88.9276
9.07168	-47.3713	-87.3255
8.26049	-69.1828	-79.949
14.9896	-71.5345	-76.339
7.85882	-79.1749	-78.663
43.9564	35.2504	-79.5649
39.4048	29.3166	-85.6812
39.3332	40.6386	-83.4215
60.4792	86.2537	-14.7107
54.5046	89.941	-26.5075
65.5903	45.4598	-45.2941
62.2265	53.1245	-49.2696
20.992	-6.99404	-98.0902
15.6925	-7.13756	-100.959
21.5731	2.35091	-100.015
26.3038	-7.2818	-94.755
20.7877	-16.7152	-94.786
21.9765	11.8143	-100.939
16.6635	13.5356	-104.166
23.4871	20.8347	-100.039
27.4705	9.78169	-97.1187
25.935	29.9921	-97.4955
20.4623	33.4153	-100.872
29.5514	38.3759	-93.1676
31.2554	26.1989	-93.7289
21.6313	-41.3709	-82.3285
17.5431	-43.6583	-83.9949
21.1474	-33.8536	-86.5201
25.8516	-39.1615	-80.4564
22.2345	-49.0174	-78.3525
30.0258	-22.4636	-86.2369
30.016	-29.6574	-82.513
25.6248	-24.1053	-88.4583
30.5042	-15.1072	-89.1882
20.4848	-74.0239	-73.0164
21.646	-65.0276	-73.8501
63.8984	-36.9253	-44.7475
65.476	-33.4155	-43.2715
63.4934	-39.9154	-42.1237
66.1901	-31.7126	-41.9922
69.358	-6.18382	-44.1783
69.0919	-0.932733	-46.2198
61.9373	4.53695	-80.4156
63.3473	10.3448	-78.3057
62.8397	4.14314	-80.1232
59.6157	-34.7378	-64.5978
60.1973	-37.5227	-61.1877
64.8669	15.0547	-74.9621
63.7741	15.3677	-74.9034
66.4575	18.2018	-70.9876
65.9135	14.3857	-74.9299
70.0775	10.1342	-54.0831
68.5816	10.1264	-53.9873
68.042	19.5202	-66.881
69.2154	18.8038	-66.7208
59.0994	-18.2862	-75.5647
64.4546	-35.5333	-59.0967
65.1999	-35.4321	-56.567
62.7259	-37.5853	-58.6937
68.6291	1.66299	-47.8267
67.4946	17.8038	-61.4175
67.2082	14.7374	-58.2504
65.7288	16.9427	-62.2563
66.6995	10.419	-54.5486
65.1176	10.8663	-55.4603
63.0746	15.2083	-74.7653
63.7151	10.6027	-56.3348
63.4377	12.575	-59.1858
62.9339	14.4726	-62.9962
60.501	12.3466	-62.9096
61.9572	-26.7097	-69.2377
65.737	-28.3554	-62.8476
61.1194	-38.7535	-58.3249
65.6584	-34.599	-54.2872
66.7453	-31.7334	-54.7826
67.1847	-29.3772	-55.9397
67.1896	-27.8273	-56.919
63.211	3.85055	-79.8684
64.822	9.4489	-77.9737
71.799	16.1266	-59.6494
72.0902	15.4909	-59.5077
71.2494	17.7804	-62.8356
72.1329	14.8804	-59.3953
71.6584	16.6114	-62.572
71.8797	13.801	-59.4904
66.4189	13.8412	-74.8158
68.107	16.7381	-70.9156
66.5788	13.3427	-74.7649
69.9359	18.0907	-66.6066
70.1788	17.4923	-66.6338
70.3132	16.9073	-66.428
68.4013	15.6947	-70.7001
66.6986	12.9675	-74.4812
63.2099	-0.48202	-78.7903
71.3454	12.4917	-59.8646
70.2744	5.23234	-56.6676
68.6179	12.2336	-68.108
65.3177	-3.61969	-74.1879
65.5402	-1.73843	-73.912
65.7996	0.128671	-73.3311
66.1042	1.62282	-72.4197
66.4553	2.83861	-71.1445
66.9824	3.67585	-68.4906
66.583	-24.3149	-53.9128
66.7874	-25.8999	-55.9613
70.0076	-1.43108	-53.3479
66.7456	-16.3254	-51.4682
67.053	-27.1077	-57.3686
65.6016	25.6725	47.9987
53.2382	94.4355	22.3014
48.4927	100.78	12.1089
31.3319	101.961	37.841
25.358	109.489	27.4542
24.1187	102.386	41.9713
42.2508	106.589	0.338569
35.2807	110.854	-12.5622
18.2853	115.947	15.4558
11.1634	116.415	19.4067
14.9865	119.829	-20.1504
21.4838	116.916	-23.3793
27.4932	113.264	-26.627
19.5099	113.291	-40.9712
76.3268	53.7116	-1.70443
66.7376	63.0601	-33.1001
62.8593	61.8106	-43.4693
48.1839	91.7943	-38.466
41.8852	91.6231	-49.8712
-16.6974	119.527	-44.9561
-25.5217	113.376	-60.0931
-23.6519	119.902	-41.1351
11.046	111.025	-55.0495
2.43472	105.699	-69.3343
57.6377	60.7661	-53.1251
51.7915	59.3113	-62.5123
34.6092	90.5808	-60.6692
27.4419	87.3409	-71.2866
45.421	56.6662	-71.4667
39.3564	52.3314	-79.9342
34.0334	46.2893	-87.1642
28.3011	51.3191	-90.7855
6.80431	-89.9206	-78.7109
5.60721	-100.085	-79.4657
5.19538	-109.584	-80.3408
4.77604	-118.34	-81.4404
-1.39012	-107.816	-81.9172
-33.7745	104.364	-73.8056
-40.7455	92.8751	-85.3672
-40.4798	104.554	-70.3862
-45.6133	80.3792	-93.76
-49.092	67.2067	-99.8803
-52.0235	80.4938	-90.4196
-51.523	54.1867	-104.132
-53.2806	41.0047	-106.897
-57.9699	54.3736	-100.731
-54.4793	27.0411	-108.396
-60.5738	27.0681	-105.254
-42.2399	-1.55252	-111.061
-35.7298	-2.50043	-112.093
-49.8391	-26.6233	-98.0776
-45.8533	-38.6307	-91.0419
-54.8959	-26.7408	-95.3255
-42.9227	-47.2511	-85.8478
-47.8459	-47.4609	-82.9574
-37.821	-84.033	-75.3865
-42.2166	-83.8123	-72.9938
-18.0775	75.574	-101.213
-12.8505	87.2465	-93.2309
-21.9494	62.9085	-107.059
-5.99637	97.5012	-82.5656
-24.9181	50.1432	-111.045
-26.9824	36.9668	-113.576
-28.403	23.4657	-114.745
-28.9694	9.73969	-114.465
-28.8818	-3.35286	-112.605
-28.025	-16.0454	-109.036
-26.2312	-28.3173	-103.72
-23.6671	-39.4753	-97.6751
-20.8474	-48.8672	-92.4924
-18.5792	-57.752	-88.1766
-17.5231	-67.0367	-84.831
-17.1698	-76.7869	-82.7628
-17.4779	-86.2496	-81.9329
-7.24964	-106.645	-82.6091
-7.319	-115.551	-83.2315
20.3604	81.8278	-81.7646
22.2688	56.3625	-93.8123
18.1609	46.6858	-99.6426
14.8084	36.7754	-103.771
12.5011	26.0689	-106.244
11.1273	15.3189	-107.034
10.5763	4.21762	-106.083
9.95298	-7.00231	-103.771
9.79842	-17.7342	-100.307
10.332	-27.6257	-96.006
15.7517	-26.9522	-93.322
11.8693	-37.2653	-90.7113
13.345	-45.5343	-85.7792
22.6391	-57.0032	-75.2328
26.2079	-55.4511	-73.4523
35.8102	23.02	-90.0359
33.5913	15.6466	-92.4757
40.5315	19.2575	-85.8268
30.8586	-7.3205	-91.6625
31.5336	0.49912	-93.0105
20.6964	-25.6383	-90.9211
32.1643	8.35671	-93.494
30.0523	-36.7605	-78.6968
30.2341	-43.8231	-75.1296
40.2611	-108.211	32.1458
56.7094	-69.8458	-29.0827
50.6038	-86.6353	-20.7582
60.0221	-48.49	71.6369
62.0227	-48.9604	68.099
63.4633	-50.3769	63.842
56.5074	-62.3925	75.7369
56.938	-63.4993	75.6125
57.1845	-64.5963	75.4339
64.3921	-65.4423	56.6602
64.3182	-63.7194	57.3036
64.109	-62.1756	57.9742
62.3706	-44.9552	66.8521
73.1923	-53.389	43.8584
67.1708	-33.9808	54.7082
68.6614	-38.5015	53.7678
69.5827	-42.9685	52.5046
81.5222	-41.3356	19.3996
52.9423	22.3514	53.0489
45.2969	15.5672	-81.2021
57.5448	14.2241	-66.091
59.3171	12.2697	-64.4458
63.881	-42.8213	-38.5939
57.9043	11.4983	48.7694
79.2563	41.7349	30.8079
52.9884	-30.2075	74.982
72.9889	17.9613	36.3498
55.9538	-28.6954	71.1123
59.766	12.0718	-63.4901
29.4038	-100.405	-65.9462
35.5802	-64.598	-64.734
32.16	-58.0987	-68.7641
30.236	-52.2986	-71.951
62.5596	-26.1167	59.2005
59.9132	-58.9541	67.6052
64.5792	-54.6336	52.7339
53.3076	-55.0926	73.8806
-57.4511	-45.7268	44.3623
-57.5755	-41.1647	45.9763
-61.7196	-43.8764	39.16
-57.2027	-50.0212	42.734
-52.5417	-47.4904	50.5525
-55.0764	-114.728	23.8119
-54.7193	-104.164	23.9478
-59.0977	-113.352	20.7712
-56.1422	-125.297	23.1895
-50.6047	-115.947	26.5037
-57.3526	-132.929	22.4241
-52.9386	-134.923	25.3648
-61.1972	-131.015	19.1354
-58.4869	-138.949	21.6379
-44.6138	-98.642	30.1914
-50.0382	-97.4104	27.1465
-44.8856	-106.61	29.48
-39.1943	-100.451	32.9591
-44.7744	-92.4402	31.2626
-61.9128	-95.4112	18.1392
-58.5116	-95.9497	21.3111
-62.0028	-89.8653	18.426
-65.1656	-94.1473	14.0188
-62.0065	-102.549	17.8394
-46.2716	-64.5088	49.9168
-50.9837	-63.1892	43.7984
-45.8094	-68.158	47.2845
-40.7994	-66.4307	55.961
-46.5814	-60.9656	52.1929
-51.9375	32.4351	58.5668
-60.7756	30.8821	49.8892
-50.3212	24.8925	60.8968
-42.6653	35.3675	66.0659
-54.6083	40.3262	55.0471
-82.8504	42.6068	14.8204
-81.5989	35.2552	19.5835
-77.9287	44.3693	24.3463
-83.8971	49.6169	9.52965
-87.1622	39.5712	6.04621
17.6308	-116.681	45.5466
18.6688	-112.872	48.2201
13.2928	-116.396	46.2289
14.9404	-123.36	42.9421
20.7172	-116.777	44.7104
10.9134	-133.801	38.7018
7.39013	-144.327	34.6388
14.508	-134.064	37.9588
6.82707	-132.804	39.3339
12.6958	-152.26	29.7096
11.3521	-157.166	28.1668
14.5582	-145.003	32.3319
9.146	-151.941	31.1397
-75.7363	-51.9996	5.11109
-78.4304	-44.5683	1.93032
-74.5892	-58.0033	1.871
-72.8118	-58.1682	9.3403
-76.8357	-46.0099	8.28773
-80.6463	-39.2475	-0.223247
-81.8085	-34.6866	4.02445
-82.5758	-34.6134	-1.86103
-79.131	-44.9742	-4.8909
-70.0592	-123.897	5.24996
-67.347	-127.031	11.1413
-72.0671	-121.085	-1.43277
-71.0919	-130.701	3.22784
17.6036	-134.37	36.8214
21.009	-123.867	41.2716
-46.9415	-49.2804	57.2588
-46.6264	-53.9494	55.9129
-41.5732	-50.3806	63.1141
-47.594	-43.9818	58.0713
-55.5412	-61.8054	37.7616
-56.2543	-57.8998	39.4871
-59.9133	-61.2061	31.4777
-54.8762	-65.6244	35.7433
36.2765	-95.6316	79.4539
36.0866	-91.4444	80.4553
30.8546	-94.9664	79.9379
35.2329	-99.6219	77.6965
40.2353	-96.1043	78.6772
24.8521	-93.5541	80.1152
25.1014	-88.937	81.1773
18.7526	-91.5872	79.7784
24.0042	-97.9918	78.312
42.0482	-88.2085	79.0549
42.6923	-92.4476	78.7376
41.5931	-83.8474	78.888
39.0532	-87.7158	80.0555
33.4525	-102.712	75.4194
37.3765	-102.969	74.7109
28.2776	-102.241	75.917
30.863	-104.949	72.5937
27.919	-106.386	69.3136
25.2426	-107.192	65.4473
32.0213	-106.948	67.9106
26.7619	2.22915	77.7374
29.6279	4.25423	77.7795
26.5062	6.1275	75.279
23.8323	0.779262	77.6979
26.8937	-1.71589	80.1179
-5.88535	-28.4017	87.257
-7.28097	-33.0087	86.9677
0.778363	-26.4939	87.5037
-4.93472	-23.4351	87.3009
-13.6243	-29.4352	85.647
-20.1623	-19.0812	83.3383
-21.1115	-24.6037	82.98
-11.7878	-19.0731	85.9188
-18.9589	-13.0654	83.4758
-29.1206	-17.8328	79.1078
-39.9943	2.38136	71.9405
-35.5272	4.03278	74.8374
-39.8273	10.0743	71.3694
-44.1492	1.50889	68.3746
-8.53868	-37.4826	86.1529
-1.41278	-36.0622	87.2452
-16.3035	-38.6021	83.7069
-9.17116	-42.1213	85.365
44.5847	3.24536	83.7092
42.7605	2.72771	84.1269
46.0232	-1.29963	87.1588
43.0461	8.26741	80.0586
7.23077	70.5529	76.0874
4.35555	76.1842	72.9419
1.13765	68.8716	76.5547
10.4581	64.1685	79.3992
12.7447	71.5188	75.209
30.1848	-108.739	57.9245
32.7766	-108.107	62.4661
26.8885	-108.526	59.2392
27.6735	-109.41	53.3846
-36.0099	-50.7182	68.4268
-36.7432	-44.9475	69.3247
-34.752	-56.6145	67.6091
-29.7771	-50.6561	73.4826
40.1985	-103.298	73.6371
37.7479	-105.7	70.3278
41.8431	-100.414	75.9374
35.2655	-107.212	66.5768
-4.27613	-88.8662	72.1377
-2.92803	-85.4747	74.8294
-11.1065	-84.6628	70.6152
-4.88879	-91.7334	69.4527
2.89602	-92.3533	73.8896
-20.6766	-90.9723	54.1274
-13.8562	-94.8444	56.4777
-20.5976	-87.6371	58.6851
-27.378	-86.8452	51.3147
-20.9185	-94.5813	49.3568
25.7477	-110.706	49.0532
24.8354	-112.805	45.9577
22.7819	-110.766	50.161
42.6796	-6.77015	90.8703
45.4141	-6.02992	90.9564
41.492	-2.58963	87.5279
39.1968	-7.82187	90.1482
43.6157	-10.0212	93.4438
16.3448	-19.3333	83.9668
20.1934	-16.0797	83.8199
18.1168	-13.9107	83.3541
12.6322	-21.8214	84.8019
9.88716	-55.8317	84.0248
11.9117	-56.1589	83.4101
11.3025	-55.0863	83.7125
32.9069	-26.604	85.6689
30.3439	-26.5845	85.206
33.3	-27.6661	84.703
31.6157	-25.0555	86.9723
32.3508	-30.8265	83.2423
34.881	-30.622	83.3483
32.5784	-29.8847	83.3727
29.1845	-30.6468	83.1283
31.8358	-32.212	83.3768
46.3855	-28.8931	85.3314
44.3847	-28.6165	85.5983
45.577	-29.9693	84.1267
47.2514	-27.7347	87.1551
25.9496	-29.6329	83.1355
25.435	-31.0753	83.2392
26.4944	-28.6417	83.3071
23.0346	-27.829	83.2388
44.5263	-18.8649	95.7644
44.5907	-17.1764	96.2028
40.5596	-18.7236	94.4631
44.2495	-20.7954	94.7114
47.6803	-19.1837	96.1838
15.8917	-71.5807	82.9594
14.9098	-75.2488	82.2502
20.6865	-74.3676	83.0135
17.1508	-68.4544	83.6198
11.8635	-68.6036	82.9424
13.2718	-49.9492	85.6718
10.7267	-50.4304	85.6275
16.2429	-49.3901	85.9227
14.9559	-46.5016	86.275
44.2568	-34.0967	82.4527
44.6105	-32.356	82.7633
42.3925	-33.6787	83.036
44.2253	-36.0286	82.4386
40.3276	1.7651	84.2354
38.9411	5.94361	81.0967
37.2919	-0.0228445	84.162
26.0164	-18.0472	87.0148
25.151	-17.326	86.1563
25.3896	-19.5371	86.3483
27.5064	-17.6135	88.4382
27.7801	-16.5379	88.3646
41.4233	-30.2154	83.8915
43.1429	-30.582	83.7891
41.7402	-29.2576	84.4599
39.4955	-30.2442	83.7256
41.1846	-31.7152	83.419
42.445	-28.3807	85.4047
43.24	-27.4237	86.8717
29.1897	-16.8446	89.6439
28.2976	-18.5216	89.1194
29.5808	-15.919	89.6738
24.9184	-22.3015	85.2584
25.3913	-25.0123	84.3657
26.6475	-21.2547	86.9402
44.9348	-43.004	84.0266
44.6727	-40.4748	83.2477
42.2901	-42.4297	85.1395
44.9996	-44.8746	84.6527
18.9127	-32.8495	84.1455
19.8737	-28.6853	83.4098
16.5026	-32.7687	84.5574
17.6666	-37.3345	85.3079
21.5512	-33.1046	83.9242
35.333	-73.7376	82.9349
30.7635	-72.8611	83.8582
34.8001	-76.0041	82.078
39.3915	-74.4302	81.4635
35.9425	-71.7231	84.0014
18.4544	-52.0989	85.4508
19.2559	-50.5098	86.1232
14.528	-53.0229	84.3723
17.675	-52.7132	85.0742
29.779	-15.2236	89.3565
32.273	-14.3091	90.4089
29.1831	-14.2606	88.2338
26.3477	-71.6361	84.2715
26.898	-69.951	84.9994
22.1982	-69.6355	84.3353
25.9039	-73.6682	83.5547
42.7587	-74.9446	79.7083
43.4025	-73.2273	80.6587
42.2318	-76.8323	79.1091
-23.0794	28.765	80.6617
-25.0054	29.9344	79.4771
-27.3186	22.7581	77.9138
-21.0892	27.9029	81.6029
-0.513787	55.57	81.9303
-3.26761	60.9074	79.2348
-7.86344	52.6837	81.214
2.00237	50.8951	84.2725
6.03625	57.5384	82.4395
-15.822	49.3058	79.6728
-18.962	54.7902	76.5029
-24.3122	45.1453	76.7863
-12.9766	44.9821	82.4682
3.49373	43.7403	86.4996
3.43519	46.1138	86.0516
3.25965	41.1525	86.6252
9.63944	45.7432	87.5266
-28.1224	31.3097	77.3657
-34.259	25.0959	73.7216
-19.4893	37.5826	81.7504
-30.6352	34.4556	75.1506
21.0958	35.5586	80.0517
23.8493	34.3403	78.2761
22.2067	37.4094	80.5752
17.1593	35.886	81.8167
19.5308	33.2009	79.2445
35.693	16.509	73.9957
36.4885	13.8163	75.555
38.198	18.2461	73.6835
35.2177	18.643	72.9916
33.096	14.2689	73.9587
11.835	-4.509	81.0452
17.7347	-2.38434	79.1788
13.2689	-0.519181	79.1657
4.83118	-6.19795	83.2722
10.4129	-9.01242	83.0492
-22.2026	7.31933	79.4944
-18.5003	3.91427	80.8509
-18.4586	8.96016	79.9071
-23.5434	11.6458	78.7726
-25.7149	5.95806	78.8375
37.6276	10.2226	78.0217
40.012	11.8032	77.5967
35.0191	8.09694	78.2103
2.89984	38.9796	86.5874
2.99131	36.9178	86.2753
8.84303	40.7491	86.9623
-2.98775	38.1069	86.669
-8.85701	36.0737	86.1633
-14.5115	31.8589	84.6466
-7.96141	34.0499	86.1929
-17.1659	16.2193	80.1181
-19.8955	16.253	79.6775
-16.8674	13.0776	79.8058
-14.2919	16.2597	80.4391
-16.5282	20.0414	81.1538
-1.08203	20.0096	81.9035
1.03182	20.9788	82.1485
-3.14332	19.0226	81.4624
3.04241	21.9193	82.0206
5.10629	22.6864	81.4476
3.1624	22.9712	82.4307
0.900512	21.9654	82.6366
5.48551	23.7135	81.7142
7.5668	23.2932	80.3218
9.94518	23.495	78.8736
8.04441	24.2514	80.4544
10.5779	24.4173	78.8552
11.9693	23.2426	77.3328
13.776	22.3876	75.6917
15.6082	21.1839	73.7588
17.1944	20.03	71.8677
16.8315	21.9631	73.2365
14.8712	23.1209	75.2553
18.4415	20.6605	71.4171
18.1708	18.9512	70.5721
18.1733	22.6012	72.7584
16.0482	24.0508	74.9986
8.52849	25.3634	80.7162
11.2763	25.5188	78.9737
-8.06473	15.0226	80.3703
-6.8323	14.1147	80.3113
12.7673	35.5378	83.5771
12.0513	33.2676	82.6783
13.3313	37.8452	84.4285
8.01928	34.8464	84.9956
-4.74768	26.6077	84.7481
-3.3427	24.2838	84.0093
-1.0659	27.9457	84.8959
-5.97119	29.363	85.468
3.62371	7.58816	80.0046
10.1371	8.00438	77.7703
-1.97772	8.17651	80.9393
3.02895	5.83896	80.3791
15.0065	9.38284	75.0324
15.1502	7.78352	75.4468
18.2093	10.7819	72.8591
21.032	14.287	70.339
20.4927	13.1241	70.9996
21.2662	15.1818	69.9304
4.50008	10.7174	79.469
9.94573	11.0335	77.3972
-0.305356	11.4975	80.491
17.8454	14.2521	71.1505
18.3974	14.8226	70.4971
16.6429	13.3799	72.4157
18.9043	15.3002	70.0835
19.3856	15.9179	69.7845
25.5582	23.1253	71.0787
27.0642	25.3769	71.8869
24.1493	25.1544	72.1892
23.6636	20.9264	70.2395
21.4876	16.6188	69.6929
13.7471	25.1101	77.0813
22.4797	20.0426	69.9619
21.4334	21.6562	70.791
22.9757	18.5319	69.7076
4.61717	11.8988	79.3817
9.89909	12.2453	77.2495
17.3317	15.0904	70.7823
16.2511	14.5515	71.9931
17.9491	15.3903	70.2379
18.2574	15.7662	69.8783
-4.77121	18.0185	80.9256
38.5276	33.3232	72.6682
38.3624	36.3195	73.5754
36.3166	33.1844	73.4853
38.579	30.5206	71.9394
22.0052	5.60149	74.548
19.0369	4.17442	75.5863
21.8147	3.03109	76.0604
23.9946	7.06994	73.9697
21.8691	7.52495	73.5165
26.2627	8.69753	73.728
28.4637	10.5015	73.6813
24.4377	13.7452	70.9079
23.7151	15.3741	70.2189
26.6275	14.4802	71.2355
30.2786	22.278	71.1895
31.1881	23.369	71.4691
29.2714	24.5516	71.5398
19.7465	12.0017	71.7105
20.6999	10.758	72.1221
21.4893	9.21324	72.6921
19.1281	7.70161	73.8466
21.3549	-55.6233	82.7153
25.5688	-55.9246	83.2189
17.2733	-54.9393	82.2912
21.3069	-55.544	82.4727
14.9844	-54.8992	82.1917
15.2771	-54.8237	82.0255
44.9099	-48.4203	85.0106
44.8506	-49.962	84.7317
45.0066	-47.0285	85.0498
41.8186	-47.969	86.1751
38.5207	-51.2504	86.1501
35.4251	-51.5807	86.5819
38.2993	-52.8887	85.3644
41.3913	-51.2639	85.422
38.8447	-49.6461	86.6404
32.1453	-51.6159	86.841
28.263	-52.1	86.6442
31.6445	-53.2063	85.9923
32.4763	-50.2294	87.403
39.1316	-48.0101	86.9258
39.342	-46.6028	87.0269
36.1893	-48.4949	87.4264
34.2569	-46.6863	87.783
33.2916	-47.7577	87.8775
37.4352	-46.008	87.3975
34.7947	-45.5554	87.6149
23.2394	-53.6652	85.2445
24.1498	-52.2244	86.3392
38.2822	-54.5556	84.1588
34.6137	-54.6378	84.7406
38.2593	-55.3438	83.2788
41.4611	-54.3713	83.4924
30.5478	-54.7716	84.812
30.0297	-55.5666	83.9245
15.0218	-53.7413	83.919
13.0063	-54.9124	83.2133
21.2256	-56.6901	83.2523
21.3335	-56.9837	83.5494
25.6939	-57.7526	84.0228
21.1398	-56.5912	83.0358
21.1168	-58.5953	84.3596
25.3122	-61.0654	85.7194
21.2677	-57.9948	84.1472
29.3708	-61.961	86.4988
28.9278	-62.9799	86.6895
33.8349	-62.434	86.808
29.5617	-60.8343	86.1388
38.7196	-60.0702	85.2456
42.2212	-60.4085	84.3053
38.582	-58.4843	84.418
34.2866	-59.7235	85.74
38.6718	-61.7562	86.0035
45.4703	-64.4857	84.1096
45.4312	-62.8269	83.7341
42.3895	-63.6929	85.4288
45.4233	-65.9199	84.2813
14.3367	-56.3589	81.6816
14.7681	-55.7786	82.1683
16.822	-56.57	82.024
14.1041	-57.8276	81.0075
43.2537	-58.3214	78.9958
43.8144	-57.6744	80.0046
42.6348	-59.9039	77.7765
40.6099	-58.2925	80.0797
45.3715	-67.2044	84.2213
42.208	-66.2273	85.7417
45.2412	-68.2847	83.9991
44.1164	-71.5789	81.8838
44.6959	-70.2046	82.9695
40.9709	-70.7653	83.6901
39.6568	-45.6278	86.8904
42.0583	-45.4285	86.1257
40.3062	-44.2911	86.4768
45.1871	-60.8944	83.148
44.9309	-59.0563	82.3568
44.7458	-58.1582	81.774
44.4309	-57.7358	81.3564
41.9313	-57.9263	82.9043
38.4524	-57.7258	83.8536
38.3529	-57.4246	83.4246
34.3673	-57.6876	84.4528
44.0997	-57.5565	80.8251
41.5118	-57.4022	81.8843
30.025	-57.6716	84.3791
29.9317	-58.3502	84.9253
29.932	-57.4066	83.9748
28.1318	-66.0488	86.5892
27.7589	-67.0924	86.2425
32.4536	-66.7549	86.8366
28.4052	-65.0955	86.758
37.5457	-67.2782	86.5547
37.0932	-68.3626	86.052
41.8943	-68.2139	85.2989
37.9147	-66.3494	86.7887
45.0532	-69.214	83.5962
29.7864	-55.7128	83.4793
29.6568	-55.6112	82.9988
34.0961	-55.5438	83.4532
15.1238	-55.5386	82.7084
17.3926	-56.0549	83.0516
37.18	-58.2651	81.1089
37.7823	-57.5512	82.0296
36.5006	-59.7497	80.1157
33.1857	-58.157	81.9081
38.1878	-57.3364	82.8295
34.1195	-57.329	83.4495
36.6161	-69.8635	85.1551
31.6549	-69.2916	85.6686
28.7105	-64.089	86.7972
33.0838	-64.6765	87.1396
27.3734	-68.4484	85.6812
23.5702	-66.7176	85.4129
29.8014	-55.1791	82.4683
26.0643	-55.3581	82.4631
30.0252	-53.5094	81.3482
33.484	-54.8626	82.0735
37.1635	-54.7538	81.321
37.792	-55.3509	82.1463
35.9533	-52.9948	80.1162
39.9785	-54.5423	80.2305
30.0597	-50.0339	79.9328
27.1416	-50.2766	80.2817
29.7743	-45.801	78.8939
32.7495	-49.76	79.3882
14.154	-61.4306	80.2174
16.6665	-61.8118	80.6017
14.954	-65.8716	79.7092
42.0112	-63.4695	76.4733
41.3574	-67.7726	75.8974
39.4713	-63.3483	77.6391
35.2726	-49.5379	78.652
35.0268	-45.2522	77.4858
37.8441	-49.3109	77.6725
36.0338	-63.1588	78.839
35.5192	-67.6229	78.0194
32.0753	-63.0478	79.7801
9.27409	-55.838	78.2195
8.90474	-56.1295	77.8328
29.169	15.7754	71.6289
30.0534	14.195	72.6209
-92.4474	-7.75707	2.60497
-92.9049	-8.2376	4.83727
-92.9587	-3.19748	2.97437
-92.4812	-7.1768	-1.20839
-91.4839	-12.1166	2.84552
-73.8324	10.5271	35.1925
-70.5503	12.5964	39.0391
-76.204	13.4158	31.7456
-78.7959	15.5442	27.2598
-82.7311	15.1488	21.3756
-79.7607	10.592	26.4311
-79.0979	20.9727	26.0916
-82.9257	-31.7273	7.33126
-84.8032	-27.8997	6.39552
-80.8235	-35.8265	8.99196
-84.2246	-29.4761	9.96569
-86.6522	-24.2972	5.15894
-87.6973	-23.1107	7.90244
-88.4901	-20.3841	4.19715
-85.8042	-26.2912	1.38955
-93.7546	-8.18637	6.35782
-94.1358	-3.21958	6.44115
-92.8235	-12.3103	6.79914
-94.8982	-7.69492	7.44155
-90.1575	-24.3642	12.9115
-90.5092	-25.4758	14.3558
-89.7035	-22.7916	11.0586
-90.6808	-26.2711	15.6222
-92.6324	-22.2971	14.4546
-88.4523	-30.1881	17.1249
-90.7103	-26.704	17.0224
-94.5613	-16.6164	17.9326
-97.1959	-12.1691	15.9657
-94.1688	-16.0536	18.602
-80.0392	-38.4841	21.3756
-81.8054	-36.8857	19.0152
-80.2788	-37.6435	19.2024
-78.6844	-39.1176	22.861
-80.1137	-38.7078	22.2025
-75.6388	-31.2818	32.8746
-75.3695	-31.8236	32.7269
-74.9552	-33.002	32.1514
-93.9172	-15.6802	18.9313
-93.015	-16.262	19.4889
-98.1983	-1.2373	17.2726
-99.0056	-0.589394	15.9949
-97.2852	-2.54816	18.6327
-97.1618	8.91208	19.684
-97.4433	10.2597	19.7401
-97.0344	12.3391	20.7261
-95.2006	14.3911	23.2792
-97.385	12.7994	20.4742
-95.4464	12.1446	22.3783
-77.4597	-8.76181	34.5222
-78.8017	-3.35495	34.8232
-76.4015	-12.7631	34.4217
-76.3539	-8.03154	35.4413
-69.7295	-24.5853	37.4093
-69.8718	-20.3698	38.2591
-69.5679	-28.2608	36.6215
-67.6018	-25.0364	39.2794
-77.3691	-19.7564	31.7851
-77.406	-17.8232	31.7255
-77.9226	-21.7537	31.4523
-79.777	10.1053	26.3956
-79.699	10.1013	26.6044
-81.7861	11.3742	23.5566
-87.0248	17.5745	30.1873
-89.3648	19.26	27.9537
-87.2084	16.8704	31.4231
-84.3755	14.4973	32.006
-86.8608	17.9875	28.7417
-91.4364	19.9319	23.2854
-89.289	19.692	25.5365
-91.4237	18.8935	21.6504
-93.6718	18.6671	20.2818
-91.442	20.0738	23.8831
-99.2662	4.61764	10.9963
-99.922	4.86371	12.0008
-98.1207	10.5702	13.7153
-98.6714	4.15438	10.4373
-79.8642	1.22061	34.9123
-80.4521	-0.0225226	34.4414
-100.211	4.03702	15.0705
-99.4749	9.14082	17.3133
-100.434	3.93871	14.7794
-100.045	1.24609	14.7149
-92.7886	15.2696	26.5038
-90.0177	14.7133	29.526
-92.5641	16.2507	27.1029
-92.969	13.9197	25.7394
-82.5012	1.99258	33.2184
-83.3202	4.30308	32.9235
-81.7554	0.238932	33.4032
-98.4824	4.72364	17.2105
-99.4895	2.68248	15.613
-81.5174	-4.70661	31.024
-81.4151	-3.11544	32.2815
-81.9949	-4.43119	30.4926
-92.4732	-3.86832	21.2567
-95.1305	-1.25965	20.639
-92.4555	-4.95453	21.0439
-91.9378	-3.42575	21.6766
-70.2659	-16.4836	38.6465
-68.3067	-16.7169	40.4165
-71.2453	-11.9842	38.4707
-93.5891	1.98784	7.90139
-93.9677	4.47866	9.24452
-92.4121	6.62077	9.74663
-93.1586	1.40829	6.32051
-94.6619	9.39245	12.8119
-96.2261	5.33964	10.2963
-95.7244	14.0043	15.6957
-92.8529	13.1494	15.5505
-97.7555	3.20233	9.92957
-97.1663	-2.28185	8.59765
-96.6511	-7.25226	8.65643
-88.8117	-22.485	9.53629
-90.3419	-19.3006	8.54642
-87.0923	-25.5574	10.5689
-91.6857	-15.9562	7.56136
-90.736	-16.1832	5.83053
-92.0241	-16.1956	20.0825
-85.41	-28.4278	11.4971
-83.3365	-31.9859	12.9
-77.1311	-38.7723	25.1651
-76.6069	-39.0177	25.0592
-75.9749	-39.2108	25.0333
-78.4349	-38.996	20.3626
-92.8763	-5.69308	20.7217
-95.6155	-4.33437	19.8099
-75.2854	-7.44044	36.1199
-74.0419	-7.05381	36.8411
-72.7293	-20.7967	35.8419
-73.3373	-20.9593	35.4217
-78.3275	-25.1839	31.8783
-78.8658	-24.1133	31.2634
-79.962	-27.1703	31.0131
-75.6788	-15.7208	34.4504
-77.1337	-15.8617	32.7667
-91.0041	14.9554	18.223
-88.5296	15.5772	20.6878
-90.3648	11.3102	14.5449
-90.4692	9.7686	12.4931
-87.8153	11.889	15.9148
-90.6415	9.47302	11.3054
-95.3524	5.89376	21.2753
-95.0391	4.39603	21.4613
-83.0629	-3.7338	29.4682
-85.217	-2.51462	27.6742
-91.6568	-2.59114	22.1114
-90.4861	-2.53392	23.0307
-93.7295	0.980685	22.0031
25.4482	86.8378	60.3128
21.7438	94.082	54.4107
18.6051	85.966	63.7557
28.1982	79.6836	64.8964
30.6056	72.5891	68.4587
24.0216	72.4285	71.4734
32.6361	64.9747	71.6273
12.4133	58.4244	82.1411
18.1768	58.9927	80.8414
14.0837	53.7944	84.4779
48.3717	-26.5048	89.2811
45.8833	-26.4654	89.1562
49.0654	-25.0809	91.3654
50.5525	-15.7474	96.2859
50.5898	-17.5522	96.314
50.2042	-13.8096	95.8427
47.8224	-15.7215	96.6289
50.4233	-19.42	95.8857
50.1159	-21.3048	94.952
45.0064	-31.0548	83.3346
44.4406	-38.3077	82.7158
42.2338	-37.958	83.6448
49.6596	-23.2495	93.3949
46.9943	-23.1144	93.4928
49.6972	-11.7075	94.9104
48.8187	-9.09251	93.2561
47.2478	-11.9385	95.2834
36.3726	47.3363	75.8515
35.7062	51.4745	75.4805
31.1041	48.6144	78.3999
36.6996	44.0453	75.7214
40.036	19.1899	73.1062
39.5189	21.4371	72.2181
40.766	16.3842	74.5891
39.088	23.5503	71.6909
38.8402	25.5861	71.4636
37.2127	22.5845	72.2061
42.659	-54.3739	78.878
43.7458	-55.4185	80.062
41.5708	-52.5343	77.7403
44.2359	-55.6629	80.8753
44.297	-55.5327	81.2753
41.583	-55.4827	81.866
44.651	-51.3962	84.3114
44.4782	-52.8896	83.5881
44.3787	-54.4045	82.4862
44.9582	-46.0247	84.9696
40.6574	-49.1228	76.3509
40.1596	-44.8975	75.1338
12.71	84.8801	66.2227
8.843	91.4985	60.8425
7.03273	83.3483	68.1407
15.6121	78.5379	70.2973
26.1602	50.0434	80.8329
25.4485	52.7536	80.679
20.9181	51.0281	83.0956
26.7263	46.6004	80.759
25.9796	44.0185	80.8511
24.3203	41.1875	81.0443
20.8728	44.8657	83.1951
23.1716	39.2402	80.9416
18.8395	39.9566	82.9354
26.6231	37.9062	79.0056
14.8778	26.1575	77.0145
12.0659	26.6979	79.1139
17.5145	25.0716	74.7575
16.0447	27.8574	77.4225
12.8233	24.0933	77.1463
17.6203	30.0679	78.0727
20.3536	29.0833	76.1332
14.4031	30.6007	80.0303
-19.8943	87.3748	59.0695
-15.7028	81.8216	65.1045
-13.62	90.9873	58.4126
-25.9157	92.6207	50.9078
1.42154	81.7128	69.2399
-4.89639	79.5103	69.7931
-2.45466	87.5137	64.3534
15.1375	51.4117	85.0439
9.99422	49.9596	86.8999
15.783	48.0967	85.4219
13.866	40.1893	85.1433
14.7284	42.5647	85.4398
15.6339	45.451	85.4643
11.0559	30.4599	81.7676
6.92658	29.4053	83.2388
9.83255	28.2763	81.3206
-12.1275	76.7635	69.5689
-8.96976	71.7358	73.1861
-20.0037	73.7709	68.343
2.98741	48.1202	85.4237
-3.68031	45.7802	84.8839
2.89265	25.1247	83.3653
0.0606199	24.0338	83.6405
5.84375	25.8905	82.4758
2.97636	26.7331	83.8308
2.80069	34.4035	85.8278
-2.35952	33.9907	86.3413
2.92198	31.649	85.1145
2.93877	28.8118	84.3971
-5.9702	66.48	76.301
-13.802	63.5131	75.3261
-28.2948	71.2245	65.5511
-36.6635	68.9871	61.2248
-25.0718	65.9406	69.6474
-1.35687	20.8364	82.3856
-3.4745	19.6613	81.885
-2.7275	22.7544	83.4128
-4.82191	21.1477	82.7754
-1.79793	21.6777	82.8623
-7.06046	32.0142	85.9939
-11.4061	28.3532	84.7068
25.6798	32.3358	76.3491
27.2188	34.0505	76.9051
24.1702	30.1223	75.3896
27.0451	29.9091	74.4183
28.9354	35.7074	77.1167
30.0897	33.1393	75.5013
22.4342	27.237	73.9975
20.8646	25.1615	73.1776
37.3389	40.475	74.9705
-63.7849	-62.2047	25.196
-66.9462	-62.7138	19.8189
-64.3556	-57.139	27.3866
-88.4212	23.8067	7.9079
-86.9969	18.1503	12.9644
-84.7404	26.0923	15.2878
-89.7066	29.4047	3.23521
-91.0143	19.9287	2.7419
-93.2324	-6.91335	-7.49103
-94.0331	-1.12895	-6.98789
-94.0184	-7.11069	-13.4681
-91.7031	-12.848	-6.71283
-94.3325	5.03581	-6.29578
-93.0923	3.00931	0.13858
-93.8906	10.5299	-4.32685
-95.744	6.75057	-12.9076
-84.8198	-29.9393	-3.86879
-87.3984	-24.268	-5.094
-83.9785	-33.3232	-8.77274
34.0514	57.7402	74.215
28.8203	58.138	76.8045
23.438	58.6789	78.9725
20.5251	65.4713	76.7071
10.5103	-105.013	61.8702
17.6793	-106.892	61.6116
1.65941	-101.768	60.7332
8.96297	-106.692	56.6478
-20.3215	-84.6792	62.6112
-19.282	-82.2527	65.9974
-27.1105	-80.0524	59.9241
-12.8642	-89.7877	64.5793
-22.1457	60.3236	73.1414
-30.5785	57.0172	69.7231
18.1883	72.179	73.6198
-45.6977	66.6834	55.3784
-42.6776	60.1696	60.3789
-54.1697	64.6876	48.6985
3.71471	99.0665	52.8135
9.93363	100.722	49.8537
-2.31844	106.252	42.8011
-1.99836	96.7655	55.3614
-33.6926	39.7351	72.0316
-36.5303	46.6473	68.5842
-6.61853	19.5454	81.9747
-19.2692	26.939	82.2348
-17.1226	25.7093	82.668
-21.8359	21.396	80.0787
-14.9472	24.3921	82.8533
23.3761	-116.901	43.5355
-33.5333	-69.4106	62.24
-34.1025	-72.7573	58.889
-25.2067	-73.9799	66.8817
-33.165	-66.0046	64.8344
40.5568	-42.4695	85.8121
40.6532	-40.2462	84.9991
38.7078	-42.8097	86.414
20.1698	-48.3459	86.4864
24.1169	-46.609	87.3064
21.4754	-44.6657	86.7341
36.4725	-38.9001	85.3749
36.7929	-36.3938	84.4505
33.35	-39.3397	85.7816
36.1711	-41.1941	86.2421
39.0201	-38.3027	84.7571
8.75037	-50.786	85.6801
9.80248	-47.425	86.2342
6.20928	-51.8173	85.5326
8.26636	-54.083	84.8208
-30.6454	16.6668	76.2249
-34.2247	17.342	74.3205
-31.5153	10.6174	76.1837
-26.91	16.2947	77.755
-38.1286	18.0836	71.7447
-43.0575	18.085	67.9881
-11.5318	16.3435	80.6278
-11.8855	14.3451	80.2212
-23.5741	16.042	78.8214
-90.5731	10.1574	8.96105
-88.7013	12.6722	12.5193
-91.2973	12.1533	4.73849
-92.0573	6.42281	6.05323
-90.0887	-16.4354	3.2374
-89.8209	-16.9875	-0.532628
-71.5387	-49.7511	19.8421
-74.7975	-46.5355	15.1425
-70.9351	-55.2769	16.7365
-68.1374	-51.6299	24.8196
-72.028	-45.5118	22.7221
-92.8282	1.78096	4.0994
-65.2518	-25.8992	41.4797
-62.2355	-26.7542	44.6609
-65.5523	-21.597	42.2566
-65.0165	-29.9809	40.5129
-49.9058	0.430956	62.7024
-56.0635	-0.832209	55.9724
-49.094	-7.4147	63.1544
-50.4172	8.68525	62.0496
-15.9724	10.1814	80.013
-13.4884	7.83571	80.6444
-13.6401	11.4578	80.0788
-11.7433	12.5503	80.1434
-9.8569	11.1676	80.3832
-58.1522	-27.1902	49.4187
-58.6367	-22.037	50.0868
-58.0123	-31.942	48.3225
-53.7846	-27.3987	54.6378
19.4568	-9.52478	82.1673
23.1318	-7.54113	82.0363
20.3261	-5.07267	80.425
15.2048	-11.4224	82.9486
9.16887	-13.9492	84.5739
8.32419	-19.0038	85.6731
2.58286	-16.2213	86.2081
27.001	-5.75161	82.3804
27.0678	-9.26456	84.2533
30.7172	-3.82888	83.0715
23.3934	-15.7348	84.8856
25.2643	-13.8743	85.2784
30.5251	-19.4169	90.3154
29.103	-19.9652	89.3792
30.5267	-21.2037	89.5829
32.7311	-18.8643	91.3937
27.9156	-20.5511	88.2607
27.9173	-22.7236	87.1755
4.82344	-34.4952	86.8905
6.01575	-29.5582	86.8269
3.7376	-39.5552	86.9181
9.98024	-33.5371	86.1118
7.47543	-24.1273	86.2623
40.903	-33.562	83.3191
39.2601	-33.601	83.5123
40.7336	-35.7044	83.6013
-23.0453	-49.9078	78.0367
-21.7368	-55.8437	77.1336
-16.0399	-48.6475	81.809
-23.7383	-44.347	78.9869
16.2906	-42.1075	86.1315
13.6347	-42.6291	86.3025
19.1391	-41.4628	86.104
2.89121	-44.5313	86.4594
7.45663	-43.6438	86.5708
-2.60505	-45.9093	85.949
2.54334	-49.3459	85.8978
40.6642	-37.9554	84.2147
-20.041	-61.9821	76.1117
-16.5686	-67.3619	76.0394
-13.3982	-59.5887	80.1545
-26.3485	-63.0589	71.6599
-22.5242	-29.5009	81.9673
-30.6763	-28.9656	77.2141
-23.4926	-34.3466	80.9691
10.2312	-95.8625	75.4174
17.4698	-98.9854	76.0972
11.0662	-92.6283	77.39
-1.37212	-81.3935	77.285
5.06	-85.0364	78.1438
1.25665	-77.1212	79.5501
-6.76193	-77.2168	76.8008
-17.5296	-7.08588	83.1334
-9.77945	-7.75278	84.577
-15.1699	-1.8426	82.6596
-6.68588	9.61638	80.7905
-7.92824	7.74888	81.0722
-13.2362	1.47339	82.171
-11.0328	3.93091	81.7965
-6.73056	0.071212	82.9167
-4.31031	12.8118	80.4704
42.7318	-96.6586	77.6871
-7.42244	-57.3544	82.8251
-1.98313	-55.2935	84.4249
-8.49341	-52.541	83.5829
-5.52756	-61.6628	82.2887
3.56768	-73.1767	81.1404
8.37832	-76.501	81.1545
6.39973	-69.2454	82.3639
-0.011258	-69.472	81.4301
-2.91275	-7.31249	84.5104
-1.54408	-3.12035	83.38
-3.83124	-12.378	85.8099
-9.21112	-47.2443	84.4051
-4.30336	-18.0095	86.6852
35.1901	-87.0472	80.9373
30.4218	-85.986	81.5093
34.5757	-82.703	81.0872
25.191	-84.4203	81.7924
25.2587	-80.2191	82.2063
19.6745	-82.2317	81.6817
-0.298875	-0.274028	82.3613
7.20984	0.620695	80.4504
1.01262	2.02228	81.5791
-9.37148	5.9007	81.3974
-4.07168	4.37192	81.7576
2.06447	4.02955	80.8956
9.18919	4.64584	78.7302
34.1574	-2.00555	83.7959
33.3234	2.00271	80.9753
34.827	-5.81381	86.5004
36.1907	-13.4976	92.1787
36.061	-14.6483	92.6451
40.3147	-12.78	93.8366
35.8713	-11.856	91.0113
30.7436	12.2786	73.8265
31.4978	9.6995	75.56
21.1331	-0.873294	78.2531
41.7633	12.666	77.0012
-30.101	4.7086	77.4801
32.4852	6.03887	78.1668
-33.0377	-62.389	66.787
-40.7474	-59.4145	60.5275
-36.9667	-16.0452	73.9665
-43.0526	-14.8674	68.5566
-37.3063	-22.6152	72.8791
-37.167	-39.3869	70.1879
-42.7663	-39.1743	64.7168
-30.9253	-39.5063	75.3091
-37.4064	-33.9076	71.0293
-37.4773	-28.328	71.9006
-43.391	-27.983	66.2549
23.0275	-101.053	76.3099
34.5298	-79.0168	81.4291
30.1451	-78.0819	82.2818
38.4026	-79.5526	80.2026
25.5606	-76.6807	82.8024
13.8237	13.4925	74.4189
13.9608	2.18884	77.7503
14.5694	4.35872	76.7785
14.8867	6.09156	76.0148
41.7357	-79.9089	78.7695
35.1708	27.0641	72.2601
35.3978	24.1486	72.0425
36.8482	27.6517	72.0496
34.7376	29.8192	72.9607
33.6312	26.0073	72.1833
19.8471	16.8075	69.6336
19.8748	18.0005	69.7043
23.3174	16.8821	69.824
32.2534	24.646	71.8729
31.5241	27.4426	72.6006
38.6186	28.0039	71.5486
43.6079	-26.1516	88.9128
43.805	-24.8008	90.8054
44.6038	-15.6118	96.2104
40.544	-15.6286	94.8654
44.3484	-13.9725	95.7739
26.9623	-27.1638	83.9137
29.9289	-28.7356	83.6449
27.8891	-26.1038	84.7798
44.2327	-12.266	94.9934
35.0384	20.7318	72.3598
34.3531	32.7354	74.0157
32.5701	31.799	74.1862
19.496	19.3007	70.1883
30.808	30.478	73.9638
29.3482	28.8111	73.3713
28.1792	27.2065	72.7052
24.3329	-33.6072	83.8668
23.5557	-37.027	84.9721
27.8133	-34.0562	83.9118
22.2982	-40.9521	86.0348
26.1562	-40.3538	86.1147
16.0938	-54.4811	81.7672
18.7081	-54.796	81.9988
16.0393	-53.3942	81.1333
17.2865	-53.1534	84.6977
20.7106	-52.4876	85.7554
16.0447	-50.4533	80.0081
16.6096	-46.937	79.0538
20.2047	-50.5447	80.3846
31.1138	-34.3168	83.9656
30.5456	-36.9292	84.9247
34.2668	-34.278	83.9186
29.6297	-39.9056	86.0244
28.821	-42.6085	86.9452
21.9769	-55.2629	82.2397
23.3656	-53.8221	81.5752
23.8976	-50.4778	80.4335
23.616	-46.368	79.3928
37.033	-33.9486	83.7633
37.2366	-31.9427	83.4338
35.3828	-43.6702	87.0612
31.474	-44.3787	87.4832
27.7243	-12.0075	85.9575
31.4798	-10.6259	87.5057
47.5514	-5.55755	90.5402
35.4776	-9.14958	89.0091
44.1143	-22.755	93.1311
40.5479	-22.533	92.0257
36.5942	-22.3254	90.8542
33.0266	-22.5254	89.5855
36.2497	-20.4189	92.0464
30.8122	-23.093	88.4404
29.4959	-24.0108	87.1824
28.6133	-25.0677	85.8785
36.1916	-15.7668	93.0054
36.2941	-17.0921	93.1099
36.2406	-18.6939	92.7938
-27.5396	-144.056	33.7255
-25.5559	-136.034	34.781
-32.909	-142.23	32.8816
-29.0365	-149.976	33.0368
-21.8002	-145.74	34.2737
-23.2977	-124.949	36.4545
-17.3164	-126.808	37.715
-21.8466	-115.224	38.2453
-28.997	-122.965	35.0279
-21.5012	-98.4595	45.0959
-22.0933	-102.798	41.8713
-15.0793	-101.654	47.2445
-27.8824	-94.8865	42.6441
-21.8437	-108.215	39.8051
-27.8826	-105.589	37.6942
-15.2115	-110.718	41.9631
-3.36575	-65.684	81.7552
1.05038	-62.626	83.2476
-7.72014	-68.9917	79.4635
-12.5363	-72.3833	76.1424
-15.7957	-76.0059	72.6597
-18.028	-79.2331	69.2932
4.27532	-60.0045	83.9638
6.29039	-62.8618	83.4545
6.92651	-57.7774	84.1998
3.31325	-56.8585	84.5516
8.55561	-56.5704	84.1986
9.65108	-58.3931	83.7559
-33.6461	-91.4819	40.0705
-39.3386	-88.964	36.6932
-33.8758	-96.69	37.1635
-33.6723	-87.1873	43.4868
-33.578	-83.3472	47.6755
-33.8834	-79.6138	51.702
-39.6069	-80.5292	42.9731
-34.0842	-76.033	55.6073
-40.318	-73.2706	50.0474
-34.4873	-120.821	33.3389
-36.2323	-132.215	32.3696
-33.5976	-110.625	34.3182
-39.8882	-119.066	31.4206
-37.9655	-140.465	31.6877
-42.9477	-138.722	30.0975
-39.6468	-146.664	31.1563
-33.5707	-102.891	35.4077
-48.7096	-27.6325	60.5179
-48.8859	-21.5968	61.4831
-48.4512	-33.2135	59.6489
-45.3093	-71.5535	44.6153
-49.9062	-70.2946	39.0357
-45.0371	-74.9966	41.3817
-50.0295	17.391	61.8448
-58.0214	15.3485	53.7899
-46.6243	-57.6207	54.1645
-51.9997	-55.7413	47.4995
-47.9684	-38.7185	58.9707
-53.1715	-37.757	52.8167
-48.7123	-14.5458	62.7917
-54.3181	-15.3849	56.4307
-57.6893	-36.6891	47.3248
-61.8318	-35.2787	42.491
-54.2911	-85.5367	25.8984
-49.846	-86.1881	29.2724
-54.1377	-80.9706	27.3259
-58.3514	-85.1471	22.5413
-54.4628	-90.7258	24.842
-54.493	-96.5522	24.3065
-53.9267	-76.6952	29.4484
-53.9869	-72.8496	31.5383
-58.1164	-76.1226	25.2797
-49.6352	-77.5096	33.54
-61.8115	-1.80575	49.2733
-60.105	-9.63504	50.5455
-63.4847	5.9978	47.6131
-65.2545	14.2286	45.4815
-66.6895	22.0065	43.5237
-68.3854	29.9161	40.8937
-70.2741	37.7735	37.7336
-74.8078	29.0365	32.0641
-56.7716	-54.0534	41.1665
-61.1858	-52.9104	35.029
-59.0804	-16.1815	50.755
-63.136	-16.8992	45.9241
-45.3684	-117.301	29.1032
-46.6179	-128.723	28.534
-44.8291	-78.7639	38.2547
-44.7799	-82.7969	35.2735
-47.9905	-136.887	27.9958
-49.5732	-142.923	27.367
-62.3827	-112.281	17.5588
-63.3528	-122.003	16.6674
-62.0309	-84.6952	19.0535
-62.0774	-79.9666	19.9509
-65.3671	-83.0466	15.0936
-62.1702	-75.2939	21.216
