1891
-81.4381	87.8465	-49.3489
-80.6676	79.4398	-66.4634
-92.384	77.7675	-52.6661
-72.5638	74.8488	-78.4995
-67.291	79.5279	-76.5242
-62.9053	69.3755	-88.5653
-77.0943	69.5675	-80.3088
-93.2968	85.2016	-15.8506
-87.2442	89.7635	-14.4254
-98.854	79.9314	-16.9207
-92.8	83.4912	2.03896
-100.611	69.4035	18.1563
-105.046	62.9294	17.6184
-95.6393	65.2494	34.0305
-95.5989	75.2111	18.6328
-103.447	72.3896	0.662245
-53.0104	63.6147	-96.3938
-48.1929	68.0738	-94.3296
-42.451	57.2765	-102.763
-57.2772	58.6825	-98.037
-31.2388	50.2288	-107.861
-26.7718	54.7693	-105.57
-19.9026	42.9918	-111.333
-35.5573	45.5681	-109.495
13.1579	20.2722	-109.945
17.1432	24.4559	-107.649
24.0154	12.9347	-105.618
10.0003	15.7948	-111.4
2.05482	28.2224	-112.601
-16.7577	26.1956	-116.106
-20.1873	20.84	-116.804
-27.9123	33.1098	-114.367
-12.9927	31.1299	-114.833
-5.54209	18.9817	-115.7
65.0201	-14.8303	-100.154
57.0749	-9.68706	-98.7257
68.5348	-10.9911	-98.7154
72.8666	-19.7316	-102.14
61.9742	-18.7617	-101.103
74.8826	-32.2498	-105.481
77.802	-28.3408	-105.002
83.0347	-36.9323	-107.615
72.2795	-36.1505	-105.801
66.8022	-27.3459	-103.44
32.8153	7.44306	-101.931
36.2479	11.3573	-100.215
40.2633	2.25009	-99.5307
29.349	3.01206	-103.16
48.3695	-3.72639	-98.3829
52.4135	0.160936	-96.6128
44.87	-7.61436	-99.4825
41.8694	-11.866	-100.176
33.6067	-6.44956	-101.436
50.9135	-17.6865	-100.423
39.3216	-16.4434	-100.592
-54.0995	84.9896	42.5765
-46.8417	87.163	40.4442
-58.9929	90.1806	30.7025
-60.6695	82.2546	44.6059
-49.8736	90.4328	-67.2933
-43.7357	92.7677	-63.5786
-41.1775	85.4619	-76.6794
-55.756	87.462	-70.7365
-57.2249	94.468	-55.8698
-62.957	97.272	-42.0397
-69.4454	94.8281	-44.6829
-66.1278	98.7421	-26.7374
-55.8316	99.1287	-39.2679
-66.8747	98.7806	-11.5262
-58.9159	100.499	-10.8076
-74.0314	96.4859	-12.3231
-65.2714	97.4919	3.10804
-62.8666	94.4851	17.3359
-70.1569	91.9041	18.2937
-55.078	96.4437	16.2257
-32.1721	79.8364	-84.3159
-22.516	73.6458	-90.4677
-37.4672	76.4693	-88.046
-26.7921	82.579	-80.3197
-12.6355	66.8675	-95.299
-7.96141	69.9061	-91.0824
-2.34754	59.6836	-98.5067
-17.1322	63.3066	-99.1045
7.67111	52.142	-100.12
18.3071	44.0236	-99.8073
4.09164	48.5081	-103.916
11.4523	55.105	-95.9093
29.305	36.0486	-97.1285
32.1126	39.4901	-93.0252
39.1139	28.9908	-93.5573
25.4399	32.5493	-101.146
47.5835	22.7576	-90.362
55.85	16.5885	-87.9581
44.1867	19.1269	-94.2683
50.7554	25.7716	-85.942
79.1926	-0.134352	-90.3995
86.908	-5.62253	-93.8035
75.7619	-3.57548	-93.9105
71.6807	5.36732	-87.8646
82.9273	2.53884	-86.4635
87.1151	-16.9895	-101.624
94.5706	-21.1294	-103.949
83.7418	-20.6761	-103.154
79.7132	-12.3294	-99.18
90.8031	-13.4682	-99.501
63.9769	10.7485	-87.0573
67.3306	13.708	-82.4274
60.3785	7.59822	-90.8614
-32.7372	100.404	-29.2874
-33.5413	101.147	-17.2365
-24.0793	99.3449	-24.965
-29.7666	98.6225	-40.868
-40.784	100.689	-33.2207
-33.125	100.762	-5.73031
-23.8274	99.0885	-2.30083
-42.1013	101.567	-8.27715
-31.8697	99.4412	5.29409
-31.1435	96.9951	15.7779
-22.7375	94.7084	18.877
-39.1814	97.8352	14.9307
-21.6954	84.7063	-76.1522
-29.9068	89.9066	-68.6998
-16.4436	86.1978	-71.8115
-12.6866	78.84	-82.1034
-37.7943	94.3972	-59.7114
-44.0962	97.8728	-49.0709
-31.4097	95.376	-55.5739
15.2833	57.8941	-90.9275
5.98427	65.5568	-89.3256
19.2094	60.3398	-85.4115
24.9173	49.9151	-90.8284
-3.32265	72.3616	-86.5661
0.966869	74.5591	-81.6378
34.5278	42.5447	-88.5949
37.4136	45.1175	-83.3071
44.5038	35.3856	-84.6688
52.9603	28.7795	-81.3458
54.1147	31.953	-76.7581
71.0887	16.3045	-76.7549
76.1488	17.2314	-70.7584
79.0588	10.3791	-78.5325
2.33681	90.5968	-32.431
5.63756	88.3879	-41.1259
-4.1446	92.6659	-36.854
-39.283	88.4306	38.7603
-44.0467	93.5962	27.3677
0.870456	88.6716	8.72751
-6.7852	92.9445	5.38229
27.7861	65.9573	-69.3837
25.4385	64.2167	-74.6648
20.4796	72.1206	-68.5062
30.446	67.2086	-63.8018
35.4534	59.0266	-69.0276
12.8743	77.6311	-66.8838
8.99596	77.009	-72.0052
6.01985	82.5483	-63.2834
17.0383	77.854	-61.2382
-0.647156	87.1639	-57.8266
-6.01361	87.3694	-62.7403
-6.25936	91.089	-50.4894
4.89901	86.4322	-52.7452
55.1395	39.8898	-64.1742
55.0927	37.1667	-68.397
49.0662	45.8121	-66.0684
55.2919	42.5331	-59.7204
61.3981	34.1124	-62.4763
44.1526	56.9303	-58.215
49.7489	51.1166	-56.8173
43.4737	54.6486	-62.8679
38.5749	62.66	-58.6962
80.7047	17.477	-65.6981
73.9199	23.1353	-63.3091
69.3301	46.2452	-6.88649
67.1002	48.0874	-3.96624
71.3002	42.9139	-5.42701
65.9427	48.6038	-2.09296
46.474	64.6045	2.26535
42.0861	68.2695	1.31139
37.6478	87.254	-29.8489
33.2772	89.7752	-26.1377
38.4198	87.4584	-29.202
67.4277	56.6766	-26.2151
69.6802	53.5898	-23.5843
29.7312	91.0704	-21.6123
28.8944	90.4998	-22.0916
27.4491	91.247	-16.8775
30.8362	91.3878	-21.152
34.1475	79.1272	-2.63143
33.336	78.1258	-3.36786
26.6749	90.4274	-12.4194
27.8776	90.7237	-11.7882
54.6955	71.1506	-32.1944
70.0662	56.0282	-18.8238
70.0841	54.9974	-16.1466
70.8122	53.6565	-19.935
39.8346	70.2333	0.190117
27.1679	85.8094	-8.56402
29.2212	82.1506	-6.73437
27.0658	84.7794	-10.372
32.1628	77.4252	-4.81098
31.0614	77.2169	-6.3396
28.6514	89.9099	-22.3848
30.641	76.7186	-7.87198
29.1641	79.2627	-9.97789
27.7498	82.2193	-12.9929
28.2628	79.5466	-14.6574
62.5246	64.9528	-27.0687
65.1857	62.6778	-19.829
70.8977	51.8091	-20.8132
69.3753	54.3062	-13.7192
67.6329	56.7352	-12.966
66.0482	58.895	-13.2313
64.8765	60.2643	-13.7659
38.8408	87.3939	-28.8458
34.7663	90.0727	-25.2472
30.6527	86.6899	-5.11204
31.3272	86.4769	-4.96514
29.345	89.1439	-7.70811
31.8429	86.1326	-4.96285
30.5125	88.6467	-7.47447
32.6283	85.4865	-5.3821
31.5455	91.3732	-20.89
29.534	91.5307	-16.2006
32.0484	91.1951	-20.8486
28.8433	90.7577	-11.4348
29.476	90.6268	-11.4253
30.0177	90.2892	-11.2853
30.5454	91.064	-16.0492
32.3944	90.9125	-20.6212
42.3573	84.5779	-28.8428
33.4935	84.7181	-6.22751
38.6916	78.4707	-5.56412
33.2636	87.897	-14.5129
45.5715	81.5897	-24.5345
44.0796	82.5026	-23.796
42.5804	83.2447	-22.7903
41.3771	83.6269	-21.5652
40.387	83.6783	-20.0744
39.6441	82.8118	-17.4272
61.292	59.8127	-10.8302
62.9481	60.3889	-12.793
43.8004	72.9639	-4.198
54.4136	62.3971	-7.14042
64.2517	60.8123	-14.0957
4.99016	28.2836	80.2233
-53.7164	67.1581	65.5356
-60.3578	73.2782	56.8973
-72.6448	49.1395	68.3091
-81.0092	54.8645	59.1295
-77.0741	42.6576	67.8926
-67.1213	79.0826	46.019
-72.862	84.2614	33.3703
-88.865	60.283	47.7785
-93.3541	53.8113	47.2643
-90.1021	80.2571	18.9903
-83.9174	84.7844	19.1218
-77.379	88.6275	18.7992
-80.0027	91.8171	3.21731
-5.9353	72.7753	49.6703
-14.7595	91.0653	22.5488
-14.4271	94.3056	12.1332
-47.4707	97.6087	15.1226
-49.2837	100.233	2.77034
-103.896	73.9672	-17.6824
-101.789	73.9056	-36
-108.308	67.4734	-18.245
-81.008	93.3879	-13.0405
-79.5257	93.4495	-30.3206
-15.0723	96.29	1.52659
-15.7351	97.5081	-9.33679
-50.9642	101.404	-9.88737
-50.7981	101.414	-22.9097
-15.7787	97.4686	-20.4633
-14.3237	96.4777	-31.4502
-11.2201	94.3441	-41.4645
-18.0221	95.3481	-46.3253
87.4696	4.49787	-81.9088
95.4052	-0.745314	-85.7177
103.219	-5.07664	-88.98
110.44	-8.89419	-92.2004
98.4914	-7.44533	-93.2993
-97.1482	71.9826	-53.5499
-90.0057	68.4352	-69.2579
-101.247	65.7649	-54.3472
-81.2533	63.9407	-81.5345
-71.4496	58.7124	-91.4031
-85.1383	57.9016	-82.2531
-61.3665	53.1678	-99.2115
-50.9524	47.1242	-105.502
-65.3473	47.0953	-99.8827
-39.7277	40.3311	-110.652
-43.3575	34.5597	-111.382
-8.93349	35.7654	-112.968
-4.54661	40.1353	-110.519
6.6139	10.9574	-112.497
18.171	3.53464	-107.511
3.71136	6.02383	-113.02
26.4894	-1.82079	-103.8
23.7724	-6.75086	-104.158
59.0057	-22.6179	-101.673
56.2969	-26.6765	-102.037
-61.6994	83.7328	-73.9264
-69.5641	88.2568	-61.9844
-52.5175	78.367	-83.6676
-75.676	91.5909	-47.3592
-42.976	72.4683	-91.4633
-32.7708	66.1213	-97.6977
-22.0834	59.2246	-102.588
-10.9217	51.9357	-105.901
-0.131153	44.4683	-107.437
10.5859	36.6516	-107.094
21.2703	28.6233	-104.723
31.3633	21.2078	-101.102
40.1943	15.3337	-97.646
48.3882	9.86922	-95.106
56.3643	4.01183	-94.1419
64.4826	-1.76024	-94.7253
72.1321	-7.06741	-96.5883
94.5394	-10.1608	-96.6832
102.004	-14.1477	-99.3838
-48.7287	100.24	-36.3394
-25.0706	95.7958	-50.848
-18.4743	91.7763	-59.9587
-11.4815	87.1341	-67.3652
-3.45891	81.7987	-73.0694
4.90295	76.0517	-76.9262
13.8014	69.6301	-79.0121
22.6131	62.2935	-80.0613
31.1366	54.8144	-79.82
39.2197	47.6909	-78.3474
41.214	49.8705	-73.0034
47.5096	40.7397	-75.4876
54.6535	34.6452	-72.6671
67.9145	28.5531	-61.7541
68.2781	30.4985	-57.8764
9.53031	85.5497	-47.986
14.822	81.9109	-52.8055
14.6748	84.1609	-42.8259
32.5195	68.2415	-58.7695
26.478	73.3704	-57.7465
42.4455	52.2299	-67.9865
20.2889	77.9753	-56.0381
55.2842	45.3278	-55.3224
60.8766	39.8018	-53.9932
102.868	-47.5191	9.44148
90.918	15.7616	-7.78232
100.241	-1.77574	-12.713
60.8909	-28.3569	84.1721
62.8132	-26.2031	82.2635
65.1076	-24.2999	79.3339
68.651	-38.2517	80.4159
69.8129	-38.6423	80.1419
70.8674	-39.0572	79.7519
77.4899	-29.1673	69.0444
75.9073	-28.7926	70.4119
74.5302	-28.4788	71.4898
59.7407	-23.1693	82.8075
74.4054	-11.8298	68.5409
54.2279	-8.66986	80.0168
59.2891	-10.1612	78.6805
63.5983	-11.9336	76.8959
73.2454	16.3443	55.8134
2.71324	14.4672	78.6547
19.7295	82.5711	-37.2626
25.5196	80.5494	-18.4925
27.8974	79.6852	-16.5349
73.51	39.5865	-2.68351
15.6423	13.8582	76.2168
0.135274	50.6141	73.977
40.7603	-23.2411	87.9956
18.0623	35.7667	71.0918
41.0593	-20.3288	87.3661
28.1871	79.2825	-15.5437
106.473	6.00084	-62.3166
79.7655	26.6262	-47.8549
73.0433	30.1183	-51.346
67.5837	33.7003	-53.5319
43.0781	-10.7994	83.5892
68.3581	-32.3274	77.7276
70.1696	-23.317	69.9237
62.2102	-35.4243	79.8582
8.2832	-85.335	-1.32504
4.23427	-84.0409	1.16182
4.83106	-84.0801	-7.92643
12.1954	-86.3494	-3.77708
11.7989	-86.5873	6.33558
68.1376	-103.274	-38.7893
60.0984	-97.831	-35.5773
65.1217	-103.711	-42.7563
75.7977	-109.083	-42.5061
71.2577	-102.23	-34.9306
81.1265	-113.445	-45.542
84.7248	-113.114	-41.568
77.8788	-113.242	-49.573
85.2012	-116.885	-48.1401
60.8818	-91.3285	-24.3066
57.1529	-93.0062	-28.8193
66.9012	-95.0002	-27.451
64.9818	-89.672	-20.3623
55.8761	-89.1896	-21.517
49.5076	-95.4858	-41.2304
51.6542	-95.1225	-37.1197
44.946	-93.1139	-39.4144
46.9123	-94.849	-45.8917
55.2007	-98.7999	-43.5651
29.2616	-89.9572	3.29866
26.6324	-88.9549	-3.64516
33.3031	-89.5806	0.114545
32.3825	-90.412	9.60581
25.6212	-89.9354	6.01562
-56.497	-48.2116	27.2213
-59.3994	-50.3111	15.2907
-49.1329	-52.2282	28.8554
-54.7145	-44.5385	38.4101
-64.6797	-44.1896	24.2344
-79.2906	-40.0905	-22.6965
-72.6362	-45.5457	-19.6765
-78.8746	-41.2106	-12.0002
-85.4749	-34.4143	-26.0438
-78.3376	-39.5958	-32.7491
98.2021	-71.1442	1.78875
94.8204	-69.5585	4.82888
96.1476	-73.0694	0.630668
103.873	-73.9097	-0.387775
99.729	-69.3713	2.63548
111.767	-79.0041	-4.76407
119.658	-84.3194	-9.69562
113.597	-76.7394	-3.72404
109.146	-81.1253	-6.0091
129.469	-82.5375	-11.4598
133.206	-84.9742	-13.6032
123.759	-79.1827	-8.16378
127.357	-85.3024	-12.0359
6.41541	-77.0752	-47.4173
-1.17346	-73.4153	-49.7507
12.334	-77.3258	-51.1054
12.986	-80.5567	-43.8015
0.503673	-76.7593	-43.8111
-6.77568	-71.0294	-51.4971
-11.5994	-72.0044	-47.4627
-11.683	-69.076	-52.8461
-0.764175	-70.144	-56.0103
68.6029	-107.916	-63.4151
72.1047	-110.941	-58.0661
65.7648	-104.135	-69.1462
73.5571	-110.881	-67.2376
115.339	-74.5734	-3.15562
106.964	-70.278	1.16136
15.4082	-87.4103	13.4962
19.383	-88.7713	11.0961
18.4957	-87.4008	20.1431
10.6071	-85.5502	15.4261
23.618	-87.7222	-10.7746
19.7076	-87.4933	-8.41078
21.2596	-86.5054	-18.4387
27.4678	-87.6854	-13.4501
89.6066	-71.4525	56.7178
85.5568	-68.8979	60.6785
86.4166	-73.2708	55.5789
92.4552	-72.8907	53.0796
92.4493	-69.2471	57.7095
82.6241	-74.6615	54.336
78.7198	-72.4646	57.6185
78.2041	-76.0599	52.3164
86.1788	-75.9546	51.1603
85.2633	-61.7644	65.5978
89.9466	-64.6435	62.5593
80.8373	-59.0502	67.6248
83.5547	-64.0317	64.7704
93.8934	-73.4104	50.0939
96.158	-71.322	51.1172
91.4116	-75.1686	49.0167
94.5553	-73.5584	46.2569
94.4878	-73.1935	41.5194
93.7274	-72.4958	35.8251
96.8834	-70.927	42.1285
3.72649	-25.817	82.0734
3.34087	-23.0305	83.7214
0.246622	-23.9303	79.6427
3.46633	-28.3996	80.2542
7.52424	-27.8331	84.3339
17.2579	-63.7071	66.8172
20.8085	-66.4768	64.9169
18.5533	-58.8148	71.2931
13.14	-60.9828	68.155
14.836	-68.5149	60.8946
2.4653	-67.2675	56.8783
6.94903	-70.2001	55.3169
6.15639	-62.7884	63.7729
-2.45565	-63.7019	58.2315
-2.88253	-70.5751	48.5047
-25.3378	-63.2655	39.266
-25.0714	-60.8721	43.5699
-31.773	-58.4477	40.1159
-26.263	-64.7816	34.3211
24.2679	-68.8959	62.5124
25.8839	-64.2314	67.9861
21.6122	-73.4799	55.6933
27.7604	-71.1328	60.18
10.8795	-15.1759	96.3738
10.3164	-16.8947	95.6526
14.4818	-18.0045	98.4818
7.18638	-12.4615	94.065
-60.9223	-1.26856	77.2884
-67.0695	1.42031	74.7517
-62.5023	-6.0181	74.0276
-54.0623	-4.14961	80.1159
-59.0006	3.00453	79.7788
97.4626	-67.1093	29.8549
98.2673	-67.8625	36.9808
95.6302	-69.1582	29.1298
96.7864	-66.1079	21.4184
21.3734	-86.4502	27.018
16.5795	-84.5207	29.3438
26.289	-88.0152	24.909
24.0912	-84.5842	34.1887
98.0666	-69.1734	51.8294
98.6757	-69.3146	47.6327
96.9943	-68.5424	54.8048
98.758	-68.7131	42.6627
65.3238	-83.3931	33.8936
63.2234	-82.6814	37.9831
58.8643	-85.3126	30.0269
67.53	-83.4187	30.2577
71.5321	-81.4645	38.2906
62.2877	-84.4464	8.62311
67.7949	-82.741	12.1754
58.8645	-85.9525	13.5587
56.925	-85.8536	4.85569
66.0222	-82.9744	2.85469
96.2927	-65.3492	12.4728
97.6905	-65.9463	6.18889
94.8426	-67.1723	11.724
17.139	-24.4906	98.4401
17.6646	-22.4657	99.9812
13.4193	-21.7289	96.266
16.7394	-26.7648	96.0964
20.0589	-26.6698	100.214
20.4543	-42.7906	79.8566
19.9731	-38.9708	82.3761
16.9039	-39.2873	81.3423
20.2152	-46.9673	77.6923
47.3936	-62.3256	67.5117
48.5479	-60.9175	68.0415
47.3841	-60.932	68.2035
30.3608	-35.277	87.1532
29.6673	-36.4057	85.8828
31.2978	-35.083	86.4497
28.8331	-35.8846	87.7742
33.7649	-36.5589	84.2687
34.1851	-35.1627	85.4293
33.0157	-35.903	84.7331
32.6226	-38.1878	82.899
34.762	-37.7747	83.7514
35.1309	-29.5163	93.1244
34.1513	-30.4964	92.2791
35.6524	-29.7363	91.7414
34.8222	-29.354	94.5821
30.8844	-39.539	81.9123
31.8524	-40.8379	81.342
30.2472	-38.7087	82.5476
28.7407	-40.5027	81.3102
27.2766	-31.1264	100.445
25.8909	-30.5505	101.253
25.6984	-32.4461	97.7213
28.7079	-31.5999	98.9934
28.7426	-29.6927	102.428
61.0733	-67.2198	63.2349
63.6495	-70.0644	59.9365
64.6364	-65.8805	64.6998
59.0078	-64.634	66.2034
57.319	-68.0612	62.2924
43.298	-58.7278	72.3298
42.92	-60.509	70.8308
43.7645	-56.8627	74.1632
40.2728	-56.7633	74.5617
38.8786	-31.5996	88.6393
37.1935	-30.6881	89.6215
38.0312	-32.6071	88.1784
41.2475	-32.744	87.9782
9.83652	-19.0082	94.2548
6.33728	-16.7259	91.9618
9.72545	-21.7761	92.2163
22.3178	-36.6276	87.1143
21.9017	-36.7461	86.407
23.5636	-37.3066	86.1896
21.812	-35.9175	88.5966
21.0179	-35.3743	88.8191
34.6003	-31.8158	89.1907
35.2924	-31.0323	90.019
33.865	-31.4771	90.0045
34.3453	-32.7302	87.9492
35.9316	-32.396	88.3055
33.4601	-31.2373	91.1145
33.007	-31.1526	92.4885
21.3933	-35.1213	90.0172
22.6081	-36.0439	89.1342
20.7287	-34.5776	90.3239
25.419	-37.9862	84.7039
27.3506	-38.2195	83.7566
24.7504	-37.2483	86.709
49.5012	-37.157	87.5713
46.7047	-35.7331	87.4952
47.9078	-38.6515	87.2885
51.1243	-38.393	87.5867
30.8528	-47.3811	78.4037
28.2943	-43.5645	79.6581
30.0546	-49.4746	77.4994
33.9038	-51.0406	77.4443
31.962	-45.3552	79.4586
67.8337	-57.2816	72.5064
65.6797	-59.2908	71.6459
69.817	-58.6406	70.4706
70.1802	-54.9558	72.9383
66.4075	-56.3027	74.3204
46.9964	-56.3843	73.9318
45.6013	-55.7683	75.1646
46.8103	-58.404	71.0232
47.3548	-56.8639	73.1479
20.2128	-34.1421	90.3206
19.8521	-32.8785	92.1951
19.3977	-33.8273	89.5768
63.4267	-60.8923	70.6301
62.2917	-59.8784	72.258
60.8434	-62.2487	69.271
65.1257	-62.3381	68.5306
72.0421	-52.7991	73.0809
70.7739	-51.8137	74.7819
73.7138	-53.8929	71.5107
-43.1227	-43.5473	56.5455
-44.4587	-43.3033	55.3501
-39.4778	-47.4296	51.8817
-41.9051	-43.4654	57.8039
-52.7022	-16.602	74.3493
-58.133	-13.9822	72.0103
-54.1142	-21.9757	69.3649
-48.3614	-18.9768	76.3142
-51.1189	-12.1048	78.4907
-55.0695	-27.817	63.5484
-60.5207	-25.2565	60.7346
-55.0389	-33.7769	56.7372
-51.3549	-29.7522	65.8551
-43.0351	-23.2377	77.6176
-44.6385	-21.6595	77.5668
-41.3941	-24.9648	77.2279
-40.6491	-19.9657	82.1541
-46.2557	-43.2554	53.0147
-42.838	-48.288	46.7568
-48.7318	-37.0807	60.6666
-49.1751	-42.0558	51.1156
-26.244	-15.8541	80.9244
-23.5905	-13.6634	81.3757
-27.0585	-14.8413	81.8585
-28.9005	-18.4138	80.3888
-25.399	-16.9317	79.8514
-2.78997	-11.0445	86.1849
-0.489878	-12.3635	87.4319
-2.45002	-8.11348	87.9158
-4.43195	-9.93799	85.6144
-2.48446	-14.1725	84.0462
2.59006	-39.2549	75.2392
3.48837	-33.8431	77.7724
-0.807854	-36.3361	74.4937
1.23522	-45.5041	72.3321
6.60447	-42.5198	75.9398
-23.5461	-53.8927	52.3879
-18.5618	-54.375	55.7181
-23.9553	-51.238	54.3257
-28.3037	-51.8478	51.3466
-23.2782	-56.2014	50.4983
2.63196	-14.2883	89.4633
2.82098	-11.5938	90.842
2.81859	-17.3162	87.6597
-40.2218	-26.3709	76.648
-38.7924	-27.3219	76.1931
-37.6757	-22.3954	80.9738
-43.095	-30.3976	72.8729
-44.3801	-34.3812	68.8399
-43.3545	-38.9955	64.0064
-42.5259	-35.1066	69.0201
-30.2896	-46.8389	56.0393
-31.2556	-47.9421	54.4899
-27.2512	-48.1438	55.3753
-29.2855	-45.7082	57.532
-33.5063	-45.004	58.0613
-28.3097	-36.7911	68.3054
-28.2205	-34.963	70.1702
-27.9503	-38.5687	66.0852
-27.9162	-32.8641	71.8191
-27.1531	-30.53	73.164
-28.7493	-32.4435	72.3125
-29.1844	-34.7516	70.5716
-27.8523	-29.9027	73.7163
-25.9973	-28.0943	74.0082
-24.2904	-25.8711	74.4922
-26.5314	-27.4067	74.5165
-24.6484	-25.0389	74.9669
-22.1414	-23.9276	74.7511
-19.7894	-22.433	74.6561
-17.3139	-21.2998	74.1015
-14.9779	-20.6503	73.3945
-17.3185	-19.9966	74.5299
-19.7978	-21.189	75.0562
-14.8961	-19.461	73.8352
-13.2446	-20.453	72.7606
-17.071	-18.7619	75.0031
-19.9017	-19.9445	75.605
-27.1191	-26.6733	75.1167
-25.0962	-24.1199	75.5672
-25.6858	-43.5281	60.4042
-24.335	-43.3387	61.0795
-31.311	-21.299	79.7277
-30.1634	-22.2287	78.6612
-32.6436	-20.4364	80.7431
-33.9278	-24.8904	78.2723
-35.2305	-36.5986	68.9246
-32.8175	-36.7487	68.9369
-34.6049	-33.7245	71.6537
-38.0655	-36.2086	69.0017
-12.2275	-40.0117	69.0466
-9.14556	-34.7514	71.8606
-15.8001	-43.829	65.5524
-10.9695	-41.181	68.83
-7.59388	-29.6397	73.1095
-6.72674	-30.4782	73.2435
-6.97051	-26.1124	73.357
-7.81434	-21.5693	73.3383
-7.31951	-22.7993	73.4152
-8.33597	-20.7542	73.2444
-14.4986	-37.7847	69.6842
-11.4795	-33.2281	71.944
-17.9918	-41.2447	66.5853
-9.29101	-23.7074	72.3853
-9.41341	-22.7647	72.2201
-9.30628	-25.4565	72.611
-9.5191	-22.0219	72.2076
-9.77831	-21.2553	72.2795
-13.2857	-13.8877	78.0411
-14.274	-11.9681	79.9821
-15.7984	-14.0873	78.188
-12.3455	-16.1208	75.7675
-9.40554	-19.7342	73.3721
-22.5928	-21.7955	75.7839
-12.1147	-17.266	74.6845
-14.2155	-17.1618	75.0686
-10.4053	-17.7546	74.5157
-15.5591	-36.9682	69.9788
-12.4902	-32.514	72.0466
-10.1351	-23.355	71.9588
-10.3518	-24.8554	72.2503
-10.0368	-22.5805	71.8814
-10.1675	-22.024	71.7822
-27.2709	-40.0071	63.958
-14.9615	-0.0588727	87.6754
-18.0315	0.899686	88.0664
-15.8983	-2.39259	86.8799
-12.2561	-0.844579	87.446
-2.07627	-27.1164	76.0079
-2.53015	-29.8399	75.1094
-0.067404	-28.7174	77.1353
-1.93531	-24.9507	76.8982
-3.46858	-25.9786	75.2666
-1.80554	-22.5081	78.2465
-1.93311	-19.8735	79.9181
-6.00802	-20.1636	75.471
-7.49547	-19.4208	74.7542
-5.63245	-18.4254	77.1063
-10.0169	-11.0718	81.4047
-10.3437	-9.88437	82.4895
-12.4039	-10.7096	81.2657
-6.98503	-24.1217	73.4212
-5.91878	-24.4777	73.976
-4.67838	-25.0546	74.6107
-5.00934	-27.5996	74.0627
50.9352	-54.8273	72.1859
52.1615	-52.8643	74.1854
49.4684	-56.6019	70.1468
50.8933	-54.6578	71.9746
48.693	-57.8271	68.9336
48.7226	-57.5402	68.9183
53.893	-40.3757	86.8354
54.8994	-41.0493	86.148
52.834	-39.7103	87.3047
52.3857	-42.1984	86.3565
53.2394	-45.4985	83.7811
52.2536	-47.4481	82.5695
54.2785	-46.0074	82.5584
54.493	-43.6674	84.5849
52.3056	-44.77	84.7824
51.2915	-49.3272	81.1336
50.3649	-51.6249	78.9456
52.2462	-49.9067	79.805
50.3182	-48.8304	82.0868
51.2291	-43.9756	85.6076
50.1828	-43.2316	86.1869
50.2698	-46.0504	84.3986
47.9528	-46.3861	84.2317
48.4732	-47.4679	83.5434
48.7792	-44.1756	85.6797
47.2124	-45.4809	84.6666
49.7933	-54.4012	75.3069
48.939	-53.8549	76.8326
55.2717	-46.3392	81.0603
53.9759	-48.4874	79.8541
55.7454	-46.3536	80.0513
56.3999	-44.3396	82.1294
52.9749	-50.5773	78.0037
53.3235	-50.7426	76.9111
47.6127	-58.1654	70.7025
47.954	-59.4998	68.7635
51.7228	-55.6402	72.4082
51.8974	-55.9018	72.591
53.3962	-53.911	74.6373
51.6652	-55.4918	72.2372
52.8629	-57.2208	72.7262
55.1514	-56.4452	75.0193
52.5341	-56.7626	72.778
57.1803	-55.0219	77.215
57.6601	-55.8355	76.9062
58.6737	-53.4891	78.7211
56.5284	-54.2595	77.2531
58.5562	-49.18	80.1563
60.1164	-47.0859	80.9703
57.8234	-48.0827	80.0848
57.1001	-51.3255	78.8719
59.4777	-50.5086	80.0921
63.9668	-47.3862	81.2229
62.8451	-46.4396	81.3694
62.2288	-49.3174	80.8348
64.9957	-48.169	80.9548
49.6574	-58.5656	67.7565
49.3083	-58.2987	68.5821
50.6672	-57.3859	69.2611
50.7901	-59.0747	66.6162
59.7391	-43.2361	78.0043
59.4438	-43.1348	79.3743
60.743	-43.8202	76.1324
58.7735	-44.857	77.6409
65.9658	-48.8269	80.5493
64.0327	-50.8719	80.2284
66.8133	-49.3763	80.0114
69.5707	-50.9714	76.6406
68.454	-50.3415	78.2575
67.5583	-53.1324	76.5595
49.5089	-42.5721	86.4807
50.446	-40.7908	87.1447
48.6531	-41.3325	86.8395
61.6005	-45.3833	81.3762
60.5168	-44.3302	81.2298
59.9392	-43.7445	80.9905
59.6374	-43.509	80.7061
58.7132	-45.4688	80.6459
57.4075	-47.4985	79.8881
57.2243	-47.1478	79.6185
56.0237	-49.5961	78.6322
59.4444	-43.3284	80.2275
58.4009	-44.9062	79.9064
54.8354	-51.7996	76.8632
55.1293	-52.3726	77.0352
54.6793	-51.4785	76.5688
59.6068	-57.7365	75.6504
60.2625	-58.3501	74.8304
61.3764	-56.3041	77.0391
58.9762	-57.1521	76.2107
63.1481	-54.4569	78.2112
63.9445	-55.0019	77.3188
65.5573	-51.973	79.0725
62.4828	-53.8968	78.834
67.6	-49.8491	79.295
53.3997	-50.653	76.3024
53.314	-50.3482	75.8289
54.5482	-48.4151	78.1093
49.2082	-58.2991	69.3246
50.3557	-57.4	70.6657
57.5957	-46.8417	76.9423
57.2292	-46.6876	78.2385
58.4922	-47.4902	75.2667
56.2954	-48.9924	75.8819
57.1632	-46.834	79.1348
55.8369	-48.977	77.8849
65.0971	-55.5369	76.028
63.1534	-57.518	74.9429
58.322	-56.5111	76.6318
60.0756	-55.0057	78.1674
61.207	-59.0667	73.6752
58.834	-60.1838	72.2041
53.0991	-49.8126	75.5834
52.0195	-51.8685	73.9283
52.135	-48.4346	75.2961
54.0397	-47.6628	76.9524
55.2075	-45.5126	78.0251
55.7217	-45.9063	78.7426
53.7719	-44.6925	77.103
56.1228	-43.6413	78.519
49.6702	-46.1602	75.1601
48.8485	-47.9892	74.0388
46.1741	-43.9226	75.4095
50.3919	-44.391	76.0426
53.4391	-60.5347	64.7215
54.485	-59.3254	66.2692
56.7205	-62.5056	62.5867
63.1637	-45.4062	73.8398
66.3563	-47.8333	71.7571
62.1126	-46.9902	73.6054
51.112	-42.7012	76.6956
47.6418	-40.3594	77.014
51.861	-40.9666	77.1867
60.8014	-48.9706	73.069
64.0809	-51.3865	70.8981
59.4983	-51.1186	72.1859
47.2025	-60.2141	61.8
47.0456	-60.6376	60.5822
-5.52063	-15.9149	79.338
-3.87104	-16.3149	80.6452
-40.4356	-64.7835	-48.4849
-40.4336	-66.6067	-46.9891
-44.6428	-63.0437	-47.4629
-40.6721	-62.3273	-51.5535
-36.189	-66.4703	-48.7115
-48.0869	-61.4958	-7.41825
-48.2835	-60.3774	-2.06902
-51.653	-59.6746	-11.0335
-54.6093	-57.8171	-15.7594
-56.044	-57.3825	-22.8135
-50.8026	-60.5011	-17.8962
-59.3831	-54.6252	-15.8464
-14.9765	-73.1908	-44.5874
-19.2255	-71.9851	-45.5504
-10.4279	-74.8059	-42.9637
-17.806	-74.451	-42.5564
-23.2468	-70.6972	-46.8062
-25.0307	-72.3714	-44.805
-27.5479	-69.4043	-47.7583
-20.8065	-68.9562	-49.9642
-41.058	-67.9918	-46.1887
-45.5198	-65.7956	-45.2581
-37.0529	-69.6929	-46.2018
-42.2261	-69.1021	-45.8013
-25.7982	-77.4467	-42.2254
-25.2009	-79.0551	-41.4535
-26.693	-75.3091	-43.1877
-24.7332	-80.2836	-40.6629
-29.1321	-78.9107	-41.8547
-20.2511	-81.6446	-39.0263
-24.4854	-81.3207	-39.596
-35.326	-79.343	-38.7776
-40.4705	-77.7253	-40.9336
-35.6335	-79.1879	-37.874
-8.64414	-82.7693	-32.5275
-10.8427	-81.75	-35.1895
-9.32217	-81.246	-34.3366
-7.43367	-83.0819	-30.6094
-8.55352	-83.4182	-31.8981
-13.1936	-83.0109	-18.5295
-12.5765	-83.0222	-18.6174
-11.3027	-83.0199	-19.1415
-35.8329	-79.0229	-37.3761
-34.862	-79.0393	-36.5293
-50.4874	-73.636	-38.0743
-51.3826	-73.1208	-39.4262
-48.9731	-74.4677	-36.7339
-58.7827	-69.2086	-33.3797
-60.104	-68.7517	-33.2077
-61.7364	-67.9946	-31.7341
-62.6701	-67.1788	-28.208
-62.3139	-67.8543	-32.0397
-60.8096	-67.966	-29.556
-33.5711	-73.5473	-13.6418
-38.9763	-71.7927	-13.1082
-29.5502	-74.8748	-13.9011
-33.6299	-72.955	-12.1079
-15.9374	-78.3768	-9.87386
-19.6761	-76.7681	-8.39621
-12.6523	-79.7006	-11.2162
-14.4974	-78.3101	-7.12871
-23.9585	-77.6223	-18.0886
-25.621	-76.6048	-17.7715
-22.5436	-78.8192	-19.0919
-50.37	-60.7619	-18.0012
-50.3437	-60.8303	-17.7922
-52.3941	-59.8668	-21.2086
-61.2971	-63.9319	-17.4325
-63.9487	-63.4208	-20.2553
-60.9079	-65.1227	-16.6548
-57.2362	-64.7299	-15.0786
-61.4233	-62.8003	-18.4526
-65.3115	-61.8823	-25.085
-64.0445	-61.8024	-22.091
-64.2589	-61.4862	-26.5827
-65.2459	-62.3527	-29.0056
-65.4811	-62.1426	-24.587
-55.6247	-67.853	-42.598
-56.2781	-68.7186	-42.0836
-60.2949	-65.6729	-38.4714
-54.8544	-67.3884	-42.8323
-43.4988	-70.1837	-12.751
-42.7534	-70.9432	-13.7115
-55.9542	-71.0771	-39.8831
-60.0943	-69.2979	-36.554
-55.967	-71.1089	-40.2703
-53.453	-72.1585	-40.6778
-62.3189	-66.9374	-24.0553
-60.5097	-67.0594	-20.1646
-63.0863	-66.6297	-23.2446
-61.2016	-67.3115	-25.0651
-45.5741	-70.5836	-15.479
-48.0052	-69.7802	-15.7297
-43.6542	-71.0845	-15.2508
-55.7352	-70.7937	-37.016
-54.4266	-71.5838	-39.3143
-39.0923	-72.1298	-18.0602
-40.4984	-71.9477	-16.6439
-39.5596	-72.0015	-18.7197
-45.2959	-73.4225	-32.1492
-48.9958	-73.5389	-33.5826
-44.3373	-73.8364	-32.5441
-45.4053	-73.08	-31.4115
-23.2392	-75.2169	-7.54423
-22.0668	-75.0794	-4.95777
-27.6174	-73.3846	-7.40806
-49.7989	-63.6507	-42.6241
-52.2288	-63.3887	-41.19
-53.2589	-61.5718	-39.4616
-48.9437	-62.7791	-43.8019
-57.1936	-63.4236	-37.5817
-54.3983	-65.0825	-41.3621
-62.0351	-63.4769	-34.8196
-59.6116	-61.8825	-33.5509
-53.4481	-66.9597	-42.9548
-48.3054	-68.5611	-44.9021
-43.7699	-70.7294	-45.6522
-26.3105	-73.7142	-43.9076
-29.8233	-72.5567	-44.8908
-22.7924	-74.7168	-42.7568
-33.3614	-71.204	-45.7318
-32.4993	-69.7214	-46.7018
-34.4035	-78.6909	-35.4639
-19.4673	-75.5818	-41.6724
-15.3667	-76.8136	-40.1275
-7.04915	-83.2484	-27.6872
-6.53066	-82.9678	-27.5696
-6.00934	-82.6414	-27.2728
-7.21305	-81.404	-32.6258
-43.9155	-74.3079	-33.1979
-46.5644	-74.9379	-35.183
-33.5889	-72.3272	-10.8232
-33.2832	-71.7026	-9.44844
-20.7422	-77.4661	-12.1786
-20.9147	-77.7077	-12.9143
-19.8638	-81.097	-19.636
-21.0427	-80.5419	-20.2608
-19.0301	-82.6611	-21.7277
-26.6269	-75.9667	-14.0395
-27.2017	-76.0198	-16.329
-60.3356	-61.2327	-29.9751
-59.6553	-60.6468	-26.4709
-56.5056	-60.5492	-33.4044
-55.0904	-60.2264	-35.4403
-55.6665	-59.3292	-30.6879
-54.8401	-59.8619	-36.5548
-55.3009	-70.4243	-31.705
-53.8563	-71.0808	-31.6908
-40.687	-71.7666	-20.0382
-42.8187	-71.5589	-22.4945
-45.9926	-72.721	-30.7213
-45.4479	-72.4358	-29.294
-50.2262	-72.2405	-31.2172
-64.839	26.081	78.7764
-72.3759	30.4581	74.1422
-67.8031	19.6508	77.6588
-57.7157	21.8404	81.9653
-50.7378	17.9294	84.304
-54.0617	12.2473	83.1323
-43.5239	13.7674	86.2243
-48.4803	-7.64603	81.9825
-46.1352	-3.18101	84.1606
-44.286	-10.722	83.5414
34.4643	-29.2423	96.2495
33.4251	-30.4124	95.1512
33.793	-29.2222	98.0856
27.128	-26.5675	104.787
28.5507	-27.3982	104.465
25.478	-25.5851	104.649
25.9912	-28.2299	103.658
29.9927	-28.1242	103.635
31.3224	-28.7144	102.291
36.2235	-30.1466	90.642
43.9697	-34.0979	87.6033
43.1275	-35.4823	87.3267
32.6274	-29.1387	100.281
31.5449	-30.5416	98.911
23.8724	-24.5259	104.118
21.6136	-23.0151	102.887
22.9738	-26.1989	103.123
-28.1106	4.33071	88.9119
-31.6681	6.47741	88.686
-31.1848	-0.384373	87.7164
-25.3626	2.80183	88.7561
-1.91623	-6.0874	88.6612
-3.64807	-4.95454	88.0145
0.078534	-7.48442	89.6315
-5.42971	-3.91704	87.5742
-7.37183	-2.86795	87.3522
-5.86734	-5.99598	86.8983
57.0398	-41.8022	78.764
58.0055	-42.2951	79.8217
55.5122	-40.9363	77.9518
58.2504	-42.559	80.6174
58.1805	-42.6261	81.28
57.1496	-44.1818	80.2558
55.7906	-41.6492	85.2755
56.671	-42.1404	84.1608
57.5508	-42.4923	82.7514
52.0142	-39.1837	87.4981
52.7499	-39.082	77.535
49.2598	-36.7966	77.8066
-70.0109	14.221	76.1971
-77.2372	17.834	71.7244
-71.6693	9.00638	74.2994
-63.3659	10.7812	79.2534
-34.909	-4.2424	86.7022
-37.5505	-2.5948	86.7187
-38.6677	-8.27534	85.5144
-32.1106	-6.60885	86.1632
-30.442	-9.16407	85.1713
-29.0328	-12.0737	83.7873
-34.0355	-12.8989	84.1903
-28.0445	-13.7012	82.7825
-30.9742	-16.452	82.1706
-24.8529	-11.0371	83.4446
-22.7934	-20.6335	76.4338
-25.5831	-23.2043	76.2236
-19.8616	-18.5816	76.2832
-23.4882	-19.5399	77.3256
-22.3513	-22.8894	75.2246
-24.1992	-18.2356	78.4496
-21.4559	-16.2	78.5804
-26.9083	-20.7421	78.1253
-88.1842	-1.2177	54.3828
-81.6404	-4.2948	59.7626
-88.0445	4.81471	58.0198
-95.2008	1.71782	46.3099
-73.1462	4.21229	71.7835
-74.4452	-1.01935	68.3449
-79.7994	7.09466	67.4923
-42.0309	-12.2686	84.0049
-43.5357	-16.7297	82.4435
-39.3181	-14.1832	84.0066
-33.9632	-19.6864	81.5743
-35.5197	-18.1583	82.5511
-37.4218	-15.8089	83.5567
-29.0212	-23.4525	77.5052
-31.1271	-26.9011	76.2114
-28.3545	-24.874	76.4669
-75.6936	-6.7109	63.7497
-69.8924	-8.98545	66.905
-76.9917	-12.4685	58.0796
-46.1554	-20.4617	77.1513
-47.9891	-25.3089	72.514
-30.488	-31.8626	73.0348
-31.1649	-34.6097	70.9825
-29.3289	-28.8544	74.7133
-31.6339	-31.1771	73.5967
-37.0969	-28.5099	75.4924
-39.8387	-32.1188	72.4631
-35.0586	-29.3994	74.8879
-33.1241	-30.4032	74.178
-63.9918	-11.306	69.6015
-65.3048	-17.0378	64.1945
-78.81	-17.5455	51.2274
-80.9126	-21.7866	43.3036
-72.7695	-20.0869	54.7626
-29.2011	-36.7369	68.5872
-28.703	-38.6015	66.2757
-31.3315	-36.9739	68.666
-30.6094	-38.9296	66.3586
-30.1204	-36.7602	68.7568
-40.534	-35.6436	69.103
-39.2541	-39.3888	65.1197
-20.8698	-12.0218	81.5879
-21.3178	-10.7945	82.6558
-19.933	-13.2066	80.3008
-18.0525	-11.0846	81.4915
-21.7265	-9.16917	83.8339
-19.078	-8.3896	83.8363
-18.5426	-14.7969	78.4266
-17.7223	-16.283	76.9145
-22.3019	1.70188	88.4378
20.428	-85.7643	-26.3062
19.4561	-84.9154	-32.8139
15.636	-85.1172	-23.2625
-65.6336	-49.2846	-35.2343
-60.3736	-54.0017	-31.4755
-66.1343	-49.8283	-26.7298
-70.7827	-44.7475	-38.563
-63.3412	-50.0402	-41.686
-40.8527	-59.1173	-57.1302
-46.265	-57.0462	-55.8709
-40.6762	-56.3403	-62.5546
-34.9967	-61.5057	-56.9674
-51.7446	-54.5677	-54.1139
-49.8081	-58.3922	-48.5542
-56.3407	-52.6487	-51.0584
-53.481	-50.9154	-59.9489
-16.7782	-67.0905	-54.684
-22.968	-65.2762	-55.8288
-13.0935	-65.3972	-59.1348
-37.2634	9.5964	87.6646
-40.2224	4.99662	86.7776
-43.34	0.749018	85.5452
-50.1806	3.93089	83.709
85.4718	-75.9989	24.2279
90.1628	-73.4384	27.1041
79.2767	-78.5657	20.056
85.9908	-74.5418	15.8082
55.852	-87.0244	17.7996
53.8155	-87.3787	22.0729
49.6488	-88.4587	13.7748
62.9649	-84.9961	21.9291
-66.5955	-22.7408	57.6835
-67.742	-27.9784	50.3489
-56.8271	7.45917	81.6256
-83.2301	-25.7163	33.8158
-76.2367	-29.4669	37.8835
-85.5353	-28.727	23.9231
-85.6558	22.5123	64.8075
-83.6288	28.7771	66.1939
-93.9949	27.5364	55.7783
-86.8272	16.4834	63.1966
-54.4891	-39.734	48.0984
-61.6178	-36.2905	44.9387
-29.5043	-40.7035	63.8716
-40.707	-43.334	58.8061
-38.8914	-43.0254	60.012
-36.597	-46.4673	55.1191
-36.8467	-42.6519	61.0715
101.176	-67.5691	3.19294
37.4439	-90.0748	16.7227
40.5799	-89.9509	12.45
44.4148	-88.7316	22.5614
34.4407	-89.7687	20.1856
47.1428	-39.9061	86.9465
44.9478	-38.3007	86.956
46.5959	-41.4293	86.3869
43.9231	-54.4624	76.4385
43.9665	-51.9407	79.0891
41.1385	-52.1558	78.3082
41.9706	-40.0497	85.5745
39.6559	-38.0167	85.6493
41.3139	-42.2747	84.3012
44.0663	-41.9178	85.4711
42.1451	-37.9505	86.4573
42.4896	-61.9704	69.6837
39.5014	-60.4634	71.6028
42.2344	-64.0335	67.8569
45.1516	-63.0807	67.7876
-34.8045	-51.6279	48.0684
-36.2586	-52.4826	45.6004
-29.5484	-55.4353	46.6096
-33.5652	-50.5586	50.2755
-38.0337	-53.3144	42.4062
-39.7333	-54.7017	37.3821
-28.2988	-44.5404	58.984
-26.6134	-45.568	58.0894
-32.3115	-49.4955	52.2465
-55.1884	-58.1353	-38.3562
-56.5798	-57.6373	-33.8683
-56.9831	-55.2195	-41.838
-52.5979	-59.3577	-42.3523
-31.7472	-67.9351	-48.5684
-30.8595	-65.866	-51.7004
5.86862	-81.8642	-31.8384
1.62692	-79.6956	-36.9133
11.1147	-82.2773	-35.6278
9.01691	-83.4792	-26.1048
1.77584	-81.8299	-28.5513
-48.9107	-61.0979	-45.383
-12.6083	-78.5153	-4.03277
-10.4274	-78.8553	0.328699
-16.497	-76.9189	-2.70667
-8.92945	-79.9105	-5.55852
-27.859	-66.2658	26.82
-29.7728	-67.3518	17.7704
-21.0406	-70.2354	26.2878
-35.0565	-61.6406	27.37
-24.1846	-49.3572	55.7073
-20.9116	-49.7073	57.5781
-24.5856	-47.673	56.8718
-24.9277	-46.3705	57.8911
-22.9025	-46.3182	59.056
-8.09758	-79.183	6.82414
-12.7816	-77.1837	8.02618
-3.92779	-80.9254	5.0387
-5.82095	-79.3676	13.8686
12.6105	-35.9768	81.8665
12.1648	-32.8981	84.0716
8.14837	-32.9557	81.2359
12.1256	-39.9034	79.3489
11.0187	-45.9888	76.1089
15.3216	-49.3525	75.7976
9.87561	-52.4557	72.6561
11.7713	-30.1117	86.1757
15.1767	-32.2313	87.1445
10.7898	-27.3711	88.0677
20.7157	-37.1382	84.9737
19.2009	-35.4125	86.484
23.7492	-35.7007	90.4302
23.9828	-36.2764	89.2516
25.4627	-36.0742	89.6503
23.7837	-34.8079	92.2249
24.2575	-36.7125	88.0791
26.1848	-37.0754	87.0428
27.0154	-59.2035	72.0043
23.3895	-56.3907	73.5794
30.8348	-62.1031	70.2353
28.1482	-55.1877	74.7148
19.4858	-52.7354	74.8907
37.783	-33.5093	87.6398
37.6624	-34.5463	86.8924
40.0459	-34.9715	87.1709
26.9672	-81.5843	42.2039
31.7116	-83.2235	39.8475
29.3022	-77.6136	50.3284
22.4909	-79.6205	44.9132
37.0412	-54.0943	76.1977
36.4759	-56.2305	74.8559
37.6227	-51.9569	77.6966
34.6075	-64.3235	68.2455
35.5192	-60.9221	71.3793
33.3847	-68.5463	63.8371
38.4582	-66.0693	66.4293
42.5005	-36.5985	86.9822
36.7565	-84.4776	37.6799
42.363	-84.5847	37.4604
38.3366	-80.3839	46.4004
34.6605	-87.1949	30.1096
10.7267	-72.9417	52.7836
6.23651	-76.1623	44.0633
14.5012	-75.3612	50.2697
77.8206	-79.5779	43.0885
83.922	-77.7653	46.5127
75.4573	-78.9012	46.1826
60.7498	-81.3218	42.3257
66.8482	-79.5407	45.471
58.8431	-78.9012	47.5142
54.7195	-82.7565	40.1576
-7.55653	-59.8984	58.9302
-3.67585	-56.1343	64.2647
-11.5005	-56.049	59.5726
-19.8234	-45.6918	61.7109
-18.4498	-47.215	61.3447
-14.0223	-53.2225	60.0033
-15.6724	-50.7542	60.6315
-10.0792	-50.3409	64.4506
-21.711	-42.7089	63.3078
94.5381	-67.2117	58.2964
39.6736	-76.1818	53.6098
40.9118	-71.4474	60.2017
35.7556	-74.8577	55.5103
43.6261	-76.766	52.63
57.0691	-75.9671	52.4369
61.7705	-74.5805	54.1535
55.4045	-72.1648	57.6835
52.3607	-76.5418	52.0773
-0.998593	-51.5738	68.4369
-4.49109	-48.5826	68.2698
3.46934	-54.9738	68.6299
31.534	-73.1328	57.6725
8.49382	-58.0175	68.6753
81.1935	-66.1657	63.6612
78.1137	-67.9403	62.4183
76.7427	-63.1693	66.126
74.9956	-70.0028	60.399
70.9482	-67.0212	63.3279
71.138	-71.588	58.3941
-6.74024	-46.1699	68.2752
-4.19442	-40.3317	71.6746
-8.36517	-44.1998	68.422
-17.1247	-48.8516	60.9936
-13.2978	-46.7499	64.8321
-9.82034	-42.631	68.5365
-6.93184	-37.0123	71.6925
10.16	-24.585	90.1302
6.59271	-22.2825	88.1418
13.6566	-26.9808	91.8581
20.1842	-31.4685	95.2689
20.9824	-32.129	95.3387
20.9212	-29.8796	98.4075
18.8953	-30.5476	94.6088
-2.15045	-17.1011	81.8889
0.0686779	-18.3758	83.4898
3.72791	-30.8367	79.1821
3.15113	-9.6707	91.4676
-23.6199	-58.6377	47.761
3.21236	-20.2451	85.8049
31.3751	-89.0744	23.1027
26.118	-89.8108	15.7121
-8.3805	-72.349	40.0701
-12.1199	-73.0328	32.5707
-2.78733	-75.4311	37.7451
11.8169	-82.4356	31.5625
8.73131	-83.3351	24.1955
15.0358	-80.6509	39.193
7.16176	-80.2877	33.6858
2.23085	-77.9621	35.7096
-0.858051	-78.8822	28.161
88.4146	-76.4816	48.1167
72.8049	-60.581	68.315
70.2371	-62.6319	67.2754
75.0424	-58.4096	69.0183
67.7303	-64.5595	65.8774
-10.8476	-27.9531	72.6206
-2.98196	-34.3366	73.8741
-4.64088	-32.7864	73.5425
-5.80288	-31.609	73.2914
76.8087	-56.0143	69.5298
-10.9533	-5.25582	85.8929
-8.29056	-6.46057	85.824
-10.4663	-3.59749	86.7107
-13.6527	-4.76576	85.8729
-10.9881	-6.89446	84.8842
-10.3257	-20.4625	72.4989
-11.3913	-19.7519	72.7951
-8.83966	-18.6087	74.4868
-10.7267	-8.50809	83.6854
-13.5134	-8.02166	83.7017
-9.80351	-1.78997	87.3153
32.4453	-31.2731	94.0408
31.5772	-31.5377	95.3657
24.6127	-29.8622	101.61
23.1091	-31.3565	98.6854
23.2504	-29.047	101.528
29.2353	-38.0133	83.5265
31.2895	-36.9242	84.1051
28.6863	-37.3804	84.7498
21.9204	-27.9775	101.242
-5.95367	-8.68842	85.4159
-16.4831	-4.57	85.9264
-16.6188	-6.41032	84.8868
-12.8864	-19.3442	73.2504
-16.4667	-8.08378	83.7118
-15.92	-9.4196	82.5553
-15.1781	-10.656	81.3499
33.2954	-43.537	80.5074
35.5779	-46.6725	79.8939
34.8559	-41.5443	81.9123
38.3553	-49.7173	79.106
39.2236	-47.101	80.9558
48.7161	-56.776	69.1891
49.7612	-55.5583	70.5999
47.8605	-55.9418	68.9518
47.6809	-57.052	72.5658
47.9837	-55.4895	74.9964
45.3917	-54.0796	68.7295
42.467	-52.0198	68.8313
46.7903	-51.9156	70.9468
36.2442	-39.7951	83.309
38.1989	-42.1437	83.0318
37.1158	-37.9265	84.6535
40.2246	-44.7275	82.5783
42.2227	-46.9808	82.1459
50.88	-54.0125	72.1115
50.2639	-52.2471	72.5026
47.9036	-49.9045	72.6432
44.4404	-47.8032	72.7074
37.4927	-36.149	85.9053
35.6991	-34.7238	86.1828
45.8355	-44.0171	84.9986
44.8861	-46.5833	83.3216
17.6236	-33.3079	88.0927
16.9711	-31.1476	90.6696
18.2961	-20.7948	100.814
16.6134	-28.9154	93.4057
30.2403	-31.6745	97.3853
28.8675	-32.8449	95.0988
27.8243	-34.0697	92.7104
27.126	-35.3298	90.3371
26.0441	-34.0033	93.8798
27.1127	-36.1753	88.6752
27.5925	-36.6531	87.3425
28.1233	-37.0145	85.9746
21.8652	-32.6116	95.4738
23.0214	-33.1109	95.4061
24.4227	-33.6494	94.8235
103.642	-105.57	-25.4173
98.1996	-100.353	-22.4576
99.7261	-107.658	-28.102
107.61	-109.458	-27.5608
107.624	-103.047	-22.7713
90.4897	-93.4576	-18.4149
94.3926	-91.2726	-15.6686
83.47	-87.7395	-14.6759
86.5631	-95.4188	-21.184
69.8413	-82.2667	-2.86033
73.9041	-82.8714	-7.96771
74.4381	-80.5293	-0.32126
65.1913	-83.8795	-5.67467
78.1735	-84.5274	-11.5018
73.988	-86.2962	-14.1102
82.2624	-82.62	-8.90855
47.6734	-77.0481	51.8493
47.8612	-72.6726	57.9618
48.0129	-80.7795	45.3456
48.1974	-84.1346	38.0054
49.5514	-86.1378	31.8235
51.4993	-87.1988	26.4982
47.7543	-68.6733	62.4575
50.7037	-68.6415	62.0795
47.4152	-65.5046	65.3358
44.9043	-68.0876	63.4989
47.3586	-63.6702	66.6967
49.2714	-63.6523	66.4068
60.5648	-85.3049	-8.87559
55.7326	-86.6992	-13.3985
64.6725	-86.1544	-13.4356
56.5192	-85.6177	-4.29939
52.3715	-86.7258	0.444001
48.1812	-88.0774	4.68524
47.9258	-87.2178	-5.22439
44.1079	-89.2684	8.66855
40.0676	-89.2992	2.59079
82.5218	-97.1515	-24.0501
90.4372	-104.097	-28.0046
75.2547	-91.4155	-20.3175
78.7359	-98.9562	-27.2699
96.0047	-109.424	-30.926
92.3296	-110.963	-34.0539
99.97	-113.639	-33.2907
69.5109	-87.9817	-16.9758
-3.49637	-79.2855	20.952
-8.86303	-76.7529	22.7957
1.30059	-81.4926	19.0593
36.9811	-88.9294	-3.3194
33.9394	-88.2421	-9.73767
40.4335	-88.0905	-7.12541
-42.4236	-56.5126	28.7099
-44.5926	-58.6253	17.4336
22.5393	-89.5434	8.6411
19.2531	-88.5084	1.41596
6.01151	-83.5882	17.2939
3.28656	-83.2943	10.5467
-14.8691	-73.6175	25.1047
-16.4875	-74.3935	16.9307
0.305269	-82.5936	3.32643
-2.80418	-81.7401	-3.08247
45.3309	-89.9683	-28.1467
48.1432	-88.9974	-23.4571
41.5643	-88.6658	-25.4334
42.923	-90.7338	-32.7817
49.5076	-91.8099	-30.7112
54.1887	-94.2273	-32.9337
37.9655	-87.9391	-22.1422
34.5169	-87.5748	-19.0934
35.4131	-88.144	-27.5664
40.734	-87.6523	-16.8763
-31.7401	-67.9387	8.8231
-24.201	-71.7802	9.58589
-39.223	-63.8933	7.79757
-47.1425	-59.5346	6.44285
-54.5399	-55.3831	5.39302
-62.1892	-51.0495	3.7319
-69.8927	-46.6764	1.61137
-64.4064	-50.9878	-7.09019
15.9909	-87.0679	-6.06912
13.166	-85.674	-13.6125
-18.0623	-74.7551	9.30908
-19.4006	-74.9999	2.70282
74.8113	-100.656	-30.9195
82.9384	-107.25	-34.7263
44.058	-87.5466	-11.0447
47.7402	-87.3569	-14.9664
88.5547	-112.242	-37.6164
92.3938	-116.171	-40.1741
62.7195	-103.686	-46.648
69.8926	-108.745	-50.3736
40.6669	-91.1117	-37.3722
36.6869	-89.5099	-35.2271
37.6519	-90.412	-41.8972
32.6715	-88.2093	-32.8003
75.0622	-112.544	-53.6151
78.9327	-115.421	-56.9165
11.2583	-84.5807	-20.6056
-5.37166	-81.1412	-7.31824
-2.29053	-82.1286	-9.6755
-8.06956	-80.6336	-10.2112
-20.6365	-75.0803	-1.57509
42.9049	-92.2516	-51.699
37.5973	-89.7744	-49.0015
38.6437	-88.0385	-57.2435
32.3782	-87.789	-46.5702
26.0302	-83.3364	-50.9335
17.0137	-83.2914	-38.9416
-0.724638	-81.8894	-26.7289
-4.84428	-80.5991	-32.6993
63.2942	-99.2455	-75.6429
56.8549	-95.2969	-72.1388
61.3436	-94.0112	-81.6099
69.2529	-103.013	-78.9012
-3.98022	-77.3162	-40.4888
-7.95117	-77.8989	-38.0811
-10.0892	-78.6158	-37.0827
-11.1412	-79.1044	-36.7698
111.464	-100.233	-20.2836
115.224	-103.935	-22.6375
115.172	-97.2969	-18.0383
106.013	-95.3596	-17.1764
86.524	-80.2694	-6.01263
82.7614	-78.914	-2.84282
91.4821	-83.2099	-8.9825
90.4086	-77.9126	-3.49922
73.4682	-80.7932	16.08
71.3632	-82.0924	21.7432
76.0768	-79.2797	9.43297
79.2344	-78.4041	2.58999
83.6783	-76.045	5.36632
98.199	-88.6423	-12.7765
102.23	-86.1224	-10.1727
53.8974	-68.6794	61.7424
52.4803	-65.4771	64.905
69.5504	-82.967	26.3593
51.5015	-63.611	66.4176
50.7848	-62.0454	67.5355
54.1915	-63.1171	67.2469
50.1092	-60.7707	68.2672
52.3433	-60.4362	69.2567
66.7353	-73.3093	55.9692
69.6586	-75.7425	52.5542
72.7704	-77.8012	48.986
52.3127	-56.2595	72.8513
54.1278	-55.0172	75.0328
51.7496	-55.3261	72.0514
53.295	-53.3721	73.9553
51.8223	-55.3747	71.6045
50.0902	-57.1168	70.169
52.167	-55.5131	71.0813
53.2727	-56.0898	69.9084
53.6625	-53.4365	72.7852
55.9301	-57.5375	67.9837
57.1909	-55.4319	69.6282
59.2446	-59.5779	65.993
93.6141	-75.3816	-1.12892
98.865	-78.1663	-3.74665
90.2395	-74.0341	1.97527
118.874	-94.2611	-16.0437
122.392	-97.6154	-18.4681
122.248	-91.0742	-14.2905
113.558	-89.7557	-12.6805
105.92	-83.5218	-7.83404
93.2244	-68.9082	11.1205
93.0929	-69.8969	19.9565
90.9348	-70.9819	9.74884
125.024	-88.1343	-12.988
128.46	-91.2096	-15.3749
93.3174	-71.3501	28.7986
54.6584	-51.1413	76.0713
54.7605	-51.0099	75.3576
55.0862	-51.0891	74.5739
55.9009	-51.7864	73.1018
58.3375	-53.279	71.0288
61.6675	-55.5216	68.9447
-72.6434	-40.0428	20.8797
-70.5049	-37.1582	31.5844
-80.4368	-35.6519	17.2506
-75.1285	-41.6917	9.86262
-65.6882	-50.3614	-17.1459
-28.9476	-63.3516	-56.8688
-26.899	-61.0802	-61.9596
44.5908	-80.4128	-78.81
43.3292	-75.8649	-82.8684
52.9284	-85.1652	-82.4739
46.7374	-85.3118	-74.384
35.981	-76.1088	-75.2306
60.0011	-89.5119	-85.9791
59.3331	-85.2051	-89.9484
66.588	-93.9017	-89.2438
33.6254	-82.3791	-62.8408
26.1456	-79.5718	-59.4401
29.9385	-77.025	-67.776
41.8303	-86.4438	-65.723
-101.8	32.9064	44.5241
-99.8608	39.7569	45.7427
-108.379	37.7021	31.3568
-102.844	25.9211	43.1605
-110.26	45.0192	-53.9437
-107.855	52.2849	-54.5297
-103.094	42.5488	-69.1182
-111.889	37.6781	-53.027
-115.117	46.0243	-36.63
-94.6648	38.6173	-81.0115
-91.9422	45.109	-82.0257
-84.729	33.4743	-91.0942
-96.3918	31.7095	-79.9628
-117.133	45.8752	-18.7938
-116.506	44.3443	-0.935409
-114.998	53.2989	-18.9109
-118.431	38.3012	-18.2828
-108.723	55.9949	17.1192
-111.584	58.9546	-0.357397
-111.537	48.8687	16.5925
-103.717	51.8866	32.9747
-74.4735	28.1668	-98.95
-72.081	34.3322	-99.7337
-63.5992	22.5034	-105.256
-76.3477	21.7933	-97.6486
-51.8715	16.3586	-110.288
-49.63	22.4655	-111.15
-40.0184	9.97361	-113.701
-53.9784	10.1068	-108.77
-4.70844	-9.12374	-112.07
-16.7406	-2.63277	-114.821
-2.12414	-4.14578	-112.842
6.60465	-15.8391	-107.699
-6.68719	-14.7908	-110.487
-23.393	15.3045	-116.887
-11.8626	8.6061	-116.446
-26.1088	9.60228	-116.379
-34.766	21.8599	-115.173
49.939	-40.0968	-101.939
51.9936	-35.4759	-102.283
58.0137	-44.615	-103.884
48.1637	-45.1442	-101.124
41.6287	-35.5424	-100.565
65.9036	-49.1211	-105.963
68.0059	-44.7491	-106.148
73.5433	-53.7817	-108.096
63.9974	-53.7574	-105.46
15.3696	-21.5091	-104.021
17.7219	-16.2767	-104.551
23.3074	-25.9893	-101.563
13.4375	-26.5247	-102.949
32.2977	-30.5729	-100.308
34.1221	-25.56	-100.77
30.7028	-36.1399	-99.2132
36.4833	-20.862	-100.822
45.8274	-26.1993	-101.03
27.9414	-15.8831	-102.116
-102.168	5.24727	36.2238
-102.968	12.1305	39.0018
-108.317	8.41163	24.3067
-100.531	-1.99238	33.3744
-98.4525	10.4263	-73.1129
-106.101	13.9239	-61.7612
-98.3603	17.3341	-75.827
-89.4817	5.95219	-82.4389
-97.8749	3.5502	-70.0833
-112.065	16.29	-48.0085
-110.546	8.85448	-45.9346
-115.761	16.8334	-32.8295
-112.768	23.4144	-49.9335
-117.064	15.8831	-17.7549
-116.063	13.5194	-3.28492
-118.334	23.3435	-17.8162
-114.896	7.98305	-17.7658
-113.142	11.2788	10.9077
-111.142	3.59619	9.07101
-114.342	18.8142	12.6415
-79.8981	1.31968	-89.9855
-80.0441	-5.09778	-86.6693
-79.1668	7.91388	-92.984
-69.5998	-3.78416	-96.0483
-58.7558	-8.95264	-100.76
-57.4819	-2.96915	-103.861
-47.4487	-14.4695	-103.852
-59.4963	-14.9071	-97.2115
-36.024	-19.7532	-105.311
-37.0954	-24.8903	-101.702
-34.2719	-14.5386	-108.46
-23.8832	-25.5288	-104.843
-11.7947	-31.9456	-102.061
-10.3141	-26.5009	-105.424
-1.10351	-37.8214	-98.4041
-13.7136	-36.4371	-98.5434
8.24964	-42.8481	-95.1121
6.8939	-47.5207	-91.2592
10.0289	-37.7535	-98.38
17.4863	-47.6422	-92.5885
43.2957	-60.5202	-94.6634
42.5469	-65.5083	-91.2639
34.8261	-56.6274	-92.2722
44.8511	-55.5014	-97.5729
51.882	-64.4951	-97.9292
62.2807	-58.6179	-104.527
60.8301	-63.7467	-103.003
54.6134	-54.4281	-102.129
69.5129	-63.11	-106.868
26.427	-52.3082	-91.5751
27.6629	-47.2506	-94.7884
25.2167	-57.1516	-87.5108
-101.434	-13.1583	-37.7701
-105.234	-5.78624	-41.1278
-97.8027	-13.8146	-49.189
-96.6643	-20.806	-33.9284
-103.169	-14.0342	-25.8614
-103.291	-15.4757	-14.4501
-102.169	-17.1942	-3.5358
-108.085	-7.63707	-16.4875
-97.6125	-23.328	-11.5045
-100.283	-17.8705	6.99496
-104.788	-11.011	6.58887
-94.4402	-24.657	9.76607
-79.7815	-11.0072	-83.1041
-70.0736	-15.7091	-88.9601
-78.8857	-16.7866	-79.3128
-88.616	-6.86523	-75.7481
-96.7671	-2.84925	-66.8216
-94.8835	-9.37449	-63.2547
-103.386	0.0543082	-56.2596
-38.0123	-30.0796	-97.3159
-26.4276	-35.0179	-97.0075
-38.5987	-35.2597	-92.3763
-49.2309	-25.4781	-95.9303
-59.7416	-20.6023	-93.3046
-59.9346	-25.9184	-88.9435
-15.4799	-40.4441	-94.6396
-4.61043	-46.4784	-90.6345
-16.6316	-44.7456	-89.871
5.08721	-51.3521	-87.1746
2.63814	-54.3242	-83.0575
24.475	-62.3174	-82.4073
33.5202	-66.5269	-84.0023
25.8141	-67.9095	-76.8733
-76.0258	-39.5884	-42.0715
-80.6893	-34.2944	-46.2455
-72.054	-40.5985	-50.6535
-97.9634	-9.14896	31.0674
-104.092	-6.06705	19.6141
-77.1935	-41.8465	-1.01869
-84.4757	-36.5971	-4.32941
-40.2924	-47.13	-77.683
-30.5268	-50.8482	-77.1043
-40.4041	-50.6554	-72.4742
-49.2538	-43.5193	-76.985
-39.6102	-43.6925	-82.5661
-57.8043	-39.4297	-75.4619
-56.3141	-43.8279	-70.1775
-65.5685	-35.9497	-71.9719
-58.825	-35.1643	-80.2036
-73.0737	-32.6985	-66.6274
-70.0728	-37.8275	-61.8888
-79.5726	-30.2656	-59.4228
-75.5209	-27.5128	-71.1539
-4.42792	-60.2118	-71.5577
3.58531	-63.3449	-69.6553
-6.88962	-62.03	-67.4597
-12.4766	-57.291	-73.6704
-1.86057	-58.4756	-75.4282
-25.0247	-58.8015	-66.7728
-32.745	-56.3765	-67.4838
-23.1124	-56.6636	-71.0834
-17.2641	-61.3019	-65.1475
27.5545	-72.6419	-72.1566
19.2603	-69.4197	-70.0249
-6.13063	-81.942	-16.8465
-2.34913	-82.3344	-15.2726
-8.95814	-81.0611	-13.943
-10.0525	-80.4256	-12.0452
-33.6011	-70.6879	-7.7714
-38.8948	-68.3588	-8.79993
-56.5674	-69.7408	-41.445
-56.4178	-70.5872	-40.8797
-61.0666	-67.3897	-37.7411
-15.3149	-82.8713	-36.7451
-11.6365	-83.7734	-34.0033
-15.0678	-81.7804	-37.4215
-64.118	-65.3075	-33.1629
-63.9068	-66.4809	-32.812
-65.5868	-63.867	-28.3453
-63.9773	-64.2618	-33.5211
-52.2074	-65.8329	-13.3387
-51.6559	-64.5803	-13.9207
-65.4432	-63.289	-23.794
-65.1758	-64.5545	-23.2703
-33.9733	-77.3963	-43.247
-13.874	-85.7945	-29.5589
-11.3605	-85.2532	-30.4783
-13.1674	-85.7968	-26.7402
-41.6643	-67.1355	-9.97346
-61.2344	-62.0481	-19.4967
-57.0534	-62.4028	-17.4228
-60.2605	-61.3008	-21.1783
-51.5022	-63.0702	-15.2111
-51.7559	-61.8382	-16.6436
-63.555	-63.7588	-33.7315
-51.4346	-61.0754	-18.0837
-54.3165	-60.6984	-20.3442
-57.4981	-60.4636	-23.5576
-54.7554	-59.5298	-24.9605
-24.9892	-82.1119	-38.0878
-22.0679	-84.2202	-30.9014
-9.62578	-84.362	-31.1968
-13.2257	-85.2957	-24.3084
