1912
6.42766	-52.403	89.0087
10.1348	-53.3337	86.317
6.68336	-54.3604	86.5844
6.48473	-52.1098	90.1338
10.1245	-52.3448	88.479
8.96965	-62.3521	90.8403
13.1184	-62.0232	89.0127
15.5839	-56.835	88.1349
12.231	-57.1162	90.4196
16.5214	-61.5103	86.9298
19.581	-60.6445	84.4085
13.4306	-51.1464	85.0302
10.1517	-50.6331	86.7263
12.9499	-50.0963	84.3652
16.6507	-51.7313	82.6922
6.75903	-50.4174	88.0433
4.00745	-50.2185	88.5629
7.3833	-49.3815	86.6417
6.53653	-50.8444	89.0808
12.4466	-47.6666	83.2801
9.90038	-47.3468	84.4
12.3695	-44.3211	82.1207
15.1057	-48.0572	81.7634
26.1996	-59.7493	73.9705
25.2116	-63.1706	74.7227
24.1164	-59.5883	75.7141
0.742213	-56.5204	86.5318
3.2384	-56.6068	86.2638
1.12682	-60.4762	85.817
-1.31836	-56.5249	86.5595
7.41793	-47.1282	85.1916
4.81465	-46.9335	85.7182
7.22158	-43.7864	83.9518
6.5073	-56.7993	85.5067
6.58492	-60.8066	84.6192
10.1028	-57.1035	84.2242
30.0572	-54.7129	69.4001
30.1618	-54.7187	69.1778
11.0819	16.8223	77.2703
10.6191	15.1674	78.9978
82.042	-7.79294	-43.4755
81.3902	-12.14	-42.72
80.1486	-7.21902	-46.8139
82.6079	-3.24597	-43.4736
83.5663	-8.27777	-41.7614
81.6202	10.4363	-6.4073
81.9546	13.2958	-10.5858
80.5909	12.458	-1.55001
81.9954	15.4055	-15.7422
81.6223	20.7934	-16.9788
82.5039	10.5124	-16.8398
82.5609	15.037	-22.734
76.5677	-31.7236	-34.1451
78.9828	-29.4721	-32.536
75.6726	-35.8344	-31.5437
77.6492	-27.8945	-35.9881
78.5591	-24.2977	-38.0707
75.9514	-26.2909	-40.9047
79.6021	-20.3907	-39.9045
80.8263	-23.1149	-36.2235
85.0633	-8.23697	-40.8737
86.5995	-7.75162	-40.5174
84.5407	-12.3466	-39.9569
85.3726	-3.28274	-41.064
87.3648	-26.2622	-30.9392
88.3976	-22.2974	-33.0296
88.0938	-26.7047	-29.7217
86.2694	-30.1746	-28.4101
91.7108	-16.6401	-31.0973
91.6975	-16.0744	-30.3272
81.3055	-38.4943	-20.1637
81.7994	-38.7198	-19.4534
80.8987	-39.1362	-18.1272
80.3863	-37.6553	-22.2257
82.1765	-31.166	-7.80342
81.8633	-31.7732	-7.75168
81.4498	-32.7551	-7.94851
91.6384	-15.6995	-29.9199
91.1448	-16.2764	-28.9665
94.2999	-1.30983	-33.7782
94.3546	-0.659496	-35.2959
94.2049	-2.62235	-32.1255
94.4573	8.80118	-31.3302
94.7141	10.1417	-31.4405
94.8211	12.2126	-30.4126
94.2548	12.0134	-28.1993
94.9973	12.6695	-30.8098
94.4586	14.2519	-27.328
84.9612	-8.70882	-8.29726
86.1394	-3.35207	-8.87549
84.4357	-7.97273	-6.97297
84.0953	-12.6748	-7.71855
80.0989	-24.3717	-1.31778
79.2044	-24.7749	1.39256
79.6261	-28.0492	-1.78972
80.5519	-20.1457	-0.82829
83.8	-19.6521	-10.258
84.1627	-21.6485	-10.765
83.7512	-17.7329	-10.3867
82.5084	10.0028	-16.8696
82.8602	11.2779	-20.3245
82.5447	9.9972	-16.6529
90.6188	17.4057	-17.3874
91.5756	19.0838	-20.4926
89.7514	17.8139	-18.5474
89.224	14.3403	-14.4597
91.4171	16.7014	-16.4089
91.078	19.7512	-25.5181
90.297	19.5098	-22.5146
91.386	19.8899	-25.0209
91.5769	18.5011	-29.1903
90.2756	18.7308	-26.8823
92.0253	4.52758	-39.8166
91.233	4.07555	-39.9917
92.3084	10.4562	-36.9693
93.0943	4.76486	-39.2849
87.0022	1.17632	-9.45332
87.3088	-0.0494727	-10.1184
94.8853	3.93955	-36.7694
95.2971	9.02238	-34.5355
94.5975	1.16668	-36.9516
94.9349	3.8353	-37.1348
93.9295	15.1242	-23.3667
92.9991	14.5682	-19.3865
93.7277	13.7798	-24.0991
94.0171	16.0952	-22.7545
88.4522	1.95155	-12.2372
87.9261	0.213307	-11.6645
88.9759	4.24148	-12.9494
94.434	4.63053	-34.062
94.5426	2.60001	-35.9154
91.7727	7.24581	-22.4994
91.3043	5.90505	-21.724
93.0969	6.76158	-26.6521
86.6527	-4.68743	-13.4584
86.7987	-4.41598	-14.1618
87.1479	-3.10801	-12.3675
91.3372	-3.90394	-27.4055
93.3072	-1.32332	-29.3283
91.0723	-3.45709	-26.7816
91.2346	-4.98556	-27.561
80.9872	-16.2766	-0.846446
81.6183	-11.8119	-1.65924
80.187	-16.4776	1.674
85.5559	1.9157	-39.6017
84.3964	1.34559	-40.7366
85.3886	6.53474	-37.4733
86.5269	4.38219	-38.669
88.8495	9.28835	-36
88.5789	13.0292	-32.7823
91.1538	13.8818	-34.0967
89.0094	5.24442	-38.9029
90.1894	3.12869	-39.9564
89.0856	-2.34046	-40.7407
88.7345	-7.29459	-40.3595
82.6003	-22.4952	-35.3686
81.6868	-25.5636	-33.537
83.374	-19.3191	-37.0646
83.9925	-15.9821	-38.6603
82.3033	-16.2023	-39.6842
90.5814	-16.1976	-27.9487
80.754	-28.4305	-31.8125
79.738	-31.9891	-29.4591
81.9903	-28.148	-31.3602
79.9693	-35.7136	-24.8435
79.5175	-35.7221	-25.1966
79.4046	-39.0178	-20.2296
80.6895	-38.7766	-15.3154
80.1843	-39.0291	-15.1406
79.6438	-39.2193	-14.8381
91.4536	-5.72765	-28.0381
93.3639	-4.3958	-30.2328
83.826	-7.36721	-5.86921
83.0869	-6.95571	-4.63478
81.8253	-20.6233	-4.34799
82.1466	-20.7974	-5.0123
84.7659	-25.0956	-10.5023
85.7337	-27.0914	-12.0796
84.9308	-24.0397	-11.3335
83.5613	-15.6096	-7.22627
83.9818	-15.7817	-9.40942
88.2596	14.8267	-29.5778
85.9288	11.2034	-32.3871
87.3016	15.4432	-26.2345
85.0193	9.68066	-34.1701
84.5746	9.39118	-35.2657
84.3712	11.8004	-29.9167
83.5821	-15.7929	-12.2379
83.8315	-15.7533	-11.3565
93.7083	5.79725	-29.0111
93.5491	4.30345	-28.6715
87.2062	-3.72839	-15.5972
86.5986	-5.99132	-16.6459
88.1707	-2.52929	-18.2517
91.0296	-2.62714	-26.2802
92.7251	0.915477	-27.4859
90.4652	-2.56443	-24.8992
8.28542	86.1071	66.6901
8.32209	78.9001	72.2812
16.1161	85.1857	66.1556
8.43861	93.4283	59.4509
0.21519	86.3926	66.9809
8.14594	71.7618	76.8336
0.539419	71.7204	77.3272
8.01394	64.098	80.9032
15.6116	71.4409	75.9398
31.0657	56.7583	78.9514
31.3342	51.5693	81.7283
26.7361	57.1353	80.7329
1.64224	-28.5905	104.538
2.08014	-27.596	106.693
0.101414	-28.643	104.968
3.59631	-28.3244	102.944
3.06046	-19.0682	112.162
5.40137	-18.7842	110.905
2.96278	-16.698	111.488
0.755134	-19.1256	112.569
3.11381	-21.0451	112.222
3.05822	-22.836	111.752
0.879506	-23.0221	112.188
2.88303	-24.48	110.744
1.66342	-31.8886	97.471
-0.256031	-32.0836	97.6993
1.86954	-38.4344	95.2809
4.07892	-37.7629	94.9942
-0.7139	-38.6398	95.3699
2.59139	-26.0883	109.018
4.63584	-25.8087	107.421
0.583529	-26.1751	109.556
2.74131	-14.1183	110.283
5.04997	-14.2643	109.232
2.48561	-11.0045	108.328
0.452873	-13.9946	110.582
7.18762	45.9185	88.026
0.262089	46.3921	88.8211
6.59857	42.6626	88.5408
13.574	45.7252	87.2088
7.44299	49.9806	86.9428
1.45001	20.3672	88.5774
1.48066	17.5786	90.0498
1.53943	22.588	87.6362
-0.194881	20.6478	88.6728
1.6666	24.511	87.0444
3.77925	23.6409	86.4424
1.80958	26.2907	86.7297
-0.235148	24.7622	87.1755
1.33991	-50.0547	88.7237
-1.31627	-50.0663	88.8277
1.74631	-48.9422	87.4591
0.955323	-50.7793	90.2766
0.902429	-50.9934	91.4586
-1.38494	-51.0273	91.4584
3.34721	-50.9568	91.0612
1.02033	-50.912	92.439
2.21297	-49.3798	95.1011
1.98799	-49.9861	94.4916
-1.16967	-49.5455	95.3224
1.51107	-50.5202	93.6271
-1.30681	-50.6152	93.6852
2.37709	-45.3579	95.9895
-1.08592	-45.9401	96.1519
1.89045	-46.7614	86.0012
1.79839	-43.5029	84.6197
-1.20497	-46.6638	86.04
22.5873	84.0779	65.222
22.2926	77.6169	70.3538
28.5639	82.5437	63.8897
23.0809	90.8098	58.3951
20.3038	46.5364	86.3297
19.9368	43.5582	86.8805
26.0389	47.3295	85.5324
19.8207	50.6447	85.1992
21.0105	39.961	86.8269
22.1989	36.7196	86.1988
26.1544	40.7985	85.92
23.3909	34.648	85.0603
19.711	34.0211	85.9323
27.3441	35.6915	84.2977
24.7971	26.0275	73.5257
24.5139	27.1757	74.8563
21.2994	24.9571	73.1037
28.7023	26.7304	73.8219
26.3428	24.5425	72.1958
24.0728	28.5473	76.7926
28.0973	29.0749	76.5024
20.8451	27.7794	76.7002
47.0252	86.7948	41.7591
48.0265	92.1108	31.5936
41.2792	90.3968	44.4906
46.5577	81.1873	49.1429
34.0123	80.9315	61.8651
34.7467	86.8264	55.5384
39.7577	78.7802	58.9595
31.0365	47.5278	83.9155
31.4794	45.6555	84.2611
36.4999	47.2636	80.5693
32.0881	36.8542	82.7144
32.041	38.7058	83.5176
31.7493	42.2367	84.1632
32.0249	29.1825	75.9197
32.2866	27.9118	74.6935
36.9149	28.7272	74.7703
45.8431	76.0874	54.8602
51.9005	73.1255	49.5366
45.0566	71.0074	59.6136
42.6137	45.5979	74.9884
48.3745	43.1624	70.135
39.7306	25.612	72.4333
40.253	26.5727	72.8685
36.3861	26.5247	73.392
42.586	24.3851	70.9756
43.4432	31.5576	73.9434
42.487	29.495	73.5607
48.216	29.5855	70.8671
41.2043	27.8137	73.2241
44.1577	65.6534	63.7914
50.2357	62.8064	58.6094
57.4834	70.6407	42.677
56.7979	65.2673	47.7611
62.3641	68.3673	34.5688
42.9278	21.7875	69.0512
44.5654	20.2104	67.2485
45.0724	22.8365	69.0581
46.7134	21.1054	67.1172
43.6813	22.3624	69.2404
52.1555	27.3366	67.4811
54.3653	24.8565	64.4555
17.6635	29.6455	81.021
15.207	28.3253	80.2287
17.8739	28.4238	78.9113
17.2165	30.5931	82.6734
16.3127	31.8147	84.4703
13.9555	30.1877	83.498
17.9093	26.4807	76.1075
17.9673	24.9094	74.0549
6.15943	38.6048	88.4589
0.806129	39.7655	88.6873
69.7404	-62.5696	-7.97609
71.2436	-57.4265	-6.33271
69.7624	-63.0071	-14.4377
80.8055	23.645	-37.2576
80.5436	19.7852	-42.9715
79.582	29.2274	-41.9685
81.2154	25.9078	-29.0931
82.1109	18.016	-32.1347
77.6436	-6.96591	-52.6617
76.7778	-12.8835	-51.1433
75.3203	-7.16805	-58.2594
78.5265	-1.19674	-52.6912
79.0712	4.94937	-52.3071
76.9728	6.65678	-58.7719
79.6166	10.4256	-50.4351
81.2268	2.93336	-46.0789
72.485	-29.9457	-44.9627
69.3077	-33.3367	-48.8059
74.0155	-24.2793	-47.4141
7.67767	56.5409	84.4224
0.554312	55.9663	85.24
14.6023	56.4542	83.5822
20.5839	56.6757	82.4506
21.5275	63.9538	78.7108
23.792	-105.817	60.7918
22.3925	-108.069	54.7694
31.0944	-102.013	54.6822
16.891	-108.476	64.6099
52.6332	-84.0652	44.2576
46.9585	-88.8115	50.0577
57.1458	-79.6777	38.8339
53.522	-81.2731	47.5929
56.116	59.557	52.0965
61.3452	56.2361	44.6474
21.8937	71.1122	74.6463
67.1213	66.1081	24.8704
71.0511	64.1673	14.8024
66.9312	59.5406	30.5336
23.3327	98.4866	48.6264
29.626	96.1747	47.895
23.4284	105.791	36.7026
16.3833	100.153	49.2432
64.6529	38.7502	44.6355
65.5236	45.7829	40.353
47.2257	19.376	65.49
58.6861	24.4493	58.872
59.13	19.7426	55.6897
57.1414	23.1288	60.2963
55.5079	22.0436	61.4923
2.95226	-120.698	50.077
-0.0296496	-120.654	50.2312
62.7117	-69.5793	38.2885
63.5273	-65.5998	40.1829
58.8032	-73.0071	45.1308
61.716	-73.2908	35.5217
6.46118	-41.6189	94.8722
8.40513	-41.962	94.3131
6.04315	-39.3571	94.6326
24.6524	-47.0326	82.6284
23.8428	-43.432	83.7859
21.6593	-45.2562	85.9395
9.9715	-38.1267	92.6637
7.40209	-37.7346	93.8887
10.5748	-40.1881	92.889
12.9265	-38.5025	90.926
9.36919	-36.0293	92.42
33.8532	-49.9739	75.5442
33.3937	-53.3724	74.5934
36.2189	-50.7791	74.1683
33.5696	-46.458	76.5782
63.7846	15.8522	48.0809
61.5809	15.3053	50.9137
64.4502	9.6662	47.0568
65.6697	16.563	45.1273
67.6099	17.4122	41.6287
69.983	17.5172	36.4869
50.8551	15.5903	61.0216
50.6467	13.4211	60.3247
59.4778	14.7264	53.2534
83.337	10.0639	-37.2738
83.233	6.3445	-40.4804
81.8505	12.0447	-41.3109
83.4389	12.5739	-33.2973
80.4422	-16.4491	-41.6108
78.3176	-17.0035	-44.7522
73.4616	-49.8803	-16.901
75.2297	-45.5977	-14.6743
73.0758	-51.7999	-10.6664
71.5053	-55.4547	-19.2915
73.8319	-46.6217	-22.822
82.9922	1.71557	-42.4975
78.2907	-25.5864	4.52658
77.6794	-29.695	3.98385
78.8537	-21.2867	4.85576
77.2803	-26.3574	8.83838
74.3717	0.353442	28.8452
74.0698	8.37421	27.9289
74.3914	-7.15154	29.5932
76.675	-0.791054	20.3124
53.5456	8.67858	57.5174
51.6218	10.2756	59.0926
51.5445	6.59027	59.4256
49.9235	11.7441	60.5514
48.3471	10.5512	61.8281
76.093	-26.608	15.0027
74.8168	-26.5564	21.5992
75.4724	-31.3978	14.3551
76.7829	-21.5023	15.079
23.7017	-11.0926	77.1433
27.4085	-12.6553	75.4947
22.1901	-6.23529	76.4984
20.6605	-9.00646	79.0649
33.5083	-14.4732	73.5311
41.0072	-15.9491	71.0175
34.9521	-19.3506	73.9917
17.2471	-6.81412	82.3278
14.0083	-4.46826	86.5984
17.6788	-10.6153	83.887
20.7052	-17.572	81.7859
19.2921	-15.3796	83.3595
16.3725	-19.8601	92.2629
14.885	-19.5995	95.1949
16.1708	-21.6	91.4675
17.2937	-20.2242	90.0927
17.9044	-20.7113	88.2471
17.5717	-22.8305	87.4873
39.0479	-33.7146	73.7443
33.6342	-33.0543	76.2676
39.7559	-38.5407	73.4835
38.0182	-29.061	74.0507
36.2292	-24.1011	74.1576
5.02231	-34.081	94.8264
5.34127	-35.8893	94.5901
6.52891	-34.0697	93.9165
61.1112	-48.033	52.5357
61.9472	-42.5165	52.6402
56.5744	-46.927	58.8715
59.8458	-53.8822	52.9335
27.9745	-41.2565	80.3724
25.458	-40.5543	82.0883
30.3591	-41.8344	78.942
40.0646	-43.4084	73.0065
39.9215	-48.0732	72.6161
45.4049	-44.5272	69.4213
35.7903	-42.7036	75.6488
5.62856	-37.5811	94.5782
58.2668	-59.8903	53.5618
61.5791	-61.069	47.3991
53.8852	-57.6906	59.9041
55.505	-65.2971	55.7478
62.7971	-27.9228	54.3018
62.7035	-32.606	53.7324
66.8522	-27.4695	47.4753
30.3722	-94.4818	74.7759
30.4588	-91.3675	76.3734
24.5726	-98.3952	79.1706
42.4319	-79.0496	66.6209
47.2779	-74.7109	62.7813
40.3534	-74.9695	69.5256
36.4148	-83.3168	71.7824
58.2175	-7.61229	57.6462
55.3689	-2.94876	58.8624
52.0487	-7.8764	62.9961
45.7972	9.07068	64.0404
47.0334	6.97073	63.1928
52.9703	0.210221	59.8445
47.5091	-0.520014	64.1834
50.437	2.72053	61.1959
43.7665	12.6212	65.589
1.47966	-97.4226	93.4441
-1.53483	-97.4178	93.6388
49.0901	-55.6549	65.0988
47.2971	-59.8943	66.0666
50.257	-50.9273	64.7113
43.8179	-53.8072	69.4387
38.111	-71.1171	71.6436
41.6933	-67.6199	69.3826
35.1804	-67.1554	73.5666
33.5186	-74.4455	74.9289
44.5034	-7.43096	67.4019
46.7621	-12.1399	67.4069
42.2853	-3.28164	67.6677
51.2707	-45.8318	64.5195
48.7048	-16.985	67.0717
9.1225	-85.4799	91.8318
8.96622	-79.1178	90.6523
13.7614	-84.2353	89.5269
18.6669	-82.6973	86.527
23.5922	-80.3876	82.8776
18.0696	-76.9842	85.9826
40.5736	-0.310797	67.9134
39.0681	1.93926	68.4061
32.7577	0.297631	70.6729
48.6457	4.88813	62.1516
44.1975	3.95716	65.6203
37.8158	3.90758	68.8375
30.2542	4.42279	71.0626
11.1895	-2.50027	90.8056
11.693	-6.74137	93.2783
10.7827	2.2249	87.9978
12.7233	-14.669	98.7703
12.5243	-13.071	97.6585
10.2719	-14.436	103.341
12.9988	-15.7843	99.0285
10.449	13.1411	80.5511
10.4037	10.5172	82.4871
20.2918	-1.58993	75.8758
1.5795	13.8642	92.3071
-0.00591577	14.2153	92.4244
64.296	3.4911	48.2745
10.5538	6.73698	85.0247
64.4785	-60.9154	41.1029
67.308	-59.1073	33.4023
69.9195	-15.8207	42.455
69.936	-21.5743	41.5829
72.225	-14.3675	36.2678
68.6482	-37.5419	40.1101
69.2619	-32.2107	40.3001
66.1265	-37.6463	46.3765
70.4782	-37.5458	34.0294
69.7431	-26.8906	40.7244
71.7318	-26.6705	34.5028
19.6928	-101.137	82.429
8.88085	-73.9326	89.7498
5.15039	-74.2205	90.7272
13.1339	-73.3214	88.0404
17.534	-72.3463	85.7014
24.2263	13.0351	70.7941
25.6029	2.01183	72.1519
24.6317	4.28386	72.0333
23.9421	6.01987	71.8272
1.89261	-74.3862	91.227
-1.10717	-74.3132	91.32
6.13119	26.8093	85.1446
7.70105	26.0123	83.8994
7.14074	28.3793	85.1595
4.15221	27.4796	86.1098
5.80367	24.8	85.0574
16.0211	17.0207	70.0641
15.8369	18.3528	70.2839
14.1874	17.605	71.8067
8.8807	24.9174	82.3764
10.0655	26.808	82.4484
1.97553	28.1103	86.6462
-0.339892	28.3426	86.7742
5.31694	-27.804	101.24
5.96784	-26.7183	102.912
7.92961	-18.1282	108.408
7.88356	-16.3187	107.868
10.5963	-17.3197	104.256
17.3505	-26.9827	84.6439
16.9001	-25.9452	85.9288
15.2018	-28.5429	86.3438
7.51662	-14.437	107.17
6.17178	21.7934	84.8258
8.76299	30.2601	85.5013
10.4753	29.4182	84.2584
16.2844	19.756	70.543
11.8503	28.61	82.8132
12.5723	27.7216	81.2857
13.0128	26.6298	79.6975
19.7632	-33.2635	83.4564
17.0687	-33.649	85.6114
21.0653	-36.3853	83.9049
22.636	-39.8965	83.9496
19.3309	-39.2177	86.4184
25.2653	-53.3806	75.4272
25.0839	-52.2921	75.035
23.175	-53.2081	77.169
25.689	-51.988	78.9441
23.4559	-50.7728	82.2419
24.7239	-49.3447	74.3665
21.2607	-49.0157	77.2425
23.9073	-45.8173	74.1653
14.383	-34.0273	87.9328
11.53	-34.0774	90.2448
15.1474	-36.4032	88.4273
16.2415	-38.9315	88.701
17.1322	-41.3026	88.9386
20.2676	-52.6841	79.6554
18.8143	-51.2448	80.2082
17.9933	-48.5245	79.7516
17.9349	-45.0275	78.7464
8.8128	-34.0827	92.3551
8.43897	-32.3204	92.3775
11.6573	-42.547	92.8901
14.9846	-42.9982	90.9983
17.4241	-13.1743	86.1431
14.8069	-11.6648	90.821
2.18377	-6.92084	105.557
0.21393	-6.63804	105.731
12.0606	-10.336	95.8552
6.79436	-24.9973	105.187
9.15113	-24.08	101.574
11.6241	-23.3978	97.5998
12.3764	-21.476	98.5376
14.0417	-23.1749	93.5623
15.5729	-23.4436	90.7874
16.3428	-24.1387	88.7314
16.6936	-25.0163	87.1402
13.009	-16.88	99.445
12.9261	-18.1703	99.6171
12.7746	-19.7048	99.2829
41.6274	-144.647	16.2889
36.8098	-146.483	19.68
42.4842	-150.557	14.8952
45.9596	-142.693	12.8387
40.5671	-136.61	18.2222
39.6774	-125.345	20.7024
44.0138	-123.168	16.6194
39.6455	-115.339	22.7909
35.0114	-127.489	24.8318
43.502	-98.3265	29.1341
47.9063	-94.875	23.9886
38.7256	-101.791	34.0427
42.1757	-102.682	25.8102
40.6773	-108.202	24.0771
35.9668	-110.933	29.1052
44.9001	-105.486	19.4526
45.0876	-63.8689	67.2721
48.8342	-66.9282	63.3882
40.6869	-60.9592	70.64
52.176	-70.0552	58.5414
53.6349	-73.928	54.5126
54.1151	-77.7083	50.7716
37.3362	-58.5627	72.515
38.5634	-55.5883	72.2574
34.4965	-56.7117	73.6769
35.1449	-61.1177	73.3789
32.6406	-55.7332	74.2375
31.4645	-57.3537	74.45
51.6244	-91.7843	19.0184
53.6913	-87.5211	21.9497
50.101	-96.7962	16.3669
54.8407	-89.4416	13.4647
56.0484	-83.6354	25.6605
58.5763	-81.2193	19.0376
58.414	-79.9941	29.053
60.311	-76.6334	32.5057
62.5717	-74.3302	25.4972
48.0206	-120.903	12.4363
48.8106	-132.505	10.7301
51.8089	-119.095	8.10925
47.9927	-110.566	13.7551
49.8245	-140.824	9.24278
50.9079	-147.049	7.89529
53.4101	-138.997	5.34311
48.7452	-102.855	14.8405
73.3437	-26.4697	28.3198
72.6931	-31.9323	27.945
73.9237	-20.603	28.831
64.1034	-72.4987	18.5037
62.344	-75.8181	15.519
65.1977	-71.0415	11.3472
73.366	16.9662	27.8587
76.6732	15.0584	17.1329
69.2261	-57.4465	25.7921
70.5653	-55.921	17.9063
72.0157	-37.4341	27.6877
73.474	-36.996	20.7358
74.2387	-13.8421	29.6706
76.0124	-14.7939	22.1833
74.7713	-36.2232	13.8611
75.9954	-34.9774	7.54497
62.1158	-85.9534	-3.07683
61.6502	-91.045	-4.23294
63.8519	-85.5077	-8.03962
62.7547	-81.4493	-1.60361
60.0577	-86.6493	2.05684
61.3107	-96.7482	-4.87622
63.6923	-77.2458	0.528642
62.1528	-78.1967	6.25653
65.0842	-76.5843	-5.25757
64.8044	-73.4396	2.50165
78.4688	-1.72407	11.874
78.7935	5.92459	9.39923
77.9422	-9.36706	14.1154
79.053	14.0316	6.52035
79.2187	21.7278	4.01556
79.3543	29.5858	0.853934
80.7098	28.769	-9.83879
79.4674	37.4159	-2.80412
71.5428	-54.2815	9.86763
72.2489	-53.1392	2.08756
77.3779	-15.7541	15.1263
78.4946	-16.5621	9.01316
55.4489	-117.311	3.39989
56.0099	-128.849	2.18773
60.5441	-79.518	12.652
58.8795	-83.4668	9.88393
56.7768	-137.083	0.973467
57.7194	-143.161	-0.414646
64.3704	-112.304	-15.0498
64.5985	-122.026	-16.4756
65.2287	-84.9778	-12.9417
66.1121	-83.2669	-18.1349
65.7529	-80.2834	-12.0688
66.479	-75.6532	-10.8951
64.8434	-129.29	-18.1002
65.0466	-135.069	-20.1902
72.6491	-52.8065	-4.92482
77.0207	-33.6951	3.21319
78.0916	-32.0003	0.0541588
76.4498	-37.364	1.81595
79.3402	-16.7405	4.96619
65.0233	-91.1681	-26.1372
63.5505	-86.989	-33.0776
65.6165	-84.7633	-25.0826
66.4988	-78.75	-24.2011
65.7925	-72.4079	-30.3954
69.7547	-61.7392	-20.9855
76.4099	-43.0634	-13.4713
77.5688	-40.5765	-20.0048
60.0097	-118.346	-44.3445
59.9917	-126.197	-45.8442
56.5769	-115.68	-51.4609
60.1021	-109.975	-42.7923
74.6244	-41.7447	-27.6273
76.9649	-38.0994	-26.0324
78.5949	-36.4225	-25.383
31.7623	-148.093	22.8267
30.7854	-140.364	25.3517
26.6487	-149.571	25.6267
32.7582	-153.64	20.8918
30.5065	-113.465	34.5575
24.5643	-116.064	39.7865
29.4736	-119.99	32.476
31.9757	-108.987	36.3649
37.3492	-98.3629	48.5941
34.9668	-101.672	44.0321
39.5635	-95.4095	52.6891
33.2281	-105.187	39.6435
27.3549	-108.159	45.2187
29.7908	-129.343	29.0811
24.363	-131.495	32.9354
32.8234	-63.7838	74.6186
30.9814	-60.8985	75.0929
41.1167	-92.8027	56.3348
29.9322	-59.1422	75.2152
27.5154	-60.87	76.9775
28.9809	-57.7722	75.3332
28.1625	-56.5904	75.4268
26.2465	-57.9259	77.0341
28.7283	-77.8054	78.8013
29.7314	-82.6875	78.2279
30.4861	-87.557	77.2956
21.1119	-54.5947	81.1556
17.7069	-54.037	84.8957
21.0012	-54.101	79.7737
24.5641	-54.502	76.6749
21.1564	-54.3642	79.2057
17.2175	-53.3005	83.2517
21.2282	-54.8104	78.8258
21.262	-56.1086	78.3017
17.3337	-54.0986	81.9304
20.8148	-59.095	78.1045
19.8176	-62.7791	78.4991
17.0837	-58.2069	80.5747
18.6876	-118.079	44.0041
20.0241	-114.137	46.3029
18.1166	-124.062	41.0217
21.43	-151.032	28.0747
20.3491	-143.703	31.2455
16.2725	-152.145	30.1266
22.4878	-156.108	25.8183
19.0218	-133.297	36.2358
10.2508	-113.658	54.8625
14.9142	-112.869	52.9544
11.019	-111.465	60.331
11.7422	-152.92	31.5727
12.7903	-157.736	29.2448
11.7368	-109.906	66.8474
13.7364	-52.6846	86.1335
13.6403	-52.9577	85.3469
13.5743	-53.5609	84.5684
13.845	-54.8186	83.4787
13.5854	-57.558	82.5982
13.1546	-61.6759	82.0552
74.6384	47.4619	14.9204
77.5357	46.0521	3.89334
74.7366	55.0554	9.72221
70.894	49.6292	25.642
81.1387	27.6466	-19.7495
75.3523	-18.7125	-49.7315
72.5106	-20.6271	-54.5927
53.6345	-94.0565	-54.2119
54.3342	-83.7465	-53.1385
56.8055	-97.0903	-48.6493
53.4083	-104.41	-55.3945
50.3291	-91.8521	-59.1931
53.4211	-113.473	-56.7676
53.6734	-122.103	-58.0513
50.0679	-111.834	-61.5335
61.1071	-81.4837	-40.4956
60.42	-91.1731	-40.9777
58.244	-77.1142	-46.959
62.4484	-72.9347	-39.1853
23.1743	112.306	22.6714
30.0628	109.451	22.4491
23.0223	117.054	7.21656
15.9597	114.316	22.9267
22.6216	101.954	-78.6681
23.2513	110.636	-62.7274
29.7363	99.936	-76.7609
21.8601	91.0933	-91.8788
15.1588	103.369	-80.1038
21.4072	79.1781	-101.444
28.2802	77.5392	-99.4329
21.125	65.9893	-108.66
14.4259	79.9419	-103.062
23.3535	116.485	-45.5559
30.5627	113.987	-43.9155
15.8303	118.304	-46.6336
23.282	119.448	-27.5956
7.98481	122.906	-10.5247
-0.00390037	123.335	-10.658
7.97954	120.463	6.95933
15.7017	121.656	-10.2175
8.00327	122.608	-28.8306
20.855	52.9908	-113.593
27.2827	51.6408	-111.545
20.5404	39.527	-116.869
14.3399	53.7516	-115.058
20.0318	25.4612	-118.673
26.3624	24.4931	-116.48
19.5247	11.5814	-118.845
13.7171	26.3987	-120.187
17.4462	-26.8993	-107.866
23.2845	-27.6166	-105.689
17.1979	-38.4851	-100.515
11.868	-26.8103	-109.034
18.2354	-14.383	-113.743
6.53775	-0.449251	-120.018
0.149189	-0.377636	-120.351
6.75741	12.7103	-121.441
12.7758	-0.873306	-118.996
6.22324	-13.2936	-116.444
15.4609	-85.1172	-82.9441
15.7975	-75.5602	-83.929
20.854	-85.8472	-81.5782
15.224	-94.6207	-82.5748
10.2869	-84.7057	-83.7311
5.05495	-103.272	-83.2907
10.0944	-103.705	-82.9686
5.15859	-112.969	-83.0868
0.200551	-103.063	-83.4093
5.17182	-93.5507	-83.6204
17.4187	-47.624	-94.4441
22.7654	-48.1674	-92.867
17.091	-55.8102	-89.883
11.6548	-47.185	-95.465
16.3385	-65.2468	-86.2476
22.0615	-66.3145	-84.4889
10.9732	-64.473	-87.2571
5.60031	-64.1953	-87.7232
5.82967	-54.9373	-91.3863
5.33389	-74.6975	-85.2885
0.201854	-64.3869	-87.7906
48.6488	97.223	19.374
54.4379	91.6902	18.0109
49.3817	101.079	5.61453
42.7389	101.881	20.809
47.346	70.5234	-89.3674
52.8354	67.4134	-85.1176
47.0135	58.5711	-96.1771
41.4812	73.1688	-93.2044
47.7133	81.3675	-80.1687
48.0305	90.8148	-68.1156
42.3316	94.4267	-71.3734
48.6537	97.7971	-53.9349
53.5866	86.4078	-64.5287
49.3434	102.013	-39.1451
55.1329	96.3442	-37.3934
43.4951	106.704	-40.7485
50.1391	103.466	-24.2264
49.9112	103.309	-9.17648
43.7885	108.395	-9.02332
55.7657	97.4598	-9.31325
46.3938	46.4474	-101.105
45.7301	33.8517	-104.37
40.4802	48.3279	-105.048
51.8524	44.2494	-96.787
44.7728	21.0907	-106.205
50.1455	19.6898	-101.849
43.8056	8.17839	-106.315
39.0919	22.1812	-110.049
42.525	-4.29586	-104.859
41.2472	-17.0931	-101.322
37.2354	-4.0099	-108.514
47.3954	-4.98116	-100.653
40.5141	-29.5392	-95.4468
45.3156	-29.2043	-91.5973
40.0423	-40.3265	-89.0412
35.1185	-28.9975	-99.3838
39.5576	-49.6939	-83.3422
38.9645	-59.0636	-78.4137
34.2396	-49.5722	-87.0819
44.279	-49.802	-79.0357
36.9252	-87.491	-73.4268
35.9478	-97.5226	-74.3477
31.7094	-87.1361	-76.8788
37.8895	-77.8466	-73.3563
41.6893	-88.3801	-69.3578
25.3398	-105.176	-79.9642
25.4962	-114.068	-80.1559
20.1616	-104.51	-81.4239
25.6683	-96.047	-79.7411
30.6023	-106.046	-77.8383
38.4347	-68.5318	-74.987
43.2809	-68.7784	-70.4037
33.3755	-67.972	-78.7791
67.7173	70.0249	-51.1697
68.84	73.8798	-39.6422
71.7788	63.2668	-45.3736
66.9061	63.944	-61.6778
63.364	75.9827	-56.3804
69.6557	76.0176	-28.2233
73.5282	68.1994	-23.1194
65.2883	83.3465	-32.3074
70.1097	76.8731	-16.9443
69.338	77.5123	-6.0361
72.2702	70.0612	-1.32719
65.5648	84.4752	-8.26655
56.6634	42.0224	-92.2504
57.3204	53.2189	-87.2864
61.0394	39.393	-87.4171
55.9627	30.1847	-95.4942
57.6435	64.1528	-80.6363
58.0442	73.6466	-71.9197
62.1643	60.265	-75.7131
52.2183	-5.60517	-95.6777
53.9436	6.31407	-97.0339
56.8475	-6.35081	-90.1212
50.5554	-17.5451	-92.5481
55.0396	18.1009	-97.1171
59.5704	16.7745	-92.0094
49.6129	-28.65	-87.4449
53.8251	-28.5151	-82.3122
49.2332	-39.5475	-80.6424
48.4859	-49.0599	-74.7422
52.2558	-47.3585	-70.6955
48.1405	-69.2917	-64.6824
52.3305	-71.653	-58.0998
47.218	-79.3528	-63.7887
77.8904	35.1621	-46.9977
77.0766	29.276	-54.5039
75.8232	40.5437	-52.6413
59.6398	85.5779	17.2566
60.332	89.4062	4.11649
79.0163	45.0402	-7.01761
78.1924	52.7203	-12.043
67.579	-6.91896	-74.2327
64.3895	-7.07474	-79.3951
68.9697	2.40619	-75.6679
70.5445	-7.19134	-68.6573
65.8516	-16.6232	-71.3999
69.7212	11.847	-76.3169
66.7033	13.5621	-81.7862
70.535	20.8447	-74.8212
72.5984	9.82442	-70.2397
71.3437	29.974	-71.4335
68.2745	33.3957	-77.0993
72.2728	38.3235	-65.9168
74.0851	26.1865	-65.5028
60.7354	-41.2703	-59.9581
58.0057	-43.5899	-63.486
62.2762	-33.7481	-63.903
63.472	-39.0264	-56.1846
59.4199	-48.9368	-56.1487
69.7229	-22.3168	-59.2402
67.9721	-29.4954	-55.9328
67.0145	-23.9801	-63.3896
71.5106	-14.9782	-61.6356
55.5797	-74.1552	-52.402
56.9155	-65.0689	-52.5079
78.5635	-35.9869	-5.41963
79.0636	-32.4619	-3.4229
76.9732	-38.9045	-3.21824
78.988	-30.7545	-1.98804
82.3094	-5.77387	-3.28765
82.989	-0.644196	-5.35852
94.1025	4.66381	-38.5519
94.191	10.425	-36.1067
94.7374	4.27296	-37.8489
84.8196	-34.2119	-25.2186
83.6877	-36.9418	-21.8695
93.7592	15.0892	-32.5336
92.7835	15.4006	-33.0236
93.0792	18.197	-28.3727
94.6526	14.4273	-31.9818
87.6158	10.189	-11.929
86.2825	10.1914	-12.5777
92.3373	19.4927	-24.088
93.2787	18.7832	-23.3623
89.533	-17.9641	-35.3885
86.2251	-34.9108	-17.9081
85.591	-34.757	-15.2876
84.5961	-36.959	-18.3845
83.3581	1.88219	-7.04562
89.0508	17.7746	-19.6267
87.219	14.7399	-17.0025
87.9822	16.9339	-21.1926
84.9551	10.4826	-13.9925
84.0681	10.9279	-15.5579
92.11	15.2494	-33.2422
83.3067	10.6725	-16.9948
84.4954	12.6231	-19.6171
85.9858	14.5063	-23.1706
83.881	12.4142	-24.2603
88.9656	-26.2801	-28.2737
89.0549	-27.8279	-20.7344
83.0821	-38.1213	-18.8423
84.8139	-33.8754	-13.0542
85.9356	-31.0291	-13.0226
86.8487	-28.7172	-13.8839
87.3179	-27.2048	-14.7857
94.9319	3.98281	-37.4411
95.3035	9.53807	-35.0817
91.9116	16.1136	-15.9754
92.1023	15.4855	-15.7034
93.0602	17.7594	-19.0128
92.0851	14.8913	-15.5709
93.2833	16.6131	-18.5553
91.9243	13.83	-15.7536
95.0358	13.8901	-31.6275
94.4801	16.7531	-27.4766
95.1525	13.4	-31.4957
93.8493	18.0784	-22.897
94.0751	17.4932	-22.7866
94.0896	16.9185	-22.5273
94.6323	15.7288	-27.1223
95.1152	13.032	-31.1819
94.4397	-0.299238	-36.4371
91.6694	12.5421	-16.311
89.2234	5.38723	-13.9436
93.5374	12.2994	-24.739
93.9825	-3.40789	-31.3598
94.0094	-1.54149	-31.0427
93.9142	0.312043	-30.4422
93.6944	1.79633	-29.5276
93.3337	3.00444	-28.2717
92.4287	3.83894	-25.733
85.2147	-23.6774	-12.545
86.4518	-25.2736	-14.199
87.4196	-1.16522	-11.049
83.9621	-15.7823	-10.5707
87.4129	-26.492	-15.2718
32.5327	26.912	73.8473
35.3806	93.6639	46.4417
36.1302	100.138	35.1137
8.39286	101.375	49.5041
8.28666	109.022	37.2293
-0.0141136	101.855	49.5706
36.4669	106.082	21.6869
36.8151	110.465	6.93658
8.10045	115.596	23.0491
-0.0643834	116.096	22.9518
23.0212	119.599	-9.79044
30.2599	116.658	-9.36446
37.0836	112.975	-9.2066
37.3485	113.076	-25.6647
66.4425	52.6549	35.4522
73.9295	62.4611	4.06587
75.8324	61.3303	-6.72809
60.8454	91.3774	-9.36233
61.1206	91.2976	-22.3619
8.00656	119.425	-47.1928
7.94196	113.302	-64.7435
0.0717914	119.808	-47.3515
37.0743	110.865	-42.1128
36.7757	105.583	-58.8047
76.2264	60.3868	-17.5686
75.9601	59.023	-28.5041
60.2537	90.3297	-35.3181
59.389	87.1512	-48.0729
74.9982	56.4538	-39.355
74.0509	52.184	-49.6527
73.1065	46.1928	-58.5224
69.9554	51.2286	-64.5125
46.3368	-90.159	-64.3984
45.6387	-100.36	-65.6969
45.6646	-109.881	-66.6979
45.7684	-118.65	-67.8948
40.6198	-108.082	-71.4049
7.65674	104.313	-80.7637
7.40231	92.8455	-94.274
0.137614	104.507	-81.1506
7.38195	80.3665	-103.985
7.42471	67.2098	-111.032
0.159827	80.4819	-104.296
7.44536	54.1845	-115.939
7.30622	41.0045	-119.216
0.161988	54.3713	-116.217
7.01729	27.0411	-121.113
0.168325	27.0681	-121.439
18.9489	-1.5519	-117.3
25.1003	-2.5	-114.937
5.89611	-26.6215	-109.835
5.90193	-38.6544	-101.721
0.135362	-26.7412	-109.982
5.91024	-47.3061	-95.7432
0.172024	-47.5242	-95.7131
5.2633	-84.2285	-84.1532
0.212187	-84.0169	-84.3017
34.9661	75.5486	-96.6771
35.5012	87.1968	-87.151
34.5333	62.9005	-103.677
36.1005	97.4213	-74.4861
33.9493	50.1465	-108.617
33.4151	36.9699	-111.85
32.7694	23.4647	-113.573
32.1365	9.73932	-113.613
31.2831	-3.34853	-111.957
30.2872	-16.0329	-108.411
29.2568	-28.3093	-102.877
28.5602	-39.4844	-96.3201
28.5261	-48.905	-90.3878
28.4443	-57.8252	-85.4927
27.774	-67.1505	-82.0584
27.1021	-76.9424	-80.0924
26.4325	-86.4387	-79.5397
35.7781	-106.895	-74.9764
35.9902	-115.82	-75.5603
58.5212	81.6891	-60.6696
66.2418	56.2791	-70.1387
65.6256	46.6388	-77.214
64.8094	36.7564	-82.4414
64.0729	26.0722	-85.7121
63.3108	15.3403	-87.0552
62.4073	4.25547	-86.4694
60.7815	-6.95054	-84.7319
59.0082	-17.674	-81.751
57.4331	-27.5636	-77.6917
60.8394	-26.8717	-72.611
56.265	-37.2102	-72.2559
55.2245	-45.4956	-67.1739
58.3607	-56.9702	-53.2009
60.5996	-55.384	-49.8185
76.1943	23.0151	-60.0199
75.5451	15.6734	-63.1918
78.1889	19.2669	-54.0025
72.9638	-7.21522	-63.6779
74.1464	0.579025	-64.5744
63.9547	-25.5363	-68.021
74.8711	8.40958	-64.7375
66.232	-36.59	-52.5242
64.7537	-43.6583	-49.2651
21.0753	-110.87	49.8794
66.2492	-69.7218	4.47107
57.6036	-87.7599	7.81568
13.8493	-47.1432	91.7786
17.2902	-47.7011	89.299
20.5459	-49.1028	86.0344
7.57597	-55.1594	92.444
7.93899	-56.0903	92.4649
8.2172	-57.1706	92.4034
24.1209	-62.7298	80.1539
23.5914	-61.0015	80.3587
23.0207	-59.4616	80.6881
18.4596	-43.8891	88.4412
39.5207	-52.0949	72.2859
29.7391	-32.618	77.7789
31.4267	-37.4417	77.8877
32.6887	-42.2558	77.4773
62.5288	-37.4901	52.9446
18.1024	23.6261	72.6508
80.0062	15.5964	-47.6036
82.9285	14.2729	-28.4728
83.6461	12.3541	-26.1365
75.6058	-41.7038	0.18752
24.0816	11.7643	71.1056
54.038	39.8402	64.7116
8.48171	-30.8183	92.3685
45.5825	18.6073	65.5495
12.5216	-28.7568	89.1018
83.5519	12.1549	-25.0929
60.1131	-100.796	-41.8593
64.7126	-64.5499	-37.3928
63.5672	-58.0085	-42.664
63.3418	-52.1754	-46.4481
22.2808	-25.3342	79.8254
14.3238	-53.6969	87.7936
26.3581	-54.5542	75.364
6.52926	-50.9993	90.1118
-73.4433	-45.3757	10.8436
-74.2454	-40.4432	12.1725
-74.5175	-43.6828	4.01885
-72.5407	-50.0319	9.5257
-72.1278	-46.8815	18.7443
-60.3085	-115.355	-8.32903
-60.2107	-104.866	-8.07894
-62.2742	-113.994	-12.8215
-60.803	-125.9	-9.19015
-57.7679	-116.547	-3.92062
-61.4113	-133.522	-10.2613
-59.0475	-135.523	-5.53509
-63.0962	-131.6	-14.9875
-61.9556	-139.528	-11.3323
-54.6586	-99.3746	1.94519
-57.8777	-98.1981	-3.10294
-54.4118	-107.195	1.15025
-51.2876	-101.063	6.73295
-55.4699	-93.3774	2.96006
-63.6454	-96.1695	-16.2404
-62.3098	-96.7361	-11.959
-63.9689	-90.6649	-15.9012
-64.3743	-94.8807	-21.2566
-63.4583	-103.253	-16.6508
-66.7341	-66.1171	20.6905
-67.9357	-64.3217	13.1856
-65.1855	-69.7889	18.2982
-64.6891	-68.7061	28.3705
-67.9181	-62.4527	22.7612
-73.5638	33.1397	24.6684
-77.0965	31.5254	12.7654
-73.2508	25.7844	27.4467
-69.2251	35.9266	35.8365
-74.2592	40.8598	20.3434
-79.1175	42.7005	-28.4943
-80.3989	35.4173	-23.7574
-79.5364	44.5328	-17.8046
-77.4062	49.6569	-33.5841
-78.5327	39.6177	-38.2372
-9.23123	-119.877	48.1661
-10.0377	-115.979	50.7484
-13.2139	-119.156	46.2999
-9.38284	-126.037	45.0708
-6.11726	-120.234	49.2718
-10.3303	-135.83	39.6441
-11.1523	-145.944	34.3376
-6.72877	-136.228	41.0218
-14.2978	-134.674	37.8623
-3.82129	-153.751	32.9046
-4.1975	-158.492	30.7781
-3.56374	-146.763	36.2396
-7.71459	-153.389	32.2523
-69.1208	-52.4396	-33.259
-69.7427	-44.9098	-37.3367
-66.4894	-58.5142	-35.5973
-68.8322	-58.702	-28.1695
-71.6584	-46.3604	-30.9712
-70.4933	-39.5238	-40.3072
-73.623	-34.896	-37.165
-71.2718	-34.8441	-42.6912
-66.8376	-45.3205	-43.6548
-63.8217	-124.464	-31.2306
-64.4242	-127.605	-24.8546
-62.1945	-121.639	-37.9333
-63.6412	-131.238	-33.4205
-3.33006	-136.62	41.7778
-2.98067	-126.875	47.148
-70.2042	-49.3909	26.8549
-69.4313	-54.698	25.9035
-68.1562	-51.0214	34.176
-71.0828	-43.3566	27.1515
-68.8182	-62.6659	5.5712
-70.2711	-58.528	6.94653
-69.3095	-61.9268	-2.23988
-67.2134	-66.6452	3.8522
-11.6172	-96.3071	91.1101
-11.581	-91.151	91.9112
-16.1521	-95.6345	88.647
-11.785	-100.603	89.1441
-7.731	-96.7501	92.6628
-21.0348	-93.9521	85.5067
-20.9566	-88.4753	86.1412
-25.9037	-91.3571	81.767
-21.0033	-98.4817	83.9362
-4.83136	-85.9677	93.7875
-4.63065	-91.9446	94.2685
-4.65437	-79.9167	92.4013
-8.06219	-85.7707	92.9446
-11.8728	-103.748	86.4857
-8.08824	-104.081	87.9057
-16.2653	-103.057	84.3965
-12.2581	-106.04	82.8537
-12.8031	-107.582	78.273
-12.7461	-108.628	72.8683
-8.38601	-108.384	79.2001
-15.2327	2.01162	79.9696
-12.7824	4.34254	82.3366
-14.3941	6.23425	78.0328
-17.7451	0.374771	77.8651
-16.106	-2.31839	81.6826
-49.2239	-29.4706	69.6088
-50.2292	-34.0178	68.8744
-43.2768	-27.4914	73.2563
-48.3163	-24.5179	69.9924
-55.2357	-30.3874	64.4858
-59.9124	-19.7578	58.9298
-60.6295	-25.3258	58.3357
-53.7179	-20.0044	65.2406
-58.5911	-13.872	59.6237
-65.3931	-18.0431	51.4112
-69.9946	3.24347	40.9609
-67.269	4.58427	45.3327
-69.0397	11.0664	40.9849
-72.0768	2.60752	36.3039
-50.865	-38.5494	67.7453
-45.1252	-36.9265	72.2687
-56.3054	-39.4957	62.1274
-50.8952	-43.3102	67.0111
-1.54826	3.16509	99.1878
-3.32731	2.52725	98.5374
-1.63094	-2.19241	102.521
-1.5903	9.12598	95.3558
-31.7183	70.5658	71.8705
-32.7585	76.0837	67.4723
-37.3337	68.9271	69.0478
-30.4468	64.235	76.5839
-26.4145	71.4428	73.9701
-3.73059	-111.13	68.1486
-4.35978	-110.015	74.4229
-7.48597	-110.706	67.5392
-3.3144	-112.311	61.8545
-65.7524	-51.8416	41.2329
-66.7908	-45.418	41.3829
-64.4301	-58.4731	41.2739
-62.8706	-52.0598	48.0294
-4.57041	-104.41	88.6376
-4.6162	-107.029	84.5184
-4.46454	-101.356	91.4058
-4.57601	-108.808	79.7051
-41.518	-88.8622	62.5573
-41.583	-85.3895	65.324
-46.5023	-85.7715	56.9733
-40.8217	-91.7597	59.9176
-36.4132	-91.6371	68.336
-46.3555	-92.3693	35.5514
-41.6753	-95.8454	41.4873
-48.635	-89.4246	40.2351
-50.662	-88.6354	29.4381
-44.0458	-95.6078	30.4714
-3.2588	-114.063	56.2303
-3.38886	-116.554	52.6346
-6.66494	-113.868	55.3966
-6.42355	-8.11061	103.046
-3.94261	-7.38949	104.773
-5.93054	-3.66661	100.184
-9.3006	-9.09276	99.9661
-6.944	-11.734	105.469
-26.0465	-20.1045	78.6414
-22.4321	-16.8803	80.3938
-24.2196	-14.8727	78.7666
-30.1954	-22.7461	77.4008
-33.4837	-55.7773	73.9344
-31.5093	-55.9886	74.1024
-32.1716	-54.9952	74.0921
-13.5195	-26.7516	90.9881
-15.422	-26.5198	88.8098
-12.9399	-27.7105	90.5993
-14.9139	-25.2942	90.9155
-13.412	-30.5896	88.7935
-11.385	-30.5653	90.7485
-13.2235	-29.7027	89.0332
-15.8803	-30.3585	86.5018
-13.9741	-31.9615	88.5893
-1.94093	-30.1065	100.086
-3.90347	-29.6979	99.1138
-2.15941	-30.9571	98.5371
-1.85205	-29.3476	102.015
-18.4269	-29.3199	84.2847
-19.0455	-30.7552	84.1444
-17.9291	-28.3599	84.7414
-20.5409	-27.5655	82.5093
-7.34633	-21.2731	108.098
-7.49591	-19.6571	108.538
-10.3657	-20.3359	103.99
-7.11618	-23.1242	106.901
-4.4661	-22.2257	110.527
-27.88	-69.1526	78.8408
-28.7887	-73.4342	78.7149
-23.8847	-70.9748	82.0404
-26.8987	-65.596	79.1262
-31.24	-66.8875	76.1962
-31.9778	-49.5378	77.5594
-33.9706	-50.2681	76.2218
-29.7464	-48.6769	79.4006
-31.014	-45.5783	79.5092
-2.71283	-34.7097	95.8955
-2.42743	-33.0503	96.643
-4.77347	-34.2089	95.4156
-3.03698	-36.4683	95.4544
-5.64747	1.30918	96.9873
-5.69608	6.51802	93.3959
-8.384	-0.474056	94.326
-18.8985	-18.5268	86.5685
-19.2326	-17.876	85.2246
-19.1678	-19.9547	85.6982
-18.2987	-18.0518	88.7129
-18.0338	-17.0701	88.8446
-6.00441	-30.7687	95.8286
-4.35064	-31.2865	96.8132
-5.95834	-29.8827	96.502
-7.6738	-30.6089	94.3818
-6.03741	-32.2368	95.2021
-5.6708	-29.224	97.7099
-5.45362	-28.4865	99.5075
-17.4624	-17.3523	90.8812
-18.0151	-18.8824	89.7922
-17.1204	-16.5101	91.2549
-19.245	-22.4783	84.8442
-18.7841	-24.9445	84.6622
-18.5357	-21.4821	87.1024
-4.15246	-42.3421	95.4979
-3.8106	-40.1626	95.2685
-6.95821	-41.6734	95.1076
-4.45487	-44.1604	95.7692
-25.3746	-32.6233	80.9186
-23.4315	-28.5522	80.8382
-27.7526	-32.6472	79.8279
-27.662	-36.8142	80.9793
-22.9462	-32.8113	82.3617
-11.2963	-67.0236	89.3567
-15.3945	-66.5623	87.5856
-11.4709	-70.0312	89.042
-7.41203	-67.1539	90.4691
-11.1721	-64.5634	89.9424
-27.49	-51.1333	79.7308
-27.239	-49.3946	81.2101
-30.0413	-52.7206	76.2512
-27.9051	-51.8575	78.7529
-16.8294	-15.8741	91.2016
-15.2649	-15.1489	94.1982
-16.8518	-14.9835	89.8769
-19.3198	-65.8309	85.2362
-19.0464	-63.6508	85.7243
-22.7145	-64.6926	82.6366
-19.4717	-68.6429	84.9974
-4.0115	-67.1577	90.9989
-3.99338	-64.8583	91.5931
-4.06712	-69.9772	90.7316
-60.5087	28.0452	57.5209
-61.3328	29.7137	55.7116
-62.218	22.8354	52.969
-59.4933	26.7139	59.1818
-41.6007	55.3032	72.687
-42.5065	60.9497	68.9646
-47.6053	52.5437	67.6491
-41.1142	50.0907	75.6354
-36.0213	57.3128	76.8989
-53.6931	49.1395	61.6619
-54.7087	54.824	57.6379
-59.3599	44.9963	54.5396
-53.0779	44.0248	64.9444
-41.4454	41.7733	77.6828
-41.146	44.5953	77.5079
-41.8145	38.5979	77.3325
-36.2206	43.8553	82.4899
-62.6694	31.4906	52.5478
-65.5883	25.7569	46.3558
-58.1951	36.402	60.5059
-63.5781	34.663	49.6422
-23.0443	33.1019	81.7903
-19.6872	32.2322	81.9939
-22.4717	34.4806	83.0867
-27.0984	33.4386	80.9372
-23.7065	31.5031	79.9087
-6.06244	17.8007	85.9855
-5.92308	15.0234	87.5417
-3.67426	19.5064	87.7792
-6.23998	19.9265	84.9827
-8.19813	15.4045	83.4483
-29.4877	-5.16951	73.6503
-23.5422	-3.14581	75.408
-27.442	-1.04104	73.2177
-36.689	-6.87863	71.7012
-31.5389	-9.83414	74.3035
-58.1345	6.25528	55.1752
-55.6496	2.92308	58.0141
-55.3128	7.61179	57.3639
-59.0549	10.4608	54.1614
-60.7543	5.33447	52.9687
-5.71823	11.2518	90.1866
-3.38995	12.9923	91.6499
-8.13357	8.88493	87.9581
-42.1903	35.9899	76.8116
-41.9812	33.8988	76.3223
-36.7134	38.2121	81.0325
-47.4699	34.3906	73.3014
-52.3574	32.2863	69.4123
-56.0212	29.1731	65.0876
-51.6369	30.2772	69.7673
-54.9483	15.3039	58.8003
-56.8998	15.2949	57.0988
-54.2768	11.8777	58.2733
-52.8977	15.5347	60.4388
-55.2909	19.1985	60.5787
-42.9267	21.6571	69.426
-41.1578	22.8611	70.8405
-44.4959	20.1543	67.7026
-39.1465	23.9744	71.911
-36.6906	24.8323	72.5533
-39.2532	24.6753	72.3518
-41.5367	23.56	71.2391
-36.4894	25.5784	73.034
-33.7247	25.2831	72.8434
-30.7033	25.1817	72.8056
-33.3768	25.9952	73.2868
-30.1531	25.8368	73.1816
-27.9076	24.6132	72.4575
-25.264	23.5349	71.9061
-22.6235	22.0787	71.2059
-20.4007	20.6626	70.5128
-21.3292	22.7237	71.5141
-24.0893	24.0539	72.1974
-19.1335	21.3108	70.8855
-18.9907	19.425	69.9794
-20.0583	23.2072	71.9517
-23.0076	24.7379	72.7294
-33.0958	26.8269	73.8956
-29.6465	26.6236	73.7836
-47.9438	14.9552	63.3899
-46.8342	14.121	64.0233
-31.5469	33.2824	79.8446
-31.651	31.6759	78.3658
-31.5103	35.1892	81.2258
-36.6209	32.6906	78.1447
-48.0459	25.4709	70.113
-46.3107	24.2581	70.2098
-44.8206	27.057	72.4899
-49.5831	26.9932	70.0734
-36.6848	7.69289	70.1326
-29.7835	8.13497	71.7911
-42.1381	7.94186	67.6112
-37.2614	5.77869	69.8391
-24.1648	9.51886	71.9919
-24.123	7.92277	72.2204
-20.3619	10.8394	71.8283
-16.5016	14.5504	71.337
-17.3828	13.2712	71.5652
-16.0298	15.5415	71.1394
-35.8545	11.0817	70.5725
-29.9585	11.24	71.7521
-40.8078	11.469	68.5493
-19.8106	14.2876	70.4017
-18.9744	14.9066	70.1168
-21.5039	13.378	70.8646
-18.2864	15.4316	70.0201
-17.6584	16.13	70.0132
-13.4845	23.783	75.6422
-12.9444	25.7301	78.0032
-15.3	25.4461	75.8523
-14.2828	21.7084	73.1506
-15.7058	17.1	71.0826
-26.234	25.9012	73.3563
-15.0013	20.8166	72.0837
-16.3287	22.3097	72.2675
-14.4377	19.3542	72.0503
-35.828	12.5252	70.6878
-29.969	12.5364	71.7189
-20.0497	15.1646	69.8249
-21.6329	14.5624	70.34
-19.2185	15.4887	69.6694
-18.7397	15.8916	69.5151
-45.5933	18.6425	66.0317
-3.73522	32.2658	86.8427
-4.27845	35.0784	87.3346
-6.52268	31.7769	86.1413
-3.09602	30.0996	86.577
-17.7585	5.70418	74.6832
-20.7282	4.20665	73.8368
-18.6241	2.91824	75.5973
-15.8524	7.20645	75.4877
-17.4152	7.68257	73.9578
-13.8987	8.95514	76.7563
-12.0024	11.0889	78.4493
-13.8321	14.3676	73.6717
-14.0331	16.1067	72.7645
-12.2651	15.4094	75.3472
-9.78151	23.1922	79.6543
-9.29478	24.1942	80.9087
-10.9379	25.1035	79.4671
-18.4486	12.0872	71.7182
-17.793	10.9029	72.4577
-17.3714	9.39052	73.211
-19.8966	7.89676	72.8137
-23.4123	-53.4136	78.8154
-19.7924	-52.5311	82.2698
-26.7912	-54.1265	75.5889
-23.3376	-53.3418	78.5213
-28.5649	-54.4723	74.3482
-28.2423	-54.3493	74.3654
-4.71497	-47.5223	95.7457
-4.61731	-48.6415	95.411
-4.6568	-46.2752	95.9157
-7.86674	-46.9713	95.1725
-10.5944	-49.0495	93.2635
-13.5417	-49.0266	91.8687
-10.4138	-49.8436	92.5225
-7.85597	-49.15	94.1891
-10.5942	-48.0611	93.9017
-16.5407	-49.2445	89.8758
-19.6903	-49.9899	87.1356
-16.4238	-50.206	88.8548
-16.6321	-48.2962	90.5908
-10.5375	-46.8634	94.3808
-10.4518	-45.642	94.6685
-13.4145	-47.0175	93.0792
-15.3831	-45.3693	92.249
-16.1986	-46.3146	91.6937
-12.3534	-44.9608	93.9284
-14.8633	-44.3239	92.4947
-23.1477	-51.4972	82.8505
-23.0458	-50.3575	84.4463
-9.87786	-50.5716	91.585
-13.2025	-50.6739	89.8562
-9.46103	-50.9654	90.6658
-6.95797	-50.5094	92.7636
-16.5859	-51.1705	87.2388
-16.4394	-51.6769	86.0812
-29.3985	-53.3414	75.9628
-30.5992	-54.7376	74.286
-23.5831	-54.3368	79.4124
-23.6177	-54.4984	79.7205
-19.8613	-53.6827	83.3245
-23.5485	-54.2908	79.1605
-24.0296	-55.6386	80.2611
-20.5435	-55.4373	84.5118
-23.872	-55.2159	80.17
-17.3772	-55.4197	87.4917
-17.7784	-56.1852	87.4083
-13.9222	-55.4725	90.1085
-17.1513	-54.7218	87.3209
-9.47448	-53.6084	91.7261
-6.31445	-53.398	92.8112
-9.37684	-52.7882	91.235
-13.2967	-53.8182	89.753
-9.702	-54.4875	92.0428
-3.94532	-55.1044	93.9687
-3.85062	-54.1265	93.7031
-6.53663	-55.2268	93.4264
-4.02483	-56.1299	94.0975
-28.7672	-55.928	73.7267
-28.657	-55.3318	74.2654
-26.8716	-55.6997	75.2804
-28.6289	-57.3048	73.2879
-3.55304	-52.8479	88.868
-3.55125	-52.1424	90.248
-3.52303	-54.0873	87.6222
-6.00555	-53.0332	88.3453
-4.05131	-57.2358	94.0995
-6.73852	-57.3503	93.5515
-4.10313	-58.3635	93.9516
-4.01263	-62.7267	92.3942
-4.08732	-60.8981	93.1546
-6.96531	-62.5104	91.9681
-10.1166	-44.7599	94.7895
-7.6555	-44.6783	95.4324
-9.3658	-43.4941	94.8935
-3.79557	-53.1871	93.2856
-3.6745	-52.4495	92.8141
-3.60206	-52.1289	92.4644
-3.65486	-51.9635	92.0423
-6.15683	-52.2114	91.9508
-9.32244	-52.4438	90.8793
-9.27651	-52.2862	90.5229
-12.905	-52.7206	89.0176
-3.67851	-51.9235	91.3264
-6.09139	-52.0308	90.8605
-16.3985	-53.0456	86.3589
-16.581	-53.3564	86.6854
-16.3527	-52.9336	85.9672
-18.4668	-59.0335	87.0324
-18.7013	-60.1774	86.6605
-15.0669	-59.3588	89.5013
-18.2562	-58.0412	87.2508
-10.7489	-59.4064	91.8031
-10.9395	-60.6518	91.3312
-6.8432	-59.4424	93.1782
-10.5294	-58.3932	92.1018
-4.1099	-59.5418	93.6508
-16.2951	-51.82	85.2818
-16.1848	-51.7344	84.6466
-12.7692	-51.2958	87.8877
-28.6564	-55.0622	74.8651
-26.9373	-55.1283	76.3891
-9.12327	-53.2938	87.3443
-9.07259	-52.5413	88.6665
-9.26087	-54.4942	86.1993
-12.6498	-53.5317	85.7607
-9.14171	-52.2651	89.8008
-12.6734	-52.5535	87.9472
-11.0045	-62.358	90.7097
-15.3094	-62.1924	88.5928
-17.9951	-57.0762	87.4063
-14.6207	-57.3787	89.9546
-18.8732	-61.7782	86.2118
-21.8927	-60.9165	83.6068
-15.9349	-51.4085	84.2821
-19.108	-52.0681	81.8583
-15.4483	-50.3082	83.6683
-12.7308	-50.7965	86.173
-9.41219	-50.5099	87.6744
-9.20756	-50.9379	88.7477
-9.97639	-49.4386	86.2192
-6.68968	-50.267	88.3293
-14.8508	-47.7888	82.7092
-17.4701	-48.2503	81.1481
-14.5064	-44.4117	81.7819
-12.3358	-47.3954	83.9239
-28.087	-60.3733	73.247
-26.1363	-60.0643	74.9471
-26.8496	-63.8331	74.1319
-3.35242	-56.5574	86.4278
-3.4947	-60.5232	85.7205
-5.77809	-56.6943	86.042
-9.86486	-47.128	84.817
-9.38261	-43.8105	83.7197
-7.25985	-46.9162	85.4695
-8.96073	-56.9488	85.1429
-8.89953	-60.9508	84.2781
-12.5186	-57.2951	83.693
-31.4613	-55.6726	69.1498
-31.3459	-55.7552	69.238
-10.4673	16.9386	77.7885
-10.119	15.2592	79.3727
-81.7684	-7.77502	-43.7841
-83.2952	-8.24285	-42.0767
-82.3474	-3.19524	-43.732
-79.8692	-7.21798	-47.1117
-81.1047	-12.1522	-43.0804
-81.566	11.0705	-6.32695
-80.5772	13.2208	-1.39067
-81.8774	13.8601	-10.5074
-81.8924	15.8892	-15.6835
-82.4112	15.3986	-22.7279
-82.3937	10.9423	-16.8528
-81.5173	21.2744	-16.8684
-76.2411	-31.8801	-34.8353
-77.3313	-28.0199	-36.5995
-75.3344	-36.0185	-32.3255
-78.6779	-29.5828	-33.1906
-78.2498	-24.3942	-38.6127
-80.533	-23.1781	-36.752
-79.2991	-20.4587	-40.3816
-75.6231	-26.4305	-41.4687
-84.7954	-8.18776	-41.1865
-85.111	-3.20065	-41.319
-84.2618	-12.3291	-40.3225
-86.323	-7.69944	-40.8243
-85.211	-24.4241	-33.6219
-86.2612	-25.5395	-32.537
-83.857	-22.8478	-35.0126
-87.0573	-26.3388	-31.5176
-88.0935	-22.3465	-33.5339
-85.958	-30.275	-29.0696
-87.7962	-26.769	-30.3113
-91.4346	-16.6003	-31.5064
-92.6572	-12.1574	-34.5641
-91.4255	-16.0227	-30.7287
-81.0546	-38.5936	-21.0812
-81.3297	-37.003	-24.0408
-80.1208	-37.7692	-23.0972
-80.6594	-39.2165	-19.0823
-81.5399	-38.8166	-20.3928
-82.9948	-31.0187	-8.75367
-82.7043	-31.5722	-8.74144
-82.0815	-32.7828	-9.02554
-91.3695	-15.6412	-30.3171
-90.8802	-16.2151	-29.3732
-94.0422	-1.17296	-33.9833
-94.0952	-0.531385	-35.4973
-93.9465	-2.47931	-32.3419
-94.2278	9.02157	-31.4177
-94.4858	10.3684	-31.5155
-94.5993	12.4594	-30.4647
-94.2517	14.5425	-27.3474
-94.7743	12.9154	-30.8586
-94.0417	12.2847	-28.2437
-84.8747	-8.26897	-8.52305
-86.0507	-2.87157	-9.00712
-84.0144	-12.2672	-8.02037
-84.368	-7.49317	-7.17456
-80.1009	-23.9848	-1.85718
-80.5596	-19.688	-1.25747
-79.6424	-27.7493	-2.40894
-79.2513	-24.3372	0.870946
-83.6739	-19.3872	-10.717
-83.6312	-17.4465	-10.8117
-84.0237	-21.4149	-11.2616
-82.3939	10.439	-16.9055
-82.4284	10.4381	-16.6873
-82.7243	11.6531	-20.3698
-90.4836	17.8491	-17.3009
-91.4115	19.488	-20.4012
-91.2696	17.1576	-16.3277
-89.1126	14.8341	-14.397
-89.6221	18.2474	-18.4621
-90.9007	20.1022	-25.455
-90.141	19.8968	-22.4338
-90.091	19.0593	-26.8533
-91.3773	18.8016	-29.172
-91.2073	20.2469	-24.9525
-91.7615	4.64596	-39.9764
-92.832	4.89201	-39.4381
-92.0642	10.6326	-37.0655
-90.9681	4.18723	-40.1585
-86.9042	1.68645	-9.51707
-87.2094	0.426317	-10.2085
-94.6259	4.08846	-36.9226
-95.0535	9.21755	-34.631
-94.6743	3.98369	-37.2873
-94.3345	1.29219	-37.1352
-93.7423	15.4663	-23.3572
-92.8315	14.9637	-19.3579
-93.8337	16.451	-22.7306
-93.5347	14.1073	-24.1054
-88.3302	2.39481	-12.3149
-88.8458	4.68867	-13.0013
-87.8133	0.654802	-11.7638
-94.1874	4.80402	-34.2028
-94.2859	2.7445	-36.083
-86.5242	-4.32014	-13.6492
-87.0307	-2.71101	-12.5269
-86.6643	-4.05901	-14.3516
-91.1083	-3.73221	-27.6364
-93.0627	-1.1462	-29.5284
-91.0035	-4.82478	-27.8059
-90.8474	-3.27722	-27.005
-80.9949	-15.7633	-1.18741
-80.2341	-15.8982	1.34813
-81.6191	-11.2635	-1.91225
-85.3099	2.03726	-39.7959
-86.2849	4.53192	-38.8341
-85.1608	6.69594	-37.6193
-84.1502	1.45119	-40.944
-88.6149	9.47454	-36.1071
-88.7598	5.38897	-39.0588
-90.9282	14.103	-34.1528
-88.3642	13.2666	-32.8409
-89.9276	3.23921	-40.1348
-88.8088	-2.26981	-40.9803
-88.4502	-7.25822	-40.6523
-82.3136	-22.542	-35.8911
-83.089	-19.346	-37.5328
-81.3993	-25.6281	-34.1175
-83.7081	-15.9892	-39.0762
-82.0165	-16.2208	-40.102
-90.3243	-16.1322	-28.3581
-80.4656	-28.5135	-32.4526
-79.4503	-32.0949	-30.1753
-80.4946	-38.8241	-16.2563
-79.989	-39.0766	-16.0715
-79.4488	-39.2694	-15.779
-79.1533	-39.1313	-21.137
-91.2178	-5.57433	-28.2933
-93.1123	-4.24488	-30.4736
-83.7703	-6.86123	-6.05554
-83.0511	-6.42765	-4.80803
-81.7772	-20.2494	-4.81045
-82.0876	-20.4366	-5.48402
-84.6618	-24.8843	-11.0593
-84.7884	-23.8227	-11.8757
-85.6707	-26.9348	-12.6291
-83.479	-15.2248	-7.58928
-83.8791	-15.4415	-9.7893
-88.064	15.105	-29.6043
-87.1249	15.7645	-26.2375
-85.7218	11.4351	-32.466
-84.8106	9.87842	-34.2824
-84.181	12.0447	-30.0059
-84.3659	9.5775	-35.3865
-93.4833	6.02352	-29.1218
-93.3217	4.52617	-28.7976
-87.0604	-3.39206	-15.7834
-88.0025	-2.22512	-18.4339
-90.8083	-2.43295	-26.4911
-90.2517	-2.35407	-25.1056
-92.4973	1.12577	-27.6532
-7.86553	86.2664	66.8491
-8.27187	93.5417	59.5796
-15.6643	85.5001	66.478
-7.59577	79.1285	72.4742
-7.05737	72.0779	77.0525
