1924
37.3649	23.5883	72.2792
34.8947	24.2803	72.8311
39.4786	22.7187	71.388
32.3632	23.5493	72.7965
29.5942	23.4245	72.9867
32.0666	24.5095	73.1324
29.0887	24.3429	73.3196
26.8416	22.8469	73.0525
24.3124	21.6401	72.927
21.8241	19.9441	72.6416
19.7192	17.9813	72.3806
20.7074	20.5921	73.0245
18.8193	18.5173	72.7514
23.2059	22.368	73.2711
18.3893	16.2734	72.1893
19.6695	21.0849	73.5053
22.2749	23.2027	73.7818
31.8329	25.6152	73.5723
28.6355	25.4495	73.8074
45.7484	15.1327	66.2725
46.1524	16.1936	66.1307
44.6943	14.1468	66.9008
27.8696	39.8182	81.442
32.8556	39.5108	78.9392
27.2219	42.3559	83.1
28.8592	36.4907	79.0903
46.2397	28.1864	70.0462
44.3555	25.2532	70.1897
47.9135	31.1321	69.8582
42.483	29.4311	72.2743
36.1145	6.63739	72.4672
41.3868	7.75121	70.3721
29.8894	6.32436	73.8565
36.9841	5.255	72.5264
24.8633	6.93711	74.2457
21.1831	8.33681	74.1374
25.1573	5.44317	74.6899
17.8059	11.5077	73.4463
17.3717	12.3804	73.1384
18.576	10.6724	73.5942
34.8884	9.44056	72.2535
39.4572	10.6446	70.6438
29.5136	9.17136	73.3278
19.6293	11.508	72.6389
21.4793	10.6794	72.966
18.9455	12.0294	72.3868
18.46	12.443	72.2602
18.0267	12.9638	72.1929
13.9223	22.4984	77.4032
12.0694	25.4516	79.7575
15.4366	18.6881	74.7525
14.7808	24.8869	77.8447
16.9868	13.6656	72.9491
25.3148	24.6698	73.882
16.2435	17.3146	73.6988
16.0126	15.562	73.6469
16.9592	19.2904	73.8628
34.6229	10.6774	72.1463
29.3667	10.398	73.1182
19.6256	12.3058	72.0506
18.9799	12.5491	71.9608
21.2857	11.8467	72.3971
18.5154	12.9274	71.8579
43.3592	18.2526	67.8209
2.1523	31.844	85.0887
-0.368994	31.6351	84.8058
1.76281	28.4535	84.5638
4.34794	31.8118	85.0556
2.63173	35.8195	86.1182
19.7075	3.57748	77.295
19.4076	5.48945	76.3168
17.8949	5.02157	77.7637
20.6155	0.707745	78.5236
22.5499	1.95263	76.7884
16.0755	6.49133	78.6066
14.0654	8.18382	79.8779
16.1653	11.1527	75.3048
14.6426	11.8939	76.7122
16.2176	12.6368	74.2961
10.2552	20.7341	79.9001
10.5451	23.6981	80.2123
9.37385	21.6192	80.7316
19.4708	9.58961	73.886
19.2866	8.50434	74.634
19.2791	7.12708	75.3911
21.5265	5.55459	75.3298
14.3422	-63.7791	88.0962
14.1615	-63.6457	87.7181
16.5233	-63.435	87.655
12.6176	-63.5336	88.7517
18.323	-63.4594	86.9038
17.8872	-63.3116	86.6201
3.15535	-53.3725	100.108
5.42193	-53.4468	99.6968
3.10289	-52.035	100.145
0.476618	-53.5943	100.28
3.13617	-54.8225	99.8093
7.77385	-57.2542	98.0364
7.67689	-55.6082	98.7586
5.59367	-56.6399	98.7204
7.60296	-58.868	96.9508
9.83851	-58.0965	97.1267
12.0484	-59.1313	95.7558
12.2426	-57.6605	96.5473
11.7473	-60.7047	94.4996
14.066	-60.6199	93.9176
7.47929	-53.9845	99.1199
9.73645	-55.0742	98.2415
7.21476	-52.4756	99.2416
11.4395	-53.4095	97.3183
12.0713	-54.9023	97.1573
11.1125	-51.895	97.1648
8.65547	-52.1351	98.6013
15.5852	-62.1478	91.4216
15.9099	-61.0129	92.4308
6.91547	-60.7382	94.9157
4.84864	-60.0824	95.8577
6.42983	-61.6739	93.2063
9.19422	-61.3767	93.9417
11.3702	-62.1662	92.5845
11.0136	-62.9181	90.8776
19.7067	-62.3293	88.2066
14.836	-64.55	88.3858
14.6441	-64.4752	88.2058
12.6299	-64.5787	89.3265
15.0338	-64.7741	88.6136
15.9186	-66.1711	89.0838
15.6336	-65.6345	89.0062
13.7841	-67.0645	89.9789
11.1312	-67.1589	91.6076
10.8996	-66.2314	91.5514
8.52561	-67.3475	93.4024
11.3953	-68.1787	91.5022
5.16811	-65.0541	94.3915
5.3777	-66.2707	94.7014
8.05827	-65.123	93.073
5.03247	-63.8363	93.8752
2.31922	-64.8909	95.0627
0.118313	-67.1648	95.5173
0.237874	-68.0907	95.3457
2.58432	-67.1019	95.3756
0.0106323	-66.1615	95.5261
-2.20852	-67.1352	95.5839
18.4333	-65.0542	85.7226
18.5121	-64.478	86.522
18.6805	-66.5225	84.4645
16.649	-65.3511	86.4217
0.340179	-63.0866	89.5457
0.288763	-62.3822	91.452
2.40144	-63.3855	89.2354
0.344148	-64.1978	88.1682
-1.57052	-62.8793	89.6924
0.35674	-69.1206	95.0123
-2.03688	-68.9841	95.0202
0.432808	-70.1673	94.5308
2.96722	-69.1881	94.9957
-0.288605	-74.244	92.2169
2.66408	-74.4152	92.2806
0.179047	-72.6896	93.0851
-2.89575	-73.8971	92.2351
6.86437	-51.3718	99.1632
6.1782	-49.7233	98.8973
5.03857	-50.8177	99.5821
0.01827	-64.9187	95.3189
-2.16768	-64.8805	95.4445
0.0496086	-63.6004	94.8372
0.0720235	-62.802	94.3266
2.40524	-63.0489	94.0931
0.211731	-62.4616	93.866
-1.97909	-62.7543	94.415
5.007	-63.16	93.401
7.75528	-63.599	92.2648
5.03364	-62.7658	92.9677
2.09525	-62.393	92.9541
4.04948	-62.5679	92.5715
-1.8169	-62.1796	92.9465
10.2831	-64.0722	90.6136
10.2389	-63.907	90.2741
10.4883	-64.4468	90.8786
11.7199	-71.6889	90.7193
11.7816	-73.0134	90.2393
11.6534	-70.4876	91.0706
8.96815	-71.8817	92.2363
6.10805	-71.5503	93.5502
6.04022	-72.9294	92.7956
6.10042	-70.4106	94.0721
3.15733	-71.296	94.068
0.388023	-71.2965	93.9101
-2.13718	-71.2096	93.7885
10.2859	-62.9954	89.6099
8.61425	-62.4634	90.7226
10.5171	-62.9625	88.9398
21.8233	-62.8557	86.6211
20.7818	-63.9439	86.7388
18.7234	-64.3739	87.534
17.407	-64.8232	88.3649
4.76037	-63.8028	88.795
4.83697	-63.0663	90.4118
7.45492	-64.361	87.9115
4.8741	-64.9409	87.545
6.09665	-62.9025	92.1131
8.46576	-63.3556	90.7449
5.7059	-74.8398	91.7827
8.69032	-75.2862	90.7016
11.5325	-69.293	91.3464
8.85746	-69.5692	93.0643
11.6013	-74.7932	89.6032
14.5055	-73.2626	88.639
10.3283	-62.4312	88.437
8.5606	-61.8188	88.9842
10.2659	-60.9588	87.5646
12.2257	-62.9388	87.83
6.32887	-61.0982	89.6062
4.52906	-60.6337	89.8751
6.70407	-59.6819	88.3294
6.2205	-61.6802	90.7388
11.1062	-57.2422	86.3368
9.19956	-56.5272	86.7247
12.093	-52.1033	85.4407
12.7778	-57.8195	85.8996
19.6807	-69.6724	82.936
21.4585	-72.7916	81.1599
18.164	-70.0519	83.6184
0.333317	-66.2916	86.872
2.45358	-66.6448	86.6953
0.79768	-69.5084	85.8003
-1.38684	-66.1052	86.9628
7.30071	-55.9046	87.0617
5.34475	-55.3526	87.305
7.92049	-50.8943	86.4087
5.07206	-67.2808	86.3666
5.56486	-70.726	85.3941
7.89354	-68.1224	85.8002
23.0417	-61.9401	79.4216
25.0178	-61.4619	76.9023
12.5322	13.4259	78.6116
11.9464	11.9147	80.1915
78.9977	-8.45803	-43.1517
78.1961	-12.8571	-42.3651
77.2306	-7.81669	-46.5552
79.7073	-3.84426	-43.1536
80.4074	-9.00164	-41.4384
78.8404	9.90853	-5.31018
79.278	12.8952	-9.60635
77.9163	12.0351	-0.351051
79.4089	15.0972	-14.8987
79.2441	20.6752	-16.1878
79.683	10.0055	-16.007
80.0091	14.6981	-22.0348
71.7203	-32.9364	-33.9725
74.3074	-30.6495	-32.2567
70.3103	-37.2003	-31.4357
73.2044	-28.9753	-35.755
74.4156	-25.3264	-37.8319
71.8138	-27.2726	-40.7504
75.7892	-21.3349	-39.6347
76.6135	-24.2148	-35.9522
81.8257	-8.96062	-40.5476
83.3654	-8.44399	-40.1673
81.0941	-13.1623	-39.6469
82.3347	-3.90793	-40.7122
82.8139	-27.4287	-30.6302
84.175	-23.3435	-32.6923
83.4882	-27.8832	-29.4104
81.3325	-31.4751	-28.1258
87.8058	-17.6155	-30.6559
87.7966	-17.0623	-29.8636
75.1436	-40.267	-19.8479
75.5791	-40.4941	-19.1475
74.5511	-40.9853	-17.8172
74.473	-39.3183	-21.9568
76.1137	-33.3093	-7.09654
75.7074	-33.9423	-7.05707
75.1788	-34.9441	-7.2901
87.7418	-16.6918	-29.4452
87.1769	-17.3026	-28.4831
91.2695	-1.92044	-33.2567
91.3872	-1.25908	-34.7876
91.0817	-3.25685	-31.5916
91.8149	8.39204	-30.7369
92.1311	9.76467	-30.8474
92.305	11.874	-29.8002
91.6976	11.6727	-27.5502
92.507	12.3452	-30.2067
91.9789	13.9518	-26.663
81.06	-9.97889	-7.25688
82.574	-4.37178	-7.82887
80.5817	-9.26462	-5.86229
79.9637	-14.1499	-6.66577
74.5792	-26.6166	-0.309985
73.4685	-27.1729	2.48759
73.5842	-30.4104	-0.90036
75.6029	-22.2321	0.285051
79.0858	-21.2988	-9.45144
79.2632	-23.3426	-9.99437
79.1897	-19.3047	-9.5631
79.6654	9.50884	-16.0083
80.0874	10.8334	-19.5511
79.6999	9.50688	-15.7967
88.1895	17.1916	-16.5357
89.2275	18.9208	-19.7199
87.3394	17.6089	-17.7201
86.6479	14.0162	-13.529
88.9497	16.4699	-15.5354
88.8145	19.6117	-24.8512
87.985	19.3561	-21.7837
89.1065	19.75	-24.3435
89.3101	18.3277	-28.5845
87.9621	18.5417	-26.2439
89.3894	4.10258	-39.3699
88.5813	3.62561	-39.5558
89.8584	10.1266	-36.471
90.4493	4.35031	-38.8292
83.7135	0.351554	-8.40405
83.9622	-0.916093	-9.09185
92.1538	3.46586	-36.2713
92.7286	8.64293	-33.9916
91.7522	0.631168	-36.4695
92.2078	3.37286	-36.6426
91.4383	14.8342	-22.6286
90.4498	14.2555	-18.568
91.1906	13.4645	-23.3732
91.5594	15.8351	-22.0065
85.2456	1.17787	-11.2627
84.6151	-0.632285	-10.6809
85.9	3.55737	-11.9875
91.6677	4.1391	-33.5188
91.7307	2.07244	-35.4035
88.9188	6.7296	-21.7476
88.3779	5.3552	-20.9571
90.2843	6.27002	-25.9794
83.0428	-5.7187	-12.5559
83.2139	-5.42781	-13.2774
83.6381	-4.08213	-11.4248
88.0016	-4.67872	-26.7945
90.1748	-1.99035	-28.7238
87.7443	-4.23513	-26.1578
87.8431	-5.78553	-26.9596
76.5356	-18.161	0.321814
77.6356	-13.4585	-0.519393
75.5747	-18.4753	2.92046
82.7079	1.37478	-39.1916
81.5845	0.792961	-40.347
82.6761	6.08399	-37.0292
83.7432	3.90635	-38.2211
86.2682	8.90532	-35.5007
86.0941	12.7078	-32.2276
88.7653	13.5934	-33.5688
86.3323	4.80142	-38.4464
87.4668	2.6425	-39.5245
86.1429	-2.92068	-40.3342
85.558	-7.97044	-39.9835
78.3574	-23.5945	-35.0935
77.1776	-26.7491	-33.2598
79.4035	-20.3247	-36.7809
80.2974	-16.8927	-38.3684
78.6834	-17.1209	-39.387
86.5732	-17.2609	-27.4462
76.0618	-29.6623	-31.5241
74.7764	-33.2796	-29.1794
77.2204	-29.4047	-31.0861
74.4968	-37.2403	-24.5788
74.0559	-37.2365	-24.9284
73.2348	-40.7584	-19.9887
74.2432	-40.7439	-14.9801
73.7256	-40.9937	-14.8434
73.0922	-41.1954	-14.5243
88.0371	-6.53296	-27.4474
90.0977	-5.11415	-29.6625
80.0204	-8.66178	-4.71319
79.3753	-8.25666	-3.48059
77.1244	-22.544	-3.39963
77.4813	-22.6949	-4.11517
79.5463	-26.8948	-9.75742
80.4001	-28.885	-11.4053
79.8311	-25.7552	-10.609
79.2718	-17.2437	-6.19009
79.5941	-17.3114	-8.48151
85.7965	14.5363	-28.9776
83.3176	10.8269	-31.8288
84.8156	15.1554	-25.5756
82.3582	9.2771	-33.6628
81.9666	8.97338	-34.771
81.7204	11.4006	-29.3239
79.1609	-17.2946	-11.4184
79.4082	-17.2398	-10.5341
90.894	5.30752	-28.3843
90.6646	3.77953	-28.0414
83.6793	-4.69014	-14.7432
82.9347	-7.02801	-15.837
84.7514	-3.40694	-17.4485
87.7359	-3.38935	-25.6424
89.6602	0.275436	-26.8408
87.1454	-3.34794	-24.2347
6.78526	88.5906	63.1301
6.33217	81.7499	68.4836
14.172	87.9049	62.9422
7.32657	95.5496	56.3043
-0.793431	88.674	63.0747
5.53926	75.0326	72.9454
-1.0927	74.5357	72.9222
4.53047	67.9003	77.2011
12.1943	75.1581	72.6366
24.2106	63.0553	78.8731
23.6618	59.3038	82.2917
20.0791	63.3683	79.9574
3.17188	-28.3478	104.125
3.43073	-26.8228	105.898
1.62028	-28.3004	104.451
5.15785	-28.4466	103.016
3.82007	-17.213	110.422
6.42384	-17.2708	109.501
3.74976	-15.3871	109.887
1.38436	-17.1758	110.697
3.89765	-18.9341	110.491
3.92231	-20.8252	110.085
1.46512	-20.852	110.41
3.8896	-22.7924	109.183
3.61711	-33.0529	98.4414
1.80597	-33.2448	98.5907
3.33221	-41.4507	97.0145
4.9509	-40.7876	96.7361
1.3556	-41.8727	97.1384
3.7191	-24.8117	107.758
6.03585	-24.8532	106.652
1.51069	-24.8218	108.119
3.50214	-13.5471	108.954
6.05192	-13.7745	108.122
3.17424	-11.2012	107.279
1.13084	-13.4119	109.14
3.73196	49.6783	86.3616
-0.122566	48.3527	86.0604
3.51789	45.9282	87.4049
8.12295	51.608	86.3781
3.75544	54.0518	84.6795
1.44601	16.5985	86.8051
1.6577	13.9071	88.2977
1.32517	18.7569	85.8383
-0.166889	16.8286	86.7958
1.30967	20.8299	85.1315
3.39655	20.0346	84.8045
1.36715	23.0106	84.6761
-0.421141	20.9938	85.1286
2.55707	-60.1154	89.9739
0.333535	-59.9183	90.1461
2.82232	-58.4944	88.7072
2.23315	-61.0577	91.5421
2.21195	-61.2111	92.9999
-1.7412	-60.9846	93.0114
4.20405	-61.4852	92.5648
2.28666	-61.0172	94.2407
3.11167	-56.408	99.1555
3.00262	-57.9374	98.1433
0.3471	-56.3878	99.3332
2.61934	-59.6735	96.4036
0.210771	-59.4797	96.6068
3.07426	-51.033	99.9769
0.595516	-51.2889	100.18
3.16136	-54.755	87.4658
3.30352	-50.0371	86.8568
0.629055	-54.3673	87.5494
20.3071	86.9989	62.3199
19.3677	81.0465	67.367
26.0045	85.6682	61.3237
21.3201	93.2833	55.7927
14.3147	53.321	86.6423
13.9316	51.252	87.3746
19.2796	54.8472	86.5887
12.9408	57.1458	84.4333
15.3243	48.7503	87.9307
17.2751	45.7857	88.0094
20.0758	50.1925	87.5745
18.8173	43.3565	87.3472
14.5721	41.8528	88.211
22.5474	44.8078	86.705
24.5135	25.7936	74.5848
23.7349	28.0604	76.0079
21.2847	24.1476	74.5164
28.0769	26.8228	74.5012
26.0768	23.7	73.3893
22.1741	31.3865	78.4195
25.9311	32.4692	77.8632
18.9886	29.9691	78.7116
45.0793	89.2208	40.5534
46.5617	94.0825	30.5911
39.4535	92.765	42.9911
44.116	84.0986	47.8119
31.2473	84.2062	59.6336
32.5254	89.6023	53.4842
36.8448	82.18	57.1194
23.7131	55.5213	85.4288
24.2388	54.2474	85.9431
28.1913	55.6629	82.8995
26.0878	45.8337	85.503
25.92	47.7063	86.0104
25.1681	51.1884	86.1433
29.6619	32.5056	76.9798
30.7802	29.2269	75.1882
34.417	31.8792	75.5281
42.912	79.4887	53.4502
49.1218	76.3705	48.634
41.4059	75.0001	58.4546
33.9805	54.4004	78.2467
41.1269	50.8835	73.5747
38.1855	25.8914	72.82
38.3505	28.0144	73.3663
35.175	26.6679	73.6012
40.8321	24.8599	71.6719
38.8141	38.5342	76.2256
38.8798	35.0092	75.1805
44.1088	36.7817	73.3413
38.6326	31.0223	74.1604
39.3065	70.4338	63.3099
46.491	67.0717	58.1484
54.9712	73.5266	42.2331
53.9597	68.5462	47.435
60.1626	70.812	34.4941
41.2936	21.5504	70.1733
42.927	20.318	68.9344
43.2274	23.5089	70.1571
44.96	22.0374	68.7933
41.9777	22.3687	70.2575
49.0954	34.1132	69.7852
52.491	30.1207	66.2722
13.556	35.0926	84.28
11.4694	31.6036	82.9088
14.4147	32.2388	81.9986
12.6236	36.8006	85.7399
11.5368	38.1255	87.0108
9.44718	34.9494	85.4981
16.3399	27.6971	78.5284
17.919	24.1853	75.8304
4.63163	41.3282	88.1605
0.572183	41.0937	86.7232
60.262	-64.6372	-8.32933
61.8537	-59.7467	-6.41643
61.1349	-64.7639	-14.9099
78.7183	23.576	-36.757
78.424	19.6526	-42.6011
77.6693	29.3175	-41.7146
79.1039	25.8874	-28.5539
79.7862	17.809	-31.6125
74.9182	-7.48119	-52.4991
73.7838	-13.4977	-50.9969
72.7996	-7.60981	-58.1577
75.9984	-1.62444	-52.4964
76.73	4.61575	-52.0821
74.8929	6.39823	-58.6114
77.3918	10.1655	-50.1773
78.6341	2.50025	-45.7769
68.3416	-30.8889	-44.9192
65.2566	-34.1913	-48.8277
70.3041	-25.1218	-47.341
4.25911	60.6876	81.2813
-0.631391	58.9662	81.4313
9.05697	61.6952	81.2432
14.169	62.7307	80.6794
16.5022	68.8902	76.412
13.5345	-106.797	54.4474
11.9384	-104.517	47.2649
20.4022	-102.822	49.6216
7.44283	-108.857	57.5768
37.438	-88.5944	41.9298
33.428	-93.1352	47.584
41.1113	-84.5798	35.9242
37.9445	-86.3385	45.6756
52.9863	63.1772	52.0084
58.6435	59.2266	45.0202
18.0825	75.2008	71.779
65.2006	68.0711	25.0482
69.334	65.8181	14.9685
64.7839	61.6994	30.942
22.0922	100.482	46.4538
28.1618	98.3105	45.9231
22.6126	107.359	34.9871
15.3755	102.016	46.8592
62.2416	41.0097	46.1304
63.0935	48.1283	41.3878
45.5426	20.0438	67.7071
56.6303	29.264	61.4459
57.4982	23.1673	58.7104
55.4313	27.6716	62.607
54.0142	26.1188	63.6497
-4.63479	-107.491	40.4638
-6.93295	-107.257	40.5619
45.6872	-74.4701	36.9038
46.4809	-69.8421	39.8371
41.8972	-78.265	43.7743
45.2152	-78.2209	33.3067
5.82418	-47.3235	98.0656
7.39966	-47.9156	97.7342
5.76137	-43.9247	97.049
20.2969	-55.2934	90.0357
20.5875	-51.5733	90.0349
18.3395	-54.4168	91.8053
9.31611	-42.1801	95.4211
7.31048	-41.0482	96.0829
9.47734	-45.6755	96.1015
12.2705	-43.5298	94.1362
9.51643	-38.9311	94.8216
26.7161	-57.2995	84.6446
25.45	-61.4748	84.6421
28.2472	-57.862	82.9935
27.8923	-52.8541	84.3213
62.1837	17.5682	51.5021
60.0698	17.5234	54.6536
62.9189	11.39	51.2545
64.0169	17.893	48.1412
65.8638	18.3098	44.1592
68.1418	17.9052	38.6036
49.5678	16.8358	64.3085
49.5948	14.7845	64.004
57.9889	17.4781	57.2995
80.8016	9.68504	-36.8199
80.6226	5.90646	-40.0768
79.4602	11.7564	-40.9288
80.9291	12.2184	-32.7756
76.9796	-17.2643	-41.2912
74.9618	-17.7143	-44.4899
65.843	-51.7841	-16.8767
67.8027	-47.5455	-14.3728
64.7144	-53.7869	-10.3815
63.7698	-57.1829	-19.5012
66.9929	-48.3066	-22.8301
80.2534	1.20296	-42.136
72.3223	-28.1513	5.70312
71.0889	-32.4236	5.06
73.5081	-23.6507	6.12879
71.1259	-29.1422	10.1493
71.5922	-0.655845	31.3617
71.6456	7.94377	30.2043
71.043	-8.66053	32.3624
73.5234	-1.99701	22.4454
52.8217	11.3105	62.0912
50.8425	12.3694	63.3273
51.0504	8.66427	64.0844
48.9888	13.0735	64.4197
47.4944	11.5237	65.6926
69.9055	-29.6627	16.5328
68.6909	-29.88	23.4581
68.4506	-34.6787	15.7663
71.385	-24.2508	16.7355
26.7122	-13.9229	82.0659
29.9231	-15.2407	80.7991
24.8351	-8.83652	81.1348
23.731	-11.6602	83.4863
35.0518	-16.0825	78.7676
40.8988	-15.8346	76.1671
35.8676	-20.9483	79.2438
20.0559	-9.294	85.9017
16.2973	-6.6363	88.9945
20.9535	-13.1734	87.6566
24.5358	-20.4353	86.377
23.0059	-18.246	87.7395
20.2033	-23.0074	95.4917
18.47	-22.1366	97.8438
19.9475	-24.9776	94.8473
21.1497	-23.7805	93.8086
21.701	-24.6598	92.2306
21.0785	-27.3639	91.5415
36.2854	-35.6701	78.6298
32.3313	-35.8272	81.2787
35.1694	-41.6908	78.6536
36.5513	-30.3075	78.9754
36.4339	-25.6212	79.2224
6.52933	-35.7845	96.3295
6.34764	-37.9712	96.2679
7.79594	-35.9235	95.6775
46.7592	-51.4107	57.2565
49.6306	-45.0457	57.852
43.7125	-49.955	64.0057
44.1084	-57.6583	56.9596
24.5896	-47.6257	87.0458
22.6712	-47.3268	88.3633
26.6037	-47.7584	85.5635
33.6607	-47.7198	79.194
31.8248	-53.4843	79.9754
37.0612	-47.7987	75.0832
30.9992	-47.7911	81.8449
6.05118	-40.6778	96.4664
41.7548	-63.7942	56.9629
44.7576	-64.8508	49.0449
38.9272	-62.49	63.9719
39.3316	-70.3409	57.6976
57.0565	-26.9042	59.9213
55.067	-32.7136	59.215
60.5237	-27.8038	53.1798
19.7842	-107.108	68.8779
20.1621	-104.588	71.372
14.1509	-110.404	72.5498
30.0899	-89.287	66.5422
33.4634	-83.2571	63.2787
28.8188	-85.0769	71.0628
25.5992	-95.2825	70.3429
56.6532	-5.47862	63.4933
54.5087	-0.872286	64.4597
51.2104	-5.91205	68.6306
45.1564	9.64474	67.7346
46.5973	7.97466	67.3845
52.5035	2.21812	65.1953
47.5931	0.747631	69.3111
50.1782	4.45983	66.2547
42.7976	12.5147	68.4129
-7.09446	-110.289	87.0674
-9.67363	-109.944	87.4157
36.0076	-60.5924	70.6955
33.8688	-65.9905	71.5699
38.1353	-54.8364	70.2686
32.9095	-59.2563	76.4168
27.2053	-80.9669	75.2976
29.5949	-76.1572	73.8996
25.4766	-77.1109	78.8615
24.1264	-85.7818	76.8275
44.6379	-6.13992	72.5283
46.342	-10.5838	72.5677
42.7234	-2.48653	72.5945
40.519	-48.5605	70.0187
47.4925	-15.2878	72.2844
1.76987	-97.7691	87.7177
2.77123	-91.1713	88.0496
6.44727	-97.2882	85.6569
11.2923	-95.9102	83.3286
15.852	-93.4219	81.006
11.4244	-90.1699	84.4907
41.1281	0.144553	72.4729
39.6819	2.13837	72.4813
34.1602	-0.389199	74.6944
48.3502	6.25096	66.8286
44.1817	4.60443	69.9343
38.2932	3.82274	72.4572
31.4897	3.33343	74.247
12.8699	-4.46476	91.9808
13.688	-8.48963	94.73
12.2728	-0.118785	88.9464
15.3957	-16.0995	100.508
15.0958	-14.5815	99.3535
12.1866	-14.9697	103.815
15.7789	-17.2653	100.861
11.7515	10.033	81.6474
11.6799	7.61869	83.4757
22.5399	-3.91304	79.9688
1.84502	10.2373	90.7242
0.234499	10.5641	90.705
62.666	5.42914	53.1485
11.8709	4.09662	85.9888
48.2795	-64.0388	41.226
51.9642	-62.6081	33.6179
65.874	-15.5601	47.9377
64.8557	-22.3509	46.844
68.2694	-15.5504	40.2449
58.7602	-40.8068	44.0038
61.3548	-34.591	44.8032
55.9663	-39.8202	51.2369
61.3183	-41.1391	36.8036
63.4102	-28.4227	45.794
65.552	-29.3039	38.2585
9.46009	-112.681	75.5362
3.38861	-85.8153	88.5208
-0.133932	-85.2491	89.3954
7.31091	-86.1533	87.1997
11.3513	-85.438	85.7415
24.9964	11.0124	72.8958
27.6439	0.107303	76.0036
26.6028	2.26197	75.4838
25.8171	3.87418	75.0431
-3.34983	-84.5742	89.8954
-6.45994	-84.1836	90.101
5.05071	24.8885	83.6586
6.68587	24.1251	82.8748
5.44432	28.1143	83.9902
3.30728	25.2321	84.2022
5.18036	21.7912	83.6497
17.5673	13.8226	72.2857
17.3821	15.0371	72.3681
16.0743	13.9618	73.8895
8.19375	22.8146	81.7931
8.3029	26.3913	82.4252
1.4974	25.6161	84.4584
-0.502919	25.698	84.4329
6.9284	-28.355	101.81
7.62554	-26.914	103.237
9.2611	-17.3584	107.72
9.26264	-15.8185	107.206
12.6032	-17.6753	104.778
19.9507	-32.3242	88.9579
19.66	-31.0565	90.146
17.2368	-33.5321	90.2574
8.87666	-14.2067	106.516
6.00515	18.4107	83.7472
5.93616	31.9271	84.9344
7.24414	31.5648	84.5364
17.6594	16.6154	72.5573
8.49889	30.7427	83.8155
9.7738	29.0391	82.5355
10.7803	27.3684	81.3563
20.9883	-38.4545	87.9986
18.2154	-38.6485	89.5722
20.8749	-42.1406	88.8179
20.6441	-46.7481	89.6531
18.4446	-45.9486	90.9807
17.1255	-62.7826	86.2197
17.2637	-61.3289	85.1011
15.3596	-62.9419	86.9309
18.9274	-61.7853	89.1305
17.5701	-61.0362	90.8291
18.8373	-57.5375	82.9626
16.4099	-58.0785	84.5259
20.799	-53.0259	80.9358
15.1638	-38.3518	91.3428
12.182	-37.4099	93.065
15.395	-41.1219	91.8027
15.9144	-44.9306	92.3074
16.2012	-48.8747	92.9342
13.8829	-63.3173	87.4677
13.5414	-61.7308	86.7016
14.52	-58.0632	85.3186
16.2747	-52.9668	83.7449
9.71536	-36.4343	94.5752
9.86599	-34.5796	94.5546
10.4991	-49.3888	96.6338
13.8263	-50.8973	95.0472
20.9174	-15.8789	89.887
17.7884	-13.926	93.7218
2.85659	-8.02222	104.636
0.769028	-7.84599	104.727
14.4133	-11.9505	97.3849
8.4655	-24.6928	105.081
11.3245	-24.8386	102.535
14.589	-25.2681	99.5283
15.4354	-23.1857	100.363
17.5628	-26.0217	96.4522
19.1202	-27.1107	94.2361
19.6179	-28.5577	92.5596
19.6874	-29.8527	91.2082
15.847	-18.3402	101.23
15.7973	-19.6198	101.379
15.7666	-21.3157	101.016
36.893	-141.803	12.7969
32.3093	-143.216	15.9269
38.3523	-148.01	11.8537
41.0389	-140.243	9.58501
34.9682	-133.329	14.1672
32.7537	-121.628	16.1203
36.9075	-120.206	12.5057
31.5687	-111.58	18.2238
28.2978	-122.934	19.7047
33.4227	-97.3454	25.4387
37.572	-94.6847	20.7652
28.7495	-99.8343	29.7409
32.6614	-100.864	22.1503
31.9846	-105.267	19.8991
27.3258	-106.857	24.265
36.0127	-103.473	15.7548
31.8149	-71.1148	72.6188
34.4321	-74.0369	66.3309
29.4204	-68.6518	77.3638
36.4893	-76.7374	60.2288
37.9249	-79.9963	54.025
38.2396	-83.4427	49.479
27.2653	-66.6242	80.9638
28.7189	-62.7488	80.743
25.518	-65.5166	83.2142
25.4934	-70.4357	81.4258
24.444	-64.5763	84.4758
23.0293	-66.9902	84.886
41.1869	-92.0163	15.9842
42.3544	-88.3084	19.2283
40.3647	-96.2894	13.2747
44.3578	-89.6215	10.862
43.4648	-85.4285	22.9099
46.3574	-82.769	16.9238
44.1853	-83.2494	26.3313
44.739	-81.0402	29.7476
48.0806	-77.7238	23.6104
40.8181	-118.618	8.78672
42.8977	-130.246	7.36622
44.5909	-117.376	4.87087
39.6365	-108.483	10.2027
44.7694	-138.747	6.25299
46.4797	-145.111	5.24396
48.2785	-137.27	2.60768
39.7169	-101.315	11.5724
67.2741	-29.758	30.8601
65.4639	-35.4901	30.3049
68.934	-23.4115	31.3532
50.8328	-75.0581	17.1588
49.8081	-77.8273	14.0977
53.0462	-73.1746	10.4219
71.1592	17.0671	29.8499
74.2191	14.8862	18.8683
55.526	-60.9358	25.9321
58.4302	-59.3045	18.1454
63.4702	-41.0621	29.7019
65.2301	-40.7533	22.3364
70.1838	-16.0903	32.3946
71.6386	-17.245	24.3012
66.849	-39.6837	15.1509
68.4426	-38.0911	8.62039
52.5448	-86.4651	-4.68244
52.6041	-91.2722	-6.03911
54.8219	-86.1649	-9.46822
52.6807	-82.2909	-3.02807
50.0059	-86.9598	0.200681
52.8337	-96.728	-6.85032
53.1402	-78.4678	-0.674212
51.0081	-79.3707	4.80846
55.203	-77.8348	-6.30226
53.8448	-75.0642	1.50116
75.1288	-2.99439	13.6422
75.8708	5.16057	11.0324
73.9896	-11.2005	15.9476
76.4739	13.7092	7.97361
76.8873	21.7874	5.19154
77.1723	29.8787	1.99467
78.5217	28.9364	-8.96405
77.4552	37.9348	-1.87282
60.6131	-57.5652	10.1741
62.2733	-56.0744	2.33456
72.7529	-18.091	16.9067
73.7305	-18.7816	10.522
48.3015	-116.093	0.570174
50.0483	-127.462	-0.50743
48.8441	-80.747	10.9575
47.8942	-84.0976	7.91796
51.6052	-135.69	-1.50398
53.136	-141.762	-2.67417
58.0126	-112.158	-16.8771
59.0418	-121.678	-18.2888
56.7735	-85.7445	-14.2499
58.1801	-84.1261	-19.3188
56.9372	-81.284	-13.1941
57.316	-76.9228	-11.8148
59.8969	-128.81	-19.8278
60.6112	-134.418	-21.7855
63.5064	-55.2742	-4.74318
69.8277	-36.5284	4.16457
71.3149	-34.5993	0.942562
68.7525	-40.2316	2.62892
74.6009	-18.8536	6.31763
58.3217	-91.7048	-27.3948
57.3614	-87.5108	-34.1261
58.5072	-85.4796	-26.1903
59.1088	-79.6717	-25.1538
58.9932	-73.3599	-31.1431
61.9623	-63.2507	-21.4234
69.1233	-45.1322	-13.1509
71.0772	-42.402	-19.7523
56.0275	-118.147	-45.4451
56.4675	-125.88	-46.8825
52.9882	-115.501	-52.4016
55.6439	-109.897	-43.9205
68.5514	-43.275	-27.5887
71.1137	-39.6679	-25.8843
72.9836	-37.9493	-25.1856
27.5301	-144.424	18.8526
25.7307	-135.965	20.6051
22.7174	-145.536	21.4727
29.058	-150.473	17.5134
21.7886	-108.007	28.8607
15.927	-108.637	33.0004
21.7781	-113.812	26.3932
22.2774	-104.612	31.2181
26.3934	-99.2201	44.5736
24.4394	-100.107	38.8966
27.6901	-98.7791	49.4386
23.023	-102.209	34.2202
16.922	-103.759	38.3799
23.3661	-123.853	23.3909
18.3498	-125.162	26.7236
23.8628	-74.3012	81.6457
22.3557	-71.6676	83.9211
28.8734	-98.4095	53.1693
21.4815	-69.6635	85.3104
19.5766	-72.3848	85.8106
20.9408	-67.8901	86.2396
20.4526	-66.4639	86.8368
18.77	-68.5522	87.589
20.3754	-89.9981	78.8007
20.5735	-95.357	76.4369
20.5223	-100.54	73.9368
15.2575	-65.216	88.8843
13.1007	-65.5218	89.8318
14.4744	-64.5025	87.9692
16.8295	-64.4816	87.7021
14.3069	-64.8282	87.328
12.5009	-64.3913	88.511
14.2415	-65.3891	86.6934
14.6084	-66.9328	85.6603
11.8624	-65.1725	86.9016
15.9754	-70.1816	84.176
17.0375	-73.3151	83.0941
13.3576	-69.6845	84.8076
9.99732	-108.57	36.4018
9.81641	-106.013	38.8819
11.0206	-115.095	33.3597
17.8405	-146.704	23.8233
16.0691	-138.395	26.0539
13.0252	-147.59	25.827
19.3184	-152.412	22.2318
13.4651	-126.271	29.6472
0.0460137	-104.055	45.2315
4.12703	-104.636	43.7634
1.5829	-105.725	51.5916
8.80055	-148.218	27.2916
10.1769	-153.696	25.6234
2.64282	-110.192	59.295
10.0479	-63.8647	89.5209
9.84417	-64.1271	88.4204
9.6058	-64.7395	87.4302
9.77999	-65.9691	86.4257
10.4975	-68.9762	85.3004
11.2952	-72.3355	84.4505
72.7065	48.6669	15.7883
75.6691	46.9251	4.72408
72.9584	56.3948	10.1932
68.8207	51.3057	26.4941
78.979	27.7072	-19.1697
72.038	-19.4361	-49.6263
69.3375	-21.2809	-54.5574
49.7028	-94.1396	-54.9729
50.1292	-83.9952	-53.7987
52.4307	-97.1635	-49.5249
49.794	-104.35	-56.2064
46.7972	-91.9336	-59.8519
50.1582	-113.313	-57.5961
50.7783	-121.85	-58.8567
47.1205	-111.682	-62.2564
55.6017	-81.9869	-41.3187
55.1603	-91.4556	-41.9376
53.342	-77.5693	-47.6006
56.6611	-73.6568	-39.8514
22.7037	113.567	21.3778
29.4512	110.823	21.2454
22.6051	118.217	6.33764
15.612	115.479	21.5411
22.5528	102.128	-78.8477
23.1686	110.882	-62.9853
29.6244	100.129	-76.9304
21.8095	91.2026	-91.9953
15.1251	103.526	-80.296
21.3751	79.2323	-101.515
28.2193	77.6018	-99.5022
21.1163	66.0021	-108.692
14.4112	79.9889	-103.133
23.259	116.815	-45.911
30.4083	114.354	-44.2544
15.7852	118.604	-47.0093
23.1658	119.905	-28.0784
7.95667	123.466	-11.2571
0.0224155	123.861	-11.4492
7.92892	121.353	5.9504
15.6183	122.287	-10.8886
7.99539	122.986	-29.3731
20.8591	52.9933	-113.599
27.294	51.6349	-111.545
20.5403	39.5275	-116.869
14.342	53.7558	-115.066
20.0313	25.4612	-118.672
26.3594	24.4947	-116.474
19.5242	11.5815	-118.844
13.7172	26.3988	-120.187
17.3261	-26.9327	-107.887
23.0668	-27.662	-105.712
16.8626	-38.555	-100.538
11.7979	-26.8394	-109.057
18.2342	-14.3822	-113.743
6.53795	-0.449368	-120.018
0.149191	-0.377969	-120.352
6.75745	12.7103	-121.441
12.7762	-0.873654	-118.997
6.22519	-13.2982	-116.449
14.5691	-85.029	-83.0469
14.9111	-75.5383	-83.9803
19.6962	-85.7761	-81.7224
14.3617	-94.4671	-82.7227
9.62657	-84.5956	-83.7938
4.60906	-103.038	-83.3751
9.4612	-103.479	-83.104
4.73067	-112.689	-83.2054
-0.0632626	-102.824	-83.4414
4.70797	-93.3742	-83.6783
16.8686	-47.7011	-94.4536
22.039	-48.256	-92.8886
16.3748	-55.8772	-89.8835
11.2561	-47.2552	-95.462
15.5126	-65.2806	-86.262
20.958	-66.3608	-84.5343
10.371	-64.4992	-87.2454
5.18197	-64.2158	-87.685
5.47268	-54.9926	-91.3446
4.87719	-74.6555	-85.274
-0.0302086	-64.4026	-87.7175
47.5954	98.8344	18.5495
53.233	93.3507	17.3715
48.4129	102.659	4.86062
41.8412	103.418	19.8374
47.1028	70.6407	-89.4305
52.4989	67.5533	-85.1716
46.7916	58.6304	-96.2136
41.3135	73.2643	-93.272
47.443	81.5569	-80.2652
47.726	91.0897	-68.2581
42.1025	94.6708	-71.5283
48.3061	98.1729	-54.1374
53.188	86.7159	-64.6516
48.9425	102.513	-39.4188
54.62	96.8918	-37.6239
43.1871	107.157	-41.0526
49.664	104.139	-24.5835
49.3528	104.253	-9.63551
43.3533	109.29	-9.54711
55.0716	98.4457	-9.685
46.194	46.4651	-101.122
45.5435	33.8433	-104.374
40.3674	48.3344	-105.064
51.5442	44.2785	-96.8016
44.5875	21.0683	-106.198
49.818	19.6625	-101.847
43.5851	8.14863	-106.307
39.0186	22.1625	-110.032
42.2142	-4.33696	-104.859
40.7503	-17.1638	-101.341
37.0798	-4.03406	-108.507
46.8907	-5.04541	-100.665
39.681	-29.6598	-95.4862
44.2261	-29.3641	-91.6555
38.8083	-40.4934	-89.1071
34.5395	-29.0867	-99.4137
37.9386	-49.8787	-83.4366
36.9936	-59.2412	-78.5494
32.9606	-49.7141	-87.1435
42.2852	-50.0459	-79.1751
34.7324	-87.4978	-73.7603
33.9344	-97.4498	-74.7267
29.9069	-87.1088	-77.1335
35.6082	-77.9295	-73.62
39.0732	-88.4196	-69.7885
24.072	-104.991	-80.2414
24.303	-113.825	-80.4854
19.1271	-104.31	-81.6507
24.3073	-95.9261	-79.9831
29.0623	-105.878	-78.1714
36.2332	-68.6755	-75.1802
40.62	-68.9837	-70.6726
31.577	-68.0729	-78.9121
66.9072	70.4254	-51.1845
67.9565	74.407	-39.6632
70.7606	63.6823	-45.316
66.1441	64.2365	-61.6802
62.7201	76.3549	-56.4432
68.6865	76.6986	-28.2431
72.343	68.9128	-23.0141
64.4983	83.9852	-32.4173
69.0464	77.7361	-16.9539
68.1874	78.5986	-6.05137
70.9182	71.2293	-1.1878
64.5766	85.5267	-8.41835
56.2304	42.0624	-92.2582
56.8843	53.3128	-87.3072
60.461	39.4392	-87.4142
55.5133	30.1818	-95.4945
57.1994	64.316	-80.6773
57.5768	73.8914	-71.9849
61.5868	60.4486	-75.7342
51.4745	-5.70623	-95.6911
53.3523	6.24887	-97.0383
55.8362	-6.49986	-90.1294
49.5684	-17.6945	-92.583
54.5424	18.0659	-97.1159
58.8853	16.7266	-92.0037
48.2516	-28.8597	-87.5124
52.1383	-28.7947	-82.3828
47.3576	-39.8266	-80.7634
46.1365	-49.3748	-74.9206
49.5902	-47.7523	-70.8943
44.9461	-69.5826	-65.0375
48.516	-72.0114	-58.5592
43.9838	-79.5364	-64.2478
76.1943	35.3259	-46.8776
75.4193	29.305	-54.3439
74.3816	40.7297	-52.519
58.2915	87.2652	16.8214
59.1432	91.0404	3.5565
77.1464	45.7366	-6.32185
76.5397	53.466	-11.5893
65.7803	-7.19785	-74.2198
62.8411	-7.31016	-79.396
67.4291	2.21562	-75.6411
68.4769	-7.525	-68.6206
63.7005	-17.0038	-71.4084
68.3892	11.7339	-76.2724
65.6043	13.4777	-81.7633
69.322	20.7955	-74.7601
71.0047	9.66771	-70.1647
70.1924	29.9961	-71.358
67.3418	33.4366	-77.0577
71.1208	38.4235	-65.8268
72.6837	26.173	-65.3827
57.3204	-41.895	-60.0828
54.8279	-44.1363	-63.644
59.2924	-34.3079	-63.9827
59.8015	-39.732	-56.2786
55.5656	-49.5988	-56.3403
66.7408	-22.9074	-59.2376
64.5514	-30.1858	-55.9613
64.2273	-24.5175	-63.405
68.8889	-15.4675	-61.6015
51.2259	-74.5686	-52.952
52.5592	-65.6237	-52.9311
71.5785	-38.3782	-4.80362
72.457	-34.8822	-2.695
69.3817	-41.4895	-2.60146
72.5497	-33.1908	-1.19435
78.7691	-7.10791	-2.26416
79.6118	-1.67557	-4.20825
91.4372	4.24786	-38.0872
91.7023	10.1063	-35.592
92.0416	3.84802	-37.3781
79.3966	-35.68	-24.9515
77.8633	-38.5563	-21.5987
91.3808	14.852	-31.9653
90.4355	15.1665	-32.4642
90.7527	18.0221	-27.7433
92.2401	14.1777	-31.4035
84.8378	9.69899	-10.938
83.4882	9.69433	-11.6209
90.0171	19.3447	-23.3882
90.9193	18.6209	-22.6427
85.6612	-18.8846	-35.0366
80.5095	-36.5909	-17.523
79.7122	-36.5537	-14.8444
78.6599	-38.6643	-18.0546
80.0857	1.01402	-5.92609
86.6265	17.561	-18.8265
84.6374	14.4204	-16.1434
85.5159	16.6835	-20.4369
82.1536	9.99595	-13.0734
81.2697	10.4591	-14.6903
89.7796	15.006	-32.693
80.5033	10.2106	-16.1581
81.807	12.2362	-18.833
83.4164	14.1875	-22.4584
81.2006	12.0151	-23.5688
84.3474	-27.4863	-27.9255
84.0504	-29.2615	-20.2829
76.9594	-39.8861	-18.5206
78.8743	-35.7798	-12.5395
80.2844	-32.8747	-12.4551
81.4674	-30.4645	-13.2793
82.108	-28.8647	-14.193
92.2173	3.5413	-36.963
92.7633	9.19735	-34.5552
89.4039	15.871	-15.0904
89.5607	15.2236	-14.8032
90.6301	17.5739	-18.2017
89.5198	14.5969	-14.6662
90.8075	16.3733	-17.721
89.3178	13.4932	-14.8532
92.5995	13.6276	-31.0431
92.0909	16.5451	-26.8236
92.7004	13.1137	-30.9028
91.4585	17.9013	-22.1623
91.667	17.2923	-22.0434
91.6604	16.687	-21.7759
92.208	15.4717	-26.4551
92.6454	12.7253	-30.5831
91.5141	-0.881357	-35.9455
89.0111	12.1598	-15.4238
86.2096	4.74234	-13.0037
90.946	11.9525	-24.0244
90.8021	-4.06585	-30.8125
90.9116	-2.16567	-30.477
90.8874	-0.282256	-29.8562
90.7153	1.22113	-28.9183
90.3833	2.44174	-27.6359
89.4685	3.27037	-25.0471
80.1818	-25.3696	-11.8443
81.3539	-26.9456	-13.5596
84.0178	-2.06842	-10.0557
79.5451	-17.2643	-9.7165
82.2746	-28.136	-14.6774
31.5859	26.9778	74.1541
33.7283	95.9166	44.687
34.9657	101.934	33.701
7.65332	103.095	46.9004
7.84343	110.36	35.2081
-0.47365	103.44	46.7462
35.7126	107.542	20.5861
36.0904	111.89	6.09083
7.87575	116.642	21.5691
-0.168491	117.068	21.3642
22.8729	120.295	-10.4207
30.0332	117.428	-9.96394
36.76	113.809	-9.77499
37.0807	113.638	-26.1016
64.1223	54.9437	36.1376
72.3588	64.0076	3.91248
74.3421	62.2805	-6.39062
60.0144	92.3928	-9.63473
60.3911	92.0679	-22.581
8.00617	119.701	-47.5946
7.94119	113.507	-65.0394
0.11433	120.063	-47.7838
36.8503	111.274	-42.4385
36.5825	105.887	-59.0392
74.8023	61.1247	-17.3048
74.627	59.5831	-28.307
59.6172	90.9223	-35.4975
58.8238	87.6064	-48.2115
73.7358	56.8719	-39.2048
72.8489	52.4829	-49.5321
71.9398	46.3901	-58.4233
69.0184	51.4314	-64.4629
43.2643	-90.2213	-64.95
42.8147	-100.313	-66.2875
43.0924	-109.742	-67.3134
43.4928	-118.423	-68.5119
38.4256	-107.951	-71.9052
7.65406	104.456	-80.9722
7.39806	92.9337	-94.4057
0.164318	104.639	-81.3754
7.3783	80.4087	-104.059
7.42805	67.218	-111.063
0.165911	80.5206	-104.375
7.44633	54.1893	-115.946
7.30643	41.0049	-119.217
0.161976	54.3764	-116.225
7.01733	27.0411	-121.113
0.16833	27.0681	-121.439
18.9475	-1.55137	-117.296
25.0969	-2.49617	-114.927
5.86053	-26.6449	-109.857
5.74269	-38.7149	-101.73
0.120533	-26.763	-110.003
5.64047	-47.3719	-95.7225
0.0344948	-47.5876	-95.6712
4.79163	-84.1179	-84.1767
-0.0641097	-83.9006	-84.2763
34.8605	75.6248	-96.7465
35.368	87.3374	-87.2596
34.4558	62.928	-103.714
35.9372	97.6367	-74.6483
33.905	50.1438	-108.63
33.4173	36.9571	-111.83
32.7694	23.4644	-113.55
32.137	9.74562	-113.587
31.2782	-3.34432	-111.921
30.1377	-16.0583	-108.418
28.8849	-28.371	-102.9
27.894	-39.5813	-96.3536
27.5536	-49.0132	-90.4245
27.199	-57.9265	-85.5422
26.3507	-67.2189	-82.142
25.6022	-76.955	-80.2288
24.9675	-86.3864	-79.7367
33.9256	-106.747	-75.3866
34.3052	-115.593	-76.0165
58.0144	82.0307	-60.7685
65.5054	56.4812	-70.1314
64.8933	46.7555	-77.1981
64.0695	36.8053	-82.4236
63.2865	26.0625	-85.695
62.429	15.2779	-87.042
61.3584	4.13334	-86.465
59.4976	-7.1433	-84.7367
57.4181	-17.9419	-81.7772
55.4622	-27.9041	-77.7588
58.5585	-27.2823	-72.6708
53.8084	-37.6267	-72.3817
52.3056	-45.9639	-67.3616
54.1342	-57.6162	-53.5082
56.0497	-56.1283	-50.115
74.5618	22.9601	-59.8577
73.8456	15.5435	-63.0517
76.299	19.1507	-53.7831
70.6684	-7.59715	-63.6148
72.1077	0.294436	-64.4865
61.4134	-26.0106	-68.0623
73.0439	8.20998	-64.6247
62.3465	-37.3725	-52.5902
60.386	-44.5055	-49.3917
10.2465	-104.787	41.5596
54.9698	-71.766	3.75248
47.2612	-87.8777	5.66657
12.1836	-56.2306	96.9634
14.3767	-58.138	95.2516
16.1031	-60.0293	92.938
5.59874	-67.2751	94.7822
5.80973	-68.2915	94.6915
5.97631	-69.3506	94.4547
17.3085	-74.8835	86.3799
16.8656	-72.6839	87.4826
16.7894	-70.9169	88.1129
16.4189	-52.9246	93.2369
30.1447	-58.3559	80.6158
29.5365	-36.5184	83.0329
29.2111	-42.1763	83.4535
28.7499	-47.8104	83.8683
52.5747	-38.6831	58.4618
18.6213	21.9709	74.3096
77.8625	15.4088	-47.3105
80.4057	13.9325	-27.8759
80.9692	11.9176	-25.4885
67.3513	-44.5458	0.82542
25.0106	9.68522	73.3728
48.988	46.2746	67.674
10.1991	-33.1466	94.6675
44.0115	18.8109	67.8494
14.4648	-32.6671	92.4768
80.8403	11.7131	-24.4207
55.2604	-100.88	-42.9321
58.7534	-65.4958	-37.9199
58.2308	-58.898	-43.0361
58.5186	-53.0391	-46.7132
25.5536	-29.3596	84.7572
10.6326	-65.3337	91.3518
18.5329	-64.2759	87.0181
6.28199	-61.8666	92.1503
-66.3999	-49.2983	11.2159
-67.4159	-44.5797	12.3405
-67.671	-47.0468	4.52132
-65.297	-53.5621	10.1371
-64.8708	-51.3522	18.9387
-55.6886	-114.723	-5.66597
-54.9654	-104.449	-5.04099
-57.6987	-113.557	-10.2577
-56.8722	-125.118	-7.05731
-53.157	-115.662	-1.21792
-57.951	-132.681	-8.52756
-55.6715	-134.461	-3.89942
-59.6187	-130.935	-13.2114
-58.8828	-138.614	-9.94721
-49.1845	-98.6051	5.54248
-52.2198	-97.7384	0.25901
-49.2493	-106.198	4.42785
-46.1238	-99.9276	10.5018
-49.7281	-92.8251	6.61939
-58.2643	-96.2383	-13.5615
-56.7474	-96.6607	-9.02841
-58.3223	-90.8983	-13.2781
-59.2222	-95.0686	-18.9101
-58.4431	-103.149	-14.0172
-58.5221	-68.1494	22.4642
-60.137	-66.2925	14.7477
-57.127	-71.5191	20.5767
-56.1934	-70.7048	30.6322
-59.853	-64.472	24.1087
-70.3428	30.9915	22.3582
-73.9977	29.6002	10.7427
-69.8651	23.1911	25.3993
-66.0005	33.8945	33.0109
-71.2863	39.216	17.9029
-77.0256	42.0258	-29.5727
-78.0529	34.5151	-24.8233
-77.278	43.7814	-19.1275
-75.6146	49.2185	-34.6334
-76.5864	39.0593	-39.0788
-13.1115	-106.416	39.5892
-13.9814	-102.753	41.9336
-15.4664	-106.209	38.8801
-11.9015	-115.074	37.8787
-11.0852	-106.66	40.0833
-11.787	-127.891	34.1927
-12.1479	-140.089	30.2791
-8.86707	-128.11	35.0968
-14.9933	-126.935	32.9929
-5.48905	-148.901	29.08
-5.62892	-154.294	27.5889
-5.52734	-140.786	31.5338
-8.9818	-148.548	28.6658
-64.1236	-53.5578	-32.3066
-65.1629	-46.0237	-36.5757
-61.6174	-59.4208	-34.5115
-63.3825	-59.8404	-27.0046
-66.5984	-47.6709	-30.1696
-66.26	-40.6283	-39.6777
-69.3432	-36.1462	-36.6441
-67.3164	-35.9174	-42.1785
-62.7133	-46.2338	-42.9098
-60.4872	-124.114	-29.649
-61.0072	-127.178	-23.1715
-59.0281	-121.325	-36.4895
-60.6956	-130.76	-32.0451
-6.05251	-128.504	35.507
-7.2113	-115.779	39.0415
-62.8554	-52.4549	27.5133
-61.8168	-57.0415	26.7438
-60.3074	-53.0999	35.5489
-64.0786	-46.9389	27.9317
-61.2727	-64.7664	7.13274
-62.7744	-61.0993	8.15296
-62.0909	-63.8812	-0.678655
-59.7256	-68.2951	5.78265
-19.0503	-108.264	85.1185
-18.8892	-103.174	86.9257
-23.4644	-107.325	83.1266
-19.1263	-111.793	82.654
-15.2066	-108.955	86.572
-27.9332	-105.828	80.9096
-27.5944	-100.779	82.9022
-31.9935	-103.497	78.6142
-27.8458	-109.579	78.5333
-11.8651	-97.0154	89.7346
-12.238	-103.918	89.0407
-11.0713	-89.9104	89.8339
-15.0308	-96.8873	89.0289
-19.334	-113.819	79.8582
-15.5163	-114.584	81.1941
-23.472	-112.892	78.1597
-19.4683	-114.835	76.5059
-19.7858	-114.69	72.2536
-19.5257	-112.868	66.7796
-15.8401	-115.47	72.7216
-15.2369	-0.568895	82.2414
-12.7829	1.72431	83.6914
-14.8846	3.65313	79.7162
-17.6739	-2.2281	80.8696
-15.7994	-5.02195	84.594
-45.361	-26.0069	72.6283
-45.2893	-31.0542	72.0346
-40.0593	-25.8026	76.5339
-45.1856	-21.3571	72.9458
-50.4932	-26.497	67.5483
-55.772	-16.1081	62.3443
-55.8689	-21.6087	61.7183
-50.3776	-16.0747	68.4021
-55.0759	-10.5122	62.9556
-60.8188	-15.6605	54.5858
-66.4752	1.35383	41.3585
-64.298	3.54977	45.9386
-65.9944	8.53161	40.3931
-68.199	0.00174098	36.215
-44.582	-36.4947	71.5796
-39.8574	-35.9957	76.1068
-48.9602	-37.6383	66.102
-43.4594	-42.3891	71.5238
-1.05405	0.137725	97.9383
-2.82386	-0.37241	97.3746
-1.09893	-4.36821	101.424
-1.19185	5.64834	93.858
-29.1316	72.3899	66.1402
-30.7235	77.7929	62.0926
-34.3656	70.6971	63.3971
-27.1555	66.2862	70.5965
-24.2609	73.322	68.3182
-11.0789	-110.578	60.642
-11.8502	-114.303	67.3776
-14.2618	-109.978	60.2432
-10.1955	-105.461	53.6249
-57.1147	-53.6062	43.5932
-58.8336	-47.2622	43.4802
-55.6322	-59.655	43.496
-53.7782	-53.2189	51.2672
-12.3117	-115.212	81.9156
-12.5241	-116.257	77.9978
-12.1974	-113.195	84.7706
-12.3016	-116.094	73.1436
-41.9689	-96.0281	63.013
-42.0048	-93.7869	66.2097
-44.298	-90.5468	58.0166
-41.2226	-97.5474	59.7335
-39.1468	-101.569	67.509
-42.379	-92.2638	37.2746
-38.8596	-95.2617	42.2058
-44.0072	-90.5872	41.5288
-45.6007	-88.95	32.1456
-40.438	-94.1911	32.9341
-10.1357	-102.403	46.9982
-10.3615	-103.015	42.7074
-12.2873	-102.149	46.5343
-5.81913	-9.49045	102.51
-3.35872	-8.65715	103.895
-5.3867	-5.75675	99.5082
-8.71477	-10.8383	100.245
-6.20529	-12.4319	104.878
-25.581	-24.9022	83.5503
-22.5429	-22.0925	85.2082
-24.0964	-19.8356	83.7555
-29.1018	-25.8978	82.0159
-24.4833	-62.6573	87.8327
-22.0878	-63.4687	88.7682
-22.7783	-61.8601	88.4978
-12.1488	-30.5307	94.2983
-14.0335	-31.2939	92.6249
-11.241	-31.4405	93.7859
-13.9332	-29.3355	94.5618
-10.8893	-34.7519	92.0814
-8.90602	-33.7769	93.371
-10.8369	-33.8688	92.306
-13.6727	-35.3218	90.4869
-11.2082	-36.0712	91.8981
0.134371	-30.8109	100.679
-1.77278	-30.5805	99.981
-0.00712481	-31.9236	99.3834
0.0290216	-29.6531	102.244
-16.842	-34.7174	88.8938
-17.2891	-35.9298	88.7497
-16.4209	-33.8965	89.2643
-19.5467	-32.775	87.4232
-6.36117	-20.7124	107.348
-6.48266	-19.0375	107.72
-9.43384	-20.9868	104.565
-6.14646	-22.6565	106.423
-3.59159	-20.8243	109.093
-27.766	-80.3234	85.3959
-30.6557	-84.6177	83.2023
-25.6089	-82.7581	86.2002
-24.8497	-76.8195	87.2295
-29.3916	-77.2527	84.6401
-22.9466	-55.7797	88.9374
-24.8424	-55.8149	87.9016
-20.9636	-54.9086	90.0441
-23.2094	-51.2216	88.5574
-0.410304	-36.3681	97.0844
-0.238118	-34.398	97.6945
-2.24309	-35.8514	96.7068
-0.451332	-38.7647	96.856
-5.05638	-1.41635	96.2402
-5.24112	3.20608	92.5546
-7.82886	-3.14033	94.3302
-18.8895	-23.3867	91.1652
-19.2797	-22.8752	89.9153
-19.0535	-25.137	90.3374
-18.2733	-22.4326	93.1993
-18.0501	-21.2727	93.194
-3.74574	-32.3174	97.1256
-2.07602	-32.5609	97.9398
-3.724	-31.3161	97.8182
-5.40047	-32.4897	96.0155
-3.61335	-33.7561	96.578
-3.47495	-30.4536	98.8972
-3.38408	-29.4698	100.348
-17.3625	-21.1664	95.1019
-17.869	-23.104	94.2842
-17.0759	-20.1786	95.273
-18.8027	-28.0293	89.4892
-17.901	-30.5931	89.3505
-18.172	-26.613	91.7291
-1.07348	-47.5288	98.6984
-0.861908	-44.5307	97.6163
-2.86817	-47.1284	98.3335
-1.44717	-49.6547	99.5668
-22.7563	-37.3701	86.3376
-22.4455	-33.4848	85.7878
-25.0313	-36.7191	85.0879
-23.0303	-41.6461	87.116
-20.5333	-38.0581	87.5877
-12.4309	-77.4269	90.9067
-15.6294	-77.8879	90.2291
-13.9776	-80.1781	90.0583
-9.62231	-77.1787	91.1942
-11.4509	-75.3439	91.7475
-18.0727	-58.9373	91.5026
-18.6405	-57.2539	91.3584
-19.945	-60.2309	90.0841
-18.0334	-59.8592	91.3465
-16.7839	-19.4869	95.0609
-15.0369	-18.1153	97.3058
-16.8434	-18.6988	93.6901
-18.5129	-77.5174	89.5598
-17.0009	-75.3941	90.4579
-21.0513	-76.3303	88.9199
-20.4968	-80.3862	88.46
-6.97081	-77.0764	91.1378
-6.11965	-75.2831	91.7357
-8.05695	-79.8196	90.5688
-57.7134	28.1179	54.462
-58.3852	29.0681	52.6482
-59.5591	21.772	50.712
-56.8883	27.3788	56.1806
-37.2055	57.0419	67.797
-38.729	62.8177	63.5701
-43.3985	53.8032	63.5492
-36.0445	52.1121	71.5079
-31.8082	59.1522	71.3363
-49.8356	49.7523	57.9922
-51.2099	55.4068	53.2311
-55.97	44.7124	50.7366
-49.1946	45.3154	61.6671
-36.8357	44.8551	73.8452
-36.0473	47.3369	73.7661
-37.7222	42.0423	73.4843
-31.6595	46.519	78.1387
-59.589	30.1497	49.4711
-62.6297	23.5691	43.8739
-54.9717	37.1114	57.1142
-60.3956	33.0188	46.4596
-19.5947	35.839	79.0252
-16.2909	34.1186	79.4677
-18.2646	37.7789	80.1245
-23.7013	36.5452	78.0705
-20.9652	33.294	77.5029
-5.79079	14	84.6704
-5.57174	11.4364	86.3929
-3.39337	15.6154	86.0654
-5.88934	15.9939	83.597
-8.20848	11.9391	82.7175
-29.2585	-6.84983	77.2004
-23.1795	-5.59605	79.149
-27.2747	-2.99768	76.4116
-36.3756	-6.81599	74.7763
-31.1613	-11.4145	78.0954
-56.5446	7.38917	56.2992
-54.2206	4.30409	59.7514
-53.9976	8.91622	58.3504
-57.296	11.4722	54.5718
-58.8244	6.02446	54.1089
-5.36888	7.7722	89.1135
-3.08694	9.33875	90.1399
-7.83473	5.71812	87.5834
-38.4662	39.6041	73.0378
-38.4998	37.4161	72.731
-32.6713	41.7582	77.266
-44.6325	37.7318	69.303
-50.1982	35.1928	65.1529
-53.8855	31.0821	61.2885
-49.8165	33.1604	65.5237
-53.1827	16.1878	58.4611
-55.0537	16.2171	56.7267
-52.7844	12.9773	58.6266
-51.1269	16.0025	60.0684
-53.3955	19.8048	59.0434
-41.4673	20.1097	67.442
-39.7838	21.2093	68.811
-42.8801	18.7841	66.0015
-37.9272	22.1698	69.9041
-35.7259	22.8933	70.7029
-38.1064	23.2441	70.2281
-40.2021	22.2033	69.0628
-35.5994	23.9767	71.0693
-33.0847	23.3907	71.2128
-30.3517	23.4394	71.5292
-32.8094	24.3778	71.5556
-29.8607	24.3792	71.8733
-27.6842	23.0249	71.7424
-25.2457	22.0101	71.7436
-22.9122	20.3851	71.4058
-20.9898	18.6062	70.9463
-21.7579	21.0959	71.6874
-24.1629	22.7221	72.0333
-19.8796	19.1871	71.2534
-19.7976	17.0946	70.5468
-20.5097	21.5912	72.057
-23.1008	23.5782	72.4728
-32.5487	25.5018	71.9834
-29.3432	25.4898	72.3449
-46.1208	14.274	62.9335
-45.1313	13.2693	63.6012
-28.5765	36.354	76.7422
-29.3474	33.8787	75.5046
-27.7859	38.7573	77.8582
-33.3683	35.6573	74.9869
-46.3454	26.2484	66.9005
-44.6477	24.1545	67.4289
-42.8842	27.786	69.2835
-47.9454	28.649	66.3425
-36.349	6.0605	70.5618
-29.8917	5.81786	72.5697
-41.6489	7.09272	67.8548
-36.9933	4.65765	70.7533
-24.6286	6.82702	73.2006
-24.6714	5.29901	73.7524
-21.0595	8.38334	73.0813
-17.577	12.0621	72.2109
-18.33	10.8784	72.5658
-17.2129	12.9604	71.9119
-35.3551	8.87251	70.1722
-29.9075	8.74278	71.7894
-40.041	9.95587	67.8613
-20.4635	11.95	71.2478
-19.6938	12.57	70.9499
-22.0525	10.9559	71.6946
-19.0894	13.0708	70.8352
-18.562	13.6926	70.785
-13.3247	20.9632	75.1375
-11.689	23.1791	77.0071
-14.7148	23.2981	75.1343
-15.2278	18.8428	73.1638
-16.929	14.4196	71.7223
-26.1207	24.9351	72.5671
-16.261	18.0189	72.2471
-17.3731	19.8799	72.286
-15.7311	16.3507	72.4082
-35.1848	10.1135	69.9948
-29.837	9.96026	71.529
-20.6882	12.8324	70.6006
-22.1406	12.195	71.0409
-19.9238	13.1643	70.4587
-19.4951	13.5542	70.2875
-43.8202	17.4906	64.7713
-2.81157	31.7382	84.3304
-3.06459	35.3232	84.7914
-4.78178	31.5377	83.723
-2.57746	28.4734	84.0852
-18.5934	3.04325	76.8365
-21.3133	1.56951	76.3299
-19.0921	0.275448	78.2372
-16.7009	4.63699	77.2376
-18.401	5.09579	75.747
-14.6694	6.36682	78.0308
-12.5878	8.22333	79.226
-15.1395	11.5288	74.4048
-15.4332	13.1397	73.3618
-13.4156	12.24	75.7811
-9.30194	19.7274	78.5251
-8.53432	20.7383	79.4474
-9.85912	22.1187	78.2335
-19.2645	9.70877	72.8503
-18.7688	8.4701	73.7401
-18.4007	6.87728	74.7249
-20.7609	5.24049	74.6348
-14.1237	-62.4812	90.0226
-12.599	-62.257	90.2308
-16.0008	-62.2452	90.042
-13.8153	-62.3378	89.566
-17.5882	-62.1822	89.3214
-17.2574	-62.1039	89.0112
-2.00829	-53.3081	100.139
-2.15227	-54.7944	99.8388
-1.8458	-51.9468	100.163
-4.32504	-53.2823	99.7554
-6.84678	-56.8142	98.2596
-8.91365	-57.4238	97.4167
-6.85792	-58.2091	97.3136
-4.84771	-56.3945	98.8282
-6.63571	-55.2973	98.9239
-11.1836	-58.1957	96.1918
-13.1063	-59.5287	94.5805
-11.1031	-59.6833	95.0487
-11.1967	-56.8429	96.8948
-6.33243	-53.7513	99.2446
-5.97647	-52.2466	99.3323
-8.56242	-54.6232	98.4595
-10.1354	-52.8866	97.559
-10.8405	-54.274	97.4401
-7.37912	-51.8474	98.7198
-9.65567	-51.4358	97.4105
-14.8843	-61.0212	92.6055
-14.9733	-59.9141	93.335
-6.52011	-60.0247	95.3573
-8.71603	-60.4959	94.4247
-6.17286	-61.006	93.6713
-4.41504	-59.7284	95.9822
-11.0616	-60.9387	93.5364
-10.6932	-61.6668	91.9841
-18.9846	-60.9949	90.3726
-20.4069	-61.8677	89.2737
-14.7504	-63.2269	90.5339
-15.0079	-63.4566	90.8427
-13.1641	-63.2421	91.0782
-14.5112	-63.1591	90.2674
-16.2867	-64.8764	91.4533
-15.0916	-65.6805	92.0435
-15.8348	-64.3198	91.3476
-13.0439	-65.975	93.1059
-13.3816	-66.9481	93.1131
-10.8608	-66.0727	94.3838
-12.6971	-65.1237	92.9802
-8.08493	-64.1806	94.8591
-5.94367	-64.3397	95.3493
-7.72876	-63.0682	94.3238
-10.1441	-63.9751	93.913
-8.45857	-65.342	95.1935
-4.28403	-66.8992	95.7081
-4.2102	-65.9105	95.7153
-6.30046	-66.4917	95.7213
-4.33569	-67.8177	95.5375
-17.834	-63.7607	88.2385
-17.8117	-63.1959	88.9832
-16.1101	-63.9334	88.8902
-18.1504	-65.2045	87.0693
-3.36922	-62.7947	89.6415
-3.52887	-62.1196	91.545
-3.1627	-63.8912	88.3167
-5.03579	-62.7792	89.5279
-4.33826	-68.8201	95.1749
-6.53414	-68.4149	95.3856
-4.42649	-69.7799	94.6983
-5.29752	-73.6504	92.4403
-4.82438	-72.2306	93.2249
-7.76453	-73.3197	92.7948
-5.58548	-51.1957	99.229
-3.68233	-50.6611	99.6075
-4.81203	-49.5994	98.9255
-4.08299	-64.7324	95.5066
-3.91121	-63.4368	95.0165
-3.79995	-62.6775	94.4955
-3.79123	-62.3208	93.9988
-5.64421	-62.646	94.4025
-7.56006	-62.4956	93.8526
-7.42944	-62.2152	93.3768
-9.49475	-62.6352	93.0635
-3.74732	-62.065	93.033
-5.47735	-62.0197	92.8025
-11.2388	-62.8338	91.9471
-11.5989	-63.2308	92.2459
-11.0492	-62.6658	91.5755
-14.281	-70.3071	92.5673
-14.7414	-71.5684	92.12
-11.8283	-70.5071	93.5751
-13.9059	-69.1279	92.8724
-9.53314	-70.3594	94.3297
-9.93518	-71.6315	93.6224
-6.88901	-70.468	94.4244
-9.22023	-69.3399	94.7883
-4.55768	-70.8582	94.0612
-10.3895	-61.7869	90.843
-10.0982	-61.5226	89.9807
-9.08885	-61.5908	91.4853
-18.0728	-63.0457	89.9057
-16.8968	-63.4625	90.7621
-6.75439	-62.8589	89.3339
-6.94966	-62.2016	90.8935
-6.6903	-63.9422	88.1724
-8.65384	-63.1312	88.8657
-7.21085	-62.0544	92.5007
-9.08161	-62.2285	91.4487
-10.4798	-73.2575	92.7727
-13.0975	-73.7268	92.0466
-13.6421	-67.987	93.0491
-11.2938	-68.1874	94.2867
-15.719	-73.3803	91.3687
-18.0443	-72.008	90.7682
-9.76643	-61.0324	89.4019
