1450
103.711861 -9.329460 93.302856 
101.523102 -0.700945 99.663483 
46.500576 -112.077980 67.719681 
47.649559 -111.439583 68.582359 
44.528400 -112.364281 68.878738 
48.472763 -111.408218 66.003136 
53.535717 -103.975334 77.233940 
56.203838 -103.476097 74.880257 
54.006962 -101.982155 78.088364 
50.628902 -104.098541 79.188622 
52.967598 -105.733604 75.979538 
52.006359 -107.477158 74.240883 
48.976902 -107.724960 76.241898 
50.727039 -109.093452 72.107414 
43.882580 -114.156418 62.580139 
41.874699 -114.546318 63.910278 
39.530262 -126.292458 57.227383 
41.791119 -126.335159 55.679676 
36.584660 -126.753899 58.883579 
49.226379 -110.387901 70.149796 
51.479820 -109.815437 68.050217 
46.452423 -110.720116 71.946556 
54.161938 -100.113724 78.573601 
56.490978 -99.839035 76.397858 
54.234741 -97.519936 78.780098 
51.410240 -99.969376 80.477737 
74.479576 -20.765501 109.039276 
66.673042 -20.265841 114.653145 
71.979736 -25.396559 107.030281 
81.988197 -19.845419 104.464363 
76.869804 -14.809759 111.442238 
52.801701 -56.651699 83.588402 
52.290840 -60.908401 82.432838 
53.347698 -53.461376 84.635742 
50.831059 -56.354340 84.981262 
54.069260 -50.604259 85.797462 
56.025757 -51.346821 83.630821 
54.901001 -47.880562 87.313660 
51.996983 -50.432758 87.247437 
28.281401 -145.339600 42.697899 
25.061260 -145.380203 44.568298 
28.756559 -142.297394 42.204960 
28.177521 -147.502594 43.734180 
28.434559 -148.405594 44.523918 
25.593679 -148.498001 46.008480 
31.379179 -148.110199 42.539417 
28.955919 -148.679993 45.114582 
33.964699 -147.191803 49.477539 
32.653042 -148.017792 48.092655 
29.739220 -147.446594 51.941956 
30.792021 -148.579193 46.661160 
27.302660 -148.696793 48.472900 
36.984921 -142.147598 53.840218 
32.439960 -142.818192 56.146858 
29.601040 -137.171997 42.863239 
30.812460 -131.055679 44.754219 
25.930241 -136.934555 45.070339 
100.700325 39.515839 110.175659 
100.447197 29.099699 110.021378 
106.660683 38.921120 103.745590 
100.474777 51.633537 108.819763 
90.499779 -18.245501 99.842819 
88.505760 -22.192520 98.556778 
97.536598 -16.973040 96.089836 
91.478943 -12.576409 102.554626 
88.126358 -25.974060 95.739418 
88.446396 -29.477699 92.056854 
94.363075 -24.846920 92.559319 
89.013260 -31.940300 88.147499 
83.698441 -33.175659 90.615982 
94.017563 -30.707319 85.800819 
85.229057 -41.955898 72.189323 
85.177399 -40.483799 74.171997 
80.072021 -43.158360 72.792297 
89.995636 -41.523438 70.445335 
86.273041 -43.885937 69.076698 
85.034454 -38.678921 76.891777 
89.775414 -38.040379 74.974197 
80.410118 -39.699940 77.801781 
119.276222 60.202942 74.286377 
117.304741 74.012115 68.256302 
115.183739 61.914440 83.452599 
120.336998 48.543320 77.133698 
111.590492 38.767960 97.005295 
111.557037 49.623421 95.264687 
116.211899 38.710419 88.865417 
102.475380 -15.977079 91.937721 
102.169899 -18.928139 90.546112 
107.018936 -14.757120 85.934799 
98.765236 -29.335039 82.673500 
99.840157 -27.331499 84.508484 
100.895477 -23.082920 88.123978 
94.201515 -38.099319 71.969238 
94.346840 -40.038460 69.600861 
99.014717 -38.372879 67.617760 
120.420441 38.909359 78.983238 
123.854912 39.605999 67.766022 
119.902992 30.217741 80.005661 
111.242874 -13.698649 76.766197 
115.001320 -13.540100 67.479858 
101.283836 -41.789299 61.107342 
101.943939 -40.399101 62.173576 
98.382477 -41.611359 64.656197 
103.403015 -41.695499 57.391460 
105.738640 -32.239201 66.500839 
104.293556 -35.193901 65.000458 
109.256279 -32.401039 60.202518 
102.868500 -38.299801 63.392418 
118.774597 21.883680 80.351601 
122.340538 22.029419 69.388618 
126.072235 41.911938 55.786636 
125.779358 32.204060 56.884239 
126.815079 45.517639 43.228218 
102.451859 -43.234238 53.155758 
102.928558 -43.044258 49.616280 
104.830040 -41.393242 53.182499 
105.362465 -41.276199 49.303799 
103.541473 -42.460041 53.405521 
111.832703 -31.958778 53.643242 
112.873596 -31.839640 46.633579 
77.277901 -37.513840 84.181442 
72.466660 -39.782681 82.502419 
76.537300 -39.064899 81.078758 
77.486076 -36.447041 86.866364 
77.311363 -35.648899 89.732292 
72.310982 -37.552479 88.459000 
75.707939 -41.775719 77.079239 
75.374878 -43.737961 74.179977 
69.208298 -30.511040 103.473579 
63.239819 -29.338541 107.460495 
50.322300 -62.510281 -105.751663 
56.038223 -59.073837 -101.712524 
46.660179 -56.712597 -111.830734 
89.664116 58.043159 -72.256096 
84.337814 59.046398 -80.483482 
88.000221 68.499054 -71.415260 
95.871017 53.047543 -63.070137 
91.649879 47.128342 -72.828979 
63.013443 38.804501 -108.644058 
60.032562 30.986059 -111.305458 
56.973137 43.776459 -112.354057 
66.757042 45.094135 -104.733162 
70.480621 51.426201 -99.901199 
65.105881 59.245899 -103.098938 
74.715897 55.670719 -94.211594 
75.678963 43.464119 -97.216141 
50.098022 6.858082 -116.042076 
42.444359 6.851992 -119.959702 
53.336639 15.225699 -114.917877 
79.987183 -4.389350 115.040237 
71.031517 -5.416432 120.427299 
88.010719 -3.846976 109.543282 
94.651619 -2.691150 104.818283 
98.177795 9.221898 107.063316 
8.066981 -157.024002 -39.652481 
1.489194 -151.939194 -44.796360 
14.287700 -149.716003 -46.271397 
1.894746 -161.658005 -34.441120 
44.382942 -129.785873 -57.977219 
37.966042 -138.587814 -51.821136 
49.201317 -121.253159 -63.885639 
49.305759 -131.053009 -53.963280 
124.869781 22.628481 57.045940 
126.129639 24.072439 44.159081 
99.596275 19.369141 109.019112 
126.475159 50.655781 29.179920 
124.921715 56.776440 15.508780 
126.744797 38.630756 29.654240 
98.867867 67.227303 105.658279 
105.174721 65.347794 98.923576 
95.823273 84.449394 100.290817 
91.437363 68.527481 112.245140 
123.032562 3.197460 28.675362 
124.824974 14.941640 29.437101 
104.894295 -41.571320 46.160240 
115.942818 -26.252239 37.876858 
113.706741 -29.169701 30.927959 
114.274857 -29.314878 39.275040 
112.600739 -32.047680 40.557861 
-26.653900 -156.378601 -45.917061 
-29.605799 -156.620804 -43.923180 
62.647202 -113.327057 -62.126682 
67.609779 -112.125298 -57.931156 
59.400463 -122.660995 -54.952942 
57.187061 -113.362061 -66.533043 
42.699440 -136.525330 52.047657 
44.645298 -136.944626 50.023682 
42.888859 -131.949860 53.310879 
56.162117 -137.786041 24.999659 
57.428978 -134.227097 29.245018 
54.737759 -138.117706 31.183458 
47.071079 -128.745819 49.758240 
44.852219 -127.170258 52.733238 
47.124561 -133.443390 48.327438 
49.715542 -129.470749 46.083797 
47.072762 -123.509674 51.153057 
61.705139 -135.549530 10.337193 
58.881481 -138.542740 7.002492 
63.281960 -134.765823 6.685294 
64.055321 -131.917236 14.509601 
114.387558 -27.927618 16.954140 
112.971596 -30.780680 21.229321 
112.703499 -34.741699 11.367874 
115.536263 -24.664919 12.830370 
116.430298 -20.665400 8.039766 
116.642960 -16.078440 0.778189 
105.834816 -40.714661 37.205139 
104.631378 -42.687122 35.164921 
111.497673 -33.307121 24.997978 
86.551361 43.110199 -84.834816 
82.878456 41.998039 -90.710899 
83.341858 49.021561 -85.978477 
90.111275 42.196697 -79.199959 
68.195816 18.220160 -107.933136 
63.552860 20.566978 -109.762939 
57.073521 -41.053459 -107.008163 
62.839558 -38.780701 -103.058060 
59.090363 -49.134541 -102.697418 
50.322998 -44.451820 -111.893745 
55.905499 -31.918880 -110.031174 
79.300621 38.804501 -96.097672 
88.704842 -36.238857 -72.045959 
85.606499 -40.223259 -75.574097 
91.648483 -31.783640 -68.483940 
89.767433 -41.441959 -68.064636 
110.367043 -29.830359 -23.786980 
112.996101 -19.402319 -17.748360 
107.628212 -39.648697 -28.992460 
107.655098 -23.276119 -34.676041 
105.289940 -45.016438 28.416780 
104.294266 -44.967297 31.687321 
103.421494 -49.976082 29.556799 
103.408905 -45.014477 34.648602 
101.869041 -47.833660 35.749001 
91.997498 -48.051918 -61.795158 
94.523102 -54.749519 -54.661320 
88.571556 -52.674015 -66.020218 
95.238495 -42.349579 -57.794102 
69.468140 -86.867340 46.281898 
72.940559 -87.517502 41.517002 
69.034981 -81.568336 50.470558 
67.074982 -85.888184 51.543655 
79.181618 -88.008759 35.458920 
86.244759 -87.339981 29.247540 
78.586617 -93.861183 31.670799 
64.704498 -85.388664 57.405457 
62.811558 -84.441841 62.963036 
65.027199 -90.241753 55.387638 
65.659721 -97.092796 46.311859 
65.430122 -95.673195 50.125317 
63.450096 -103.996620 54.701920 
62.863079 -103.923111 57.863117 
61.925220 -105.904678 53.142323 
63.454441 -104.261505 52.440777 
63.147697 -104.383438 50.411480 
61.263580 -106.551201 49.095615 
75.653900 -111.744492 19.029221 
70.829781 -113.073517 24.522959 
73.884857 -117.784096 14.596820 
76.989777 -105.996376 23.195478 
77.722679 -99.740479 27.688219 
44.549679 -117.787178 56.810459 
43.931999 -121.625000 55.408497 
45.493843 -118.330101 55.132416 
84.615860 -108.168335 -26.522999 
89.298439 -102.454796 -21.625938 
82.676437 -113.278061 -15.996120 
79.320641 -114.126038 -31.077339 
61.977161 -128.602875 25.370520 
60.038582 -129.016434 29.021299 
63.897121 -128.005783 22.228220 
71.467201 -123.617195 9.988762 
68.542038 -129.082230 5.441520 
75.372360 -121.085442 2.929584 
68.154099 -125.686813 15.446059 
43.296818 -126.691879 54.363541 
73.223358 -120.318665 -35.273281 
72.725517 -115.555153 -45.095119 
72.933563 -124.572701 -23.908218 
67.150162 -126.953957 -36.087379 
99.346100 -87.059700 -7.491036 
96.412392 -92.304657 -12.313434 
100.929634 -81.052437 -17.131380 
29.081079 -163.862991 -27.405140 
32.355679 -163.018799 -23.857401 
21.972580 -169.933395 -23.785160 
48.616119 -147.435394 -28.572182 
54.742657 -140.891800 -31.936239 
50.706181 -147.457809 -21.586599 
42.119980 -154.473190 -24.110239 
104.845581 -66.170998 15.023820 
104.187012 -61.658379 20.679680 
100.018661 -71.142677 23.224178 
99.443672 -51.938183 37.915501 
99.981979 -53.628262 35.266418 
103.216255 -58.675121 24.973478 
98.562096 -63.713718 31.222239 
101.863297 -56.840698 29.166338 
98.633080 -49.447720 42.678158 
3.196186 -180.676987 0.804177 
-0.080647 -180.879990 2.348024 
71.129799 -128.140869 -13.918660 
66.766983 -132.927063 -15.843939 
75.252518 -123.185165 -10.305287 
68.196655 -131.308090 -5.077296 
51.771576 -147.267395 -15.182160 
56.963482 -142.546600 -16.142420 
51.860199 -147.219788 -7.968352 
46.177177 -152.429199 -12.146260 
93.163132 -74.592140 30.882879 
93.801674 -79.650902 26.322660 
92.364998 -70.140556 35.113400 
79.499695 -117.484077 -6.039600 
93.770180 -84.661224 21.511280 
18.024580 -172.519196 6.501474 
20.831020 -169.384598 11.261362 
23.495920 -170.074799 2.999626 
29.128260 -166.783386 -1.006774 
34.815899 -162.535797 -4.668972 
31.602060 -164.180801 3.823512 
91.624260 -66.948135 38.138802 
90.867561 -64.691757 40.683159 
83.741982 -68.771080 44.574879 
100.857956 -55.148243 32.252918 
96.713539 -59.687458 36.910019 
90.239525 -62.732319 42.881161 
82.478905 -64.307457 49.078537 
60.800461 -83.675758 67.488815 
61.548901 -89.191475 66.465561 
60.482239 -77.219940 68.595802 
62.853840 -99.072815 65.206535 
62.643421 -97.057373 65.471977 
60.996460 -99.308853 69.643982 
62.967941 -100.276123 64.519562 
61.356121 -62.054302 71.850098 
60.891880 -65.827576 71.057564 
68.496544 -76.225945 54.356121 
52.050316 -66.750320 81.020096 
49.920918 -66.347679 82.508575 
111.147812 -43.602440 8.718500 
60.537540 -71.018776 69.846840 
72.765976 -109.227440 -53.904343 
73.240440 -99.719055 -62.950161 
107.207939 -62.061298 -15.125880 
104.160698 -68.369423 -21.617680 
106.509338 -54.751202 -24.433920 
93.894920 -85.411201 -36.465519 
97.714821 -79.675819 -31.723579 
94.274315 -91.361900 -26.864880 
92.449837 -79.164116 -45.793022 
101.147614 -73.854904 -26.851582 
99.673843 -67.716881 -36.558758 
16.193520 -174.497391 -20.340879 
23.194221 -166.976593 15.431219 
18.610060 -168.070007 18.096819 
28.315838 -165.071198 12.086423 
33.304180 -162.408386 8.105216 
78.518723 -54.476521 59.216778 
76.499359 -68.904358 50.531181 
76.298737 -66.036316 52.692078 
76.168816 -63.791279 54.305439 
14.468579 -168.593597 20.292580 
10.604467 -168.681793 22.328878 
59.652180 -45.330742 86.023560 
60.985817 -45.888638 83.926781 
61.849617 -42.244160 88.459839 
57.937740 -45.246460 87.677940 
58.285500 -48.744499 83.533936 
69.179176 -51.854458 65.742035 
69.406960 -50.762882 66.761940 
67.136444 -53.248577 68.268898 
61.982758 -46.852119 81.548317 
64.422394 -43.604538 83.462257 
56.083302 -44.916901 89.433258 
53.692101 -44.770882 91.050255 
49.901039 -110.791801 64.441299 
51.363338 -110.154243 64.990097 
58.481499 -102.912880 72.013481 
58.823097 -101.188354 72.776199 
60.845543 -102.132095 68.303757 
57.551056 -109.795006 45.698658 
58.039238 -109.215126 47.574799 
54.316216 -111.902695 47.809578 
58.754360 -99.422119 73.500137 
57.795639 -52.688019 80.749199 
65.261139 -39.049500 91.363022 
66.849998 -39.530682 88.826080 
70.599197 -49.330822 67.859116 
67.907562 -40.355839 85.984360 
68.326019 -41.440559 83.037224 
68.610222 -42.754601 80.576019 
57.288841 -117.463783 38.921959 
54.428219 -118.800636 42.362320 
57.548397 -123.415321 36.392021 
57.739498 -129.366577 32.860798 
55.047722 -129.775513 37.695839 
49.452057 -140.193192 14.135941 
49.435677 -138.446976 14.673959 
47.826797 -141.502197 17.117380 
52.625160 -141.521790 17.965361 
52.261440 -142.308594 22.723539 
50.116360 -133.891388 16.339960 
47.532101 -135.725800 21.159599 
51.207661 -128.430542 19.140100 
51.881481 -119.768173 45.611717 
49.314857 -120.057281 49.159882 
52.181782 -124.378235 43.961121 
52.535980 -129.736877 41.698437 
52.559639 -134.420853 39.630360 
45.740238 -142.690796 20.848379 
44.830383 -141.087799 23.133320 
45.044300 -136.815430 25.405798 
46.595078 -130.893005 27.511120 
47.146259 -119.236320 52.606678 
47.355701 -115.847481 54.000240 
47.440678 -137.538101 46.030041 
50.134277 -138.017868 41.716782 
64.861160 -94.180237 54.948177 
63.701397 -94.035904 60.728081 
53.952080 -93.629333 78.861160 
51.458961 -93.480095 80.620956 
62.132561 -93.590981 65.902199 
53.542858 -109.050621 66.097359 
55.393803 -108.425797 63.201740 
57.516060 -107.850540 59.332561 
59.828716 -106.131760 60.406082 
59.290840 -107.539604 55.259960 
59.960457 -107.658035 52.237221 
59.487541 -108.202217 50.275536 
58.806580 -108.674446 48.816883 
62.812401 -101.398216 63.996941 
62.303642 -102.753281 63.189556 
61.340443 -104.436218 61.871738 
-10.098970 -164.263397 -123.973495 
-14.721001 -168.715393 -118.961502 
-11.772823 -170.168610 -130.888382 
-5.979568 -159.618195 -128.665604 
-7.656012 -156.202194 -114.547012 
-3.734766 -144.740402 -101.768799 
0.204310 -139.867279 -106.993881 
0.479888 -134.587036 -90.748138 
-7.925638 -149.577408 -96.375023 
14.702380 -124.306847 -74.104660 
18.918200 -117.930122 -79.653137 
10.163006 -130.497070 -68.845558 
9.638454 -124.807205 -79.150398 
5.036878 -128.083481 -83.784538 
1.083110 -133.554825 -77.969360 
8.805300 -122.914825 -89.208138 
62.269199 -137.454239 -16.894781 
62.428799 -135.709702 -25.658079 
60.641281 -139.328552 -8.660441 
61.311321 -133.398712 -35.301418 
58.051838 -132.379379 -43.078560 
54.068981 -131.595093 -49.271038 
59.238621 -140.138596 -2.577750 
62.350819 -137.013794 -0.907767 
57.785141 -140.552994 2.123436 
55.513500 -143.460800 -2.820454 
56.595699 -140.711197 5.073054 
54.332741 -142.661392 4.660642 
22.751678 -111.827240 -84.916580 
29.272039 -110.955460 -81.205177 
17.397800 -113.641777 -89.551277 
25.757479 -105.338097 -91.362175 
36.815659 -111.164337 -77.604660 
38.058720 -103.494438 -84.144478 
44.458820 -111.605202 -74.278824 
51.338703 -112.777557 -70.393539 
51.480522 -104.136482 -77.433304 
3.935848 -134.804871 -112.098137 
0.005257 -146.587006 -124.138840 
7.242676 -130.023178 -117.659355 
8.113671 -124.461403 -101.863724 
-2.440424 -154.942200 -133.275513 
-3.962924 -160.990189 -140.526398 
0.652144 -150.031006 -138.058472 
12.562620 -117.622963 -94.712524 
97.305595 -61.306000 -45.978519 
93.829819 -66.970543 -50.527122 
100.848579 -55.001942 -40.874119 
50.720600 -96.280235 -84.029823 
44.684361 -96.127922 -87.249962 
49.347057 -88.519058 -90.477516 
115.747803 -9.186213 -10.331566 
112.796181 -1.733186 -24.579100 
72.130661 -90.755142 -71.169838 
70.053482 -81.589478 -78.740196 
90.153145 -72.484299 -54.805237 
87.440079 -65.221519 -63.111019 
104.566559 -47.823723 -34.477940 
101.553619 -41.648880 -44.726219 
84.976494 -57.362759 -69.993279 
83.097282 -49.588142 -75.583199 
29.865639 -88.732002 -111.265137 
26.174398 -92.524879 -115.592819 
30.083200 -84.141121 -117.165161 
33.716339 -85.869843 -107.313080 
29.108519 -93.570671 -105.020584 
22.712198 -97.553818 -120.140297 
38.246319 -84.023239 -103.314819 
38.374981 -89.802994 -97.266396 
37.701580 -78.272461 -109.379471 
42.856941 -82.430176 -99.860603 
104.430756 -16.346680 -44.870560 
106.805862 -5.166168 -41.040577 
101.624886 -27.375179 -48.930279 
109.007782 6.813408 -37.299362 
111.080338 17.894100 -33.569340 
112.770279 29.698898 -30.404079 
107.770882 38.533180 -42.197960 
114.094955 41.867558 -27.783840 
67.641556 -72.117218 -85.464119 
64.642059 -63.188019 -91.958855 
98.614037 -35.777000 -53.146942 
95.943115 -30.608339 -60.342102 
10.303062 -124.873703 -123.570442 
6.061314 -136.475082 -134.618256 
38.523518 -96.548332 -90.737640 
32.691818 -97.352921 -94.423279 
3.326806 -144.603195 -143.100998 
1.569736 -150.186401 -150.077194 
14.956340 -105.248360 -144.425400 
10.451294 -114.299072 -153.556198 
29.864521 -79.402817 -122.612694 
29.412601 -73.145096 -127.013733 
33.379501 -75.654739 -118.860275 
37.336601 -72.309021 -115.096382 
6.979728 -120.646683 -161.009796 
3.894282 -124.978699 -167.664001 
61.296200 -55.844040 -98.134956 
82.287796 -43.822662 -79.130661 
82.500175 -38.812199 -81.303604 
78.778419 -46.394321 -82.974777 
94.449181 -26.789280 -64.845062 
20.303499 -73.942261 -139.588257 
17.160919 -63.434978 -141.990799 
24.692360 -68.415199 -134.307602 
29.235779 -63.198658 -129.728897 
28.503302 -51.087540 -130.341965 
43.860180 -49.182980 -116.775681 
66.363358 -37.292358 -100.892677 
65.261421 -28.279440 -105.553284 
-6.992706 -86.040642 -173.999008 
-11.142992 -93.066826 -181.516998 
-13.467566 -76.899200 -176.243195 
-2.429210 -78.570656 -166.108597 
56.641899 -22.164240 -111.105957 
62.294121 -19.834780 -108.525337 
65.537636 -18.674181 -107.782356 
-19.569340 -172.766998 -113.893501 
-16.781660 -165.188797 -104.253372 
-24.562300 -176.457397 -109.047676 
-21.276779 -178.058990 -121.079414 
-3.377836 -139.455399 -71.387962 
-8.025990 -145.002197 -64.903297 
-7.968142 -144.975601 -78.517883 
0.498263 -137.184311 -67.605156 
19.718441 -142.304398 -52.697121 
12.106206 -139.294678 -57.273579 
26.520620 -144.930801 -48.959538 
5.252072 -137.202103 -62.751358 
0.397543 -143.498596 -56.237858 
-12.386696 -154.240799 -90.396873 
-17.248701 -159.151993 -85.087379 
51.748901 -146.815186 -2.585366 
51.734337 -145.912201 2.064524 
32.095840 -146.918793 -45.544659 
51.639980 -145.138000 5.024250 
48.593021 -148.146591 6.585824 
51.480099 -144.323196 7.355642 
51.382523 -143.436996 9.226350 
49.005459 -146.213196 10.816162 
40.465740 -157.670807 -8.773282 
38.296299 -159.580399 -14.289660 
35.479221 -161.473190 -19.780600 
46.665218 -146.139008 19.938520 
44.105598 -148.796188 24.260458 
46.131962 -144.410004 19.416321 
48.773479 -142.599808 14.898800 
45.862320 -144.227997 18.748379 
43.247120 -146.168396 24.251499 
45.365036 -144.360992 18.015621 
44.199261 -145.140793 16.215919 
42.297642 -145.916397 22.703798 
41.677860 -147.478806 13.185285 
38.671219 -150.681992 10.206546 
38.581902 -148.891388 17.700340 
-12.745936 -149.601196 -58.799721 
-9.025688 -148.030396 -54.959660 
-17.301760 -154.684601 -66.828857 
-29.787659 -179.943405 -104.484375 
-26.754000 -173.147797 -94.642242 
-34.979980 -182.800812 -100.075493 
-31.540598 -184.549393 -111.523018 
-22.036980 -163.479401 -80.160919 
-13.998405 -154.408798 -40.893440 
-10.140493 -152.458603 -44.776760 
-8.469286 -158.554199 -35.728699 
-39.617619 -184.855988 -96.371521 
-41.461559 -189.103607 -103.142052 
-2.838402 -164.374008 -30.713619 
40.381462 -147.671997 29.255518 
39.830700 -147.287003 28.508059 
39.076801 -147.244995 27.500479 
37.984100 -147.741989 25.212179 
35.420422 -149.947006 21.854000 
32.476780 -153.291595 18.073580 
122.619843 37.618702 0.325098 
119.250740 45.627399 -13.284851 
122.869598 50.751122 1.168413 
124.960083 31.121441 14.773640 
101.993080 46.383823 -52.806602 
56.328579 23.378880 -113.599503 
49.253262 25.854500 -117.577461 
-8.620500 -51.660557 -160.116608 
-2.439528 -41.868118 -151.769791 
-3.439184 -59.821301 -159.433395 
-14.199080 -61.479458 -169.010803 
-14.063419 -44.877277 -160.789993 
-18.913860 -69.846695 -177.332397 
-23.031681 -77.892914 -185.445389 
-24.580221 -63.872761 -178.210190 
13.163780 -51.040779 -143.081390 
7.464310 -60.580383 -150.308197 
8.549576 -40.620300 -143.788406 
19.650539 -43.469997 -136.461349 
90.915573 102.915260 92.553864 
97.934479 100.082214 85.397057 
84.580719 121.047226 82.021240 
83.149918 104.828644 99.323418 
31.152658 180.461395 -9.303532 
44.384338 175.583801 11.863194 
39.915539 176.587601 -14.062160 
18.244659 180.578995 -29.559458 
21.950880 183.265610 -4.329234 
7.190848 176.315994 -47.468395 
15.874599 172.752991 -51.673023 
-2.963716 168.593597 -64.295982 
-1.807330 178.584000 -43.499397 
56.364559 166.606995 32.315220 
64.896019 162.472794 26.881399 
47.451740 169.513397 37.968838 
67.265236 153.907593 51.366142 
59.365597 142.631989 80.549980 
49.760899 143.214401 86.317139 
67.639877 124.887276 94.858818 
68.367737 141.027603 74.497215 
49.425739 158.380600 63.310940 
-11.780691 159.063797 -78.817062 
-3.494946 155.764008 -82.473999 
-19.978701 147.565598 -92.121819 
-20.125139 161.201599 -75.017738 
-27.892620 134.102356 -104.402473 
-19.474140 131.092789 -107.548706 
-34.845161 119.371277 -115.024834 
-35.938839 136.469193 -100.656494 
-48.885059 68.191757 -133.338104 
-41.000957 65.440338 -135.943222 
-50.572201 49.079098 -135.269821 
-56.212517 69.350395 -130.462357 
-45.359440 86.935379 -129.624039 
-56.633083 107.523079 -116.397400 
-64.525719 107.899963 -112.179626 
-51.208359 122.916359 -107.616318 
-48.712856 106.149261 -120.147720 
-60.878017 90.530724 -122.877022 
-64.622742 -16.534981 -153.512802 
-60.413078 -5.510512 -147.298187 
-57.832317 -18.506180 -156.553589 
-68.993820 -26.950138 -160.354599 
-71.000580 -15.425340 -150.324997 
-85.341896 -35.572319 -160.630402 
-79.381401 -36.276939 -164.183594 
-89.460136 -46.075397 -168.062988 
-91.071114 -35.295540 -157.193390 
-81.014641 -24.949398 -153.483398 
-51.276260 33.760860 -136.785873 
-44.254837 31.756901 -139.467438 
-53.011002 20.867979 -138.582504 
-58.561718 35.139019 -133.372253 
-56.299461 7.533750 -141.910995 
-49.024357 4.826738 -145.083389 
-62.897659 9.243934 -138.514465 
-69.464081 9.923074 -134.981277 
-66.945061 23.104059 -131.444733 
-73.230217 -3.436818 -140.597794 
-76.054436 9.730826 -131.423187 
113.686722 89.583755 60.380600 
117.685822 84.715538 50.910297 
108.830399 105.365265 50.008980 
109.230095 93.398758 69.338638 
41.286419 156.190994 -61.041817 
48.852299 149.028595 -63.319340 
31.821442 149.426193 -76.501175 
33.284298 162.478394 -58.476318 
51.578938 159.643402 -44.241680 
62.713417 159.062393 -25.840219 
55.645519 165.858002 -22.103199 
74.255020 153.962204 -7.604842 
69.437759 151.108994 -29.783600 
84.973984 145.391388 8.989189 
90.457642 137.723740 2.214702 
79.075638 151.856598 15.189580 
94.662392 133.806396 23.482201 
102.458443 120.502060 37.560318 
97.312744 125.841095 45.858822 
106.972176 114.293335 28.882839 
22.944319 140.806396 -90.132423 
14.696919 130.201401 -102.541039 
14.494480 146.374207 -88.220856 
30.907099 134.550079 -91.620338 
6.789188 118.145439 -113.531601 
15.007580 112.694679 -114.313217 
-0.277248 104.382179 -123.020370 
-1.659644 122.788261 -112.294136 
-6.699700 89.672234 -130.482101 
-12.184325 72.724258 -136.249252 
-14.915740 93.304543 -129.969696 
1.126369 85.102638 -130.501831 
-15.655920 54.023056 -139.915436 
-7.668052 50.855839 -139.428238 
-17.823259 36.637020 -141.948792 
-24.003559 58.202900 -139.396744 
-19.763100 21.454020 -143.506989 
-22.266439 7.019838 -145.685394 
-28.061178 24.994759 -143.172394 
-11.877292 17.401859 -142.893799 
-35.265858 -27.518120 -161.399002 
-41.451061 -37.317841 -169.332809 
-43.080658 -24.052280 -160.715790 
-29.655220 -17.398640 -154.599197 
-27.924398 -32.104378 -161.604797 
-60.368698 -40.444321 -173.146408 
-64.269241 -49.720436 -180.359207 
-66.976974 -38.452820 -170.386993 
-55.761021 -30.951618 -166.083389 
-53.413223 -43.252998 -175.494186 
-25.530960 -6.103650 -149.371597 
-17.474239 -10.523128 -148.692596 
-33.287659 -2.078342 -148.934799 
86.607918 121.436134 -39.858421 
96.006683 115.341522 -26.829599 
91.741302 108.884575 -42.510017 
77.154564 124.240051 -53.878441 
81.107597 132.558853 -37.073257 
104.241905 107.513420 -15.016399 
108.394020 94.397095 -18.957819 
99.872360 119.128799 -10.139458 
111.401360 98.457802 -4.057816 
116.780861 89.599579 7.238714 
119.830338 77.228058 3.930962 
113.902603 99.210579 13.103971 
38.194660 128.056885 -92.472801 
46.734100 135.660980 -79.549118 
44.940418 120.851776 -93.058693 
30.238602 118.229858 -104.254913 
55.657139 141.486786 -65.019218 
65.139763 143.927002 -49.736816 
62.079918 132.860550 -66.593521 
9.340954 79.882744 -129.722031 
16.134998 93.932434 -122.904175 
17.585680 73.992798 -128.365570 
3.529792 64.204842 -134.935074 
22.769739 106.689384 -114.554024 
30.420462 100.614639 -113.986183 
-0.020986 47.636116 -138.143448 
7.859488 43.059238 -136.220001 
-1.952118 29.767220 -139.976624 
-4.211578 14.250319 -141.290787 
3.265612 12.328414 -138.881393 
-8.941002 -16.275980 -147.175003 
-1.642032 -24.751720 -145.809998 
-14.310800 -27.626200 -153.362991 
85.772682 79.596024 -70.284897 
77.929878 79.991241 -81.378220 
82.515022 90.610092 -69.911942 
121.077599 78.657043 41.973259 
116.385223 93.948677 32.114880 
114.343605 54.234741 -25.513041 
113.700577 67.342102 -23.731539 
38.912300 58.794258 -121.545197 
32.170738 63.375340 -124.228996 
44.124081 70.174858 -116.554901 
45.427902 53.362961 -118.660774 
33.839821 45.739956 -125.288658 
49.014141 80.974174 -110.292274 
43.152618 87.827599 -111.941338 
54.928162 89.348282 -102.418533 
54.910240 73.218880 -108.225739 
61.916256 96.162361 -92.666420 
56.634758 105.018616 -93.144379 
69.854675 100.223480 -81.612999 
66.792038 86.650200 -92.005066 
22.114960 8.830934 -130.263840 
15.816640 9.646126 -133.372528 
25.471600 20.479620 -129.170715 
28.547539 7.700364 -127.001701 
18.849180 -2.801652 -131.726135 
42.494061 28.366798 -121.218300 
38.754097 17.607521 -122.549004 
36.144497 30.435719 -124.439140 
46.816418 38.477039 -118.939522 
3.984302 -32.573658 -144.708191 
9.918761 -23.034199 -138.887985 
77.623283 -37.680161 -89.745041 
81.305000 -35.847698 -85.471260 
75.475121 -43.010101 -89.023056 
82.965820 -35.418461 -82.721100 
98.180321 -6.375502 -65.349754 
100.130943 1.353078 -63.478237 
96.379219 38.361820 -97.851181 
100.520004 42.410061 -91.032761 
97.385254 37.269119 -97.952682 
74.298561 -16.494099 -110.227036 
73.504341 -22.674959 -108.595474 
104.172455 44.230480 -83.661339 
102.838539 45.032677 -83.189537 
107.161461 43.810478 -76.789856 
105.285316 42.980701 -84.300163 
106.715698 19.649139 -63.948078 
104.712440 20.269199 -63.601715 
109.335663 41.277878 -71.193359 
110.584595 39.808441 -71.735855 
82.078644 10.722852 -109.814461 
80.083496 -24.341099 -105.158195 
80.942261 -26.713398 -102.253616 
76.752060 -26.112240 -106.082199 
100.707039 5.766418 -63.201038 
107.277245 35.305481 -66.116402 
105.247940 29.490578 -64.777298 
104.671272 35.832161 -67.518219 
102.366882 21.924280 -63.777000 
100.556824 23.899960 -64.268677 
101.838791 45.065441 -83.062004 
98.652817 24.933861 -65.311676 
99.421562 29.544901 -67.040955 
99.983093 34.930557 -69.914734 
95.838120 33.580540 -71.123917 
81.565399 -5.033924 -109.557281 
85.360802 -13.922733 -103.993675 
73.979355 -26.894840 -106.383194 
81.765182 -27.921600 -99.053642 
84.575256 -24.851959 -97.539253 
86.316162 -21.503439 -97.056541 
87.092041 -18.984699 -96.945374 
97.733994 36.557499 -97.938538 
102.077774 40.460979 -91.565460 
112.081337 29.979599 -65.959740 
112.190125 29.014999 -66.338158 
112.409073 34.624382 -68.295776 
111.984871 28.240099 -66.695435 
112.443237 32.926880 -68.971420 
111.217537 27.257019 -67.623917 
105.721977 42.043400 -84.668777 
108.745277 41.356838 -78.093117 
105.720581 41.371681 -85.021858 
111.239525 38.582737 -72.268280 
111.319595 37.816658 -72.805878 
111.229996 36.957619 -73.044022 
108.674721 39.904202 -78.702263 
105.688515 40.691700 -85.004784 
95.733543 30.965899 -100.100700 
110.008499 26.359478 -69.017059 
105.236038 16.182600 -70.881439 
107.192818 33.901699 -78.434158 
96.681763 22.789200 -97.515739 
97.765213 24.540598 -95.746277 
98.854279 26.013821 -93.638863 
99.804176 26.790819 -91.446877 
100.654404 26.947620 -89.057495 
101.427475 25.491899 -85.386276 
87.618996 -17.300640 -90.633766 
87.338722 -17.440081 -94.282158 
101.791756 6.122480 -72.260719 
91.070000 -10.570069 -81.484482 
87.261299 -17.728619 -96.888397 
94.511345 -41.419559 67.912598 
110.373619 63.838036 91.751236 
108.036179 79.746239 85.781784 
82.374741 69.636421 118.888977 
79.072418 87.472694 113.661514 
72.388115 70.105278 125.078514 
103.864601 97.147400 77.689217 
98.310936 114.302994 67.126495 
74.209938 106.092705 105.854279 
64.438774 106.721436 111.793777 
76.590218 138.465591 68.209541 
84.317940 134.963776 61.299000 
91.073357 130.901535 53.865841 
82.576614 145.391388 38.444702 
126.094353 26.822458 29.400419 
121.738815 64.024239 2.048886 
117.485764 72.214516 -10.371788 
110.511101 107.718094 20.646080 
103.716614 118.992867 8.219372 
38.142159 171.215790 43.774639 
25.893139 180.245789 22.740061 
28.583799 171.771591 49.459198 
72.389236 157.530807 21.607460 
60.667599 166.665787 2.164778 
111.448402 80.816818 -21.650438 
104.362305 89.107056 -32.854641 
95.167793 129.379745 -4.057620 
85.758820 137.255859 -17.854620 
95.998276 96.030754 -44.410240 
87.220139 100.626678 -56.758659 
78.486519 102.096405 -69.107498 
73.615074 112.981544 -68.586281 
-20.681921 -38.425518 -161.575409 
-26.820360 -48.021542 -170.158798 
-31.563280 -57.214920 -178.492996 
-35.909161 -65.474640 -186.526199 
-39.148338 -51.132343 -178.014191 
12.908237 184.869995 1.029461 
0.191219 184.606796 -20.321280 
3.656674 185.427200 6.072836 
-10.660692 179.869186 -39.099899 
-20.306999 172.026398 -55.974380 
-19.539799 180.272400 -34.245121 
-28.763138 162.458801 -70.669479 
-36.619099 151.260193 -83.884361 
-37.660141 162.909592 -65.682823 
-44.269402 137.990570 -96.325462 
-52.736038 138.313141 -91.812981 
-40.623798 103.894562 -123.422035 
-32.319141 100.753944 -126.272995 
-63.777420 70.281540 -126.885498 
-64.933823 49.969917 -128.630600 
-70.884377 70.285599 -123.087303 
-65.687859 35.233940 -129.708328 
-72.682259 34.941059 -125.838295 
-77.001534 -14.574980 -146.834808 
-83.002922 -14.265300 -143.280197 
24.575739 168.147003 -55.320160 
35.599899 172.160797 -37.709141 
14.585200 160.810989 -71.422684 
47.742657 171.855591 -18.335939 
5.476282 151.531799 -85.574722 
-2.828854 140.287003 -98.475716 
-10.610250 127.362061 -110.138702 
-17.575180 112.678017 -120.428978 
-23.625841 97.147812 -128.487244 
-28.711760 80.327095 -134.372833 
-32.614822 62.132278 -138.026276 
-35.108219 44.189739 -140.060196 
-36.359539 28.717360 -141.747192 
-38.005100 14.761880 -143.967590 
-41.311058 1.752716 -147.446594 
-45.581059 -10.386544 -152.657394 
-50.412037 -20.939240 -158.988205 
-46.182220 -46.698120 -177.073395 
-50.202877 -55.651260 -184.723007 
75.426537 142.567596 -33.279118 
68.286819 123.530678 -67.324181 
59.336338 119.465218 -81.050201 
51.031822 113.498703 -93.095093 
43.518299 104.918381 -103.988358 
36.985760 94.554878 -113.096054 
31.148739 82.067436 -120.577377 
24.973341 68.407639 -126.569237 
19.471899 54.148640 -130.912308 
15.131760 39.820900 -133.725052 
22.303259 35.874298 -130.871155 
12.083344 24.523520 -135.333939 
9.592086 11.046448 -136.281326 
15.227241 -13.954808 -134.401260 
20.501600 -15.437800 -131.680069 
70.948921 78.196159 -90.844322 
65.054642 73.107300 -99.123497 
75.020683 68.602661 -89.565277 
51.090900 48.739597 -115.758720 
55.651958 57.995838 -111.296082 
29.181318 33.059319 -127.776176 
60.052162 66.635521 -105.801781 
35.071259 6.871564 -123.708336 
31.596739 -3.656296 -125.152855 
-4.764256 -148.884399 -49.999317 
48.020557 -81.046280 -96.796562 
27.844181 -99.276100 -98.096596 
47.188255 -143.763199 39.847641 
49.695656 -143.428589 35.107658 
51.455456 -142.851807 28.821938 
33.797119 -157.584000 36.480640 
33.659779 -158.890198 35.406982 
33.413940 -160.013000 34.222298 
44.978218 -152.248596 9.108217 
45.493282 -151.433792 11.669182 
45.940720 -150.684799 13.924469 
52.530800 -138.065048 36.512001 
65.537361 -133.364838 1.609356 
67.152122 -113.704079 28.392981 
66.795959 -120.826447 23.940001 
65.792999 -126.899918 19.283461 
93.191277 -97.145012 -17.036739 
74.926598 -45.064182 72.274300 
79.154602 58.714882 -87.752838 
93.071854 39.616920 -72.965340 
94.428040 35.325218 -72.837379 
74.352600 -49.411037 -87.295601 
78.043419 -56.166882 58.494102 
118.214317 -13.650000 57.344841 
47.987518 -113.670891 55.136059 
102.913300 -42.935059 46.390678 
51.942940 -112.092957 51.548698 
94.841454 34.091118 -71.917999 
2.191014 -69.780899 -158.205597 
27.510418 -36.548401 -130.150711 
26.614981 -24.846498 -129.243515 
27.202280 -15.238580 -128.095230 
63.373096 -104.552696 38.561882 
41.271717 -151.123001 29.011641 
50.274277 -141.479797 12.435682 
34.750378 -147.676193 39.340981 
-107.223335 -65.799438 22.599638 
-106.016258 -61.659782 28.299879 
-110.796135 -57.249641 18.844139 
-108.034073 -69.486061 17.194099 
-102.829994 -74.887680 27.410601 
-125.100777 -118.972282 -53.170876 
-119.832298 -108.667297 -44.845219 
-129.632294 -113.604401 -55.125000 
-131.455521 -128.758270 -62.051498 
-119.852180 -123.957817 -51.564518 
-136.621933 -135.473663 -68.818954 
-132.025467 -141.548401 -67.572823 
-140.485794 -129.373154 -70.608582 
-140.942200 -140.523605 -74.352737 
-103.886574 -111.885201 -34.468979 
-110.711998 -106.334343 -36.485680 
-107.815125 -118.924400 -41.508739 
-97.228180 -117.487854 -33.280239 
-101.670937 -106.841835 -28.531300 
-125.469818 -92.311516 -44.024818 
-121.335899 -96.870613 -41.164059 
-123.415596 -86.956520 -39.487000 
-128.941528 -86.204865 -47.431862 
-128.539597 -99.191536 -49.818859 
-99.090042 -95.034943 12.506368 
-103.941879 -86.997681 7.256494 
-98.819565 -96.705421 6.895882 
-93.344299 -103.364937 17.364759 
-99.084572 -93.132065 17.798759 
-64.543358 12.549530 99.716820 
-75.616516 21.171080 89.922279 
-66.535278 1.476622 96.294380 
-51.899536 6.279980 109.143150 
-63.646942 25.302338 102.284286 
-93.224594 71.027176 62.051498 
-95.792480 58.593639 61.610638 
-87.446518 63.409637 73.663376 
-90.490814 83.352081 61.581100 
-98.891663 76.432304 50.196575 
-39.564701 -155.101807 -39.346020 
-36.870819 -153.649994 -34.028820 
-43.928078 -153.832001 -38.212719 
-43.927238 -161.298187 -47.827641 
-35.981400 -155.919403 -40.600842 
-52.086159 -170.389801 -60.347698 
-60.360298 -179.268585 -72.805740 
-47.796280 -171.487396 -61.837997 
-56.616142 -168.201599 -58.317696 
-56.589401 -187.364792 -85.450119 
-60.140499 -191.622192 -90.868675 
-51.530781 -181.154388 -76.928741 
-61.070381 -186.622803 -83.076279 
-125.015656 -30.016838 -24.106319 
-124.900856 -17.977680 -21.587019 
-125.404716 -34.192337 -32.616920 
-124.453979 -41.642159 -24.448059 
-124.625053 -25.729059 -15.652840 
-125.127380 -9.293535 -19.593840 
-125.501884 -7.291872 -10.993793 
-125.374481 -1.908592 -17.568180 
-124.748680 -12.309234 -29.615599 
-147.406006 -107.205841 -79.993896 
-145.927597 -116.345596 -75.962601 
-147.996796 -98.010361 -85.286316 
-151.604599 -112.087914 -87.529541 
-44.057018 -172.247589 -63.757820 
-36.831757 -163.072006 -50.742580 
-96.965958 -84.322701 33.255459 
-97.829903 -88.600677 27.766058 
-90.579994 -91.876534 39.127762 
-96.100487 -78.474617 38.869320 
-108.455063 -78.473640 2.198112 
-108.602058 -75.639618 7.207830 
-112.787079 -70.337959 -3.752182 
-108.262833 -80.860497 -3.011652 
-12.487762 -177.965195 7.866306 
-9.518138 -175.518005 13.618597 
-17.274740 -175.771408 9.926336 
-14.940100 -179.194397 2.277856 
-7.493976 -179.600388 5.844594 
-21.984758 -172.463196 12.756730 
-19.247339 -169.812988 18.298700 
-27.377001 -168.145599 15.363319 
-24.212439 -174.413406 6.877150 
1.620234 -174.876801 15.051960 
-0.742867 -178.113602 9.724960 
3.835426 -171.389389 19.993540 
-2.307718 -173.837997 17.097219 
-16.674000 -178.956390 -1.928178 
-12.262124 -180.188385 -3.475682 
-21.248360 -177.286209 0.003586 
-18.821320 -177.361786 -5.377778 
-21.465919 -174.354599 -8.806742 
-24.372040 -169.985199 -12.420688 
-17.165960 -175.181992 -11.090549 
22.990099 -73.070480 84.727859 
27.671000 -71.918282 84.879059 
24.006639 -67.572258 86.081100 
18.496799 -73.672203 84.858620 
21.718620 -78.725357 83.538841 
-34.625080 -96.878036 82.939079 
-38.184578 -102.069931 78.711777 
-25.057758 -98.331383 82.586143 
-31.351040 -91.230019 86.947136 
-44.710258 -93.650620 82.202820 
-47.626041 -77.086937 89.804680 
-51.645580 -82.959518 84.991478 
-37.479679 -82.160820 90.941902 
-43.205120 -71.241104 94.101700 
-58.670219 -69.986000 86.613235 
-65.208778 -36.685738 91.551178 
-58.059261 -38.414879 95.994781 
-61.080879 -27.511679 96.042656 
-71.406578 -33.487999 86.780396 
-41.339062 -107.008301 73.787277 
-31.359299 -109.754112 74.301918 
-51.827160 -103.507736 71.533836 
-43.831200 -112.677460 68.215981 
47.684978 -81.450462 81.773163 
44.799301 -81.594101 82.629677 
48.320721 -88.495544 81.771614 
47.328400 -73.640144 82.405258 
31.506721 19.357100 142.906387 
30.361658 28.641760 143.992798 
22.262381 19.678259 143.004410 
32.710018 8.888726 141.048599 
39.623779 18.841480 141.811600 
-18.708200 -166.300400 -21.595140 
-15.542099 -171.393600 -17.234840 
-22.751118 -165.585007 -19.734259 
-22.534121 -160.833389 -26.516981 
-83.458061 -98.478096 44.715160 
-82.242722 -92.566177 50.969379 
-83.944420 -104.572441 38.250519 
-75.469658 -104.640053 49.809757 
-8.289526 -180.987793 -5.138224 
-10.838688 -178.943802 -9.241008 
-6.119764 -181.504395 -1.256118 
-13.133302 -175.770004 -13.062181 
-53.376537 -149.315598 12.965204 
-51.275700 -149.239990 18.250959 
-60.935699 -141.741608 15.489460 
-54.390419 -149.221802 7.879228 
-45.617176 -156.973602 10.703252 
-71.868858 -130.580948 -5.975620 
-64.646118 -137.455643 -7.319886 
-71.946419 -131.300400 1.093693 
-79.107841 -123.094299 -5.028590 
-72.407578 -129.637756 -13.117706 
-26.578440 -156.149002 -32.131962 
-29.945860 -154.786789 -36.681679 
-30.152920 -155.583389 -30.750019 
40.892742 -93.313080 83.656158 
45.115143 -93.483032 83.039459 
40.978279 -88.205177 83.341995 
35.888718 -93.184975 83.753181 
40.820778 -96.810555 83.789299 
-0.082452 -96.982338 77.295120 
6.420512 -94.740517 77.878082 
4.375952 -91.297363 79.641243 
-6.602400 -98.431198 78.265594 
-22.316139 -138.471191 50.958321 
-19.582359 -139.316238 49.809898 
-20.019300 -138.199600 51.103359 
22.245579 -110.315933 71.709679 
18.487839 -110.100899 71.930740 
22.694139 -111.030212 70.358536 
20.451759 -109.257538 73.665062 
20.173161 -114.160904 67.347137 
24.123819 -113.733475 67.190475 
21.061459 -113.022278 68.012138 
15.590260 -113.498550 67.948860 
18.553499 -116.064201 66.769501 
41.315678 -112.967400 67.846237 
38.812759 -112.259132 68.849754 
40.409458 -113.520256 66.539337 
41.812397 -112.522339 69.033157 
11.074826 -111.473457 69.159859 
9.591876 -113.221077 68.505081 
12.332488 -110.594818 69.801758 
7.456456 -108.265640 70.845879 
38.072720 -106.031937 80.240158 
38.878139 -104.399399 81.748520 
33.637657 -105.071404 80.874077 
37.181339 -107.618279 78.173203 
41.826397 -107.015572 79.119324 
-21.200480 -153.641602 36.542660 
-24.480400 -155.615601 32.595360 
-16.325119 -157.835999 34.372799 
-17.806318 -151.975601 40.074718 
-25.237659 -149.461197 38.965637 
-15.438641 -134.907211 58.057858 
-19.058899 -134.326080 57.653675 
-11.533606 -135.602875 58.757301 
-12.028563 -131.913040 61.824837 
37.125900 -117.930679 62.540939 
38.588898 -115.601364 63.932678 
34.402061 -117.479736 63.773918 
35.439598 -121.613945 61.331757 
41.003761 -81.750343 83.262619 
40.614281 -75.128754 83.739037 
36.181740 -82.320839 83.519798 
14.284480 -100.739937 78.407280 
13.266190 -99.371574 78.195602 
12.889842 -101.976562 76.952820 
16.776899 -101.083221 79.886658 
17.539339 -99.803337 80.462898 
34.473320 -113.073242 67.046700 
37.018799 -113.562820 66.479561 
35.202999 -112.154694 68.134361 
31.459539 -112.961792 67.184738 
33.465458 -114.715157 65.689537 
36.229481 -111.639915 69.243721 
37.072422 -111.235741 70.469559 
19.610640 -100.782921 81.212601 
17.686060 -102.478455 79.811478 
20.532679 -99.753639 81.783241 
11.635961 -104.213478 74.724014 
11.737712 -106.808380 72.770874 
14.271740 -104.450356 76.374619 
29.649199 -137.176056 59.696136 
31.454220 -131.978561 60.213718 
26.380199 -136.029037 61.541901 
28.718901 -140.121796 59.179821 
-1.083918 -114.255676 69.439018 
2.297008 -108.397232 71.062180 
-4.741492 -113.568283 70.309258 
-4.800642 -120.880615 67.706795 
2.722776 -115.315620 68.631920 
3.043558 -163.116806 35.903137 
-2.087372 -161.019592 37.874477 
0.539053 -164.211594 32.570858 
7.476350 -164.516800 33.461819 
5.177914 -162.432205 38.732960 
-9.465302 -139.082428 55.710899 
-8.070902 -138.108871 57.837921 
-14.768040 -137.969162 53.535580 
-10.590510 -139.245117 54.718159 
21.019739 -98.787636 81.846382 
24.916220 -98.326477 82.701080 
20.351240 -97.171196 81.523819 
-6.909574 -158.505203 39.235699 
-5.295738 -157.746399 41.572720 
-11.500020 -155.050003 40.679100 
-8.917776 -159.593002 36.251041 
11.084178 -165.307800 31.058020 
13.165222 -164.700195 33.880699 
9.181396 -166.369003 28.081200 
-29.884539 -20.292299 117.823021 
-31.644899 -17.168480 117.820084 
-38.187099 -22.363600 111.165878 
-27.895140 -23.104200 117.788155 
12.915013 0.897681 138.169083 
12.127611 11.059160 140.278595 
1.451772 1.033439 135.827438 
13.198751 -8.099504 136.081543 
22.932140 0.008355 139.321701 
-11.175290 1.403570 132.133392 
-12.350127 11.585560 133.702377 
-24.181080 2.118032 126.566856 
-9.476501 -7.979818 130.929260 
10.735942 -19.352758 131.730759 
12.045236 -16.058279 133.361481 
9.092006 -22.666420 129.641541 
19.408621 -19.421638 133.440018 
-35.037521 -12.708500 116.974197 
-46.089817 -14.299600 108.874916 
-21.031500 -13.697446 125.170082 
-37.147598 -6.595064 117.074295 
29.694839 -30.664900 117.445305 
33.213039 -32.591721 113.568558 
31.686760 -28.705879 119.381500 
24.850698 -30.022718 120.099419 
26.894279 -33.288498 114.858795 
41.503979 -58.536659 86.827713 
41.243580 -62.715240 85.781639 
45.634960 -57.388100 86.489334 
42.103600 -55.408360 87.712662 
37.034058 -60.113338 86.843399 
-0.647135 -75.609657 88.600121 
8.809808 -75.460419 85.780800 
3.033338 -71.275398 89.496956 
-11.056668 -74.972519 92.373543 
-4.588556 -80.896202 87.316460 
-39.273361 -42.957317 102.491196 
-36.230461 -50.389217 101.612831 
-34.327301 -43.110760 103.548759 
-38.860218 -36.356461 104.603661 
-44.155861 -42.778259 101.185837 
40.789280 -68.442215 84.684456 
44.587761 -67.386620 84.220497 
36.532722 -69.838577 84.858757 
7.611604 -25.492039 127.789474 
6.833680 -27.949179 125.892899 
15.700300 -25.211760 128.737976 
-0.440310 -25.535999 127.271896 
-9.024946 -25.164858 126.144623 
-17.629780 -25.558958 122.720642 
-8.960042 -27.919640 124.604332 
-29.693720 -35.581139 108.343475 
-32.578281 -33.744339 108.208801 
-30.858660 -39.070641 105.821381 
-26.911079 -37.356758 108.327103 
-26.692961 -33.048401 111.859573 
-8.612870 -41.752617 112.741165 
-5.038502 -42.149239 113.675522 
-12.108642 -41.391418 111.369156 
-1.434846 -42.468998 114.037140 
2.057174 -42.774479 113.788353 
-0.943992 -41.678421 115.193398 
-4.856474 -41.384560 114.901360 
2.866906 -41.952259 114.791603 
5.696264 -42.823479 112.766502 
9.143834 -42.968658 110.921021 
6.671350 -42.007278 113.496597 
10.345006 -42.137058 111.403458 
12.068000 -43.402241 108.609756 
14.328720 -44.355358 105.791977 
16.245039 -45.511761 102.149040 
17.618999 -46.542580 98.445335 
18.269720 -44.728878 101.674294 
16.152920 -43.608040 105.512680 
19.632200 -46.048382 97.854820 
18.235559 -47.494720 95.679497 
20.430901 -44.170979 101.030434 
18.151140 -42.733318 105.437500 
7.747124 -41.111279 114.317841 
11.750242 -41.173580 111.996635 
-20.978861 -42.006298 106.851776 
-19.782000 -43.728020 106.069878 
19.232079 -30.365721 121.891144 
17.153219 -32.668442 119.684875 
20.642160 -28.214338 124.141640 
12.603290 -30.776340 123.225624 
-9.159416 -35.734161 119.174995 
-9.026234 -38.040939 117.350517 
-3.743600 -36.205540 119.996239 
-8.980328 -33.223679 121.106995 
-7.522312 -58.338142 100.288155 
1.511986 -60.069241 97.188423 
-15.019620 -54.690022 102.524513 
-8.817004 -59.987061 99.507240 
8.977402 -59.277821 94.280479 
8.694854 -61.201561 93.100845 
14.016660 -57.689240 92.076591 
19.683861 -53.556438 91.089035 
18.287359 -54.933620 91.126144 
20.525679 -52.446381 91.223434 
-5.135298 -55.160980 101.913704 
2.441516 -56.638119 99.405182 
-11.652746 -51.608482 103.994240 
15.127000 -52.810799 93.169296 
16.284241 -51.965900 92.629601 
12.966757 -54.155220 94.323181 
17.298119 -51.377342 92.314316 
18.340839 -50.738377 92.245018 
30.872381 -45.588619 95.283165 
34.027840 -43.751118 96.691833 
29.904282 -43.025917 98.676895 
27.133400 -47.231659 94.014900 
21.699301 -50.885376 91.789879 
15.293040 -41.664417 109.097801 
24.986361 -47.674339 93.774666 
24.277260 -45.749203 96.283463 
24.904041 -49.505539 92.295837 
-4.217318 -53.850300 102.699234 
3.049116 -55.292160 100.229500 
14.916300 -51.445240 93.534836 
13.054832 -52.474796 94.903618 
15.997379 -50.988842 92.880898 
16.680161 -50.468876 92.610558 
-14.966280 -41.051220 109.765594 
53.262997 -37.861179 99.826584 
54.589359 -34.137741 104.530159 
50.210579 -37.585938 101.245338 
52.032261 -41.510559 95.507721 
17.543819 -65.818062 87.389679 
12.962921 -66.686340 88.271118 
16.408560 -69.467857 86.418915 
20.829760 -64.774498 87.190880 
18.012260 -63.061180 88.275879 
24.593800 -63.790718 87.043739 
28.786940 -62.806099 86.945602 
24.282721 -55.953796 89.575638 
24.213699 -53.568760 90.397301 
27.875540 -56.315559 89.006538 
37.182739 -48.494038 91.798981 
38.868618 -47.627861 92.226395 
36.796200 -45.477180 94.362091 
16.764999 -56.288540 91.267265 
17.552361 -58.202480 90.277740 
18.062939 -60.516258 89.200996 
14.301140 -61.905895 89.907433 
-6.534024 -141.338394 49.684181 
-1.144037 -143.063202 50.024380 
-11.622128 -139.209702 49.437500 
-6.522922 -141.031799 49.456261 
-14.658980 -138.291580 49.373096 
-14.233380 -138.163483 49.231140 
27.008518 -144.354004 57.061481 
26.278139 -145.795990 55.605618 
27.700260 -142.932999 58.102238 
22.863960 -143.319397 58.920959 
17.275438 -145.374588 56.732197 
12.852266 -145.076401 56.744801 
16.473379 -146.424591 54.548340 
21.091560 -146.022797 55.778381 
18.181660 -144.233597 58.395119 
8.293880 -144.338593 56.759922 
2.884028 -143.395004 56.184101 
7.272972 -145.049805 54.632198 
9.112249 -143.490189 58.451820 
19.171179 -142.780396 59.916637 
20.056820 -141.339798 61.101463 
14.913640 -142.681000 60.101162 
12.968185 -140.331802 61.829041 
11.156026 -141.363602 61.063519 
17.716160 -140.231003 62.002220 
14.294000 -139.034836 62.557041 
-3.916948 -141.992188 54.108879 
-2.544458 -141.755600 56.217979 
16.014320 -147.148407 52.016159 
11.098612 -146.348999 52.512741 
15.704639 -147.214203 50.447178 
20.162380 -147.770004 51.374821 
5.575948 -145.174393 52.374275 
4.789568 -145.003601 50.930740 
-14.296519 -138.561508 52.349640 
-17.478159 -138.382996 50.552040 
-7.027244 -142.885391 49.487339 
-7.054670 -143.371201 49.607319 
-1.514660 -145.425003 49.733318 
-7.037800 -142.610992 49.313457 
-8.045758 -145.203796 49.290501 
-3.343130 -149.249802 49.408237 
-7.589890 -144.610199 49.503716 
