1442
89.877998 122.677200 130.621002 
113.153397 99.705399 119.419197 
112.472603 90.852600 126.623199 
124.064003 91.356598 106.404999 
114.483398 110.620003 110.661797 
90.257202 88.288597 150.580597 
89.391800 92.877800 149.563202 
78.271797 92.257599 159.063400 
91.481003 83.469200 150.520996 
131.531601 63.465801 104.241997 
132.731201 70.239998 98.247002 
122.690804 75.567200 119.305397 
137.263397 51.435200 92.255798 
53.027802 71.941597 161.677994 
53.975399 68.135597 158.370804 
61.309799 73.025002 160.229004 
52.289398 76.094002 164.847794 
45.697800 69.751801 161.949600 
16.153521 34.736198 171.438797 
21.344601 30.140600 167.408600 
16.214220 38.941799 169.600204 
10.620060 37.812599 174.575394 
15.893740 29.461399 174.495407 
65.601196 -11.127040 157.831604 
69.074600 -20.840000 160.479004 
80.566399 -14.195540 153.695404 
62.222801 -2.927260 155.518600 
53.317600 -7.037060 161.003006 
125.792198 10.468020 112.192398 
130.590607 8.553800 107.389397 
127.141403 19.375580 109.273399 
120.512398 13.593140 116.751602 
121.773804 3.647940 118.865196 
15.957840 22.286600 179.129593 
20.969000 17.953659 176.198593 
11.212220 25.550600 181.105392 
92.658203 78.986603 150.264603 
102.942596 75.125198 144.326004 
81.416397 80.955200 156.411606 
92.754204 74.620399 149.909805 
111.700600 69.552803 137.585205 
110.621201 65.436600 138.517593 
119.139603 61.434200 129.398605 
118.908997 29.530001 118.802200 
118.775002 38.202801 122.160599 
114.622597 30.055799 122.678596 
118.157799 22.055401 118.121597 
122.654602 29.537399 115.016602 
94.577202 43.324402 139.705597 
97.677803 39.939800 136.802994 
90.940804 45.938999 142.179794 
86.772598 48.259201 143.965195 
81.922203 50.112801 145.043793 
87.008598 50.244400 144.788803 
81.344200 52.111401 145.923798 
91.701401 47.890400 142.885605 
75.945198 51.292599 145.550400 
69.794800 51.128399 145.759201 
75.126602 53.104599 146.363998 
68.518600 52.765999 146.494202 
63.570801 49.631599 145.661407 
57.825600 47.072601 145.200806 
51.907398 43.623600 144.604996 
46.408401 39.884800 144.231201 
49.215199 45.051998 145.350403 
44.106998 41.197399 144.980606 
55.247601 48.514999 145.856003 
42.615398 36.768398 143.971603 
46.616402 46.147202 146.289597 
52.985199 50.176601 146.842804 
74.461601 55.197399 147.412003 
67.281799 54.788799 147.537003 
104.149597 28.945801 129.734802 
105.019203 31.050800 129.585602 
101.940399 27.230200 131.057007 
70.694000 73.256203 157.700806 
81.531998 72.230400 153.798798 
70.615601 76.872398 159.754196 
70.856400 69.115196 155.155594 
103.923599 53.418800 140.173599 
100.818199 50.265202 140.692795 
106.785400 57.453400 139.727798 
97.302399 57.365601 144.604004 
82.829399 13.783120 144.329407 
94.149002 14.552320 138.679199 
68.592201 14.445980 148.174393 
83.977600 10.569640 144.509796 
56.252399 16.872120 149.046600 
47.869202 20.220200 148.443802 
56.344799 13.904520 150.082794 
40.340401 27.055000 146.753204 
39.231201 29.047800 146.175400 
42.201199 25.147400 147.073395 
80.857399 19.969040 143.966400 
90.944397 21.157400 139.612396 
68.493797 20.244801 146.895004 
45.898399 26.657400 144.984406 
49.671398 24.771999 145.889801 
43.963600 27.801001 144.472198 
42.511600 28.781799 144.272995 
41.221001 30.048201 144.209198 
33.280998 46.800598 152.515396 
31.620399 52.160999 155.944794 
35.000198 41.339199 148.871597 
36.748798 51.176201 152.523804 
38.180401 31.941000 145.917999 
60.003399 53.082401 147.298996 
36.453602 39.207401 147.220398 
35.587601 35.957001 147.388794 
38.740799 43.139400 147.411804 
80.494400 22.659599 143.755997 
68.271599 22.818800 146.399994 
45.826199 28.251600 143.809204 
44.043201 28.846001 143.628403 
49.704201 27.114401 144.649994 
42.730999 29.743601 143.455002 
99.601601 36.395802 133.999802 
8.234100 67.413002 170.858398 
1.400260 67.366997 171.143005 
7.382320 61.752399 170.591202 
13.943460 66.758400 169.889404 
9.394740 73.096001 171.397995 
42.556198 10.761900 155.713394 
41.994598 14.653060 153.537796 
38.446400 13.842180 156.620407 
44.303799 5.049660 158.606003 
49.094002 7.307420 154.726196 
34.585201 17.158180 158.066605 
30.550800 21.147200 160.204605 
35.712799 26.793400 150.631805 
32.175598 28.750200 153.433197 
36.020199 29.898800 148.595795 
25.087999 46.333199 159.185196 
27.172800 50.671600 158.498993 
23.499001 48.624599 161.118805 
44.083801 22.855200 147.806198 
42.888000 20.697800 149.552795 
42.224201 17.947340 151.378006 
47.265400 14.608740 151.365997 
35.572601 -111.917000 167.526398 
35.344200 -111.792999 167.087006 
40.653000 -113.347198 163.321594 
29.888599 -109.856598 171.490601 
43.650002 -114.026604 161.218994 
43.157799 -113.778603 161.160400 
7.047740 -98.952202 188.526596 
12.192980 -98.527397 187.877396 
6.857340 -96.496002 188.701202 
1.204900 -99.288803 188.715607 
6.926360 -101.236397 188.027405 
16.628679 -102.706398 185.433807 
16.924780 -100.805801 186.259399 
11.973000 -102.699402 186.556595 
15.932200 -104.299797 184.412796 
20.675400 -102.480003 184.259399 
24.531601 -102.551003 182.599197 
24.818001 -100.519600 183.601395 
24.269800 -104.662201 181.016602 
29.654800 -104.153397 179.045593 
16.886299 -98.417801 186.918594 
21.025200 -98.179398 185.808395 
16.690161 -95.856201 187.285400 
23.659599 -94.446800 185.166595 
24.615601 -96.293198 184.795593 
23.159599 -92.496201 185.153397 
19.888519 -94.319000 186.477203 
36.111198 -107.671997 172.934799 
36.139000 -105.063599 175.160202 
14.644180 -105.737198 183.033203 
9.918380 -105.635201 184.221603 
13.657180 -106.487801 181.759003 
19.617620 -105.858002 181.352203 
24.240801 -106.779404 178.629395 
24.084000 -107.875000 176.763000 
45.283798 -111.737396 164.261993 
35.942600 -113.831001 168.807602 
35.769600 -113.704201 168.365005 
30.064199 -112.132797 173.385803 
36.093201 -114.181198 169.409195 
37.168598 -116.525002 170.422195 
36.755001 -115.649399 170.276794 
31.708200 -116.011398 175.922394 
25.937201 -116.122597 180.564407 
25.500601 -114.585403 180.065994 
20.667801 -116.086403 183.739807 
26.673800 -117.731400 180.604202 
13.803500 -111.949600 184.613998 
14.328020 -113.963799 185.557602 
19.499559 -112.224197 182.368393 
13.516900 -110.257004 183.454803 
8.238380 -111.656799 185.903198 
3.989060 -116.160599 188.336594 
4.172640 -118.342598 188.694595 
8.799280 -115.898598 187.670593 
3.802840 -113.991402 187.640594 
-0.654120 -116.237999 188.441803 
44.257000 -116.851402 159.762207 
43.850800 -115.700798 160.970200 
44.494999 -119.430000 158.471207 
40.734402 -116.407600 162.533997 
3.493760 -110.308998 177.945007 
3.590200 -109.005402 180.156006 
7.502960 -110.562599 177.515198 
3.278200 -112.624397 175.997406 
-0.200438 -110.204399 177.988602 
4.466600 -120.717598 188.727005 
-0.541728 -120.874397 188.833206 
4.803520 -122.929802 188.423203 
9.418640 -120.303200 188.096405 
5.028560 -130.137802 185.401794 
10.432060 -129.767395 184.885605 
4.979700 -127.366600 186.802994 
0.006317 -130.324005 185.472198 
16.157379 -94.077400 187.359604 
14.767960 -91.482201 187.281006 
11.744940 -93.863602 188.072006 
3.779600 -111.787399 186.547394 
-0.519566 -111.885803 186.673203 
3.708300 -109.989403 185.287994 
3.656580 -109.130203 184.341599 
8.102740 -109.176003 183.813995 
3.770020 -108.703598 183.376602 
-0.302296 -109.137398 184.350204 
13.425140 -109.435204 182.528397 
18.822100 -109.773804 180.449997 
13.290400 -109.083397 181.731400 
3.821680 -108.588997 182.029404 
7.908120 -108.733200 181.580597 
-0.158491 -108.555603 181.933395 
24.000601 -110.802803 177.645599 
23.858999 -110.540199 176.847000 
24.374001 -111.486000 178.369202 
28.011400 -123.334602 179.939194 
28.587799 -125.418404 179.083603 
27.558399 -121.449203 180.419601 
22.419399 -124.039001 183.151001 
16.289761 -124.098801 185.667999 
16.527981 -126.436996 184.774399 
15.982100 -122.068199 186.205597 
9.911220 -124.555603 187.262207 
4.915440 -125.039803 187.809402 
-0.332956 -125.301201 187.885406 
23.893600 -108.248398 175.416000 
18.530519 -107.142601 178.285599 
23.636600 -108.115997 174.240601 
49.457600 -114.726402 160.848602 
47.283199 -115.284798 160.993805 
43.789001 -115.205597 162.287796 
40.977798 -115.296600 164.939194 
12.425020 -110.917801 176.599197 
12.628420 -109.548401 178.624405 
17.796459 -111.352203 175.091599 
12.402860 -113.217796 174.809006 
12.947140 -109.034401 180.442200 
18.293341 -109.477600 178.531998 
16.571341 -129.408203 183.532806 
23.093800 -129.089401 181.119598 
27.052799 -119.546799 180.686203 
21.700001 -120.041397 183.931595 
29.232401 -128.128204 177.914993 
34.703800 -126.363998 173.996994 
23.108801 -107.468803 173.400406 
18.095480 -106.253197 175.261795 
22.265200 -105.182999 171.785599 
28.446600 -108.848602 170.526794 
13.031160 -105.763802 176.678406 
8.732840 -105.316002 177.048996 
13.815140 -103.588203 173.994202 
12.891560 -106.552002 178.559799 
21.739401 -99.994797 169.346405 
17.808220 -99.260201 170.438400 
22.347401 -93.171600 167.210800 
26.038200 -100.942802 167.724792 
44.906601 -125.002197 156.923401 
44.971001 -130.694000 156.036407 
40.893002 -124.534599 159.972198 
3.071940 -117.528198 174.182404 
7.038860 -117.729797 173.887802 
3.723360 -124.636803 173.427597 
-0.318240 -117.449799 174.201797 
14.038420 -98.805199 171.154205 
10.016800 -98.411598 171.578400 
14.084820 -92.087402 169.026001 
12.076500 -118.143600 173.022995 
12.628480 -125.498001 171.824997 
17.630461 -118.896797 171.534195 
53.281200 -115.399399 149.000397 
54.789398 -114.843597 147.260406 
27.868401 32.214600 157.195602 
26.653999 29.229601 160.371399 
164.077606 -16.663059 -88.078003 
162.648407 -25.486401 -86.666000 
160.252808 -15.468200 -94.742996 
165.339996 -7.442760 -87.983597 
167.155807 -17.652140 -84.634399 
165.241394 20.875000 -13.153200 
165.704803 26.606199 -21.577801 
163.507401 25.214399 -3.236640 
165.540405 30.778799 -31.980000 
164.782806 41.733200 -34.403801 
166.429199 20.737600 -34.305000 
166.318405 29.852600 -46.117001 
152.274597 -65.381203 -70.150803 
157.259201 -60.830399 -66.837402 
150.278793 -73.782997 -65.108803 
154.611206 -57.564999 -73.691200 
156.577393 -50.222198 -77.728401 
151.240601 -54.213200 -83.458397 
158.807800 -42.260601 -81.265602 
161.218399 -47.831600 -73.972603 
170.199997 -17.560480 -82.822800 
173.300797 -16.567360 -82.075401 
169.037796 -25.904800 -81.085197 
170.955399 -7.522080 -83.107201 
174.254593 -54.332199 -63.369400 
176.477005 -46.223598 -67.407997 
175.749802 -55.225201 -60.922600 
171.878006 -62.356201 -58.458000 
183.421204 -34.685200 -63.313999 
183.429794 -33.545799 -61.767601 
161.536804 -79.511002 -42.416801 
162.482193 -79.996002 -41.003399 
160.714600 -80.870399 -38.424000 
159.758408 -77.732399 -46.534801 
164.073807 -64.824799 -17.344681 
163.395401 -66.086998 -17.275299 
162.480194 -68.115196 -17.733900 
183.333801 -32.789001 -60.948002 
182.343597 -33.974400 -59.069000 
189.050400 -3.492820 -68.300598 
189.140198 -2.181920 -71.348801 
188.862793 -6.145760 -64.992599 
189.686600 17.061279 -63.224201 
190.225601 19.783220 -63.422001 
190.513000 23.997400 -61.335201 
189.447998 23.623800 -56.880600 
190.860596 24.920601 -62.124802 
189.932404 28.177999 -55.113998 
171.116394 -18.531080 -17.336300 
173.692200 -7.496480 -18.320221 
170.187195 -17.004801 -14.647900 
169.195007 -26.716200 -16.331320 
160.676804 -51.004200 -3.986860 
158.961807 -51.882000 1.480044 
159.407394 -58.606400 -5.122100 
161.962997 -42.255199 -2.788200 
168.039200 -41.099998 -21.747999 
168.621399 -45.197601 -22.843599 
168.061798 -37.148998 -21.932400 
166.426193 19.739161 -34.353401 
166.966995 22.237600 -41.302399 
166.506607 19.735399 -33.913601 
182.797806 34.807400 -35.118198 
184.534393 38.123600 -41.311401 
181.023605 35.631001 -37.481201 
180.126007 28.662800 -29.262400 
184.401794 33.388802 -33.125801 
183.332596 39.405399 -51.449402 
181.926407 38.983200 -45.457001 
183.953995 39.699799 -50.410400 
184.143997 36.813400 -58.832401 
181.662994 37.305801 -54.269199 
184.449799 8.357880 -80.341599 
182.840195 7.422320 -80.717796 
185.205994 20.400801 -74.540199 
186.625397 8.847600 -79.247597 
175.554001 1.814948 -19.361940 
176.086395 -0.732888 -20.728600 
190.275406 7.165560 -74.198601 
191.273605 17.492100 -69.633598 
189.627396 1.527610 -74.619400 
190.365204 6.963140 -74.923798 
189.042603 30.013000 -47.143799 
187.345596 28.959200 -39.144798 
188.582001 27.270201 -48.622601 
189.258804 32.002201 -45.896599 
178.319794 3.323620 -24.967199 
177.249802 -0.234652 -23.853201 
179.396194 8.002500 -26.355000 
189.464600 8.569180 -68.779198 
189.581802 4.435480 -72.535004 
184.613800 13.984280 -45.542599 
183.676605 11.267940 -43.993599 
187.078201 12.954260 -53.878201 
174.423401 -10.330480 -27.663401 
174.693802 -9.781160 -29.077999 
175.539795 -7.074400 -25.388201 
183.238403 -8.791320 -55.633400 
187.190399 -3.516200 -59.396198 
182.746399 -7.886040 -54.381401 
182.993607 -10.996340 -55.969799 
163.140793 -34.227200 -2.644580 
164.683395 -24.975800 -4.106180 
161.671005 -34.652000 2.455520 
171.481003 3.009700 -80.090202 
169.095795 1.848436 -82.411003 
171.307404 12.382780 -75.772400 
173.519196 8.050160 -78.159401 
178.319000 18.015980 -72.689598 
177.962204 25.632401 -66.188004 
183.063202 27.350000 -68.774399 
178.473801 9.806320 -78.564400 
180.746994 5.491100 -80.688599 
178.380600 -5.601240 -82.371597 
177.550400 -15.659160 -81.708397 
164.847198 -46.570400 -72.215599 
162.905396 -52.838600 -68.666397 
166.496597 -40.094799 -75.498596 
167.834793 -33.298401 -78.589798 
164.400803 -33.745201 -80.675201 
181.241394 -33.843601 -57.047001 
160.912399 -58.708801 -65.333199 
158.713806 -65.990997 -60.773998 
163.431396 -58.137402 -64.400200 
159.043793 -73.691200 -51.707600 
158.120804 -73.700600 -52.417000 
157.746399 -80.550003 -42.640202 
160.361801 -80.235199 -32.788200 
159.349396 -80.750198 -32.448601 
158.249802 -81.144600 -31.879000 
183.391205 -12.501040 -56.937401 
187.180603 -9.759300 -61.272598 
169.072006 -15.763160 -12.417660 
167.709396 -14.929560 -9.925200 
164.294601 -43.193600 -9.916020 
164.894196 -43.540199 -11.260040 
169.624405 -52.255199 -22.448000 
171.399994 -56.314602 -25.674801 
169.986603 -50.054199 -24.055599 
167.960007 -32.780201 -15.474780 
168.690201 -33.114601 -19.864201 
177.472397 29.318800 -59.744202 
172.639008 21.917601 -65.452797 
175.697998 30.622601 -53.029800 
170.731003 18.772860 -69.117599 
169.784607 18.172600 -71.363602 
169.606598 23.132000 -60.574799 
167.778793 -33.179001 -25.621201 
168.309402 -33.096802 -23.837200 
188.193405 10.977060 -58.616402 
187.848602 7.944600 -57.954601 
175.469604 -8.386040 -31.946400 
174.117798 -13.043760 -34.148800 
177.319595 -5.949900 -37.245602 
182.705597 -6.190060 -53.359402 
186.164597 1.038570 -55.658798 
181.629395 -6.061160 -50.597401 
14.008540 173.120193 126.449799 
13.939740 158.601395 137.094803 
30.689800 171.611206 125.723198 
14.583360 187.768799 112.808998 
-3.237160 173.338196 126.741798 
13.665620 144.121796 145.994400 
-3.333120 143.465195 146.804596 
14.364460 128.617599 154.296402 
30.059000 144.077393 144.460007 
64.978203 116.984596 151.794403 
65.390198 109.040001 157.481995 
55.724201 118.004601 154.676407 
8.502400 -59.506199 204.934006 
9.515260 -57.107399 209.679993 
5.386200 -59.504200 205.798004 
12.398000 -59.335800 201.990005 
12.006480 -39.237000 220.600006 
16.814220 -38.861198 218.516006 
11.744500 -34.675999 219.561996 
7.115080 -39.387001 221.283997 
12.182260 -43.167599 220.561996 
12.051080 -46.844601 219.565994 
7.236100 -47.238800 220.292007 
11.645300 -50.300598 217.567993 
8.160080 -67.406197 189.040802 
4.578340 -67.734001 189.404404 
7.235480 -80.671600 185.813797 
10.938540 -79.758797 185.559601 
3.068800 -81.041199 185.846603 
10.806860 -53.760201 214.274002 
15.025440 -53.594398 211.423996 
6.424280 -53.880798 215.220001 
11.189260 -29.779200 217.548004 
15.998220 -30.268200 215.826004 
10.663960 -23.740801 214.024002 
6.376300 -29.620001 218.054001 
14.267940 96.103203 168.942993 
-1.071512 95.014397 171.156601 
13.335180 90.141197 170.679993 
28.401400 97.844002 167.152206 
14.445740 103.398598 166.326401 
6.477260 39.445000 175.709198 
6.802820 34.526402 178.039993 
6.428900 43.670200 173.941803 
2.971580 39.957802 175.981796 
6.583540 47.731800 172.537796 
10.785680 46.160599 171.393402 
6.791500 51.911598 171.501602 
2.814760 48.182598 172.904999 
4.402920 -104.926399 176.985992 
0.050192 -104.879997 176.994995 
5.015100 -102.672203 174.530594 
3.855280 -106.236801 179.799805 
3.834640 -106.528999 181.958405 
-0.146499 -106.559601 181.889206 
7.972720 -106.594200 181.509003 
4.100860 -106.250999 183.634399 
6.718200 -102.975197 187.300400 
6.226980 -104.577003 186.210205 
0.902948 -102.999603 187.537994 
5.096780 -105.434196 185.302994 
0.271434 -105.578400 185.150803 
6.738140 -94.625397 188.560593 
1.282724 -95.280197 188.673401 
5.405380 -98.078201 171.716202 
5.472440 -91.595001 169.336807 
0.499356 -97.889198 171.603195 
44.424400 169.655197 124.209198 
44.059799 156.781601 133.949203 
57.052799 166.796997 121.924797 
45.322601 183.030197 111.306602 
43.015999 100.172203 165.967606 
42.735600 95.908401 167.421997 
55.304600 101.746399 165.056198 
41.562599 107.455803 162.866592 
45.394199 90.874603 168.168793 
48.830799 84.650002 168.066803 
56.295399 92.603203 167.099594 
52.008400 79.787804 166.632996 
42.867199 77.942398 168.153397 
60.675201 81.891403 165.520798 
58.158001 55.012798 148.556198 
56.937000 58.303600 150.717407 
50.594601 51.939800 148.171005 
66.116997 56.945202 148.771606 
61.784599 51.220001 146.327393 
55.161201 62.574600 153.944595 
63.146198 64.063004 153.414993 
48.047600 59.984200 153.863007 
95.000801 175.505402 80.314598 
96.752403 185.906799 60.566200 
83.055801 182.566406 85.354599 
94.420998 164.455200 94.595802 
68.519997 163.732803 118.314796 
69.748398 175.422195 106.302597 
80.582802 159.585007 113.061401 
65.745201 101.749802 162.656204 
66.820000 98.894203 163.752594 
76.634201 100.431999 157.277405 
69.395798 83.470802 163.445007 
69.185402 86.693604 164.253799 
67.656197 93.727997 164.441193 
71.276604 64.255600 152.388199 
72.903397 60.318401 150.067398 
81.033401 62.762600 150.390793 
93.334396 154.345398 105.577599 
105.968201 148.561401 95.797401 
92.159401 144.273804 114.728996 
89.132797 97.011597 147.710800 
101.243599 91.826401 139.703995 
88.570999 54.195400 146.229996 
88.768799 56.939400 147.135406 
81.554604 56.348801 147.834000 
94.253197 51.462601 143.794998 
92.366798 70.109596 149.459396 
91.151398 65.276001 148.796402 
101.601601 66.541000 144.731598 
89.699203 60.485401 147.975998 
90.835999 133.698593 122.889999 
103.651604 128.090607 113.599800 
117.404198 143.680206 82.953598 
116.566597 133.060806 93.023003 
127.255203 139.121399 67.487801 
95.627602 45.007801 140.265198 
98.769600 41.274799 137.159195 
99.106796 48.012600 140.505402 
102.426201 43.887600 137.126999 
96.938599 46.494801 140.616196 
109.108200 61.654400 139.167801 
114.853996 54.505199 132.696793 
39.269199 65.808197 160.937393 
33.977798 61.022202 159.556595 
40.462601 61.795200 157.488205 
37.579800 68.912201 163.801605 
35.064400 71.875198 166.508408 
29.745399 67.002403 165.210999 
41.788399 55.757801 153.117004 
43.070000 51.117199 149.811203 
12.827920 81.340599 171.643402 
0.912578 82.562599 172.173996 
136.579193 -128.748596 -19.329741 
139.923996 -118.545998 -15.849000 
136.770798 -129.247803 -32.141800 
162.377808 47.128399 -75.174400 
161.645401 39.256199 -86.648003 
159.832199 58.363400 -84.575996 
163.480392 51.839199 -58.778801 
165.079407 35.772400 -64.956596 
155.163193 -14.889960 -106.402802 
153.289398 -26.884399 -103.500198 
150.453201 -15.231580 -117.557404 
157.064407 -3.217320 -106.359200 
158.280594 9.215420 -105.495003 
154.015594 12.699760 -118.367599 
159.497604 20.289801 -101.681198 
162.674393 5.105760 -93.085800 
144.137802 -61.511398 -91.652199 
137.658798 -68.248596 -99.379799 
147.410995 -50.002399 -96.364403 
14.414440 115.159401 161.031998 
-1.952282 112.866402 163.082199 
29.399599 116.035400 159.432007 
42.450401 117.205002 157.437607 
43.944801 129.879196 150.201599 
43.538200 -202.343994 114.304398 
40.259399 -206.951996 100.521202 
57.956799 -198.210800 103.158203 
30.567200 -205.401993 121.174400 
102.196198 -172.512207 86.839401 
91.230003 -179.811996 98.215202 
111.003403 -164.849396 75.885399 
104.202003 -168.120407 94.827400 
115.795403 121.769997 101.775002 
126.372597 115.295197 87.909401 
43.694199 143.865402 142.181793 
136.701599 134.445007 48.638199 
144.337402 130.263199 28.815399 
136.871201 121.578201 60.145000 
45.798000 198.230804 92.738998 
58.857800 193.788406 91.521004 
46.046799 212.613998 69.877998 
31.379200 201.363998 93.716599 
134.271805 80.913200 89.596802 
135.293198 94.710197 80.470200 
103.815201 39.326000 133.984406 
124.073601 52.339600 121.108803 
125.867996 41.346802 114.695999 
121.260803 49.599800 124.125198 
118.344597 47.060001 126.515800 
2.727600 -233.067993 87.503998 
-2.878600 -232.908005 87.795998 
123.120003 -146.824203 76.416801 
125.306999 -139.432999 81.642799 
115.120003 -153.667999 91.403397 
120.600403 -153.214600 69.427803 
13.881700 -87.704201 186.604401 
17.324640 -88.284203 186.070602 
13.398540 -83.232399 185.776596 
44.086800 -98.335197 171.614395 
43.063400 -90.631599 173.213196 
38.469601 -94.536598 176.353607 
20.456800 -80.789200 183.499802 
16.323460 -79.893402 184.597794 
21.048599 -84.800003 184.204407 
24.938200 -81.346603 181.830399 
19.668539 -76.655197 182.898407 
60.210602 -106.012001 161.292404 
58.353600 -112.979202 159.595795 
65.724403 -107.774002 158.692596 
61.787601 -97.992798 162.871994 
134.900803 33.049999 98.638802 
131.164795 31.090401 104.543404 
136.038803 20.291599 97.516998 
138.003998 35.389000 92.617203 
141.168396 37.412800 85.332001 
145.268600 37.696800 74.548203 
111.253998 30.729401 125.515602 
110.996597 25.849800 124.425201 
127.277000 29.450001 109.673203 
167.258804 19.568100 -75.359001 
166.884598 12.004480 -81.835602 
164.202194 23.583599 -83.405197 
167.621399 24.684000 -67.363602 
160.617203 -34.240200 -84.561798 
156.304199 -35.324402 -90.858803 
145.016006 -102.761002 -36.532001 
148.839996 -94.180000 -31.907200 
144.067795 -106.941597 -24.217199 
140.783203 -113.876999 -41.490398 
145.981003 -95.913399 -48.159000 
166.251999 2.616780 -85.944199 
157.176804 -53.605400 7.804820 
155.525803 -62.119400 6.484880 
158.742798 -44.667801 8.694100 
155.264008 -55.267799 16.558380 
153.149994 1.745468 58.946800 
152.580399 18.516880 57.038399 
153.000198 -14.387300 60.671200 
156.961807 -1.220810 41.301399 
116.709000 16.201180 119.663399 
112.969597 19.306459 122.582802 
112.923599 12.234440 124.061996 
109.710197 22.368401 125.147003 
106.722000 20.154800 127.834000 
153.233795 -55.917999 29.197800 
151.303604 -56.071201 42.847000 
151.415405 -65.808403 27.685200 
155.204407 -45.238602 29.560200 
50.469398 -23.672001 169.888397 
58.959400 -27.253799 166.446198 
48.414600 -13.506140 167.166595 
44.052399 -19.151501 173.343399 
72.315598 -31.544201 162.406799 
87.736198 -35.382198 157.179199 
74.655403 -41.755402 163.471207 
37.870800 -14.420340 177.096405 
32.380798 -9.097980 180.836807 
38.652199 -22.268600 180.619400 
44.425400 -36.804600 177.972198 
41.933800 -32.456402 180.450607 
37.105400 -43.554001 191.571594 
34.752399 -43.311001 195.495193 
36.218800 -46.912998 190.181000 
38.501598 -43.985199 188.642593 
39.404202 -44.683800 185.686996 
38.014000 -49.044601 183.680801 
79.372398 -72.399399 160.994995 
67.503799 -70.721199 164.590607 
79.097397 -82.529404 159.398407 
78.546799 -62.679600 162.457794 
76.397202 -51.881802 163.479797 
13.507780 -72.360802 184.911194 
13.665860 -75.969200 184.806595 
15.828660 -72.475403 183.973404 
121.986000 -104.082199 115.167000 
124.641197 -92.676201 116.392403 
112.629601 -101.656998 129.507996 
118.734398 -115.897400 114.515800 
51.854599 -86.200600 168.404602 
46.910400 -84.851799 170.805405 
56.777199 -87.461601 166.433594 
78.063400 -92.406998 157.546997 
76.099800 -102.068001 155.990997 
89.434601 -95.213402 151.225800 
68.595200 -90.362801 161.743195 
13.553240 -79.584000 185.172806 
114.965202 -128.055801 114.158997 
121.675598 -130.732193 99.846001 
105.890800 -122.948799 128.608200 
109.035797 -138.616806 117.266998 
129.330399 -62.321201 120.911400 
128.211197 -72.158798 119.621002 
137.065796 -60.788200 105.520203 
58.901600 -183.608795 144.348404 
59.642399 -177.632797 148.525208 
47.360802 -188.260193 152.812393 
82.864601 -161.450394 134.905197 
92.642403 -155.150406 128.572403 
78.574402 -153.187805 142.171600 
71.460403 -165.874405 143.233200 
124.457001 -18.209280 124.756203 
119.638000 -7.896460 125.963600 
112.237801 -18.579781 137.026794 
101.895798 17.390860 132.369797 
104.178398 13.247940 131.500397 
115.210602 -0.916214 127.174004 
104.610802 -2.157960 136.667404 
110.529800 4.557320 129.119202 
97.897598 24.374201 134.385803 
5.097860 -185.158203 180.892197 
-0.804644 -186.201202 180.788406 
95.668999 -118.199402 139.886597 
91.707397 -126.454002 140.429398 
98.575401 -108.967003 140.548401 
84.320198 -113.806602 148.714203 
73.259201 -145.783997 147.657394 
80.276199 -140.268997 144.541794 
66.030998 -138.534607 152.873398 
64.519600 -150.377808 152.548798 
97.260201 -16.868059 146.545395 
100.854401 -27.257200 147.938797 
93.494797 -7.850580 145.539993 
101.789803 -98.433403 141.591995 
103.828003 -37.745399 148.219803 
20.531401 -163.595993 180.070999 
19.947041 -154.237793 179.682404 
28.403799 -161.969193 176.369598 
37.273399 -160.290604 171.154205 
46.163200 -157.410202 165.048798 
35.872601 -151.270798 171.780197 
90.642403 -1.534662 144.724197 
87.963402 3.155380 144.604599 
74.797798 -0.108872 150.550797 
107.128601 9.019640 130.266205 
98.630203 7.141320 137.552795 
85.877602 7.134560 144.430405 
70.694603 8.089100 149.211594 
27.120600 -4.802920 185.043594 
28.251400 -13.820020 190.039597 
26.212200 4.593520 179.312607 
31.145399 -32.277599 200.044006 
30.605600 -28.565001 197.996597 
26.546801 -31.449400 206.419998 
31.725000 -34.851601 200.671997 
26.092800 25.465799 163.463593 
25.742800 20.554399 167.446793 
46.757999 -4.011300 162.826996 
7.396040 27.223000 182.057205 
4.021000 27.966801 182.220596 
135.563202 7.290080 101.241600 
25.834600 13.394440 172.921600 
127.767197 -130.253204 84.849998 
133.782806 -125.137604 66.911201 
144.460403 -33.744999 92.219002 
143.681198 -47.077999 90.903397 
148.745804 -30.663799 76.622002 
139.154007 -81.318604 86.723000 
140.942001 -70.208199 88.030602 
134.026794 -82.063202 102.343399 
142.620407 -80.625397 71.350601 
142.526398 -58.814400 89.448799 
146.315796 -57.423000 73.306000 
37.613400 -192.240005 159.348007 
19.132940 -146.132004 179.492996 
12.494740 -146.565598 181.222794 
26.669001 -145.185196 176.567993 
34.158600 -144.016403 172.623001 
57.917198 24.835600 145.999603 
60.135601 2.894400 153.407806 
58.571602 7.276600 152.078796 
57.354198 10.612560 150.987198 
6.694680 -146.734406 182.114395 
1.146382 -146.613998 182.449799 
14.919000 55.180801 168.150604 
18.376419 53.506401 166.039001 
16.458839 60.097599 167.936798 
11.099140 55.899601 169.787003 
14.659980 49.657799 168.463806 
40.018799 31.974199 144.464005 
39.547401 34.550400 144.646393 
35.675999 32.722801 147.855194 
21.287800 51.091999 163.538803 
23.207001 56.223202 163.371994 
6.991380 56.715401 170.809601 
2.451300 57.021599 171.221405 
15.638900 -58.776402 199.166000 
17.235460 -56.364399 203.194000 
21.822201 -38.243198 214.554001 
21.746599 -34.650200 213.666000 
27.150801 -37.734001 208.210007 
34.994598 -58.160801 176.798004 
34.629601 -55.993000 179.248596 
29.759399 -61.691002 178.181595 
21.065599 -30.798000 212.304001 
15.876080 43.105000 168.539001 
18.797340 65.485802 168.339401 
22.629801 63.773399 166.359207 
40.531601 37.694000 144.837997 
25.912600 61.578999 163.927399 
28.314199 58.802799 161.213394 
30.125799 55.893600 158.740204 
38.048000 -70.960197 173.095993 
32.435600 -71.995399 175.847794 
39.673599 -76.731796 173.317001 
41.617599 -83.621002 173.333206 
35.509201 -82.320396 176.629395 
41.895599 -112.792801 161.500000 
41.747200 -110.547203 160.524597 
38.480400 -112.269402 164.151596 
43.387402 -109.629204 167.375198 
40.647999 -106.682999 171.472595 
42.224400 -104.321198 158.375793 
36.176601 -103.363403 162.384598 
42.780800 -96.786598 156.569794 
27.634199 -72.923798 178.409393 
22.987400 -72.998199 180.728607 
28.764601 -77.293198 178.928207 
30.271400 -81.927597 179.354797 
31.222200 -86.573196 179.992004 
34.144600 -110.928398 167.141205 
31.830601 -107.871399 167.098602 
30.815399 -102.101997 165.418396 
31.797001 -94.788597 163.043198 
19.076220 -72.803001 182.599197 
18.648260 -69.331596 182.663406 
22.338200 -89.200600 184.723602 
27.266600 -89.908401 182.820999 
38.518002 -27.875799 183.633606 
34.060398 -24.848600 189.039398 
10.176120 -15.489700 208.557999 
5.945820 -14.990980 208.837997 
29.372999 -22.105000 194.651596 
19.260860 -52.593800 208.018005 
23.603201 -51.686401 202.957993 
28.117399 -50.693401 197.650208 
30.053400 -46.880001 199.750000 
32.084000 -50.342800 192.190598 
34.304001 -50.690601 188.220001 
35.037800 -51.960999 184.951599 
34.911598 -53.916199 181.731400 
31.788200 -37.319801 201.345993 
31.600401 -40.235802 201.582001 
31.090401 -43.429001 201.067993 
80.866798 -288.006012 28.176201 
71.357803 -291.127991 34.728802 
82.904404 -299.959991 26.040199 
89.426598 -284.601990 21.486601 
78.290604 -271.678009 31.151199 
75.832397 -248.893997 34.943600 
84.444801 -245.395996 27.260000 
75.006798 -228.686005 38.340801 
66.548798 -252.220001 42.653400 
82.071800 -195.975998 51.199799 
90.531197 -190.221802 41.785000 
72.613197 -201.434006 60.357201 
79.371597 -204.091995 44.448002 
76.595398 -214.514008 40.896198 
67.113800 -218.716003 50.182999 
84.919403 -210.190002 32.361401 
87.165398 -133.911804 141.514206 
95.371597 -140.591797 132.672806 
77.127998 -127.811401 149.063400 
102.343002 -147.427200 121.390198 
104.997200 -155.094604 111.775002 
105.575203 -162.067200 102.763603 
68.813004 -122.931198 153.774796 
71.461197 -117.155998 154.009003 
61.268600 -119.534599 157.096207 
64.243599 -127.849800 154.820404 
56.790001 -117.710602 158.702393 
54.632801 -120.943802 158.897202 
97.614998 -184.982605 32.627998 
101.780998 -177.347794 38.803799 
94.811401 -194.192200 27.104000 
104.175797 -180.717804 21.903400 
107.192398 -170.401001 46.545799 
111.829803 -165.891998 33.467400 
112.641602 -164.132202 54.373199 
117.149002 -158.688995 62.319599 
121.128799 -153.798599 47.215801 
92.433800 -241.615997 19.379641 
94.637001 -264.679993 16.809561 
99.995598 -238.606003 11.182120 
91.640999 -221.076004 21.528400 
97.088600 -281.316010 14.522820 
99.569397 -293.727997 12.370460 
104.213203 -278.066010 6.948980 
92.547798 -205.830002 23.756399 
149.017395 -56.707802 57.985600 
147.079803 -68.265800 56.950001 
150.946396 -43.978199 58.892601 
123.783401 -150.142197 32.981400 
119.777397 -155.931793 26.794201 
126.039398 -146.778397 18.767679 
151.171997 36.152000 56.759201 
156.976593 31.528999 34.817200 
137.135193 -120.941597 50.037201 
139.182404 -117.029999 33.023800 
145.192398 -79.379601 56.250599 
147.421204 -77.509201 40.959999 
152.296005 -29.216200 60.854599 
155.024002 -31.117201 44.540199 
149.494003 -75.753403 26.427999 
151.745804 -73.110001 13.463300 
119.910004 -174.530594 -10.415340 
119.044403 -184.404404 -12.756520 
123.735802 -173.691803 -20.102200 
121.175797 -165.885803 -7.423480 
115.389397 -175.756195 -0.406392 
118.509201 -195.570404 -14.027300 
123.098396 -157.932007 -3.091120 
119.575203 -159.884796 8.156280 
126.277199 -156.453003 -14.444620 
125.429001 -150.736603 0.975662 
159.846802 -3.594120 23.895800 
160.548004 12.226960 18.985121 
158.561203 -19.600380 28.223000 
160.992401 28.813400 13.193160 
161.173996 44.443401 8.115840 
161.241806 60.276798 1.676836 
163.345200 58.176201 -19.935499 
161.167603 75.958000 -5.789820 
140.881195 -113.136200 16.785080 
142.276794 -110.361198 1.202522 
157.003601 -33.104801 29.959000 
158.715195 -34.806801 17.407520 
107.315598 -235.548004 2.208620 
109.008202 -258.306000 0.365558 
115.981598 -162.582001 20.807400 
112.542198 -169.736206 15.083960 
110.921600 -274.600006 -1.560400 
113.088799 -286.575989 -3.927280 
125.583000 -226.350006 -33.541801 
126.373802 -245.472000 -36.061401 
126.808800 -172.622803 -29.691401 
128.871399 -169.137604 -39.844799 
127.896004 -163.449997 -27.911600 
129.434998 -154.429398 -25.507601 
127.136597 -259.743988 -39.020599 
127.766800 -271.023987 -42.935799 
143.110794 -109.286003 -12.817480 
153.787399 -70.377197 4.697080 
156.012604 -66.806396 -1.615366 
152.252197 -77.919998 1.646464 
160.142395 -35.192402 9.139920 
127.022003 -184.462006 -55.539600 
124.362000 -175.945404 -69.181000 
128.179794 -171.848602 -53.474400 
130.005203 -160.008194 -51.703602 
128.955399 -147.173203 -63.820801 
136.986404 -126.377800 -45.044201 
151.413803 -89.071602 -29.386600 
153.878601 -83.752998 -42.291199 
117.939201 -237.641998 -90.960197 
118.087997 -253.158005 -93.713799 
111.266403 -232.175995 -105.008202 
117.952400 -221.098007 -88.058403 
147.869598 -85.879799 -57.527599 
152.770599 -78.536797 -54.201801 
156.187195 -75.135597 -52.829601 
61.425201 -293.803986 40.816002 
59.005199 -277.795990 44.757401 
51.388802 -296.256012 46.253399 
63.726200 -305.268005 37.740601 
56.088200 -222.578003 59.966801 
44.332802 -226.324005 69.060600 
54.788799 -235.550003 55.997601 
58.625599 -213.778000 63.928600 
70.913597 -193.779602 92.099403 
65.679001 -199.288605 81.085197 
75.692200 -189.328598 101.769600 
61.402000 -206.261993 70.755798 
49.353401 -210.167999 80.723000 
56.235600 -254.906006 50.569599 
45.616798 -258.279999 57.794201 
60.060600 -132.591797 156.249207 
55.012402 -127.458801 158.650604 
79.199203 -185.341599 110.015404 
51.946999 -124.320396 159.966599 
47.739399 -127.280602 162.592407 
49.445599 -121.717598 160.936005 
47.455399 -119.348602 161.621597 
44.312000 -121.753403 164.211395 
55.533600 -154.312805 158.348801 
58.023201 -162.229797 155.622406 
59.717400 -170.555206 151.952606 
36.048199 -114.777802 170.229401 
30.697001 -113.677597 174.995407 
35.346199 -113.771202 167.945999 
40.669800 -114.869202 163.800201 
35.356998 -114.269798 167.070801 
29.486000 -112.029800 171.847595 
35.316601 -115.210197 166.308594 
35.344200 -117.816399 165.006393 
29.298000 -113.508400 169.817993 
35.248600 -123.329597 163.580200 
35.099602 -129.644806 162.620605 
29.111200 -121.462799 166.890594 
32.756199 -229.210007 76.609200 
34.830799 -220.610001 81.370598 
32.643600 -241.382004 71.559998 
41.183201 -298.726013 51.064999 
38.626801 -283.261993 56.139801 
31.110201 -300.574005 55.124401 
43.541199 -309.406006 47.406601 
35.265202 -261.112000 64.054199 
16.225140 -216.352005 98.179199 
24.910400 -215.649994 94.735001 
18.511820 -210.858002 110.713997 
22.273600 -301.842010 58.030201 
24.528200 -312.062012 54.221199 
20.875000 -207.147995 125.348999 
23.511600 -110.574600 175.711197 
23.286200 -111.097801 174.286606 
23.086399 -112.179604 173.009399 
23.478399 -114.631203 171.226196 
23.272400 -120.001602 169.500595 
23.520000 -127.342796 168.178604 
152.200195 96.953598 29.682600 
157.475998 93.626602 7.585260 
151.876007 111.892601 19.035740 
145.116592 101.763199 51.010601 
163.740402 55.585800 -39.946201 
150.264999 -38.699001 -100.827797 
144.496002 -42.474800 -110.543999 
105.341797 -189.173203 -110.665199 
106.716599 -168.744598 -108.597000 
111.468201 -195.375198 -99.730202 
104.965401 -209.692001 -112.889801 
98.928596 -184.628403 -120.433403 
105.114799 -227.658005 -115.470398 
105.770401 -244.778000 -117.843399 
98.567200 -224.274002 -124.847397 
119.806999 -164.751007 -83.772598 
118.396400 -183.923798 -84.700203 
114.354202 -155.819397 -96.461197 
122.552399 -147.843796 -81.142197 
45.646599 225.391998 42.732399 
59.697201 219.835999 42.371201 
45.469398 234.671997 12.565920 
30.941799 229.268005 43.149399 
45.079601 203.979996 -157.715393 
46.280602 221.397995 -125.976196 
59.354401 199.959198 -153.909805 
43.616600 182.221405 -184.014008 
30.108200 206.792007 -160.585403 
42.763199 158.371002 -203.052002 
56.522400 155.093597 -199.049805 
42.247799 131.983398 -217.404007 
28.788601 159.895401 -206.274002 
46.423401 233.169998 -91.807800 
60.920601 228.216003 -88.538399 
31.299400 236.772003 -93.963402 
46.204201 239.188004 -56.135201 
15.244920 246.082001 -22.391199 
-0.875196 246.888000 -22.695000 
14.998280 241.285995 11.977860 
30.814199 243.645996 -21.755199 
15.448260 245.414001 -58.618401 
41.729000 105.994400 -227.212006 
54.599800 103.282402 -223.132004 
41.086399 79.057404 -233.750000 
28.685801 107.513397 -230.136002 
40.066399 50.923000 -237.354004 
52.735199 48.991001 -232.977997 
39.052399 23.162201 -237.697998 
27.434799 52.797600 -240.376007 
34.843201 -53.913399 -215.938004 
46.492001 -55.385601 -211.636002 
34.236801 -77.168602 -201.462006 
23.697599 -53.714600 -218.248001 
36.494801 -28.799999 -227.550003 
13.076040 -0.900136 -240.039993 
0.298382 -0.756830 -240.705994 
13.514820 25.420601 -242.882004 
25.554001 -1.749674 -238.000000 
12.453200 -26.612200 -232.919998 
30.471201 -170.329193 -166.900803 
31.159800 -151.292999 -168.853394 
41.122799 -171.861404 -164.240997 
29.995399 -189.256195 -166.143600 
20.234800 -169.444794 -168.418793 
9.861860 -206.371994 -167.434799 
19.837500 -207.292007 -166.840805 
10.067340 -225.714005 -166.980392 
0.255008 -205.901993 -167.623398 
10.096580 -187.003998 -168.133606 
34.574001 -95.489799 -189.534805 
45.207001 -96.630600 -186.431793 
33.836399 -111.872002 -180.572205 
23.100201 -94.561996 -191.542007 
32.278198 -130.727203 -173.421204 
43.598598 -132.930603 -169.981598 
21.644400 -129.125000 -175.388596 
10.979560 -128.517395 -176.285400 
11.459520 -110.025200 -183.507004 
10.431940 -149.453400 -171.476395 
0.266122 -128.852997 -176.391403 
97.777802 195.824005 36.655602 
109.703400 184.896194 34.147999 
99.088997 203.218002 9.601980 
85.636200 205.003998 39.339802 
94.715401 141.068405 -179.016602 
105.730400 134.850998 -170.552597 
94.045197 117.123398 -192.580994 
82.957603 146.356003 -186.655594 
95.453201 162.810806 -160.690399 
96.090599 181.783600 -136.689194 
84.633202 188.981598 -143.181000 
97.350197 195.852402 -108.458199 
107.274399 172.995193 -129.535400 
98.765999 204.417999 -79.034401 
110.474800 193.132202 -75.523399 
86.958603 213.746002 -82.237602 
100.419998 207.490005 -49.400600 
100.039001 207.395996 -19.595240 
87.598801 217.475998 -19.339041 
111.961998 195.786804 -19.794479 
92.801003 92.849602 -202.391998 
91.469200 67.640198 -208.893997 
80.971001 96.626602 -210.229996 
103.728600 88.434998 -193.808807 
89.551399 42.104198 -212.548004 
100.284599 39.259201 -203.906006 
87.604202 16.255520 -212.785995 
78.204399 44.320801 -220.177994 
85.009003 -8.738820 -209.925995 
82.375999 -34.415798 -202.968002 
74.461197 -8.112640 -217.166000 
94.708397 -10.176940 -201.602005 
80.764999 -59.432800 -191.429001 
90.296799 -58.847801 -183.834793 
79.633598 -81.129601 -178.867004 
70.047600 -58.265400 -199.194000 
78.472397 -99.956802 -167.704803 
77.087196 -118.750603 -158.059799 
67.955597 -99.602402 -175.057602 
87.783997 -100.302200 -159.240799 
72.767799 -175.464996 -148.302994 
70.871399 -195.399200 -150.057800 
62.517399 -174.630798 -155.055801 
74.682198 -156.282593 -148.182800 
82.096001 -177.378998 -140.335403 
49.994999 -210.429993 -161.016006 
50.315800 -228.162003 -161.356796 
39.759602 -209.026001 -163.863205 
50.631401 -192.251999 -160.620193 
60.381001 -212.251999 -156.849197 
75.863800 -137.697006 -151.366592 
85.364998 -138.352203 -142.389206 
65.917603 -136.446396 -158.797195 
135.845993 140.329193 -102.893600 
138.224792 148.212997 -79.918404 
144.109604 126.850403 -91.323601 
134.112595 128.023193 -123.834999 
127.011002 152.203201 -113.284599 
140.054794 152.694794 -57.140202 
148.037796 137.155594 -46.888401 
131.099792 167.263000 -65.328400 
141.166397 154.633408 -34.644001 
139.858200 156.187607 -12.947940 
146.060394 141.462402 -3.425000 
132.026398 169.993805 -17.511000 
113.367996 83.960800 -184.787201 
114.712601 106.402199 -174.886795 
122.143402 78.676201 -175.173401 
111.938004 60.241798 -191.263596 
115.392403 128.332794 -161.623993 
116.228798 147.396805 -144.246399 
124.487396 120.556999 -151.815201 
104.299599 -11.510160 -191.768799 
107.824203 12.400660 -194.398407 
113.503197 -13.099240 -180.784805 
100.861000 -35.489201 -185.649399 
110.060600 36.029999 -194.520798 
119.115196 33.321201 -184.387405 
98.815002 -57.835201 -175.651199 
107.147598 -57.688202 -165.534195 
97.822197 -79.799599 -162.330597 
96.086403 -98.958397 -150.803802 
103.541603 -95.690201 -142.838394 
94.867401 -139.587204 -131.190002 
102.990196 -144.528397 -118.296600 
92.926201 -159.623398 -129.452805 
156.365799 70.290604 -94.605797 
154.545395 58.357601 -109.634003 
152.122803 81.080002 -105.859398 
120.466599 172.823395 32.857399 
121.532600 180.088593 6.884780 
159.985199 91.159401 -14.345680 
157.979996 106.420403 -24.535200 
134.907196 -14.503940 -149.299805 
128.532394 -14.733120 -159.539597 
137.823593 4.280220 -152.034607 
140.839996 -15.137620 -138.237198 
131.274994 -34.072800 -143.822006 
139.427399 23.283800 -153.234207 
133.384598 26.778400 -164.092804 
141.139999 41.373798 -150.192596 
145.197403 19.163481 -141.167404 
142.847397 59.729198 -143.389801 
136.672607 66.614998 -154.653595 
144.806396 76.530998 -132.352402 
148.371796 52.102600 -131.598602 
120.390800 -83.856796 -121.626801 
114.945000 -88.389603 -128.616806 
123.702797 -68.655602 -129.278793 
125.863998 -79.473198 -114.132004 
117.505997 -99.330597 -114.244797 
138.861603 -45.785400 -119.814796 
135.143997 -60.321201 -113.417603 
133.408997 -49.042000 -128.080002 
142.626205 -30.945200 -124.420799 
109.261002 -149.725998 -107.136002 
112.066399 -131.651199 -107.280403 
156.463196 -74.872803 -12.877080 
157.832397 -67.679199 -8.661560 
153.049194 -80.942398 -8.615800 
157.869598 -64.184998 -5.672480 
166.317200 -12.505440 -7.201100 
167.769196 -1.930654 -11.215540 
188.673004 8.646620 -77.759003 
189.030197 20.353600 -72.765602 
189.961594 7.854720 -76.336800 
168.776199 -70.654999 -52.251202 
166.360596 -76.302002 -45.689201 
188.354401 29.852600 -65.531601 
186.379196 30.480600 -66.533798 
187.180603 36.214401 -57.134201 
190.155807 28.508400 -64.415001 
176.962006 20.246799 -24.221399 
174.240402 20.227200 -25.559200 
185.875595 38.903000 -48.507999 
187.773407 37.472801 -47.035801 
178.884598 -37.380798 -71.982002 
171.744003 -72.165398 -37.624001 
170.529404 -71.918404 -32.396400 
168.284393 -76.383797 -38.699402 
168.464203 3.269220 -14.561060 
179.556396 35.535000 -39.690800 
175.964798 29.414801 -34.448200 
177.310593 33.773998 -42.883598 
171.485596 20.780399 -28.437599 
169.606201 21.650801 -31.619400 
185.013596 30.155399 -66.999603 
168.016403 21.079800 -34.535000 
170.319199 25.004400 -39.782398 
173.180405 28.766800 -46.894199 
168.855606 24.473200 -49.130199 
177.563202 -54.360001 -57.989799 
177.803604 -57.596600 -42.945999 
165.100204 -78.783798 -39.720200 
169.074600 -70.190201 -27.917200 
171.523804 -64.362602 -27.720200 
173.477997 -59.586201 -29.336201 
174.478394 -56.450401 -31.073000 
190.356796 7.264260 -75.520599 
191.282196 18.548740 -70.697800 
185.358002 32.200802 -32.235600 
185.724197 30.926201 -31.672400 
187.505600 35.471802 -38.295399 
185.691803 29.704800 -31.418600 
187.969193 33.137199 -37.404800 
185.356995 27.537001 -31.823799 
190.928604 27.412201 -63.705200 
190.003204 33.276600 -55.332600 
191.158401 26.408400 -63.458199 
188.926804 36.046398 -46.099201 
189.383606 34.845798 -45.892799 
189.421402 33.677200 -45.405800 
190.310806 31.183599 -54.666599 
191.088593 25.658001 -62.851002 
189.287598 -1.453294 -73.627800 
184.807007 24.897800 -32.983601 
179.874603 10.329360 -28.354601 
188.147995 24.252399 -49.923000 
188.412598 -7.735780 -63.477798 
188.531403 -3.942800 -62.806999 
188.411804 -0.175867 -61.570999 
188.045807 2.841660 -59.714401 
187.402802 5.301960 -57.177799 
185.711807 7.015300 -52.073200 
170.544205 -49.321800 -26.485201 
172.876205 -52.553799 -29.845800 
176.218201 -3.052820 -22.647400 
168.603394 -33.131599 -22.220200 
174.699997 -55.006001 -32.022202 
73.975403 57.365002 148.529602 
70.801201 188.931198 88.910004 
72.180397 201.647995 67.071602 
14.809100 203.587997 94.002197 
14.952380 218.725998 70.600601 
-2.628100 204.328003 93.926201 
72.787399 213.250000 40.960602 
73.464798 221.746002 12.072880 
14.927700 231.695999 43.295601 
-1.705240 232.576004 43.009201 
45.585400 239.608002 -20.897200 
60.206402 233.809998 -20.048401 
74.010201 226.537994 -19.725760 
74.558197 226.567993 -52.293201 
136.503799 108.110397 70.272400 
149.824799 126.474602 7.527840 
153.269806 123.844200 -14.004320 
122.340797 183.702805 -19.799940 
122.733398 183.291794 -45.590000 
15.574720 238.983994 -95.093201 
15.540260 226.682007 -130.018005 
-0.374562 239.723999 -95.431000 
74.023804 222.020004 -84.953003 
73.448196 211.352005 -118.160004 
153.753006 121.646400 -35.700001 
152.894394 118.639397 -57.598999 
120.862999 181.162598 -71.363602 
119.029198 174.644806 -96.758003 
150.737396 113.270203 -79.292999 
148.632004 104.534203 -99.862801 
146.599792 92.400398 -117.578796 
140.206604 102.478996 -129.509598 
91.167397 -181.087799 -130.632004 
89.830002 -201.332001 -133.114807 
89.960800 -220.248001 -134.998596 
90.282600 -237.679993 -137.260193 
80.079002 -216.528000 -144.229797 
15.058240 208.664001 -161.913803 
14.643660 185.706406 -188.798996 
-0.024653 209.037994 -162.697800 
14.686140 160.741196 -208.115997 
14.849000 134.428604 -222.121994 
0.225066 160.968002 -208.740005 
14.892800 108.378601 -231.893997 
14.612920 82.010002 -238.434006 
0.323894 108.752403 -232.449997 
14.034620 54.082199 -242.225998 
0.336658 54.136200 -242.878006 
37.905800 -3.110440 -234.619995 
50.225601 -5.009460 -229.910004 
11.763880 -53.321999 -219.830002 
11.698000 -77.443604 -203.843994 
0.246622 -53.555599 -220.119995 
11.658880 -94.763199 -192.085602 
0.233424 -95.168198 -192.016205 
10.282160 -168.437805 -169.217804 
0.279272 -167.963394 -169.470993 
69.908203 151.113403 -193.567001 
70.955803 174.445404 -174.595795 
69.062401 125.794998 -207.498001 
72.125397 194.949005 -149.379196 
67.914398 100.277397 -217.322006 
66.868202 73.929604 -223.742004 
65.569199 46.928200 -227.179993 
64.305000 19.474680 -227.268005 
62.599201 -6.731000 -223.988007 
60.549400 -32.173801 -216.988007 
58.389599 -56.821201 -206.087997 
56.858200 -79.267998 -193.197998 
56.640202 -98.175797 -181.557999 
56.330799 -116.048798 -171.957794 
54.879601 -134.690994 -165.223404 
53.467400 -154.224792 -161.363205 
52.127602 -173.134399 -160.263000 
70.575996 -214.046005 -151.238403 
71.038803 -231.828003 -152.346802 
117.228996 163.587997 -121.839798 
132.708801 112.587601 -140.712799 
131.404800 93.212799 -154.834595 
129.711395 73.374199 -165.276199 
128.181198 51.935799 -171.827194 
126.595596 30.397400 -174.552994 
124.706596 8.131860 -173.465393 
121.334999 -14.394640 -170.117004 
117.636200 -35.971199 -164.322800 
114.307800 -55.895802 -156.410400 
121.068001 -54.631599 -146.368607 
111.740799 -75.361397 -145.802994 
109.427002 -92.083000 -135.898804 
115.138000 -115.485001 -108.555397 
119.566002 -112.448402 -101.863800 
152.640793 45.714600 -120.690002 
151.223602 30.912800 -127.079399 
156.690399 38.158401 -108.711800 
145.698593 -15.255520 -128.339401 
148.205994 0.478256 -130.002594 
127.282600 -52.062801 -137.276398 
149.770004 16.273380 -130.230804 
131.419006 -74.690201 -106.834000 
128.195602 -88.995003 -100.546997 
36.846401 -213.279999 89.247398 
128.550995 -143.715393 5.083180 
110.064003 -177.728607 10.850080 
24.793200 -98.302803 184.341202 
29.902000 -99.714798 181.477997 
36.000198 -102.884003 176.490204 
14.736400 -115.893997 186.164398 
15.217740 -117.773804 186.434402 
