1904
22.8081	-52.4963	85.1103
21.4172	-45.3391	83.3776
28.9475	-134.055	15.4348
32.9722	-148.949	13.3564
41.2619	-146.63	7.57946
36.8586	-131.637	9.38425
31.3071	-98.241	16.5231
23.4177	-99.8788	23.1971
23.4851	-110.675	19.0496
31.5176	-109.566	12.4371
32.4367	-59.8483	80.4889
42.9419	-88.2646	14.2115
48.2903	-82.188	22.0672
44.0601	-129.331	2.7373
48.3823	-143.86	0.66472
52.5713	-79.3026	9.31126
54.3907	-84.3807	-7.05463
49.4224	-85.823	3.13803
56.1861	-97.4521	-34.4784
71.7467	-39.327	1.33445
57.5569	-81.9201	-32.1543
52.7924	-124.55	-53.3481
51.6423	-107.89	-50.851
20.3482	-135.961	20.9874
23.9965	-150.852	18.255
14.65	-100.908	29.9159
14.8701	-111.422	25.6423
27.5368	-60.3358	84.4833
19.0389	-55.2141	89.6723
19.0659	-57.1345	88.3468
15.1385	-152.277	22.1103
18.1951	-64.962	87.2997
75.3979	52.683	-1.72758
46.8623	-82.5867	-58.7743
51.905	-88.5799	-48.2118
45.9728	-103.212	-61.1831
46.6304	-120.737	-64.0925
54.7924	-68.0922	-46.5697
29.8818	114.425	6.14733
15.7205	119.475	6.08686
15.7114	112.212	-64.3915
30.3423	108.3	-61.2387
28.8422	89.2921	-89.9624
14.6117	92.1399	-93.5547
27.7652	64.5753	-106.615
14.399	66.7804	-110.177
30.4394	116.69	-27.1999
15.8687	121.455	-28.9777
0.204351	123.044	-29.5431
0.180891	121.214	5.80159
26.8584	38.3195	-114.758
14.1549	40.4383	-118.322
25.8121	10.6653	-116.544
13.2235	12.3134	-120.46
24.188	-15.2747	-111.383
22.2128	-39.2076	-98.9189
11.3784	-38.7517	-101.434
12.3275	-13.7675	-115.411
0.139979	-13.1835	-116.793
0.159157	12.7571	-121.767
9.7465	-75.4059	-85.112
20.0369	-76.8204	-82.6527
19.0485	-95.5683	-81.9457
9.40136	-94.3682	-83.7309
9.41076	-113.099	-83.4114
-0.0625651	-112.939	-83.7859
-0.0760824	-93.4313	-84.2004
21.6252	-57.4135	-88.1437
10.8917	-55.4868	-91.0777
-0.0243043	-55.5527	-91.4856
-0.0716599	-75.0721	-85.6876
54.3886	95.5649	3.5938
42.8056	106.322	5.30392
52.8763	77.4749	-76.3755
52.1979	55.7828	-91.9342
40.9543	60.7296	-100.189
41.7259	84.3872	-84.0071
42.7166	101.927	-56.8593
53.9179	92.5617	-51.5733
55.4747	97.5173	-24.1688
43.7683	108.578	-25.5864
50.8367	31.8721	-100.076
39.7861	35.3587	-108.29
48.5906	7.10631	-101.964
38.1702	8.79879	-110.099
45.1964	-17.7368	-97.265
35.7788	-16.8683	-104.962
43.3553	-40.9395	-84.7944
33.4614	-40.6047	-92.9383
32.229	-59.3616	-82.2475
37.8072	-99.1477	-71.2058
28.8197	-97.3243	-77.948
30.4638	-78.1965	-77.3759
39.5662	-79.3147	-69.3122
28.944	-114.986	-78.9251
19.0567	-113.663	-82.0981
63.748	80.4314	-44.7799
71.8314	65.9305	-34.6343
69.957	57.6524	-55.9376
62.1288	68.6673	-67.4236
72.2722	68.5366	-12.8343
65.1725	84.027	-21.0105
61.2141	49.7	-82.4931
59.7569	27.8225	-90.6271
57.7594	4.79039	-91.5802
53.7498	-18.531	-86.9415
50.7683	-39.7171	-76.1723
73.7315	32.8656	-59.9982
60.7583	-18.4214	-76.1856
64.599	2.53538	-81.0421
70.1217	0.306141	-69.6369
66.5367	-17.2473	-66.0117
66.5435	22.969	-80.41
71.9588	17.1058	-68.7006
68.3369	42.0612	-71.7932
56.5545	-37.1638	-67.7584
62.0475	-33.4432	-59.3332
57.8367	-48.7312	-52.3518
92.6067	8.2756	-34.8527
90.8382	8.99823	-36.0744
89.896	16.9357	-28.4401
91.7454	15.7579	-27.2677
85.704	12.5562	-14.8854
87.4831	11.5792	-12.8905
83.5582	12.0424	-17.8565
89.0816	7.40211	-36.9791
88.6913	15.5432	-29.6887
91.5652	-3.74453	-36.7688
90.9043	15.3003	-18.1247
92.3502	14.4633	-26.7712
0.105719	110.409	35.4745
0.212555	113.574	-65.3226
38.5244	-117.42	-72.8407
0.200273	92.9463	-94.7459
0.157939	67.3478	-111.343
0.171743	41.1627	-119.52
0.0573095	-39.1342	-101.763
-67.6318	-47.9542	23.0248
-70.2124	-44.6264	8.10435
-65.36	-57.6141	20.8947
-54.3175	-104.883	-12.3477
-48.8145	-106.138	-3.98296
-54.5198	-140.72	-7.64003
-51.5149	-127.034	-5.60524
-56.2451	-124.249	-14.3187
-58.3573	-137.208	-17.0266
-48.9742	-93.6394	-1.87742
-40.8616	-107.624	4.71315
-41.2701	-95.2919	7.83014
-54.4279	-92.8603	-10.8299
-57.703	-91.0178	-20.2055
-57.2459	-103.189	-21.4582
-62.4482	-65.5676	17.7264
-58.3275	-72.7534	13.4151
-55.2616	-75.5395	27.2051
-58.9876	-68.5266	32.4511
-75.4309	36.5362	7.12256
-74.5811	20.0773	14.1704
-66.1358	24.2302	37.2996
-68.0997	40.4983	28.5718
-78.3833	31.2541	-33.8784
-78.4825	34.9282	-14.474
-76.5532	50.501	-23.8114
-75.2462	44.9043	-44.2961
-6.39238	-99.9992	34.8631
-10.7035	-100.289	33.4136
-10.3498	-112.489	30.3308
-5.66661	-113.225	32.686
-12.9465	-138.215	25.3795
-6.21137	-139.205	27.6435
-7.48807	-153.218	24.6229
-68.7761	-42.7289	-33.5906
-62.4276	-53.553	-39.4694
-66.113	-55.5004	-25.0238
-71.2543	-33.3587	-38.3641
-64.39	-41.7716	-45.598
-59.6568	-133.42	-27.6746
-57.7213	-129.035	-40.4487
-61.4054	-60.587	35.8814
-64.29	-48.7242	37.3697
-64.2377	-62.3716	1.60819
-3.91291	-93.1909	93.177
-11.82	-91.4629	90.305
-10.4568	-100.765	85.2474
-3.00123	-102.012	88.0262
-21.7094	-87.6705	83.9547
-20.247	-96.3232	79.5668
-4.87522	-82.6568	95.2011
-3.80416	-105.128	80.5966
-5.39466	-103.711	67.638
-14.2996	0.373291	86.3663
-13.0904	6.68758	81.0125
-18.2609	2.59052	77.7151
-20.631	-4.20135	81.2084
-52.0971	-36.0921	66.9591
-41.3228	-33.1425	76.7999
-40.2261	-23.2641	76.5464
-51.5459	-26.4953	68.4591
-62.4593	-25.7843	53.3064
-50.3368	-15.3524	67.9096
-64.9159	7.85493	43.771
-69.2914	5.97368	34.9393
-41.2845	-42.3302	76.3249
-51.1458	-45.2794	65.2501
-2.02128	8.99612	94.666
-2.95814	1.20588	103.113
-25.4003	78.3126	66.5276
-35.8849	74.5207	61.1434
-33.3942	63.0576	69.324
-23.363	65.9993	74.7264
-5.65139	-100.054	49.9444
-59.1495	-47.6758	50.9809
-55.5662	-60.5999	49.6751
-30.6891	-89.4068	68.9427
-39.5655	-82.6119	58.8301
-37.5805	-87.7709	51.4562
-28.5205	-93.9754	32.7041
-34.06	-90.8326	43.7334
-43.5212	-85.5473	33.471
-36.593	-91.0194	23.8412
-3.82909	-5.28836	109.413
-8.8418	-1.46097	99.1716
-9.73254	-6.8879	104.826
-22.8493	-11.3437	83.7386
-29.6222	-16.1467	80.0826
-29.484	-58.2564	83.3828
-15.8727	-22.6057	93.5775
-15.0439	-25.1711	92.2205
-10.9004	-28.7271	94.6824
-15.1598	-27.4719	91.1777
-15.9873	-29.739	90.9054
-3.25496	-22.4507	103.478
-3.57141	-24.3828	100.728
-21.0801	-28.7222	87.0737
-4.16367	-12.6814	112.392
-10.1503	-12.2316	107.051
-9.69056	-15.7161	105.715
-4.06614	-16.3128	110.79
-29.3374	-72.7742	81.2674
-21.6561	-77.7081	87.4372
-20.9791	-70.2453	90.2244
-27.4321	-65.5788	84.8221
-29.4697	-47.1928	85.9563
-25.2709	-45.2026	89.2577
-3.84537	-26.8141	99.2652
-4.22973	-31.4471	98.9731
-7.83376	5.44841	91.7966
-19.8237	-13.7364	91.2631
-19.8465	-16.6265	91.9232
-19.1712	-13.9417	93.6854
-6.72093	-27.1557	97.5637
-18.8714	-21.6623	90.6718
-4.81662	-36.8066	100.172
-5.41719	-41.3244	101.512
-27.3681	-37.4136	85.8754
-23.1484	-36.1021	88.4072
-13.2245	-67.9564	96.6737
-13.1026	-72.6945	94.6684
-5.14763	-74.0233	96.7484
-4.93329	-69.193	98.8665
-22.4591	-50.9253	91.3442
-26.8288	-54.2882	85.7829
-15.9584	-9.95586	96.8804
-20.1675	-66.0489	92.3242
-54.2658	35.1318	58.4867
-61.3971	21.9886	47.0468
-58.0633	21.5659	52.0024
-45.6022	57.2526	59.6195
-43.4006	46.9464	65.7877
-32.1707	51.816	75.4457
-57.8583	49.0172	46.6413
-55.9271	38.575	54.341
-32.6578	47.0078	76.7481
-42.7266	42.6903	67.8601
-19.0078	30.1296	75.9221
-17.7144	33.5771	78.0133
-25.1495	35.3355	76.4914
-26.0527	31.6626	74.7542
-7.53459	11.8233	84.8938
-1.6335	15.9477	87.5883
-1.18647	20.5699	84.4986
-26.8692	-7.6781	78.2795
-23.3847	-0.489591	75.9853
-34.7321	-4.07901	72.9168
-38.146	-12.5733	74.7318
-52.4389	5.22616	59.2127
-54.7614	12.4727	54.9342
-59.8857	9.91972	50.1543
-43.5703	35.2612	68.4816
-33.9741	35.6302	73.9523
-33.4758	41.3214	75.9035
-51.5113	29.833	61.8467
-54.7591	20.7436	55.7997
-34.1479	31.3751	72.7212
-45.6353	22.1332	65.2463
-41.188	25.6088	69.1001
-10.3175	21.7292	76.5856
-13.5542	26.3543	76.0647
-15.1051	21.6157	73.2216
-5.26944	35.4927	82.1658
-2.52889	29.9072	82.1922
-21.8036	3.76642	74.1554
-8.65575	25.0745	78.6078
-20.7992	6.66314	73.0682
-17.3532	-54.2551	90.9373
-23.873	-55.3604	85.7526
-5.90627	-46.8283	101.429
-5.84755	-43.5996	101.809
-11.1806	-47.3887	99.5433
-10.8959	-50.585	98.2724
-5.44527	-49.7636	100.43
-17.1782	-49.1227	95.8503
-10.8358	-44.376	100.178
-16.9674	-46.71	96.6729
-10.4649	-52.6982	96.5719
-3.99858	-52.1932	98.7637
-17.7086	-56.3141	92.8637
-17.4767	-55.7539	92.0107
-18.1923	-57.9365	93.836
-12.1697	-60.3643	99.3
-11.4053	-58.1231	98.8977
-4.07647	-58.381	101.539
-3.87596	-55.3204	100.068
-10.6942	-55.4766	97.6646
-4.2538	-60.9085	102.157
-24.2562	-56.4566	85.651
-3.74982	-54.3296	97.454
-4.48179	-63.1521	102.042
-4.55619	-65.4172	101.133
-9.28291	-41.8806	100.539
-3.84192	-54.2234	98.9799
-10.3833	-54.6137	96.7639
-13.2015	-64.6291	98.2947
-12.7682	-62.5018	99.1213
-10.4113	-52.8445	95.2273
-10.2517	-54.8437	95.2597
-15.7245	-52.2322	90.2898
-10.3098	-50.9772	92.9213
-24.0533	-58.5204	84.6985
-3.7215	-56.6754	95.0738
-3.93608	-52.2964	97.3185
-5.03842	-50.1082	94.18
-10.5155	-57.0295	93.2121
-24.9602	-47.9318	79.5277
-27.6091	-52.8926	76.5781
-14.8588	-44.739	87.6284
-9.9219	-43.5039	89.82
-25.891	-65.2279	80.3672
-22.2705	-65.9976	84.5204
-3.76895	-64.6163	93.3081
1.1741	-64.5796	93.6613
-4.93539	-42.6221	90.8434
-9.93005	-64.9196	91.6073
-27.7126	-60.7693	77.0482
-80.0535	-14.8237	-40.8045
-81.4983	-5.89892	-41.7721
-78.3667	-4.25252	-46.8161
-76.6737	-14.2952	-45.8367
-77.6972	1.29372	1.76464
-78.6773	17.6875	-7.42433
-79.8005	17.7305	-25.7018
-80.5252	9.45232	-21.4855
-76.3007	-29.355	-34.0237
-73.9808	-36.5442	-29.7385
-78.3693	-22.4405	-37.817
-73.9668	-24.2427	-42.8151
-84.2677	-3.99037	-40.4568
-83.3631	-14.655	-39.2181
-81.3004	-32.6447	-29.1158
-84.1286	-24.195	-33.9026
-77.9062	-40.8556	-21.9496
-75.3728	-42.8733	-18.6388
-89.2482	-14.7947	-30.5848
-91.9317	-0.200756	-34.9644
-75.8214	-25.1466	2.63359
-74.2885	-33.4894	1.97467
-80.1286	-21.6391	-8.65731
-80.259	-25.6888	-9.04608
-80.436	8.7054	-20.0928
-88.274	-3.95843	-40.7281
-88.67	17.6071	-21.9785
-90.3684	16.4579	-19.838
-87.3346	16.6512	-24.1359
-85.3871	0.109062	-10.8917
-93.1228	7.36985	-34.8787
-90.6574	-5.25025	-29.6723
-90.4441	-2.50369	-28.3861
-84.1573	6.4467	-35.5129
-82.1518	3.91852	-38.602
-79.4044	-28.692	-32.4931
-80.8669	-5.4644	-5.98621
-82.7996	10.3817	-28.6093
-81.9174	9.42336	-31.1017
-89.9229	8.62019	-21.4506
-85.9753	-11.1034	-23.7071
-15.3313	93.94	56.8575
-14.2781	80.7658	69.2918
-12.8697	67.2081	77.4868
-22.1342	53.3029	79.6028
-3.4823	-20.1494	107.016
-4.1847	-9.2516	111.913
-11.7667	52.4115	81.9809
-11.0756	43.1813	82.009
-1.05135	24.8809	82.9649
-27.3344	90.2238	54.9835
-22.4637	45.8589	79.7901
-24.2749	39.3644	78.1004
-27.5406	27.4535	73.0068
-20.2272	25.429	73.3824
-38.2433	85.0889	50.4264
-40.7417	96.857	31.5788
-34.8565	27.1261	71.8334
-48.0835	68.1404	51.6531
-42.7662	30.7171	68.6624
-59.6521	61.7263	37.4099
-48.852	26.1566	63.5242
-12.2279	29.9323	78.335
-65.0234	-61.3169	-12.5544
-79.8897	13.5692	-37.437
-77.1634	23.2802	-49.1684
-74.2452	-1.77982	-58.9778
-71.6064	-15.8394	-56.5564
-79.3646	6.0346	-44.3047
-75.7915	11.8499	-57.2519
-67.7998	-29.2096	-51.831
-11.3318	-99.0677	47.7805
-20.3691	-96.6122	41.1788
-47.8495	-80.6048	41.0511
-69.3137	55.9217	18.5725
-15.7373	108.554	35.2575
-28.9967	103.9	34.2231
-47.9376	17.7736	61.6745
-49.5187	-73.6896	49.4138
-8.01173	-37.4643	99.5806
-19.8485	-41.9152	93.3449
-7.22741	-32.049	98.0557
-11.9319	-33.8268	95.8874
-13.736	-39.2821	97.1054
-33.426	-48.7603	82.562
-33.0491	-56.1466	81.584
-71.0549	-46.5517	-20.3498
-72.1161	-35.9425	9.82791
-73.8605	-26.7509	10.2388
-74.2475	3.50625	18.2351
-73.2099	-12.8942	22.275
-49.4525	8.92771	60.4724
-71.3902	-26.8286	23.6313
-69.4928	-37.9916	23.7202
-15.7397	-6.20918	91.8839
-18.0421	-19.071	93.9909
-15.6446	-16.6991	98.4496
-32.6616	-39.0908	82.6477
-48.4329	-56.3575	64.1684
-40.2367	-51.9324	75.7109
-44.3975	-66.5671	64.7188
-61.3509	-36.6506	52.1915
-31.0988	-81.6877	75.2341
-38.4051	-74.9356	68.5284
-47.5326	-4.66134	66.8519
-44.8173	0.925251	66.8217
-38.0335	-60.163	75.8338
-34.5399	-66.7221	77.4928
-12.7646	-80.9612	92.6369
-32.0592	0.563969	72.2033
-10.2069	-9.6949	106.654
-68.4015	-25.5399	37.8895
-66.5772	-37.3285	37.7117
-6.30433	27.9752	80.6145
-17.7902	-35.0133	92.0091
-21.6108	-53.532	86.2309
-20.1533	-46.1063	83.9659
-29.7256	-134.282	15.5678
-37.5902	-131.792	9.41608
-41.6613	-146.82	7.74054
-33.3632	-149.17	13.566
-32.7555	-98.0201	15.9357
-25.2778	-99.7002	22.6528
-32.8339	-109.53	12.0631
-25.245	-110.657	18.7115
-31.2556	-61.0557	81.9719
-44.3483	-87.8536	13.2638
-49.8414	-81.6948	21.0502
-44.7352	-129.396	2.65778
-48.7812	-144.002	0.752169
-54.1343	-78.7367	7.79102
-50.7566	-85.3733	1.94662
-55.5072	-84.0522	-8.20062
-56.6622	-97.3553	-35.0169
-72.9102	-39.8887	-0.178895
-58.0044	-81.8448	-32.9543
-51.9963	-107.868	-51.1318
-53.0459	-124.57	-53.4952
-24.3667	-151.063	18.4678
-21.1707	-136.197	21.1726
-17.4828	-100.496	29.348
-17.173	-111.517	25.4558
-26.4367	-61.5313	85.8512
-17.4023	-55.9769	90.8882
-17.5193	-57.9019	89.5697
-15.4805	-152.438	22.2757
-16.5797	-65.578	88.5222
-75.275	52.5895	-2.49817
-47.2344	-82.5797	-59.1197
-46.2778	-103.205	-61.4102
-52.3153	-88.5403	-48.6517
-46.841	-120.751	-64.2183
-55.2343	-68.1204	-47.1368
-15.3563	119.424	5.98319
-29.5001	114.329	5.94825
-15.2878	112.211	-64.4191
-14.2634	92.1469	-93.5491
-28.4521	89.3192	-89.9845
-29.9189	108.297	-61.2992
-14.3608	66.7846	-110.108
-27.4615	64.6149	-106.624
-30.0193	116.654	-27.3263
-15.4547	121.435	-29.0412
-13.8639	40.4579	-118.308
-26.5322	38.3585	-114.766
-12.9084	12.3376	-120.462
-25.5063	10.712	-116.555
-23.9243	-15.2422	-111.412
-12.05	-13.7485	-115.42
-11.2634	-38.7479	-101.458
-22.124	-39.2076	-98.9741
-9.88448	-75.4093	-85.1551
-9.5484	-94.3673	-83.7653
-19.2072	-95.5705	-82.0174
-20.204	-76.8282	-82.7459
-9.53733	-113.103	-83.4318
-19.1882	-113.67	-82.1421
-10.94	-55.4912	-91.1195
-21.707	-57.4257	-88.2362
-42.4154	106.18	5.01708
-54.0121	95.3946	3.19897
-52.5	77.4946	-76.461
-41.3341	84.4116	-84.0541
-40.6046	60.7747	-100.22
-51.8686	55.8235	-91.9958
-53.509	92.5514	-51.721
-42.296	101.924	-56.9585
-55.0684	97.4551	-24.4298
-43.3448	108.531	-25.7775
-50.5553	31.9261	-100.131
-39.4706	35.4176	-108.311
-37.8938	8.85898	-110.129
-48.3706	7.15533	-102.028
-45.0832	-17.7209	-97.3601
-35.5882	-16.8369	-105.014
-33.4483	-40.6165	-93.0448
-43.4329	-40.9715	-84.9714
-32.3804	-59.3858	-82.406
-38.0526	-99.1462	-71.3683
-39.8608	-79.3253	-69.5526
-30.6843	-78.2079	-77.5334
-29.0111	-97.3234	-78.0619
-29.0908	-114.995	-78.9927
-63.3337	80.425	-45.0145
-61.7721	68.6778	-67.5737
-69.6353	57.6463	-56.1982
-71.4345	65.959	-35.0288
-71.9569	68.464	-13.3478
-64.7817	83.9635	-21.3641
-59.5247	27.8587	-90.7366
-60.9214	49.7284	-82.6095
-53.7271	-18.5414	-87.1213
-57.6109	4.81265	-91.7127
-50.9315	-39.7736	-76.4335
-73.5838	32.8429	-60.3109
-60.8284	-18.4707	-76.4609
-66.6885	-17.3383	-66.3899
-70.14	0.251113	-69.9521
-64.5296	2.52324	-81.2539
-71.8776	17.079	-68.9881
-66.376	22.9786	-80.5923
-68.1	42.069	-71.9913
-58.2733	-48.8523	-52.8981
-62.3532	-33.5696	-59.7962
-56.7906	-37.2505	-68.1191
-92.7682	8.17395	-35.5142
-90.9828	8.9061	-36.7199
-91.8839	15.673	-27.9927
-90.0116	16.8603	-29.1403
-87.7896	11.4744	-13.9093
-85.9872	12.453	-15.8757
-83.8358	11.9144	-18.7925
-89.2283	7.30514	-37.6235
-88.8193	15.4622	-30.3863
-91.82	-3.89222	-37.4644
-91.1106	15.2005	-18.9991
-92.5057	14.3691	-27.5178
-38.6993	-117.432	-72.9351
15.5824	-102.66	72.4026
13.1878	-103.458	72.5088
17.4193	-101.45	68.8052
16.2454	-102.133	75.3882
65.4412	-9.30626	50.1467
63.6692	-8.18427	53.4474
65.5125	-12.6735	49.8101
66.6617	-5.80331	46.0851
61.9548	-6.39602	55.58
62.085	-2.24104	53.5599
59.2862	-7.58408	59.2441
12.0458	37.977	83.1506
14.6006	36.6168	82.409
15.5027	41.4769	82.6688
9.21291	39.5236	83.7022
10.0794	34.4543	82.5825
10.6173	17.5465	80.2292
11.3973	16.3587	79.7923
10.9213	19.0567	79.3936
10.08	18.0585	80.7381
13.9661	17.1971	76.2956
15.6491	15.1935	74.6487
14.374	18.9191	75.787
12.3657	19.3954	77.7857
13.6906	15.5682	77.0693
45.8873	12.9496	65.1688
42.6725	10.8029	68.3214
47.5003	14.7654	62.96
17.7031	9.4991	75.9613
17.2951	10.4275	75.6598
17.4023	8.73352	76.989
19.1654	8.71485	75.2643
27.5813	-54.9243	82.4396
27.5004	-54.8064	82.6839
27.6327	-55.0627	81.9703
27.519	-54.8591	82.7549
26.5171	-53.6035	85.0749
26.8372	-54.2697	83.7482
27.5396	-54.0913	83.9
26.5933	-53.1225	85.6716
24.9717	-53.1627	86.8543
30.4073	-54.8891	82.4174
30.3292	-52.4023	83.6568
27.7527	-55.3001	81.0577
27.4534	-54.5197	81.648
28.0014	-55.3476	79.4519
27.6511	-55.5639	81.4425
23.5061	-59.2283	89.1662
23.8781	-60.0644	88.8041
25.9756	-56.9718	85.431
23.4029	-58.4576	89.1103
20.9451	-61.5597	92.8662
21.3342	-46.9686	93.741
20.799	-45.4878	94.3412
18.1394	-45.165	96.3933
21.6567	-47.8236	93.3785
23.7742	-49.0416	91.0179
26.8317	-54.9141	83.6658
26.9179	-54.9502	83.6499
26.9613	-54.9118	83.52
25.3282	-55.0073	84.9456
74.6564	-38.0731	-5.2115
74.0003	-38.5272	-4.31826
74.128	-41.3985	-8.30836
75.2981	-37.0937	-5.16322
83.748	-28.3286	-17.6599
84.4392	-26.3643	-20.4506
82.6274	-26.7551	-16.4358
83.1287	-29.5842	-15.0698
84.2069	-29.6098	-18.321
78.0403	-34.8965	-7.1286
78.299	-32.2988	-6.50868
77.335	-35.2148	-6.34255
78.7039	-36.0883	-8.77716
78.9001	-22.4166	-10.9276
78.8736	-21.2758	-11.8917
78.9347	-20.5627	-10.7899
79.1264	-22.8637	-9.57349
79.2489	-23.8441	-11.2486
85.0651	-2.35099	-12.7223
84.4842	-4.32708	-13.4166
85.3765	-1.52371	-13.3253
85.1265	-1.83105	-11.8166
88.8128	8.86232	-17.252
88.8432	9.42504	-16.2841
88.3914	7.89989	-17.189
90.0754	10.1328	-20.3666
81.6136	-19.7761	-18.189
80.6916	-18.3716	-16.7985
80.9005	-23.6925	-15.3342
83.8237	-22.783	-20.9352
84.1497	-17.1423	-22.2717
87.009	-0.70228	-19.2908
87.4276	0.467306	-19.6879
85.7451	-1.3194	-15.4337
86.9345	-1.99359	-20.3132
90.2343	-11.1058	-31.2136
90.1208	-10.9135	-30.6275
89.2811	-14.2618	-30.7108
90.6476	-9.93797	-32.2126
91.0178	-8.22792	-33.9336
91.2362	-6.10583	-32.9094
90.9306	-8.90139	-34.9907
91.3784	-5.11837	-35.26
85.0115	-24.6453	-22.5046
85.5953	-22.3198	-24.426
85.4381	-25.6473	-23.3314
87.7572	-10.7591	-27.0151
86.6584	-12.8051	-25.8063
89.0871	-10.9666	-28.8945
87.8043	-9.40934	-26.7724
76.4912	-30.1505	-3.13554
76.4312	-32.3829	-3.79028
77.1748	-29.6805	-4.06945
76.2802	-29.3444	-2.48202
76.2393	-27.7526	-1.77023
76.6927	-25.688	-1.84024
75.8208	-27.9616	-0.835603
78.215	-18.6113	-2.54568
77.9155	-19.1953	-2.06868
78.5596	-18.8998	-3.45094
78.8307	-15.3683	-2.92322
77.5478	-20.0202	-1.53791
77.1783	-19.9341	-0.583253
77.2414	-22.4271	-1.71496
80.8343	-25.3197	-13.947
80.5886	-26.4386	-12.0821
81.1367	-13.3665	-11.5133
79.87	-17.2441	-11.068
81.0351	-13.8293	-13.0447
82.4278	-9.47693	-11.9491
81.5785	-12.2426	-10.308
91.4066	5.21998	-29.352
91.5566	5.97935	-29.6295
91.2361	4.77097	-28.7677
91.6357	4.08272	-31.0907
91.5038	0.405593	-31.8349
91.283	-0.748493	-30.3663
91.5092	-1.25953	-32.7087
91.651	1.76485	-32.7013
91.3162	2.15519	-29.9217
88.1836	7.26679	-17.3463
89.072	7.48037	-19.9994
87.5339	6.32925	-16.1933
90.0947	7.4864	-23.3164
89.6337	6.37746	-22.5784
91.2663	7.34277	-27.4108
90.7127	8.82773	-24.2285
40.7233	24.3479	70.8784
43.1913	23.2573	69.4449
37.8115	25.1334	71.9493
20.2058	-99.7896	63.5537
18.8839	-99.3155	59.2838
22.3697	-98.7822	63.5418
48.1575	18.5262	63.7074
46.9327	20.326	65.6715
49.0187	17.0137	62.2061
51.2384	20.8127	61.5162
53.023	22.3304	59.9932
49.9087	23.4752	63.7437
49.6055	19.8944	62.9471
51.9604	18.3597	59.9129
67.594	-51.134	-0.279627
68.7426	-49.2356	-5.15268
68.0533	-49.6175	1.23856
66.7482	-53.3478	-0.72022
18.8374	14.0748	71.9238
19.2445	13.3714	71.8065
18.8434	15.0131	71.9662
17.802	16.8331	72.7934
18.962	18.9566	72.9263
17.6689	15.256	72.7202
9.4025	19.3525	81.1942
8.88068	19.5101	81.7806
9.33046	21.4381	80.8095
21.4735	-53.4013	89.2584
22.0824	-53.9848	87.7671
21.927	-52.8874	89.6264
18.6553	-52.6552	92.1842
58.7511	-73.3566	-6.67322
57.591	-73.6563	-1.04355
58.1067	-75.8526	-8.8037
59.8513	-70.8624	-7.11177
77.088	-7.62433	2.57176
75.7698	-15.0618	5.74797
77.9131	-8.25632	-0.0792289
78.2606	0.388932	-1.4251
76.0495	-6.78709	6.98184
59.9832	-75.4995	-20.6091
59.4833	-77.5854	-22.4672
60.9188	-71.2205	-20.8611
58.9205	-77.8946	-15.8926
57.2737	-109.706	-27.7121
57.8122	-117.975	-29.352
56.2626	-106.112	-35.2284
56.9846	-100.992	-27.2865
57.0091	-112.195	-21.7796
27.1728	-55.3213	83.6856
27.3147	-55.4699	83.632
25.621	-55.9114	85.3987
27.5429	-55.7194	83.5773
23.1196	-58.0524	89.3313
23.2092	-57.3839	88.9242
20.5878	-59.8565	93.0731
24.0923	-97.7539	63.5628
27.037	-95.0836	57.3098
24.4566	-97.1864	67.2981
46.7463	-61.244	-65.7944
45.7165	-57.3383	-69.8815
49.1602	-60.3555	-61.9761
45.7664	-64.3262	-65.6352
54.6996	80.4153	33.7187
56.6943	82.1985	26.705
50.847	83.8139	36.4272
55.4128	76.3327	36.6462
87.1944	-20.7991	-31.8768
88.7832	-15.6515	-34.8975
87.7227	-20.0341	-30.85
85.7867	-25.0777	-29.147
86.6027	-20.8032	-33.1476
82.26	-1.50813	-7.07487
81.2208	-5.9013	-5.73029
83.2449	-1.57031	-7.7534
83.2397	2.88359	-8.87358
80.9845	-1.35955	-6.33517
78.8463	-22.9883	-5.58832
78.3288	-23.7319	-4.45131
79.1552	-25.5457	-6.80344
79.2189	-23.1437	-7.21917
78.9152	-21.3251	-5.31473
78.3209	-29.4434	-5.77696
77.9951	-26.6749	-4.55361
79.2166	-29.0774	-7.21203
90.0412	-9.79887	-37.4734
89.2806	-9.77169	-38.296
90.9007	-3.56138	-38.6462
90.4931	-9.83943	-36.5997
88.278	-9.61489	-38.9683
87.2442	-15.2536	-36.894
87.2409	-9.37903	-39.3412
88.9539	-3.53261	-39.946
79.9487	2.76086	-7.74334
80.2783	5.08087	-9.60646
79.7691	3.76526	-7.48691
79.9302	1.04059	-6.50776
83.9709	-18.92	-36.1634
82.2938	-18.3761	-36.9488
84.8804	-14.4561	-38.0711
85.01	-19.5212	-35.4483
82.6946	-22.9046	-34.1564
85.5879	-26.6656	-24.1218
86.3704	-23.4835	-26.6873
85.0453	-28.7203	-21.8735
85.4528	-27.5622	-25.3418
82.4967	-35.378	-21.9141
81.6986	-37.3271	-18.9148
81.0814	-36.7444	-22.9966
83.7077	-32.0895	-24.7532
83.9701	-32.7404	-20.4763
83.1012	-33.9189	-15.0061
82.4718	-35.6182	-15.3255
83.728	-32.7312	-16.7147
82.6735	-33.2986	-13.6435
71.5932	-44.6695	-10.6027
71.005	-45.6083	-11.1058
72.8086	-43.6799	-12.3974
71.5285	-43.9082	-6.06362
76.6998	-41.0604	-11.7073
77.091	-41.733	-14.1864
78.0311	-39.6774	-11.3229
76.2623	-39.3881	-8.61248
75.6051	-41.9267	-11.9743
86.2339	5.24718	-10.1607
86.3242	6.75434	-10.3141
84.7153	1.66289	-9.20972
86.5392	5.23974	-10.52
86.3362	7.69411	-10.5777
87.7932	11.1182	-12.606
85.9761	7.67165	-10.5808
90.7089	-9.70707	-35.842
89.5807	-14.4757	-33.2029
91.5135	-3.98382	-37.3352
92.2595	4.57743	-34.0935
92.0094	3.53986	-33.7977
92.3814	3.94907	-34.9649
92.2393	6.08438	-32.581
87.2652	6.37071	-12.3077
87.1224	6.11935	-11.7492
86.7598	4.78934	-12.5175
87.8165	8.02332	-13.3376
86.726	5.2107	-10.8976
85.7854	1.99979	-10.7227
87.9353	9.55757	-12.4771
89.8311	-10.9122	-30.0304
90.6127	-7.93582	-30.3884
88.3696	-14.5306	-28.8992
86.3891	3.24597	-14.0105
86.8701	4.89512	-14.583
86.2945	3.06915	-13.5334
86.6374	2.40508	-15.7616
87.2831	5.74615	-15.794
87.751	5.41575	-17.7516
85.6442	-15.9467	-24.7473
86.2177	-17.6936	-25.814
81.7912	-11.439	-9.151
83.1159	-7.0235	-9.40869
81.611	-11.4797	-8.02887
80.4361	-16.142	-8.99735
85.5267	-1.09529	-13.6503
85.851	0.642225	-13.1063
50.765	-58.4597	-59.9948
51.2424	-53.8533	-62.598
52.0149	-58.7439	-57.2183
27.6738	-23.0478	83.9068
28.5387	-27.4363	84.108
28.3142	-21.2783	83.5066
25.9753	-22.4558	84.7077
23.3423	-20.43	86.7297
23.7906	-21.5416	86.2029
23.9919	-17.1765	86.636
22.1832	-21.034	88.1021
50.7002	38.4482	63.6367
50.8605	36.4625	63.9279
55.7347	33.6678	58.6166
50.7096	40.064	63.0645
45.085	40.8146	67.9502
9.31585	-24.4011	97.1298
8.52153	-23.6616	98.2295
9.02635	-25.11	96.9576
10.775	-24.6817	96.1707
11.3425	-20.9497	99.9093
9.5619	-21.2844	100.658
12.8052	-21.9959	97.6588
12.107	-19.7817	100.747
48.102	15.7672	62.4684
47.7677	16.432	62.8234
18.5493	-12.8799	98.5146
18.6305	-13.8435	98.3762
19.1155	-12.9339	97.549
17.1698	-12.0079	100.418
81.3773	-27.01	-31.9033
80.0911	-29.6208	-30.3965
80.1363	-25.4097	-33.3681
82.3513	-28.1369	-30.7686
64.6342	76.6418	14.0356
62.2753	80.286	15.2212
65.2056	71.9634	18.5293
66.75	77.2058	4.44885
27.9804	-61.1788	77.8905
28.4175	-59.1969	77.1275
28.0204	-62.605	77.0647
27.32	-60.7041	79.4293
27.783	-50.0151	77.6251
26.8976	-50.1459	79.2405
27.6638	-48.8095	76.9927
28.3289	-51.9614	77.0584
-14.3999	-102.918	74.2674
-14.6518	-102.444	77.3329
-16.7411	-101.67	70.7328
-11.8248	-103.689	74.1476
-66.4877	-9.49474	47.2397
-67.6379	-5.91553	43.5149
-66.6355	-12.9056	46.7473
-64.4519	-8.31393	50.7941
-62.1599	-6.33932	53.5671
-59.2263	-7.60476	57.2845
-62.0371	-1.9797	52.0098
-10.2564	37.6142	81.353
-11.9658	35.4086	80.3939
-7.55138	34.3948	81.3997
-7.69419	39.1463	82.1976
-13.7456	39.8785	80.9505
-7.62242	17.7271	79.7671
-6.98828	18.2678	80.3469
-7.90608	19.2898	78.9209
-8.4808	16.4378	79.3007
-11.0955	17.5161	75.631
-12.9483	15.6504	73.7822
-10.793	15.865	76.4547
-9.50463	19.6081	77.1542
-11.68	19.3803	74.9793
-43.2838	12.9778	65.0685
-40.0484	10.7656	67.9871
-45.0238	14.7139	63.0338
-15.2001	9.26435	75.0628
-16.8705	8.25739	74.2507
-15.016	8.39172	76.1376
-14.7245	10.3483	74.7198
-26.4605	-56.1488	83.7338
-26.3877	-56.028	83.9733
-26.4074	-56.0824	84.0424
-26.4969	-56.2904	83.2799
-25.4328	-54.7841	86.2499
-26.4763	-55.3098	85.0747
-23.8523	-54.2628	87.9554
-25.4945	-54.306	86.8164
-29.0468	-53.6069	84.8112
-26.6026	-56.5281	82.3878
-26.505	-56.7976	82.7748
-26.8598	-56.5796	80.7653
-26.2954	-55.7488	82.9481
-22.1963	-60.1872	90.521
-22.6163	-61.0177	90.1101
-19.1483	-62.1197	94.2278
-22.1021	-59.4568	90.4754
-24.9573	-58.1621	86.6538
-19.6499	-47.7132	94.5775
-19.168	-46.2202	95.0813
-22.0325	-49.8962	92.1165
-19.9337	-48.5983	94.2677
-16.63	-45.7694	96.9925
-25.7561	-56.1174	84.9358
-24.2872	-56.1613	86.1992
-25.8766	-56.1202	84.7961
-25.8469	-56.1581	84.9233
-75.8069	-38.6926	-6.50464
-76.556	-37.7162	-6.45661
-75.195	-41.9172	-9.59629
-75.1596	-39.0631	-5.64005
-84.4822	-28.7028	-18.7408
-85.1088	-26.7162	-21.4793
-84.9415	-29.9862	-19.3812
-83.9174	-29.974	-16.2017
-83.3654	-27.1367	-17.5379
-79.7882	-35.4101	-8.48847
-80.4952	-36.5029	-10.1375
-79.2631	-35.6898	-7.82574
-79.5979	-32.7756	-7.77912
-79.6746	-22.804	-12.1847
-79.6194	-21.6463	-13.1194
-80.0444	-24.2459	-12.4924
-79.9206	-23.2678	-10.8369
-79.6871	-20.9327	-12.0415
-85.5487	-2.57895	-13.8247
-85.6105	-2.05524	-12.933
-85.8444	-1.74149	-14.4124
-84.9921	-4.57162	-14.5194
-89.1097	8.72522	-18.1922
-89.1426	9.29308	-17.2369
-90.3275	10.0067	-21.2432
-88.7009	7.75449	-18.1379
-82.4816	-12.8577	-17.2591
-85.045	-8.81239	-20.5092
-81.8116	-15.2826	-17.5831
-81.6783	-14.1385	-14.2231
-83.5889	-9.06812	-16.4209
-88.2238	1.84819	-20.8909
-87.8078	0.275001	-20.64
-87.0325	2.22123	-16.7757
-88.8047	3.51763	-21.7281
-89.9104	1.5193	-25.6856
-79.3583	-31.4555	-30.4921
-80.6821	-29.9188	-31.2666
-78.1607	-31.2957	-30.9965
-79.0582	-33.8494	-28.8553
-90.6099	-11.3107	-32.0118
-91.002	-10.132	-32.992
-89.6913	-14.4874	-31.5295
-90.5006	-11.1219	-31.4375
-91.3398	-8.40697	-34.6839
-91.5465	-6.27941	-33.666
-91.6594	-5.27623	-35.9843
-91.25	-9.07784	-35.7276
-85.6334	-24.9747	-23.4937
-86.1674	-22.6279	-25.3773
-86.0576	-25.9746	-24.3018
-84.4459	-23.1187	-21.9557
-88.1821	-10.9894	-27.8871
-87.1178	-13.0514	-26.7071
-88.2198	-9.63563	-27.6443
-89.4887	-11.1873	-29.7361
-86.1476	-16.2175	-25.6786
-86.7251	-17.967	-26.7305
-84.6929	-17.4362	-23.2594
-77.5327	-30.6329	-4.50852
-77.2734	-29.8327	-3.89935
-78.191	-30.165	-5.418
-77.6742	-32.8913	-5.20999
-77.214	-28.2273	-3.20923
-76.811	-28.4366	-2.30269
-77.6284	-26.1452	-3.2795
-79.042	-19.0003	-3.95672
-79.6095	-15.727	-4.31211
-79.3762	-19.2899	-4.84223
-78.7577	-19.5903	-3.49191
-78.4102	-20.4245	-2.9751
-78.1356	-22.8556	-3.15251
-78.0539	-20.3392	-2.04207
-81.5995	-25.7089	-15.1143
-81.6215	-24.066	-16.4667
-81.3971	-26.8294	-13.2951
-81.7865	-13.6832	-12.7158
-80.5793	-17.5933	-12.2988
-82.2211	-12.5623	-11.513
-83.0189	-9.76151	-13.1183
-80.0519	-19.4695	-11.7312
-80.305	-19.4126	-10.8406
-91.636	5.08842	-30.1162
-91.8618	3.95089	-31.8344
-91.4737	4.63474	-29.5423
-91.776	5.853	-30.3854
-91.7593	0.257582	-32.5816
-91.5603	-0.908758	-31.1377
-91.5692	2.00874	-30.6889
-91.8867	1.6278	-33.4332
-91.7733	-1.41173	-33.4495
-88.5001	7.11947	-18.2983
-87.8732	6.17558	-17.1738
-89.3604	7.33949	-20.9023
-90.3535	7.35272	-24.1637
-89.9114	6.23678	-23.4445
-90.9468	8.70137	-25.0516
-91.4899	7.21961	-28.1935
-89.3231	4.92663	-22.526
-90.6759	4.56789	-26.6578
-88.0875	5.25795	-18.7099
-37.8828	24.1604	70.4802
-35.1871	24.8304	71.4014
-40.272	23.1273	69.1885
-19.9421	-99.9514	65.2154
-22.0937	-98.9829	65.3854
-18.8666	-99.4184	60.5897
-45.4074	18.5202	63.9578
-46.3889	16.9435	62.5291
-44.043	20.2792	65.8103
-48.5957	21.4404	62.3717
-47.1662	24.1409	64.4958
-50.5079	22.7225	60.9348
-49.1489	18.2772	60.7728
-47.0138	20.1414	63.3724
-68.8462	-51.5436	-1.77871
-68.0021	-53.713	-2.21358
-69.3063	-50.0892	-0.281308
-69.8916	-49.6373	-6.55327
-17.4401	14.3727	70.1836
-17.777	13.6204	70.0615
-17.6015	15.347	70.253
-15.9831	17.3191	71.4177
-17.1224	19.1934	71.5723
-15.596	15.6836	71.4515
-6.08889	19.6487	80.9211
-5.95866	21.757	80.5524
-5.37616	19.8345	81.6261
-20.0402	-54.2802	90.459
-16.8955	-53.372	93.2751
-20.4298	-53.7933	90.7999
-20.8399	-54.9383	88.9728
-59.9364	-73.149	-8.01201
-61.0342	-70.6888	-8.46756
-59.2206	-75.6289	-10.0665
-58.9169	-73.3887	-2.49435
-77.8177	-7.89307	1.08679
-76.6465	-15.4018	4.15187
-76.8076	-7.03159	5.39923
-78.8326	0.181411	-2.76526
-78.6266	-8.53723	-1.49962
-60.6708	-75.396	-21.6082
-59.7726	-77.7162	-16.9772
-61.6261	-71.176	-21.9027
-60.1063	-77.4901	-23.4164
-57.8004	-109.615	-28.14
-58.2735	-117.935	-29.6537
-57.5913	-112.095	-22.2057
-57.5477	-100.858	-27.8571
-56.7333	-106.037	-35.6422
-26.1166	-56.5494	84.9766
-24.5842	-57.0724	86.6365
-25.964	-56.393	85.0108
-26.2459	-56.7011	84.9347
-27.6072	-56.224	84.155
-26.9051	-57.5639	84.7695
-21.7825	-59.0139	90.7025
-18.7379	-60.4166	94.4673
-21.9371	-58.3953	90.2765
-23.8742	-97.9344	65.546
-24.156	-97.3431	69.0986
-27.1676	-95.1964	59.388
-47.0689	-61.2909	-66.1374
-46.0929	-64.3656	-65.9696
-49.5212	-60.4116	-62.3669
-45.9929	-57.3878	-70.1818
-54.557	79.7229	33.0183
-55.3372	75.4908	35.8693
-50.7332	83.0789	35.7975
-56.4752	81.6909	26.0637
-87.6627	-21.0583	-32.6791
-89.1692	-15.8712	-35.6428
-87.0611	-21.0599	-33.9311
-86.3299	-25.3699	-30.0016
-88.1913	-20.2912	-31.6707
-82.8015	-1.7291	-8.29455
-81.839	-6.16626	-7.00437
-81.5323	-1.58378	-7.56524
-83.7031	2.7097	-10.0267
-83.7817	-1.79169	-8.95984
-79.6865	-23.411	-6.93796
-79.202	-24.1624	-5.83086
-79.7337	-21.7326	-6.66924
-80.0373	-23.5629	-8.52564
-80.0235	-25.983	-8.12267
-79.3267	-29.9146	-7.07446
-78.9245	-27.129	-5.92755
-80.1808	-29.5399	-8.48488
-90.3504	-9.97845	-38.1695
-90.8076	-10.0201	-37.3089
-91.144	-3.70955	-39.3081
-89.5833	-9.95136	-38.9853
-88.573	-9.79576	-39.653
-87.6115	-15.4697	-37.6192
-89.1838	-3.67817	-40.6004
-87.5248	-9.55652	-40.0289
-80.4228	2.54824	-8.91963
-80.4395	0.82843	-7.72444
-80.2326	3.57248	-8.67488
-80.7083	4.87498	-10.7188
-84.3892	-19.1514	-36.921
-82.7102	-18.599	-37.701
-83.1751	-23.1622	-34.953
-85.4349	-19.7629	-36.2112
-85.2359	-14.6595	-38.7946
-86.2057	-26.9921	-25.0703
-86.9222	-23.7812	-27.59
-86.0652	-27.8847	-26.2658
-85.7147	-29.0712	-22.8604
-83.2416	-35.7502	-22.8959
-84.7033	-33.1141	-21.4864
-84.3789	-32.4336	-25.6861
-81.8284	-37.114	-23.9607
-82.5227	-37.7317	-19.9501
-83.9545	-34.3422	-16.1215
-83.5627	-33.7445	-14.7615
-84.5209	-33.1242	-17.8049
-83.358	-36.0762	-16.4091
-72.6195	-45.0822	-11.8851
-72.6321	-44.3698	-7.43513
-73.8001	-44.0852	-13.6454
-72.0293	-46.0044	-12.3838
-78.1845	-41.1882	-12.7196
-78.1959	-42.0962	-15.2782
-76.6954	-42.3156	-13.1524
-78.0984	-39.6361	-10.103
-79.718	-39.8663	-12.5055
-86.6445	5.08177	-11.2657
-86.9414	5.07273	-11.6144
-85.1911	1.46732	-10.3633
-86.717	6.60363	-11.408
-86.7156	7.55842	-11.6636
-86.3533	7.53955	-11.6705
-88.1096	11.0033	-13.6244
-92.4566	4.45979	-34.7917
-92.4349	5.96741	-33.2947
-92.5764	3.83225	-35.6503
-92.2197	3.41689	-34.5065
-87.6356	6.21557	-13.3584
-88.1586	7.88042	-14.3557
-87.1487	4.62211	-13.5769
-87.4993	5.95916	-12.8094
-87.1227	5.04333	-11.9818
-88.2633	9.41842	-13.4955
-86.2259	1.80644	-11.8348
-90.2188	-11.1254	-30.8524
-88.8059	-14.769	-29.7537
-90.9647	-8.13068	-31.1927
-87.6343	5.58837	-16.7878
-87.2431	4.72961	-15.6043
-86.7874	3.0675	-15.0537
-86.6994	2.89039	-14.5884
-82.4327	-11.7564	-10.3745
-83.6951	-7.29927	-10.6054
-81.1453	-16.5057	-10.2386
-82.2666	-11.7982	-9.28118
-85.986	-1.30783	-14.7296
-86.2923	0.444852	-14.1872
-86.1942	-1.53311	-16.4773
-51.1451	-58.5259	-60.4166
-52.4202	-58.8124	-57.6766
-51.5882	-53.9292	-62.9946
-26.8726	-23.5885	82.6701
-25.0896	-22.7994	83.5451
-27.4301	-21.8786	82.1459
-27.7056	-27.9824	83.0599
-22.3845	-20.7131	85.6503
-21.2556	-21.2879	87.0875
-22.9872	-17.5099	85.3446
-22.8024	-21.8252	85.1843
-48.5281	38.665	64.2948
-48.6341	37.0005	64.5967
-43.0012	40.7522	68.1693
-48.7893	39.944	63.5621
-53.7118	34.1362	59.5533
-7.38275	-22.8949	98.7937
-7.583	-22.3272	99.334
-8.24231	-23.4469	97.6458
-6.20231	-23.1085	99.5929
-7.79653	-21.5728	100.32
-8.95164	-21.1621	99.9582
-6.5299	-21.2748	102.035
-45.5907	15.7067	62.6234
-45.1977	16.4785	63.0106
-17.3672	-13.1735	97.4679
-15.9936	-12.2905	99.2706
-17.9152	-13.2052	96.5462
-17.5095	-14.0641	97.2944
-64.3654	76.3393	13.3894
-66.4502	77.0084	3.87417
-64.9873	71.5945	17.8036
-61.9931	79.9705	14.6103
-26.9032	-62.3356	79.3886
-26.2187	-61.878	80.9045
-27.0046	-63.6462	78.4877
-27.3618	-60.3795	78.5563
-26.6553	-51.1623	78.5866
-27.2298	-53.1364	78.1154
-26.6181	-49.8225	77.7058
-25.6837	-51.3076	80.2968
-10.5805	-20.8808	99.1659
-11.2009	-19.7629	99.9328
-12.0461	-21.9165	96.9519
8.25993	-21.7242	100.941
6.99595	-21.4221	102.551
7.91239	-22.5109	99.9446
7.57584	-23.103	99.3902
6.22515	-23.3644	100.122
-8.95723	-24.2274	96.5606
-10.2466	-24.4878	95.6453
-8.73264	-24.9211	96.3844
77.6252	-36.7948	-25.1903
75.8455	-37.4022	-24.9288
78.3971	-33.53	-27.937
78.7787	-37.1476	-24.5612
76.2609	-40.2158	-21.626
66.4587	-50.5448	15.5677
65.1748	-51.9817	23.7909
65.1361	-55.1983	14.216
67.7006	-48.6045	8.27576
67.5975	-45.7582	16.8696
51.9551	-115.585	-8.40236
50.9778	-105.704	-7.52269
49.0129	-116.354	-4.28041
53.6059	-125.71	-9.71408
54.333	-114.539	-12.693
55.0797	-133.11	-11.0065
56.3187	-138.891	-12.2141
56.9272	-131.461	-15.5186
52.6275	-134.765	-6.55861
43.5133	-99.8302	2.48163
44.0208	-94.6106	3.98254
39.3588	-100.661	6.75137
43.9505	-106.969	1.03737
47.5197	-99.2483	-2.24459
55.2517	-97.848	-15.0908
55.334	-104.498	-15.9296
56.6426	-96.5945	-20.1741
55.482	-92.7042	-14.4085
53.2933	-98.3225	-10.7965
57.2312	-71.2312	24.8567
59.2003	-67.1781	26.9931
55.1836	-72.8293	31.6275
54.9378	-74.9826	22.2733
58.715	-69.6426	17.5326
71.2389	29.7062	23.7677
72.1432	38.0756	19.2381
67.064	32.7607	34.1979
70.7051	21.7391	26.9267
74.7558	28.3043	12.3147
77.7657	41.2464	-28.7368
77.2663	38.3035	-38.3509
76.3224	48.485	-33.9307
78.0538	42.8771	-18.1923
78.7642	33.631	-23.8436
3.57683	-103.955	32.6091
1.46836	-103.981	33.1066
4.80288	-112.99	31.8025
6.35517	-103.893	31.7989
3.466	-100.482	34.8321
6.89151	-126.146	29.4593
8.60993	-138.76	26.5896
9.86636	-125.225	28.0589
4.14844	-126.323	30.4886
2.94865	-147.825	26.2587
6.25928	-147.466	25.7272
2.41476	-139.441	28.1021
-0.23734	-147.843	26.477
3.47072	-153.354	25.1693
63.8243	-55.0652	-31.2977
66.4598	-49.1886	-28.8767
62.8837	-61.5415	-26.0119
61.1481	-60.9372	-33.8086
65.0076	-47.4173	-35.5371
66.1717	-41.9269	-38.6395
62.4937	-47.5383	-42.1362
67.2957	-37.1328	-41.1495
69.338	-37.4469	-35.3991
58.3614	-124.792	-31.3847
58.7888	-131.26	-33.691
57.1236	-122	-38.0319
58.671	-127.826	-25.1194
1.60003	-126.696	31.0535
0.401142	-113.5	33.2498
-0.806791	-126.724	31.2645
63.6549	-52.7881	31.3045
64.8938	-47.1821	32.0641
61.7501	-53.2247	38.1193
62.3674	-58.0631	29.9401
60.0427	-67.7212	9.75916
58.0211	-71.4342	7.7062
60.9868	-66.481	1.51793
61.9652	-63.6674	11.3748
10.3365	-98.2812	88.0053
6.92897	-99.01	89.5121
9.85302	-101.863	85.1786
14.0631	-96.8128	86.1228
10.4854	-93.0098	90.6376
18.188	-94.456	83.6771
17.4533	-98.4682	81.0688
22.4933	-91.9925	80.0391
18.793	-89.4852	85.7032
4.20957	-88.1825	94.645
7.18125	-87.9579	93.7523
4.32996	-83.0656	95.314
1.50459	-88.2599	95.0392
4.17565	-93.8622	93.1388
9.64544	-103.623	82.3664
9.77618	-104.422	78.5067
13.1034	-102.528	80.6155
6.73502	-104.223	83.6512
10.0008	-104.226	73.0228
6.59146	-104.861	73.9458
9.66391	-103.008	66.3486
18.106	1.92841	82.6558
18.7028	-1.51364	85.223
20.6346	-0.0728057	81.1776
17.5053	5.20418	80.2398
15.459	4.42541	84.4136
46.0784	-29.0622	75.3318
51.5003	-30.1593	70.1177
45.8903	-24.0035	75.3857
40.5714	-27.226	79.0944
46.0917	-33.7676	74.9951
57.1236	-19.8511	63.6874
61.4685	-19.1504	57.0205
56.4387	-14.112	64.0014
51.4894	-19.2254	70.026
56.954	-25.4338	63.754
67.176	-0.706414	42.999
68.9215	-2.09047	38.2945
66.5774	6.82957	41.5804
65.052	1.34783	46.8123
46.0303	-38.3177	73.9735
45.8246	-42.9613	72.8763
50.7758	-39.6482	68.4047
41.3563	-36.6408	78.287
3.15579	5.71815	99.5111
3.30343	9.73073	95.0738
1.38284	5.96802	99.5759
3.01991	1.79095	103.76
5.11672	5.08567	99.0378
27.9113	72.9668	69.2364
22.993	74.023	71.3597
26.2015	67.1518	73.1752
33.3032	71.2261	66.3678
29.6809	78.2329	64.9043
2.44842	-102.246	59.5406
1.32964	-100.354	50.4487
5.14682	-101.948	58.9554
3.07722	-104.057	67.93
-0.0938744	-102.328	59.8292
59.4476	-53.0536	44.7763
56.6089	-52.4317	51.5893
57.6672	-59.5218	43.6613
60.9109	-46.7998	45.8218
4.16046	-104.507	84.5851
4.13078	-102.752	87.5332
1.95817	-104.531	85.1766
4.12457	-105.44	80.1574
3.65378	-105.204	74.5044
0.946227	-105.326	74.8236
34.0219	-88.8261	58.1071
29.6316	-92.1509	64.2084
32.6839	-90.7739	54.9247
38.5188	-85.386	53.1739
34.9688	-86.0734	61.6993
35.3328	-90.0199	33.1476
31.7721	-92.4122	28.2775
39.4535	-87.9904	28.5494
38.4798	-87.9595	37.5498
30.6913	-92.1607	37.478
0.0832745	-98.9337	41.3827
2.19444	-98.9285	40.7168
-1.88317	-98.9118	41.5181
-0.626372	-100.097	35.4224
8.03159	-3.10892	105.436
8.33217	-5.77843	107.964
11.1175	-4.30826	102.92
7.85051	0.240284	101.806
5.3749	-2.27593	106.83
28.4067	-18.185	83.2926
31.1173	-21.4376	82.5439
27.0884	-12.9807	83.1357
25.4313	-14.8131	84.8437
29.8018	-55.9399	82.5164
31.5851	-55.5692	81.7703
14.0746	-23.3051	95.5329
15.8624	-21.8598	95.6856
13.3138	-24.348	95.0652
16.0591	-23.8547	93.6554
13.4843	-27.8869	93.4738
14.0478	-29.4278	93.3224
16.0772	-28.3053	91.5595
13.3007	-26.8984	93.6886
11.1833	-27.0647	95.1373
1.52072	-23.7226	102.878
1.68644	-22.653	104.511
-0.0258641	-23.7624	103.032
1.53666	-24.8038	101.584
3.29129	-23.5745	102.15
18.7405	-27.6963	89.7354
21.3634	-26.202	87.9775
18.331	-26.6434	90.151
19.2536	-29.1807	89.6087
8.54717	-14.0584	110.112
5.81655	-14.3925	112.006
8.23127	-15.9358	109.077
11.5314	-13.8551	107.139
8.7068	-12.4092	110.577
26.4632	-70.5952	84.2722
29.3583	-67.8976	81.8261
25.7945	-67.0775	85.9061
22.8655	-72.9037	87.3113
26.9171	-74.7132	82.5058
30.0758	-49.2999	85.2042
29.2801	-45.3587	86.6626
28.0773	-48.4512	87.0716
31.8519	-50.0303	83.7114
1.98009	-29.1862	99.5008
2.28139	-31.446	99.4212
3.82743	-28.9563	99.1204
1.70907	-27.2602	99.9845
-0.143735	-29.3083	99.6038
7.52175	3.97629	97.9176
10.379	2.21891	96.0252
7.50909	7.69478	93.7395
21.5555	-15.7845	91.4242
20.6416	-13.7306	93.8276
20.8427	-14.7777	93.7305
21.6908	-17.4714	90.5466
22.0014	-15.3481	90.0016
5.0916	-25.3532	99.4109
4.92832	-26.9587	98.9447
6.78423	-25.7001	98.2605
5.01083	-24.3782	100.042
3.42449	-25.5674	100.198
4.83562	-23.5119	101.083
4.88869	-22.5013	102.559
19.7786	-13.5133	96.0355
19.4886	-12.5858	96.36
20.3016	-15.3826	94.986
21.2803	-20.3828	89.8055
20.6757	-18.8586	92.0579
20.0316	-23.1339	89.9786
3.60863	-39.6495	101.215
4.01397	-41.7227	101.813
6.22719	-38.9636	100.756
3.24222	-36.7467	100.37
0.725311	-40.3213	101.516
25.2153	-31.5202	86.573
22.812	-31.528	88.0505
26.6107	-36.0813	87.1787
27.398	-31.7437	85.4741
24.1537	-27.3302	86.2472
11.311	-70.7148	96.2868
11.4102	-68.5491	97.3467
7.58423	-71.315	97.2618
11.1591	-73.4278	95.2199
15.1634	-69.9649	94.6585
25.9033	-51.0357	87.9146
26.2437	-51.8078	87.1849
28.2292	-52.5801	84.819
25.8677	-49.2002	88.8572
19.2332	-11.9635	96.2043
19.4152	-11.3924	94.6853
17.3457	-10.5462	98.996
18.8536	-68.8756	92.4886
18.9056	-71.3039	91.4186
22.169	-67.1038	89.99
18.7164	-66.9635	93.475
4.53703	-71.7572	97.6697
1.59007	-71.8982	97.8897
4.59914	-74.3575	96.7005
4.3898	-69.6792	98.7521
59.0559	27.9077	53.2897
58.2071	27.2016	54.5955
60.569	21.522	49.6574
59.7368	28.8028	51.9234
37.3153	57.028	69.1427
31.1693	59.3758	73.3083
37.5891	51.1831	71.1398
43.8621	53.6756	64.335
37.8147	63.2088	66.2392
50.9172	49.3296	58.4037
50.6205	44.5822	61.0254
57.3344	43.8678	51.4234
51.8882	54.9707	54.6354
39.2548	42.7642	71.887
38.5389	45.2885	71.9843
33.4155	44.8809	76.5252
39.9624	40.2906	71.4699
60.8787	29.5886	49.4846
61.6628	32.2902	47.0336
56.4488	36.5156	56.5218
63.403	22.4413	44.4848
23.3213	33.594	78.0407
23.9022	32.0056	76.8276
26.9195	34.3101	77.0545
22.6546	35.4734	79.5081
20.2586	32.6323	78.472
7.94165	16.5225	84.711
10.3737	14.0042	83.2723
8.04269	18.3862	83.3411
5.76275	18.3443	85.5031
7.83088	14.2009	86.6773
31.1824	-5.40255	77.5292
32.578	-9.53614	78.8742
37.2913	-7.36771	75.7834
29.659	-1.89358	76.4549
25.9021	-3.4079	79.2155
57.8796	6.07456	54.939
59.9557	4.04801	53.3522
58.4251	10.7965	52.6527
55.7559	8.14996	56.3638
55.8989	2.18702	59.0072
7.69582	11.2268	89.7248
10.2561	9.09394	88.3707
5.31062	12.7201	90.6237
40.6736	38.1168	71.1803
46.0171	36.814	67.9042
35.3459	38.832	74.4917
40.9343	35.9695	70.9649
50.743	34.6402	64.2568
50.2719	32.6465	64.7162
54.7099	30.7257	60.0136
55.1105	15.8806	55.8968
54.9276	19.675	56.9225
53.5508	15.8633	57.5558
54.8932	12.6084	56.0457
56.5273	15.8437	54.3239
44.4284	20.2955	67.5799
46.009	19.0095	65.753
42.6707	21.3818	69.1697
40.6081	22.4018	70.4739
38.2985	23.1084	71.4122
40.6667	23.3827	70.7052
38.0156	24.1055	71.6912
42.9369	22.3514	69.3321
35.5433	23.4714	72.0788
32.5774	23.2981	72.4984
35.1278	24.4001	72.3285
31.9077	24.1749	72.7346
29.4841	22.6282	72.8279
26.7541	21.4621	72.8577
23.9123	19.8602	72.5884
21.2516	18.0066	72.2905
22.6064	20.5734	72.8111
20.1538	18.6225	72.5737
25.5451	22.267	73.0505
19.5252	16.3974	72.0815
21.3217	21.1888	73.1532
24.4626	23.1421	73.3507
34.7209	25.4452	72.5895
31.2462	25.2348	73.0242
49.4672	14.5077	61.3749
49.781	15.5809	61.1915
48.4921	13.48	62.3072
31.0507	34.7501	75.5812
35.9369	34.4555	73.3254
30.7687	36.4781	76.4144
31.4866	32.6564	74.6052
47.572	25.9593	66.4357
46.4954	24.0042	67.1249
48.6699	28.3818	65.7606
44.348	27.3358	69.0004
38.8459	5.32684	70.9144
44.4176	6.34592	67.7719
32.154	5.43589	73.1619
39.301	3.85243	70.9517
26.6297	6.80812	73.9483
22.6899	8.44424	73.9071
26.828	5.4656	74.2943
18.8324	11.6317	73.3302
18.2984	12.502	73.0564
19.7091	10.7916	73.4487
37.9446	8.23231	70.9798
43.1007	9.45458	68.164
32.068	8.19754	72.7913
21.0594	11.5392	72.51
23.059	10.6191	72.8681
20.1975	12.0701	72.2765
19.5966	12.5001	72.1666
19.0376	13.0426	72.1332
15.1965	21.4477	75.7017
14.2631	24.162	77.0314
16.1671	18.5328	74.1748
16.7073	23.7119	75.5413
17.7551	13.8367	72.9325
27.6909	24.5024	73.3348
16.8678	17.4709	73.4605
16.5973	15.7935	73.5522
17.7516	19.5044	73.5354
37.7617	9.55516	71.0017
31.9162	9.46435	72.6763
20.9908	12.3128	71.964
20.2172	12.576	71.8745
22.8662	11.7618	72.3639
19.6476	12.9745	71.7799
47.0925	17.6184	64.0223
4.51297	33.0089	82.9951
1.88025	33.0738	83.0238
4.5346	30.2212	82.746
6.73452	32.4189	82.6663
4.65961	36.1682	83.4963
21.1309	4.33276	76.9646
20.8099	6.0851	75.9536
19.2293	5.77204	77.5262
21.8786	1.82663	78.3626
23.9878	2.68949	76.3889
17.2418	7.30097	78.5299
15.087	9.21966	79.9226
16.9961	11.4735	75.2035
15.3905	12.3831	76.6208
16.9478	12.8714	74.2352
11.4161	21.1785	78.7522
12.2087	23.3989	78.2876
10.6015	22.36	79.5408
20.7905	9.71092	73.697
20.5976	8.77246	74.3648
20.6174	7.55234	75.062
23.0259	5.9655	74.9576
22.2138	-54.0979	87.1752
22.1366	-54.0386	86.9203
25.1849	-54.2295	84.4322
19.1183	-53.6	90.1589
26.8746	-54.4203	83.1086
26.5848	-54.3161	83.0682
4.28162	-45.3523	102.117
7.31725	-44.9001	101.485
4.24681	-43.9587	102.175
0.783821	-45.885	102.459
4.21185	-46.9088	101.88
9.9353	-48.2428	99.8178
9.95128	-46.6183	100.347
7.2737	-48.1531	100.731
9.6439	-49.8373	99.143
12.571	-48.6865	98.5655
15.5214	-49.0689	96.8204
15.5635	-47.6439	97.4297
15.5356	-50.6641	95.8533
18.8462	-49.8026	94.3821
9.83514	-44.9757	100.708
12.4831	-45.5769	99.5384
9.7005	-43.5518	100.887
14.2364	-43.7994	98.7218
15.0966	-44.9718	98.2713
13.729	-42.5636	98.847
11.3897	-42.9923	100.183
22.1732	-51.7953	90.4185
22.0878	-50.2107	91.829
9.07073	-51.3875	98.2306
6.26167	-51.0986	99.3353
8.69125	-52.1607	97.4925
12.3453	-51.6592	96.7152
15.8036	-52.193	94.3783
15.8213	-52.9137	93.4443
27.6193	-53.2495	84.707
22.4726	-55.1402	87.7378
22.4224	-55.0642	87.4781
19.2744	-55.1726	91.1293
22.534	-55.3768	88.0959
23.0643	-56.8223	88.7835
22.8477	-56.2968	88.6728
20.2221	-58.1362	92.7419
17.2583	-58.7749	95.7973
17.0034	-57.784	95.4934
13.9531	-59.0875	98.3025
17.6962	-59.7198	95.7908
9.23552	-56.5449	99.4635
9.6466	-58.0641	100.068
13.0526	-56.5584	97.5638
8.91448	-55.1691	98.7266
5.92927	-56.6671	100.536
3.62152	-60.0727	102.121
3.77498	-61.357	102.283
6.51413	-59.6522	101.564
3.44953	-58.6036	101.738
1.03327	-60.2372	102.322
27.0626	-55.864	82.275
26.9985	-55.2774	82.9645
26.8399	-57.3007	81.5523
25.3506	-55.8582	83.9702
3.08803	-54.9583	96.4708
3.04004	-54.2195	97.6752
5.55597	-55.0138	95.9955
3.08724	-56.598	95.1585
0.87447	-54.9852	96.6362
3.91356	-62.6228	102.263
1.12576	-62.8322	102.44
4.04673	-63.7347	102.06
7.04635	-62.096	101.739
4.26973	-67.731	99.9631
7.59393	-67.1134	99.591
4.18535	-66.0566	101.015
1.31756	-67.9968	100.082
9.36853	-42.5481	100.922
8.60696	-41.1148	100.896
7.08221	-42.3017	101.524
3.2794	-56.9795	101.115
0.913114	-57.0929	101.316
3.09343	-55.4589	100.322
3.00064	-54.5325	99.6177
5.5365	-54.4342	99.1791
3.06434	-54.1572	99.0892
0.827994	-54.6841	99.8439
8.75025	-54.4731	98.1596
12.3564	-54.6027	96.3996
8.64926	-54.1817	97.6923
3.11905	-54.0414	98.5375
5.48607	-54.0294	98.0844
0.827565	-54.1487	98.6525
15.9704	-54.9158	93.968
15.8579	-54.6759	93.5254
16.259	-55.5075	94.4221
18.2954	-62.7305	95.4779
18.4835	-63.8151	95.0074
18.1387	-61.7321	95.7141
15.1246	-63.3153	97.8377
11.1773	-63.7222	99.9619
11.3722	-64.9269	99.3482
10.9846	-62.7041	100.31
7.42207	-64.2481	101.196
4.10437	-64.8227	101.672
1.18781	-65.0903	101.81
15.8168	-53.0803	92.9068
12.2337	-52.6099	95.2564
15.6823	-52.9895	92.3359
29.7856	-54.711	82.7087
28.7724	-55.0117	82.8788
26.9858	-55.0295	83.676
25.3892	-55.3108	85.2807
8.70643	-55.1245	95.0253
8.56671	-54.3611	96.1646
12.2647	-55.2284	93.4913
8.86821	-56.6388	93.8417
8.54875	-54.1144	97.0773
12.1464	-54.2971	95.365
11.4257	-66.5766	98.4434
15.3969	-66.0131	96.4972
17.9093	-60.7229	95.8386
14.6737	-61.2799	98.3405
18.6154	-65.2998	94.3121
21.4827	-63.8519	91.7975
15.3302	-52.5737	91.8988
12.1496	-52.0612	93.6533
14.6427	-51.0529	91.0142
18.3656	-53.0591	89.7013
8.80162	-51.7839	95.06
6.07062	-51.5271	95.6443
9.21448	-50.2232	93.2992
8.6414	-52.2736	96.1486
13.9236	-47.7841	89.7167
11.4477	-47.3124	90.7793
13.6097	-43.6306	88.5349
16.4576	-48.288	88.3357
26.3194	-60.7058	80.9561
25.5093	-64.8788	80.9258
24.6487	-60.7415	82.8218
3.07172	-60.086	93.9633
5.51074	-60.0324	93.5688
3.50127	-64.5633	93.4246
1.03511	-60.1282	94.1213
9.02033	-46.9426	91.5441
6.4928	-46.6328	92.0872
8.64049	-42.7165	90.2585
8.68846	-59.9915	92.6986
8.85666	-64.5688	91.9972
12.1534	-60.0716	91.3236
28.8019	-55.5963	76.0937
28.9092	-55.8048	75.2941
13.2607	14.293	78.3907
12.8281	13.1009	80.0099
79.0791	-9.83509	-42.7323
78.2101	-14.2993	-41.9155
77.3148	-9.11441	-46.1551
79.8341	-5.19263	-42.7821
80.5241	-10.4051	-40.9728
78.7662	7.81324	-5.47249
79.2555	10.893	-9.79953
77.7654	9.79076	-0.655992
79.4424	13.2148	-15.087
79.2963	18.8278	-16.5041
79.7373	8.15256	-16.0213
80.1044	12.9838	-22.1234
71.999	-34.553	-33.0028
74.4825	-32.3386	-31.3175
70.7365	-38.8256	-30.3333
73.3851	-30.5895	-34.9038
74.5884	-26.8543	-37.0602
71.9917	-28.7516	-39.9874
75.9146	-22.8095	-38.9653
76.849	-25.7281	-35.1477
81.982	-10.3794	-40.0665
83.5364	-9.84722	-39.699
81.245	-14.592	-39.0815
82.4995	-5.32299	-40.333
