1903
52.3486	58.4083	49.7109
57.6566	55.4782	43.3196
20.2974	69.5991	69.085
64.6475	65.7263	24.1197
69.0024	63.9282	14.4759
64.0472	59.1261	29.887
22.7045	97.5876	45.4002
28.6247	95.3238	44.7767
23.037	105.065	34.2267
16.1476	99.1909	45.9029
60.9409	38.6039	45.2835
61.9084	45.4309	40.3639
45.0622	20.4051	68.4204
55.6292	25.9974	60.9357
56.6495	21.1421	58.454
54.2246	24.726	62.5253
52.7443	23.6292	63.8698
2.65035	-117.67	38.3524
0.29849	-117.713	38.3986
59.6192	-71.0785	36.9444
60.8592	-67.2644	39.3006
55.2311	-73.8343	43.6289
58.2724	-74.5615	33.8885
7.26568	-41.694	99.1175
9.16044	-42.0632	98.5967
6.75421	-39.2042	98.7808
24.6629	-47.8478	87.9038
23.8425	-44.1497	89.0219
21.9461	-46.4193	90.8689
10.4872	-37.989	96.9583
7.90398	-37.2604	98.0183
11.2122	-40.2891	97.2173
13.4655	-38.5663	95.3357
9.74262	-35.626	96.6675
33.5624	-50.147	80.2294
33.3843	-53.4989	78.9954
35.5788	-51.0159	78.5837
32.8828	-46.5369	81.6276
61.714	16.7784	51.2643
59.5828	16.5447	54.2454
62.8632	10.8777	50.7882
63.5903	17.2496	48.0379
65.4745	17.88	44.2809
67.9335	17.8094	38.8775
48.8399	16.7746	64.5051
48.8331	14.6758	64.0536
57.5537	16.3186	56.7428
82.6071	9.67593	-37.0588
82.5372	5.9271	-40.3196
81.1534	11.6656	-41.1587
82.6665	12.2075	-33.0173
79.7295	-17.0802	-41.6403
77.6156	-17.6444	-44.8335
72.3394	-51.0494	-17.3542
74.2427	-46.6897	-14.9591
71.921	-53.0128	-11.1137
70.2267	-56.7222	-19.9396
72.7746	-47.7205	-23.2424
82.3135	1.26201	-42.3816
77.906	-26.3915	5.408
77.304	-30.5478	4.72057
78.4198	-22.0318	5.86309
77.0043	-27.1915	9.90432
73.3257	0.160317	31.2287
72.6541	8.40162	30.207
73.5801	-7.49147	32.0756
75.6918	-1.08136	22.3337
52.0701	10.5747	61.7485
50.048	11.8894	63.1561
50.11	8.40581	63.8037
48.201	13.0299	64.432
46.6482	11.8014	65.7527
75.9474	-27.4913	16.4165
74.7271	-27.5405	23.3524
75.3769	-32.2979	15.5969
76.513	-22.3219	16.6162
23.6728	-11.2473	81.8873
27.2938	-12.6807	80.2209
22.2904	-5.95583	80.7364
20.7464	-8.99878	83.6172
32.8267	-13.8691	78.1547
39.0667	-14.6253	75.8972
33.9029	-18.6259	78.7742
17.441	-6.68972	86.3423
14.1554	-4.08155	89.8306
18.0228	-10.5583	88.1908
21.1533	-17.88	86.7704
19.7184	-15.5844	88.2542
16.9008	-19.3771	97.0399
15.3332	-18.5699	99.7998
16.7065	-21.2286	96.252
17.842	-20.074	95.0151
18.4839	-20.7875	93.2101
18.1397	-22.9399	92.4709
37.4719	-33.1233	78.5095
32.8626	-32.7634	81.1061
38.3267	-38.3219	78.1264
36.4629	-28.3324	78.8624
34.96	-23.346	78.9687
5.2617	-33.0473	98.6445
5.71162	-34.9842	98.5022
6.78271	-33.1162	97.8638
58.6596	-49.722	55.2617
59.3347	-43.7591	56.3552
53.8232	-47.996	62.3109
57.4559	-55.7319	54.5742
27.5005	-41.4289	85.7585
25.2909	-40.8911	87.3792
29.7158	-41.7948	84.2337
38.6886	-43.4431	77.5146
38.6452	-48.3288	76.9232
43.3643	-44.7191	73.6185
34.8487	-42.681	80.5152
6.19047	-36.8714	98.5752
55.6768	-61.5153	54.2235
59.0993	-62.8258	47.4468
51.2975	-59.0819	61.515
52.5466	-66.407	55.7418
59.7159	-27.2683	59.9539
59.7056	-32.7171	58.9001
64.5618	-27.6811	52.4747
27.5437	-89.8857	72.7832
27.9304	-86.9259	74.7546
22.1785	-93.1055	77.1921
39.1805	-77.9887	65.494
43.8927	-74.7661	61.7244
37.8475	-74.4312	69.205
33.7459	-80.7255	70.7156
55.8309	-5.63338	63.4534
53.4071	-1.03089	64.248
49.6386	-5.97488	68.5123
44.2348	10.5258	67.7874
45.5728	8.5943	67.2236
51.2833	2.18091	64.8841
46.0451	1.19159	68.8398
48.9649	4.62072	65.8672
42.0491	13.9412	68.8335
1.60444	-92.5353	92.261
-0.770942	-92.7959	92.4099
46.806	-56.5775	67.5808
45.0621	-60.5911	67.9771
47.8698	-51.8221	67.8737
42.1084	-54.233	72.7447
36.2762	-70.9208	72.2579
39.5978	-67.801	70.3962
33.9582	-67.3565	75.3864
31.9975	-73.718	75.3383
42.6335	-5.65964	72.1958
44.3541	-10.2515	72.5318
40.9409	-1.69251	72.0161
48.6212	-46.2055	68.4232
45.839	-15.0286	72.4907
8.77647	-82.6969	91.7901
8.9046	-78.3276	91.8259
13.0135	-81.8138	89.5713
17.7201	-80.5326	86.5468
22.4768	-78.7005	82.9739
17.5558	-76.2488	87.1094
39.6346	1.17321	71.8608
38.3444	3.40459	71.9745
32.9422	1.61258	73.925
47.2268	6.63692	66.509
42.9706	5.53108	69.5677
37.2507	5.40423	72.0911
30.6266	5.90384	73.8028
11.1516	-1.90296	93.3474
11.7366	-5.80675	96.2921
10.7396	2.40622	90.0208
12.9222	-13.0586	102.786
12.6895	-11.6024	101.51
10.272	-12.2332	106.955
13.2307	-14.1353	103.156
10.272	12.7485	81.8632
10.2916	10.1819	83.8961
20.7308	-0.977931	79.3044
0.706724	12.85	92.5311
-0.913734	13.1805	92.5365
62.9004	4.95874	52.6002
10.4508	6.61607	86.7247
62.2775	-62.8039	40.7812
65.6382	-60.8058	32.9794
68.4131	-14.9554	47.0234
68.5342	-21.6776	45.7572
71.267	-14.3756	39.6677
67.4834	-39.1923	42.8282
68.024	-33.4192	43.6965
64.1158	-38.9315	50.1078
69.9836	-39.0636	35.9513
68.4048	-27.5681	44.6221
71.0627	-27.6773	37.4468
17.7246	-95.6103	80.2581
8.8245	-74.3541	92.0686
5.44245	-74.6438	93.0663
12.8315	-73.6136	90.3672
17.2238	-72.5455	87.9022
24.6916	14.6816	73.1356
26.4855	3.07936	75.0747
25.5798	5.47265	74.713
24.8984	7.26274	74.3879
2.47164	-74.7995	93.5954
-0.363917	-74.7385	93.7736
4.79759	26.9738	83.5379
6.46335	26.2392	82.5731
5.85343	29.2881	83.2978
2.80781	27.3641	84.3024
4.48786	24.4152	83.8387
16.1959	17.0276	72.2767
15.9542	18.2711	72.4072
14.1929	17.2596	73.9452
7.8031	25.1231	81.4662
8.92023	27.5313	81.2371
0.760917	27.8138	84.7235
-1.42944	27.8471	84.8478
5.40278	-25.7826	104.644
6.05487	-24.4108	106.309
7.73586	-15.0117	111.761
7.7221	-13.3997	111.196
10.639	-14.8934	107.958
17.803	-27.128	89.7543
17.3755	-26.0112	91.0087
15.5679	-28.4861	91.2938
7.37518	-11.7518	110.442
5.08032	21.2099	84.1042
7.47162	31.927	83.4196
9.20418	31.0469	82.4642
16.3437	19.7504	72.6036
10.6692	30.0037	81.3111
11.5323	28.7458	80.1238
12.0999	27.3716	79.0532
20.0692	-33.3914	88.5066
17.4134	-33.6595	90.4825
21.299	-36.5994	88.9515
22.8068	-40.3821	89.0636
19.7441	-39.7137	91.2679
25.8049	-53.7679	80.2651
25.5143	-52.6916	79.8504
23.7607	-53.8232	82.1295
26.1098	-52.4704	84.0178
23.8229	-51.7568	87.3407
24.8562	-49.8025	79.2441
21.6027	-49.7995	82.1815
23.8561	-46.3123	79.0471
14.7193	-33.874	92.5897
11.8543	-33.7768	94.6891
15.5636	-36.3702	93.0123
16.7701	-39.2058	93.2685
17.7276	-41.9654	93.5233
20.9079	-53.7599	84.6636
19.4216	-52.4931	85.1711
18.4856	-49.6671	84.6529
18.2412	-45.7626	83.6104
9.09443	-33.4439	96.5474
8.68376	-31.5154	96.5129
12.3496	-42.8775	97.2425
15.6604	-43.7032	95.4534
17.8516	-13.0443	90.543
15.0931	-10.9967	94.8156
1.73636	-5.25412	108.433
-0.314766	-4.98948	108.544
12.1728	-9.09458	99.3323
6.82617	-22.3156	108.526
9.35347	-21.948	105.384
12.0237	-21.8899	101.814
12.7539	-19.8314	102.794
14.5388	-22.3502	98.1447
16.0934	-23.1093	95.5624
16.8716	-24.0885	93.6063
17.1917	-25.0366	92.1683
13.2608	-15.1747	103.608
13.2043	-16.4178	103.811
13.0784	-18.023	103.523
40.0347	-145.05	12.7191
35.3571	-146.639	15.8296
41.1297	-150.81	11.7682
44.2608	-143.319	9.52811
38.6263	-137.221	14.0583
37.1745	-126.4	15.845
41.4275	-124.561	12.306
36.4678	-116.888	17.5842
32.6339	-128.106	19.3495
39.1356	-99.6446	24.6395
43.6334	-96.7185	20.4186
34.3659	-102.447	28.5932
37.9233	-104.634	21.1223
36.8925	-110.122	19.0823
32.1404	-112.336	23.0471
41.2392	-107.774	15.2003
42.8743	-64.4339	68.6273
46.0255	-67.6573	63.6601
39.1553	-61.3605	73.1009
48.8417	-70.8295	57.9313
49.9273	-74.3195	53.1778
50.1205	-77.6217	48.9564
36.3787	-58.8606	75.8583
37.4778	-55.8273	75.943
34.2025	-56.9786	77.5582
34.4104	-61.5129	76.4512
32.7466	-55.9471	78.4674
31.611	-57.7132	78.5951
47.5477	-93.9575	16.1363
49.4903	-89.3599	19.4752
46.2953	-99.2409	13.0608
51.1817	-91.6796	10.9524
51.8652	-85.1324	23.4166
54.7952	-83.1442	17.1517
54.3969	-81.2716	27.0248
56.5857	-77.7796	30.7203
59.1484	-76.0068	23.8529
45.4211	-122.54	8.63801
46.7092	-133.614	7.2854
49.2348	-120.861	4.75688
44.887	-112.694	9.9234
48.0621	-141.636	6.19174
49.3881	-147.635	5.1813
51.6133	-139.964	2.5417
45.2631	-105.274	11.2288
73.1031	-27.5655	30.4708
72.5958	-33.1188	29.7144
73.505	-21.5076	31.1885
61.0532	-74.4439	17.103
59.1252	-77.7917	13.9603
62.5795	-72.9172	10.0725
71.4707	17.1158	29.9352
75.1093	15.0408	18.846
67.9359	-58.8336	25.3859
69.4891	-56.9513	17.6277
71.9124	-38.6279	29.1464
73.4473	-37.9545	22.1379
73.5925	-14.4537	32.2022
75.5143	-15.55	24.2471
74.6408	-37.1121	14.8922
75.697	-35.8736	8.26919
59.475	-87.9964	-4.91408
59.0116	-93.106	-6.21234
61.4513	-87.4545	-9.73638
60.1507	-83.4527	-3.297
57.1375	-88.7771	0.0430957
58.7061	-98.8043	-6.993
61.1492	-79.1942	-1.00548
59.2916	-80.1982	4.5906
62.8065	-78.4509	-6.68479
62.3764	-75.3117	1.13599
77.5665	-2.08015	13.4978
77.6689	5.70095	10.909
77.2745	-9.90865	15.7991
77.7459	13.8799	7.85495
77.7713	21.603	5.15283
77.8547	29.4652	1.74201
79.4814	28.5871	-9.1873
77.9884	37.2901	-2.17537
70.4985	-55.3767	9.63198
71.155	-54.3252	1.77826
76.9209	-16.4572	16.7815
78.0163	-17.2453	10.3254
52.953	-119.134	0.461746
53.9153	-130.236	-0.598966
57.2513	-81.5517	10.8667
55.5837	-85.5839	7.85906
54.975	-138.176	-1.57872
56.134	-144.004	-2.74145
62.3294	-113.982	-17.0065
62.7637	-123.491	-18.39
63.0345	-86.8145	-14.5208
64.1153	-84.9862	-19.5788
63.6159	-82.0869	-13.526
64.4289	-77.4084	-12.2172
63.1956	-130.564	-19.9219
63.5615	-136.144	-21.9016
71.4997	-54.0312	-5.33424
76.6067	-34.5868	3.79046
77.6122	-32.8719	0.568978
75.9512	-38.294	2.21086
78.8249	-17.4102	6.07889
63.1971	-92.8028	-27.6118
61.9275	-88.5134	-34.4042
63.7995	-86.3927	-26.4625
64.742	-80.3417	-25.4646
64.267	-73.8634	-31.4868
68.3116	-63.1102	-21.8265
75.5024	-44.105	-13.6523
76.6654	-41.5583	-20.2019
58.771	-119.507	-45.6742
58.8669	-127.208	-47.1019
55.4716	-116.779	-52.6761
58.7573	-111.259	-44.1562
73.6531	-42.7557	-27.9717
76.0619	-39.0428	-26.2565
77.7368	-37.3251	-25.5436
30.4856	-148.002	18.7079
29.1998	-140.324	20.4123
25.5789	-149.251	21.2785
31.6771	-153.525	17.3634
26.8812	-114.2	27.1148
21.3471	-115.644	30.9907
26.5994	-120.321	25.3108
27.8388	-109.624	29.0784
33.0628	-96.7525	43.853
30.6863	-100.706	38.1505
35.1775	-93.442	48.785
28.9489	-105.047	32.8571
23.4039	-106.957	37.0166
27.6354	-129.444	22.9271
22.5394	-131.056	26.1929
32.1352	-64.2383	77.4292
30.7935	-61.4222	78.6972
36.7833	-90.6076	52.9378
30.0294	-59.6056	79.2683
27.604	-61.5073	80.9477
29.2837	-58.1965	79.7001
28.6075	-56.9225	80.0065
26.679	-58.467	81.5947
27.3751	-76.5007	78.9872
27.903	-80.2814	77.5872
28.22	-83.8711	76.0335
21.7909	-55.7286	86.1852
18.3833	-55.9745	89.9877
21.7424	-55.0947	84.7451
25.1986	-54.9555	81.5815
21.8903	-55.2973	84.1445
17.9504	-55.0374	88.2217
21.9126	-55.7386	83.7033
21.8369	-57.0521	83.0079
18.047	-55.7001	86.8077
21.1483	-60.0902	82.4037
19.9451	-63.7827	82.2963
17.4934	-59.7186	85.0557
15.9174	-116.504	34.2163
16.6726	-112.418	36.4165
16.0972	-122.766	32.0817
20.598	-150.509	23.5542
19.3185	-143.06	25.7199
15.6879	-151.472	25.4762
21.7679	-155.667	21.9696
17.5917	-132.388	29.0399
8.38984	-109.824	44.5059
12.2404	-109.479	42.9966
9.20579	-107.501	52.2879
11.3818	-152.154	26.8462
12.4575	-157.093	25.2105
9.96726	-105.676	60.7568
14.4685	-54.6256	91.0686
14.3664	-54.8595	90.2347
14.2933	-55.4041	89.4173
14.498	-56.6066	88.2554
14.0657	-59.3534	87.1369
13.5087	-63.2402	86.2218
72.4187	47.3199	15.3317
75.7954	45.9359	4.34915
72.7904	54.8989	9.83818
68.1413	49.402	25.8075
80.1087	27.4118	-19.294
74.6739	-19.3649	-49.8837
71.8609	-21.2847	-54.799
52.5161	-95.28	-55.3442
53.2044	-85.0001	-54.2085
55.5514	-98.3897	-49.8836
52.3331	-105.559	-56.5441
49.3292	-92.9992	-60.2293
52.4208	-114.521	-57.8945
52.7627	-123.028	-59.1243
49.1659	-112.828	-62.5762
59.7003	-82.9019	-41.6785
58.9798	-92.5975	-42.2676
57.0072	-78.4368	-48.0262
61.0858	-74.3144	-40.2468
22.9649	111.73	20.8847
29.6277	108.909	20.6988
22.9229	116.606	5.9893
15.9694	113.701	21.0973
22.6391	101.822	-78.8506
23.2716	110.469	-62.9942
29.7212	99.8009	-76.9458
21.8701	91.0013	-91.9919
15.205	103.238	-80.2871
21.4113	79.1227	-101.508
28.271	77.4731	-99.5025
21.1267	65.9698	-108.686
14.4384	79.8934	-103.121
23.3701	116.279	-45.9331
30.5181	113.781	-44.299
15.901	118.096	-47.0104
23.2824	119.189	-28.141
8.15575	122.538	-11.3449
0.266144	122.946	-11.4989
8.18285	119.963	5.70521
15.7726	121.304	-11.0292
8.14748	122.334	-29.38
20.86	52.9957	-113.598
27.2879	51.6451	-111.549
20.5414	39.5276	-116.871
14.3413	53.7544	-115.063
20.0323	25.4613	-118.674
26.3636	24.4944	-116.482
19.5254	11.5812	-118.847
13.7172	26.3988	-120.187
17.4215	-27.0146	-107.941
23.2381	-27.7699	-105.775
17.1084	-38.7691	-100.663
11.8521	-26.9068	-109.104
18.2449	-14.3989	-113.77
6.53799	-0.450089	-120.02
0.149188	-0.378478	-120.353
6.75742	12.7103	-121.441
12.7767	-0.874625	-118.999
6.2259	-13.3056	-116.46
15.1886	-85.8755	-83.514
15.5322	-76.2957	-84.4295
20.5074	-86.6284	-82.1805
14.955	-95.3705	-83.1917
10.0756	-85.4577	-84.2768
4.90322	-104.015	-83.8952
9.88742	-104.437	-83.5937
5.01411	-113.674	-83.7138
0.102104	-103.817	-83.9935
5.0133	-94.3147	-84.1922
17.2655	-48.0535	-94.6755
22.5726	-48.6253	-93.119
16.8863	-56.3614	-90.1955
11.5362	-47.5954	-95.6802
16.0968	-65.9093	-86.654
21.7472	-67.0098	-84.9309
10.7868	-65.1193	-87.6382
5.45817	-64.8432	-88.0834
5.71022	-55.4659	-91.6589
5.17748	-75.4293	-85.7416
0.100829	-65.0432	-88.1317
47.5439	96.7732	17.8849
53.1099	91.2746	16.6793
48.5999	100.721	4.53075
41.8536	101.399	19.1981
47.254	70.4089	-89.4645
52.6998	67.2825	-85.2211
46.9374	58.4728	-96.2424
41.4238	73.0705	-93.2928
47.5993	81.2336	-80.3098
47.8867	90.6564	-68.3188
42.2384	94.276	-71.5719
48.4613	97.6148	-54.2195
53.3814	86.2429	-64.7324
49.0731	101.806	-39.5368
54.7654	96.1411	-37.7706
43.3095	106.495	-41.1442
49.7499	103.226	-24.7696
49.3625	103.018	-9.94598
43.379	108.088	-9.83008
55.0703	97.1897	-10.0221
46.3319	46.3641	-101.149
45.678	33.7791	-104.402
40.4474	48.2714	-105.08
51.7534	44.1393	-96.8407
44.727	21.024	-106.231
50.0612	19.5835	-101.89
43.7569	8.10217	-106.348
39.0769	22.152	-110.061
42.4596	-4.40644	-104.908
41.1404	-17.2808	-101.409
37.2068	-4.07306	-108.549
47.2835	-5.14522	-100.722
40.3259	-29.8598	-95.6054
45.0701	-29.5781	-91.7819
39.7501	-40.7999	-89.2966
34.9877	-29.2569	-99.5136
39.1591	-50.3115	-83.7067
38.4571	-59.8159	-78.8977
33.9182	-50.1301	-87.4044
43.7969	-50.4869	-79.4486
36.2959	-88.4082	-74.1867
35.3569	-98.3831	-75.1266
31.1841	-87.9971	-77.5747
37.2491	-78.773	-74.0578
40.9464	-89.3632	-70.1937
24.9479	-105.92	-80.662
25.1165	-114.775	-80.8685
19.8376	-105.241	-82.0924
25.2589	-96.8286	-80.4203
30.1318	-106.814	-78.5736
37.8405	-69.3949	-75.591
42.5777	-69.7184	-71.0803
32.8812	-68.7697	-79.3208
67.2575	69.8368	-51.3347
68.2606	73.6899	-39.8473
71.2081	63.0719	-45.4943
66.5354	63.7623	-61.8072
63.0059	75.8045	-56.5683
68.9089	75.829	-28.4768
72.6237	68.0234	-23.2767
64.692	83.1539	-32.6209
69.1706	76.6876	-17.2606
68.161	77.3043	-6.45759
70.8691	69.8751	-1.61101
64.5688	84.2493	-8.79918
56.5218	41.8871	-92.3121
57.1597	53.0791	-87.3657
60.8484	39.2316	-87.4834
55.8313	30.0479	-95.5471
57.4582	64.0072	-80.7436
57.8229	73.4913	-72.0655
61.9197	60.1026	-75.8198
52.0479	-5.8312	-95.7686
53.8013	6.13812	-97.1003
56.6124	-6.64016	-90.2341
50.3327	-17.8534	-92.6857
54.9093	17.9531	-97.1713
59.3888	16.5858	-92.0745
49.3061	-29.0795	-87.6573
53.4453	-29.0125	-82.5562
48.8023	-40.1394	-80.9691
47.9319	-49.806	-75.1978
51.6433	-48.1488	-71.176
47.3156	-70.3272	-65.4504
51.3614	-72.7963	-58.9794
46.3428	-80.4324	-64.6588
77.2523	34.8996	-46.9523
76.5236	28.9933	-54.4922
75.2665	40.3016	-52.6531
58.0874	85.1883	16.109
59.2018	89.1044	3.26396
77.6182	44.9027	-6.6429
76.9463	52.5746	-11.8865
67.1671	-7.34199	-74.3732
64.033	-7.46161	-79.5338
68.5941	2.05406	-75.7705
70.0741	-7.6503	-68.7935
65.3799	-17.1419	-71.5991
69.3697	11.5482	-76.3947
66.4115	13.3001	-81.8643
70.1834	20.5769	-74.884
72.1808	9.48675	-70.3101
70.9748	29.7282	-71.4892
67.9698	33.1799	-77.1646
71.8629	38.0914	-65.9704
73.6472	25.9095	-65.5399
60.0122	-42.1335	-60.4365
57.3119	-44.44	-63.9789
61.6449	-34.4917	-64.2736
62.7206	-39.8967	-56.6394
58.5915	-49.9242	-56.7518
69.1056	-22.9705	-59.4807
67.2845	-30.2513	-56.2539
66.4293	-24.626	-63.6527
70.9469	-15.5427	-61.8112
54.4802	-75.3912	-53.3778
55.8867	-66.2462	-53.3644
77.9295	-36.9069	-5.19381
78.5092	-33.334	-3.0333
76.3327	-39.8678	-3.03467
78.4675	-31.603	-1.50215
81.5507	-6.24614	-2.35844
82.1449	-1.04509	-4.45518
93.3825	4.31412	-38.3317
93.4429	10.1159	-35.8367
94.0133	3.9261	-37.6173
83.9575	-35.0225	-25.2975
82.8047	-37.8048	-21.9697
92.9661	14.8136	-32.208
91.997	15.118	-32.7102
92.2298	17.95	-27.9812
93.8565	14.1555	-31.6426
86.647	9.90922	-11.1503
85.3159	9.90129	-11.8182
91.4292	19.2681	-23.6149
92.3678	18.5609	-22.8709
88.7802	-18.5407	-35.3184
85.4456	-35.6965	-17.8347
84.8422	-35.5421	-15.1534
83.7721	-37.8047	-18.3955
82.471	1.50918	-6.17036
88.0936	17.5307	-19.042
86.2516	14.4749	-16.3582
87.0446	16.6755	-20.6541
83.993	10.1822	-13.2837
83.1146	10.6243	-14.9013
91.3343	14.9595	-32.9358
82.3658	10.3463	-16.3806
83.5634	12.3104	-19.0613
85.0798	14.2059	-22.6892
82.9953	12.0685	-23.8145
88.1939	-26.9454	-28.2137
88.3049	-28.5	-20.5551
82.2113	-39.0101	-18.9228
84.092	-34.6589	-12.8652
85.2348	-31.7775	-12.7726
86.1431	-29.4272	-13.5989
86.6037	-27.8926	-14.4831
94.2081	3.63521	-37.1995
94.5508	9.23328	-34.7905
90.914	15.8896	-15.3005
91.1125	15.2602	-15.026
92.0976	17.5452	-18.4177
91.1051	14.6623	-14.8957
92.33	16.3897	-17.9537
90.9584	13.5927	-15.0816
94.2395	13.6181	-31.278
93.6292	16.5072	-27.0579
94.3579	13.1246	-31.1384
92.9389	17.8544	-22.3935
93.1681	17.2643	-22.2781
93.183	16.686	-22.01
93.7834	15.476	-26.6907
94.3194	12.7538	-30.8201
93.7165	-0.687865	-36.2028
90.7215	12.2913	-15.6514
88.3257	5.06586	-13.2357
92.6789	12.0225	-24.2635
93.2318	-3.81591	-31.0628
93.2535	-1.93468	-30.7284
93.1504	-0.0670166	-30.1081
92.9205	1.42793	-29.171
92.5462	2.64487	-27.8884
91.6186	3.48431	-25.2996
84.5343	-24.3659	-12.1459
85.7507	-25.9655	-13.8619
86.5872	-1.56343	-10.2957
83.2802	-16.3975	-9.9966
86.6995	-27.1797	-14.9715
31.9552	27.5927	75.138
34.0479	92.8531	43.4728
35.1553	99.4932	32.819
8.58887	100.334	46.0601
8.52185	108.183	34.6009
0.617838	100.716	46.0348
35.8117	105.57	19.9977
36.3878	110.061	5.73816
8.33289	114.935	21.1735
0.387822	115.386	21.0306
22.9878	119.259	-10.6053
30.111	116.328	-10.1865
36.8112	112.656	-10.027
37.173	112.822	-26.2258
63.1353	52.2301	35.0398
72.2404	62.2857	3.94754
74.4894	61.1815	-6.75876
60.0088	91.1283	-9.99156
60.4864	91.083	-22.8271
8.12804	119.211	-47.5761
8.04073	113.13	-65.017
0.243109	119.585	-47.7458
36.9636	110.656	-42.5063
36.7033	105.41	-59.0819
75.1351	60.2228	-17.5948
75.0975	58.8405	-28.5412
59.7798	90.1303	-35.6714
59.0325	86.9648	-48.3418
74.3	56.2523	-39.4073
73.4882	51.9719	-49.7097
72.633	45.9714	-58.5781
69.5657	51.0276	-64.5967
45.466	-91.223	-65.3353
44.8055	-101.364	-66.6494
44.8814	-110.808	-67.6454
45.0546	-119.482	-68.8139
39.9567	-108.939	-72.2572
7.72986	104.178	-80.9521
7.4462	92.7554	-94.3873
0.236203	104.368	-81.3438
7.40138	80.3201	-104.044
7.4244	67.2095	-111.048
0.18626	80.4342	-104.356
7.44594	54.1875	-115.944
7.30636	41.0048	-119.216
0.162017	54.3742	-116.221
7.01731	27.0411	-121.113
0.168326	27.0681	-121.439
18.9515	-1.55424	-117.306
25.1077	-2.50322	-114.948
5.8869	-26.7043	-109.9
5.84955	-38.9185	-101.853
0.129394	-26.8217	-110.045
5.82061	-47.712	-95.9485
0.110451	-47.9318	-95.9071
5.10224	-84.9936	-84.6758
0.100691	-84.7971	-84.8008
34.9369	75.4675	-96.7557
35.4627	87.0874	-87.2761
34.5126	62.8453	-103.721
36.0501	97.2796	-74.6766
33.9387	50.1167	-108.638
33.4198	36.9718	-111.851
32.7771	23.4684	-113.574
32.1475	9.74352	-113.618
31.2959	-3.34796	-111.976
30.2623	-16.1138	-108.463
29.1753	-28.5111	-102.983
28.398	-39.8403	-96.5074
28.2763	-49.4064	-90.6709
28.11	-58.4567	-85.8767
27.3757	-67.8899	-82.5444
26.6668	-77.7514	-80.6721
26	-87.2553	-80.1848
35.2179	-107.7	-75.7631
35.4591	-116.572	-76.3539
58.2455	81.5176	-60.8698
65.9279	56.0984	-70.2399
65.353	46.4557	-77.2938
64.5653	36.5694	-82.5098
63.8412	25.8728	-85.7776
63.0768	15.1157	-87.1283
62.1507	3.98353	-86.5627
60.4845	-7.29315	-84.861
58.6503	-18.1087	-81.9357
56.996	-28.1102	-77.954
60.3418	-27.4669	-72.8877
55.7194	-37.897	-72.6268
54.571	-46.3184	-67.6655
57.4197	-58.071	-53.9389
59.6212	-56.4992	-50.5457
75.6933	22.7119	-60.0326
75.0662	15.3407	-63.224
77.6198	18.9353	-53.9774
72.4445	-7.69872	-63.8015
73.6544	0.160556	-64.6586
63.4112	-26.1621	-68.2969
74.3959	8.04232	-64.7927
65.4625	-37.4564	-52.9422
63.8879	-44.638	-49.7959
17.6457	-108.463	40.7013
63.9993	-71.5009	3.29742
54.3326	-89.9641	5.57985
14.5883	-48.1654	96.2312
17.8628	-49.225	93.9317
20.9737	-50.6759	90.8144
8.32034	-57.561	97.7076
8.65947	-58.5585	97.7218
8.90776	-59.6321	97.6139
24.2244	-63.6898	83.9756
23.8268	-62.0191	84.6149
23.4029	-60.5441	85.2538
18.9745	-45.0056	93.1146
38.3233	-52.3299	76.306
29.3772	-32.5112	82.7891
30.8164	-37.3461	82.939
31.9391	-42.0917	82.5982
59.6822	-38.0887	57.5141
17.9996	24.0446	74.2015
79.3677	15.2385	-47.524
82.0945	13.9254	-28.1107
82.7896	11.9949	-25.7322
74.962	-42.6915	0.360673
24.6075	13.3888	73.4471
49.6241	40.4586	64.1549
8.70185	-29.9656	96.5445
43.5363	19.5189	68.5648
12.8152	-28.3482	93.7918
82.683	11.7986	-24.6708
58.7043	-102.172	-43.2113
63.4322	-65.8606	-38.3085
62.4529	-59.2056	-43.4506
62.3538	-53.2798	-47.1276
22.8261	-25.7108	84.9322
15.0582	-55.8424	92.9359
26.9105	-54.8435	80.1796
7.40725	-52.4404	94.9993
-73.6592	-45.5852	13.2383
-74.4649	-40.7675	14.6557
-74.6223	-44.0795	6.14732
-72.707	-50.2426	11.7782
-72.3348	-46.869	21.3601
-58.6274	-118.178	-9.42761
-58.4631	-107.903	-8.92907
-60.7374	-116.651	-13.7095
-59.2891	-128.325	-10.3868
-55.9152	-119.535	-5.28886
-60.0588	-135.607	-11.4371
-57.6146	-137.61	-6.92679
-61.8191	-133.651	-15.992
-60.7277	-141.291	-12.4714
-52.3733	-103.073	0.785928
-55.9243	-101.536	-3.9252
-52.1703	-110.762	-0.306219
-48.6104	-105.081	5.13135
-53.2497	-96.9793	2.0933
-62.2554	-98.7167	-16.5735
-60.772	-99.5142	-12.4035
-62.6479	-93.1098	-16.0502
-63.1336	-97.2043	-21.487
-62.0295	-105.84	-17.1835
-66.045	-66.4859	22.2799
-67.5276	-65.0041	14.8002
-64.1291	-70.9259	19.5425
-63.5983	-68.3623	29.7783
-67.55	-62.1558	24.5933
-70.9909	32.4165	24.8986
-74.9946	30.8567	13.0861
-70.7909	25.168	28.1558
-66.1003	35.1612	35.7726
-71.7079	40.0432	20.1351
-78.0066	42.2389	-28.5861
-79.246	34.9426	-23.6883
-78.1998	44.0187	-17.936
-76.371	49.216	-33.7931
-77.6146	39.1983	-38.2831
-7.02556	-117.486	36.8509
-7.22322	-113.288	39.0327
-10.3158	-117.19	35.5915
-7.53615	-124.359	35.3464
-4.49148	-117.599	37.6416
-8.93376	-134.855	32.1994
-10.1401	-145.354	28.7309
-5.68465	-134.988	33.4073
-12.5098	-134.057	30.577
-3.39299	-153.066	28.1884
-3.82162	-157.904	26.7519
-3.04127	-145.865	30.4457
-7.09366	-152.803	27.5952
-68.6854	-53.4816	-32.5504
-69.357	-45.8163	-36.6425
-65.9841	-59.7028	-35.0636
-68.3319	-59.8858	-27.4392
-71.2868	-47.2642	-30.1123
-70.1192	-40.3458	-39.6367
-73.2573	-35.6336	-36.3837
-70.8992	-35.5995	-42.0506
-66.4446	-46.2481	-43.1255
-62.808	-126.308	-31.8853
-63.3104	-129.532	-25.6082
-61.2807	-123.372	-38.522
-62.702	-132.858	-34.1005
-2.64185	-135.225	34.0935
-2.17921	-124.72	37.1422
-70.1058	-48.8024	29.6098
-69.3087	-53.9328	28.313
-67.5938	-49.7406	36.9673
-70.9819	-43.1408	30.2365
-68.5073	-63.5301	7.14906
-70.174	-59.0655	8.78625
-68.9251	-62.9826	-0.864024
-66.6528	-67.8911	5.13593
-9.63571	-91.867	89.8901
-9.64263	-87.5735	91.1888
-13.9931	-91.3749	87.24
-9.82564	-95.8494	87.4938
-5.93957	-92.3482	91.4818
-18.9923	-90.1746	83.6381
-19.287	-85.6551	84.8961
-23.9959	-88.0112	79.4294
-18.7246	-94.2127	81.5736
-3.26162	-83.5844	93.8775
-3.04984	-88.2268	93.5557
-3.50918	-79.006	93.6668
-6.32599	-83.3138	93.0741
-10.023	-98.9974	84.2987
-6.55675	-99.2737	85.876
-14.0912	-98.5283	81.8179
-10.5428	-101.577	79.6814
-11.2488	-103.331	74.0676
-11.4705	-104.531	67.6724
-7.37647	-103.964	75.1957
-16.3123	1.61176	82.6675
-13.9043	3.90764	84.5083
-15.9753	6.06741	80.0554
-18.8246	-0.0452308	80.9008
-16.8279	-3.10694	85.1465
-46.5932	-27.0829	73.0364
-47.5154	-31.5864	72.2249
-41.0527	-26.2602	76.6857
-45.8973	-22.59	73.3871
-52.4028	-27.9975	68.096
-57.2756	-17.7106	62.8509
-57.9345	-23.1042	62.2762
-51.0104	-17.9978	69.0132
-56.0344	-11.9429	63.495
-63.092	-16.0609	55.2505
-68.1071	3.35795	43.3207
-65.3838	5.04026	47.7528
-66.9893	10.8903	42.8619
-70.2682	2.33051	38.4995
-48.1045	-36.0584	71.0623
-42.8204	-35.0031	75.5605
-53.5228	-37.0922	65.5088
-48.1865	-40.7616	70.207
-2.26832	3.29128	100.706
-4.04293	2.66653	100.136
-2.26085	-1.31213	104.752
-2.45523	8.37664	96.2284
-28.1914	67.3555	66.6473
-29.4037	73.2715	62.4102
-33.4504	65.7463	64.1085
-26.906	60.7458	71.425
-23.2965	68.2896	68.5247
-3.71138	-107.085	61.8592
-4.08665	-105.631	69.664
-7.01887	-106.739	61.1002
-2.93397	-108.473	53.5605
-64.5645	-50.1745	44.0274
-65.6375	-44.0614	44.5818
-63.0678	-56.5832	43.567
-61.0271	-50.0122	50.8646
-3.49326	-99.5791	86.574
-3.82893	-102.294	81.6671
-3.20266	-96.5416	89.8393
-4.05399	-104.232	75.8976
-38.1197	-86.9796	58.5177
-38.5314	-83.5796	61.7732
-42.9029	-84.0518	53.9582
-37.1899	-89.934	55.4939
-33.3187	-89.4011	64.1664
-42.4385	-93.1212	33.1366
-37.4678	-95.8799	37.8282
-44.9226	-89.3851	37.9022
-47.267	-90.0918	28.1393
-39.9418	-97.3269	27.6731
-2.31485	-110.164	45.4288
-2.11502	-113.248	40.2018
-4.94464	-110.173	44.633
-6.96732	-6.63731	105.932
-4.48395	-5.75191	107.575
-6.58706	-2.81223	102.493
-9.82614	-7.96667	103.102
-7.29949	-9.65849	108.697
-26.2289	-23.3686	83.252
-23.1504	-20.5967	85.1105
-24.8842	-18.4291	83.4451
-29.4641	-24.4477	81.826
-33.1079	-54.7251	78.1702
-31.3049	-55.0742	78.5948
-31.9419	-54.0282	78.5739
-12.9654	-26.6949	95.6814
-14.8616	-27.0813	93.8183
-12.2404	-27.6624	95.252
-14.5809	-25.3637	95.7655
-12.4967	-30.8372	93.582
-10.4498	-30.3815	95.1939
-12.3154	-29.9346	93.8194
-15.0275	-31.0679	91.6491
-13.0582	-32.2409	93.3657
-1.57907	-28.4549	103.24
-3.39277	-28.1951	102.409
-1.74209	-29.5221	101.822
-1.54436	-27.3756	105.074
-17.7243	-30.553	89.6895
-18.319	-31.8733	89.4843
-17.2462	-29.6157	90.1566
-20.0966	-29.2302	87.8934
-7.52162	-18.0996	111.382
-7.66181	-16.4574	111.844
-10.4427	-17.8721	107.688
-7.25465	-20.0787	110.222
-4.75887	-18.5235	113.677
-27.1269	-68.7554	81.1081
-27.8182	-72.6051	79.6929
-23.1576	-70.7762	84.3413
-26.374	-65.4211	82.4271
-30.3996	-66.3262	78.6005
-31.215	-48.6903	82.2752
-33.1842	-49.2783	80.7023
-28.9795	-48.067	84.2831
-29.9267	-44.9951	84.3157
-2.18481	-33.6116	99.4967
-1.99146	-31.8613	100.098
-4.10667	-33.2074	99.059
-2.33775	-35.5021	99.2097
-6.30106	1.52227	98.7808
-6.52587	5.96541	94.6124
-9.04576	-0.33485	96.4463
-19.3944	-20.3404	91.696
-19.7633	-20.1725	90.3647
-19.5419	-22.039	90.8546
-18.7726	-19.1243	93.822
-18.5608	-18.1017	93.8587
-5.29177	-29.7213	99.4181
-3.74177	-30.1022	100.269
-5.25312	-28.7491	100.068
-6.85629	-29.7759	98.1741
-5.26406	-31.2817	98.8622
-5.01817	-27.9392	101.176
-4.89835	-26.9691	102.818
-17.8351	-17.7296	95.9064
-18.361	-19.567	94.9546
-17.5402	-16.805	96.1695
-19.3044	-24.4448	90.1191
-18.5119	-26.5814	90.0524
-18.7564	-22.8293	92.368
-3.3297	-42.4725	99.7022
-2.9719	-39.8507	99.3189
-6.06034	-41.7496	99.3083
-3.67139	-44.409	100.032
-24.6539	-33.26	85.819
-22.9497	-30.0459	85.978
-26.8921	-33.0828	84.5327
-26.7691	-36.8177	85.6452
-22.2495	-33.6086	87.4338
-10.5153	-68.1414	93.3449
-14.695	-67.4863	91.6445
-10.4366	-70.7101	92.4837
-6.63048	-68.6771	94.3222
-10.5366	-66.0627	94.3574
-27.1209	-50.7586	84.6448
-26.5827	-49.2519	86.1374
-29.8448	-51.9043	81.0102
-27.6731	-51.3608	83.6362
-17.2709	-16.176	96.0151
-15.6081	-14.7069	98.6776
-17.385	-15.6174	94.5732
-18.8358	-66.5	89.2845
-18.7499	-64.6735	90.1622
-22.3477	-65.1454	86.625
-18.8479	-68.9249	88.3773
-3.35796	-68.9525	94.7535
-3.30985	-67.1159	95.691
-3.3165	-71.1348	94.0595
-57.621	28.4144	57.3865
-58.2388	29.6872	55.5319
-59.7039	23.2094	53.6793
-56.7807	27.4072	59.1133
-37.4346	52.4871	68.4942
-38.3495	57.7873	64.4919
-43.435	49.976	64.0165
-36.9981	47.8305	71.9467
-32.2344	54.4211	72.0487
-49.5362	47.1175	58.7262
-50.4969	52.5203	54.4125
-55.2415	43.5233	52.7612
-48.896	42.6667	62.6343
-37.8477	41.0204	75.0587
-37.3272	43.3013	74.4363
-38.487	38.4959	75.2878
-33.3121	42.1028	79.2515
-59.38	31.156	52.4046
-62.7938	25.5044	46.9448
-54.3392	36.0606	59.4301
-60.0319	34.0699	49.3603
-22.1448	32.2355	79.4206
-19.0269	31.5246	79.7739
-21.5528	33.6179	80.2012
-25.8247	32.7518	78.931
-22.8907	30.781	78.3904
-6.9657	16.7282	85.826
-6.80784	13.9837	87.7523
-4.647	18.3841	87.1078
-7.11767	18.8102	84.6018
-9.2625	14.5016	83.9636
-29.5162	-5.52439	77.0744
-24.2302	-3.88226	78.9281
-28.2044	-1.12263	76.1419
-35.7695	-6.36637	74.9781
-31.0384	-10.476	78.0792
-56.4514	7.38313	57.9928
-53.955	4.13709	61.2608
-53.7689	8.99293	60.1383
-57.3278	11.6217	56.4881
-58.9507	6.24897	55.7972
-6.63972	10.3286	90.7899
-4.3166	11.9481	91.9473
-9.05077	8.14928	89.1146
-39.1179	36.4435	75.2271
-39.1429	34.5736	75.2271
-34.0907	37.8752	78.9184
-44.0068	35.0335	72.2789
-48.6529	32.9186	68.9644
-52.8781	29.7237	64.7882
-48.1508	31.0317	69.6618
-53.0849	16.6901	60.9852
-55.0073	16.5601	59.1049
-52.6142	13.3231	60.8084
-51.0171	16.8964	62.7988
-53.2006	20.3444	62.0731
-41.0574	21.7682	71.2796
-39.3756	22.8353	72.5864
-42.5521	20.523	69.7719
-37.5941	23.8093	73.5434
-35.48	24.4746	74.1372
-37.6538	24.6358	73.9235
-39.7133	23.6366	72.9097
-35.2808	25.3288	74.5352
-32.8208	24.889	74.4361
-30.1282	24.8048	74.4101
-32.4871	25.6755	74.7838
-29.616	25.5138	74.6964
-27.6458	24.2729	74.1159
-25.3189	23.256	73.644
-23.1224	21.8913	72.974
-21.4487	20.527	72.3182
-21.9635	22.5119	73.1986
-24.2411	23.8278	73.8534
-20.3336	21.0826	72.5953
-20.4297	19.3153	71.8044
-20.7694	22.9929	73.5316
-23.2214	24.5364	74.2436
-32.2022	26.5666	75.2174
-29.1315	26.3575	75.1241
-45.9851	16.0643	66.1155
-44.912	15.2224	66.7474
-29.8954	32.9002	78.3824
-30.194	31.2546	77.5381
-29.7146	34.7341	79.1353
-34.4692	32.7312	77.2889
-45.2905	25.9518	71.0637
-43.8764	24.6496	71.5125
-42.2984	27.4492	73.1741
-46.5897	27.6246	70.597
-35.8837	8.88613	72.3193
-29.9529	9.30744	73.7011
-40.8036	9.31678	70.1844
-36.4774	6.94047	72.2127
-25.2138	10.493	73.8918
-25.4534	8.76369	74.2131
-21.8182	11.5008	73.7408
-18.3451	14.5637	73.1388
-19.1493	13.4684	73.414
-17.9285	15.4195	72.9014
-34.9349	12.2595	72.5092
-29.7387	12.5817	73.5025
-39.314	12.8015	70.8268
-21.2053	14.6946	72.2951
-20.4728	15.1735	72.0125
-22.6811	14.0542	72.7305
-19.8757	15.5954	71.895
-19.3314	16.1719	71.8467
-14.7871	23.3441	76.3196
-13.7848	25.2383	78.0153
-16.2872	25.0731	76.385
-16.0786	21.2737	74.3578
-17.612	16.8552	72.766
-26.1276	25.678	74.7673
-16.8963	20.3856	73.4589
-17.9639	21.9764	73.6398
-16.3801	18.8363	73.5127
-34.8364	13.4916	72.5415
-29.6905	13.7992	73.4216
-21.4236	15.4935	71.7508
-22.7797	15.1554	72.2167
-20.696	15.7242	71.5769
-20.2837	16.058	71.394
-43.5826	19.3011	68.4
-3.74639	32.5503	84.4213
-3.9232	35.6166	84.4684
-6.2791	32.0886	83.9586
-3.59271	29.9971	84.4615
-19.714	5.95371	76.7008
-22.5884	4.5532	76.058
-20.3068	2.97586	77.9896
-17.7688	7.31889	77.3618
-19.4539	7.9916	75.8368
-15.643	8.88463	78.4689
-13.5686	10.6192	79.9904
-15.8367	14.0492	75.2576
-16.0685	15.6493	74.3399
-14.1532	14.829	76.702
-10.8208	22.427	79.5747
-10.1091	23.3844	80.5225
-11.8021	24.4907	79.2182
-20.1277	12.4599	73.5971
-19.6795	11.2218	74.3114
-19.3713	9.7096	75.0501
-21.8526	8.42119	74.7711
-23.3644	-53.5476	83.758
-19.5951	-53.3203	87.287
-26.7611	-53.5155	80.4061
-23.2748	-53.4614	83.4469
-28.4837	-53.6922	79.0821
-28.1689	-53.5908	79.082
-3.96946	-47.8809	100.076
-3.90535	-49.1275	99.778
-3.91626	-46.5889	100.211
-7.01848	-47.3254	99.5217
-9.79557	-49.7159	97.7384
-12.7397	-49.7527	96.4264
-9.61463	-50.736	97.0601
-7.02374	-49.812	98.6617
-9.73612	-48.5489	98.3212
-15.7694	-50.0586	94.5443
-18.9917	-50.9144	91.9245
-15.7582	-51.1841	93.6096
-15.8028	-48.9428	95.1982
-9.63076	-47.2293	98.7492
-9.51789	-45.938	98.9996
-12.5309	-47.4031	97.5014
-14.458	-45.6116	96.6823
-15.3268	-46.6426	96.159
-11.4035	-45.2158	98.282
-13.9219	-44.5269	96.9139
-22.6933	-52.0677	87.7026
-22.3638	-51.0608	89.3016
-9.03928	-51.6852	96.249
-12.5141	-51.7325	94.6272
-8.61496	-52.1606	95.5471
-6.14158	-51.6738	97.3063
-16.1038	-52.2251	92.0928
-16.0988	-52.7622	91.0531
-29.2724	-52.5565	80.747
-30.443	-53.8413	78.9551
-23.644	-54.5037	84.259
-23.6905	-54.6992	84.5659
-19.749	-54.6273	88.2751
-23.6019	-54.4352	84.0115
-24.1677	-55.9069	85.0952
-20.6603	-56.7237	89.5389
-23.9995	-55.4611	84.9973
-17.4688	-57.0936	92.6542
-17.9076	-57.8912	92.5726
-13.6566	-57.3675	95.47
-17.1818	-56.314	92.4738
-8.72282	-55.4498	97.0389
-5.54281	-55.5049	98.021
-8.62232	-54.4849	96.4517
-12.9169	-55.3978	94.9372
-8.94597	-56.5784	97.4933
-3.23252	-58.1032	99.2504
-3.14744	-56.9146	98.971
-5.71873	-57.8444	98.825
-3.28986	-59.258	99.3573
-28.6274	-55.0956	78.2821
-28.5936	-54.533	78.9311
-26.8806	-55.1018	79.9428
-28.3516	-56.451	77.6279
-2.87799	-54.57	93.8623
-2.86269	-53.9032	95.2228
-2.85579	-55.8925	92.5117
-5.35873	-54.6425	93.3618
-3.32018	-60.4092	99.2927
-5.89789	-60.0744	98.9184
-3.36005	-61.4911	99.0538
-3.29194	-65.3279	96.853
-3.34772	-63.7317	97.9397
-6.18666	-64.8332	96.6068
-9.18663	-45.0389	99.1035
-6.78753	-44.9232	99.7195
-8.43636	-43.7024	99.1844
-3.09343	-55.6809	98.4901
-2.9672	-54.6318	97.9033
-2.89187	-54.1226	97.4453
-2.94729	-53.8567	96.9683
-5.40063	-54.0303	97.0046
-8.56626	-54.0187	95.9923
-8.52393	-53.8083	95.5613
-12.3866	-54.0555	94.0359
-2.97746	-53.7441	96.261
-5.36149	-53.7167	95.8197
-16.2011	-54.3609	91.4221
-16.4413	-54.7232	91.7645
-16.1158	-54.2034	90.9953
-18.5208	-60.6184	92.0879
-18.6674	-61.6404	91.6192
-14.9219	-61.1553	94.64
-18.3803	-59.7084	92.3507
-10.1469	-61.5744	97.068
-10.3681	-62.677	96.415
-6.02071	-62.0696	98.3428
-9.89412	-60.6478	97.4854
-3.36853	-62.5468	98.6259
-16.0082	-52.9072	90.3062
-15.8744	-52.8009	89.6487
-12.2291	-52.4687	92.8692
-28.6229	-54.2903	79.6145
-26.9677	-54.5517	81.2
-8.5607	-54.7363	92.3647
-8.42933	-54.0048	93.7021
-8.73965	-55.9831	91.1294
-12.2667	-54.8033	90.7411
-8.43267	-53.757	94.8216
-12.1706	-53.8549	92.9387
-10.4325	-64.1856	95.4992
-15.0099	-63.6912	93.3668
-18.132	-58.7844	92.5475
-14.4871	-59.246	95.2436
-18.7206	-63.048	90.9597
-21.8066	-61.9129	88.324
-15.5676	-52.4366	89.2356
-18.8451	-52.8267	86.8143
-14.972	-51.2214	88.5373
-12.2058	-51.9443	91.1192
-8.7327	-51.7547	92.6202
-8.50026	-52.2166	93.7608
-9.29712	-50.5016	91.0188
-5.95457	-51.5882	93.2341
-14.2352	-48.5249	87.4881
-16.9259	-48.8824	85.9602
-13.7806	-44.8849	86.4849
-11.6564	-48.1642	88.6518
-27.6435	-59.5956	77.1513
-25.8545	-59.6071	79.0113
-26.34	-63.3609	77.4431
-2.70864	-58.6093	91.1342
-2.93176	-62.4871	90.1975
-5.15465	-58.591	90.7745
-9.1401	-47.909	89.4947
-8.62469	-44.3277	88.3632
-6.5114	-47.7082	90.0999
-8.44303	-58.5938	89.8889
-8.44239	-62.5114	88.7664
-12.1749	-58.6779	88.3969
-30.3866	-54.5969	72.9
-30.3833	-54.7467	72.5079
-12.0623	16.1532	78.7497
-11.5615	14.5095	80.3587
-81.2656	-8.24711	-43.2111
-82.7956	-8.71349	-41.4634
-81.8062	-3.64579	-43.1992
-79.3753	-7.69069	-46.6072
-80.6328	-12.6506	-42.4617
-80.3916	10.5792	-5.45288
-79.259	12.6939	-0.505778
-80.7299	13.3785	-9.77477
-80.7956	15.4141	-15.0783
-81.442	14.9477	-22.1943
-81.3803	10.4823	-16.135
-80.3691	20.7913	-16.4145
-75.8773	-32.5581	-33.9748
-76.9502	-28.6553	-35.7804
-74.9888	-36.7447	-31.4124
-78.3175	-30.2157	-32.2736
-77.8495	-24.9931	-37.845
-80.1326	-23.7518	-35.9323
-78.8771	-21.0211	-39.6644
-75.2296	-27.0668	-40.7731
-84.2919	-8.65062	-40.5578
-84.5644	-3.63973	-40.7418
-83.7875	-12.8134	-39.6425
-85.8096	-8.14308	-40.1934
-84.8138	-24.9467	-32.719
-85.8702	-26.0501	-31.6063
-83.4501	-23.3865	-34.1482
-86.6692	-26.8452	-30.5616
-87.6803	-22.8231	-32.6439
-85.5958	-30.8152	-28.0431
-87.416	-27.2725	-29.3199
-90.9797	-17.0244	-30.6024
-92.174	-12.5545	-33.7665
-90.9629	-16.4442	-29.8135
-80.7901	-39.238	-19.83
-81.0364	-37.6416	-22.8677
-79.8351	-38.4319	-21.8902
-80.4152	-39.8678	-17.7566
-81.2764	-39.4627	-19.1141
-82.7823	-31.5177	-7.09273
-82.505	-32.0686	-7.07664
-81.9001	-33.2923	-7.36828
-90.9013	-16.0611	-29.3965
-90.4135	-16.6416	-28.4261
-93.4508	-1.52714	-33.3037
-93.5081	-0.882378	-34.8456
-93.3579	-2.83907	-31.6218
-93.5096	8.68291	-30.8436
-93.7567	10.0334	-30.9632
-93.8392	12.1263	-29.9303
-93.4301	14.2031	-26.8114
-94.016	12.5851	-30.3372
-93.2544	11.942	-27.6823
-84.1834	-8.74314	-7.20843
-85.2372	-3.33071	-7.8228
-83.4197	-12.7509	-6.61023
-83.6443	-7.97449	-5.84562
-79.8088	-24.4975	-0.0596091
-80.1513	-20.2069	0.485201
-79.4325	-28.2549	-0.585401
-78.9823	-24.8626	2.76666
-83.2568	-19.8692	-9.27157
-83.1692	-17.9303	-9.39905
-83.6413	-21.8947	-9.79856
-81.3932	9.97666	-16.1715
-81.4266	9.97566	-15.9475
-81.7592	11.1993	-19.7143
-89.4319	17.4497	-16.7175
-90.4131	19.1107	-19.9037
-90.2273	16.762	-15.7114
-88.0398	14.4089	-13.7074
-88.5714	17.8394	-17.9083
-89.9708	19.7222	-25.039
-89.1491	19.5049	-21.9721
-89.19	18.6791	-26.4165
-90.5258	18.4317	-28.7616
-90.2729	19.8689	-24.5338
-91.1611	4.30061	-39.4619
-92.2239	4.55334	-38.9192
-91.3907	10.2882	-36.5952
-90.3791	3.83636	-39.6415
-85.999	1.23521	-8.44582
-86.342	-0.0133426	-9.12553
-94.012	3.75215	-36.351
-94.3729	8.88949	-34.0986
-94.0636	3.64579	-36.7181
-93.747	0.951312	-36.5343
-92.8541	15.1169	-22.79
-91.8863	14.6	-18.7329
-92.9267	16.1004	-22.1757
-92.6718	13.7554	-23.5241
-87.4583	1.97716	-11.3183
-87.9439	4.27877	-12.0685
-86.9627	0.230347	-10.7189
-93.5388	4.4629	-33.6038
-93.6749	2.40335	-35.4819
-85.7869	-4.75346	-12.5401
-86.2512	-3.14063	-11.4265
-85.9269	-4.48916	-13.2644
-90.4858	-4.11719	-26.8184
-92.4339	-1.51275	-28.7738
-90.3945	-5.21305	-26.9758
-90.2138	-3.6622	-26.1839
-80.4706	-16.2836	0.478697
-79.7039	-16.4387	3.09476
-80.9599	-11.7701	-0.372378
-84.7045	1.61725	-39.2552
-85.6381	4.12245	-38.3101
-84.4865	6.2882	-37.1078
-83.5578	1.0211	-40.4117
-87.9142	9.09711	-35.6161
-88.1301	5.00787	-38.5446
-90.1884	13.7479	-33.7044
-87.588	12.884	-32.3686
-89.3392	2.87473	-39.6081
-88.2676	-2.6582	-40.4014
-87.9438	-7.6656	-40.0208
-81.9096	-23.0983	-35.0483
-82.6614	-19.8758	-36.7455
-81.0185	-26.212	-33.2194
-83.2585	-16.4955	-38.344
-81.5717	-16.7412	-39.3903
-89.855	-16.5605	-27.3937
-80.1061	-29.123	-31.5057
-79.1198	-32.7396	-29.1646
-80.2815	-39.4488	-14.8343
-79.7766	-39.7113	-14.6445
-79.245	-39.9062	-14.3499
-78.8941	-39.8143	-19.8713
-90.6212	-5.96394	-27.4594
-92.5235	-4.61941	-29.6891
-83.0224	-7.34519	-4.71795
-82.2796	-6.90997	-3.45773
-81.3828	-20.7506	-3.16668
-81.6967	-20.9352	-3.85637
-84.3388	-25.3698	-9.53205
-84.443	-24.3079	-10.3854
-85.3682	-27.4173	-11.1324
-82.962	-15.7138	-6.10992
-83.3696	-15.9279	-8.36752
-87.2211	14.7172	-29.1304
-86.2189	15.3615	-25.7382
-84.9343	11.0301	-31.9641
-84.0604	9.4757	-33.7687
-83.3527	11.6319	-29.4636
-83.6376	9.16662	-34.8811
-92.7698	5.67153	-28.4715
-92.6217	4.16953	-28.119
-86.3216	-3.81579	-14.7409
-87.2677	-2.63803	-17.4661
-90.1599	-2.81827	-25.6731
-89.589	-2.7432	-24.2638
-91.8199	0.759386	-26.9052
-6.58211	84.4407	61.8243
-7.07398	91.9969	55.1843
-13.8055	83.4619	61.4541
-6.26593	76.986	66.9607
-5.78744	69.6254	71.2722
-12.5304	69.3039	70.7136
-5.46786	61.8304	75.5222
-26.8625	54.7896	75.2977
-21.579	55.7644	76.7585
-27.159	50.303	78.3718
-1.38083	-26.1731	107.397
-3.47594	-26.0991	106.024
-1.60712	-24.7212	109.643
-2.15773	-15.2282	115.284
-2.11641	-17.0242	115.39
-2.26269	-13.1849	114.588
-4.85697	-15.1335	114.106
-2.06811	-18.8486	114.943
-1.99484	-20.7046	113.898
-1.89232	-30.5803	100.853
-2.60664	-37.5938	99.1544
-5.00184	-37.1754	98.8164
-1.86127	-22.7398	112.044
-4.23876	-22.6793	110.549
-2.25306	-11.1326	113.423
-2.31668	-8.55421	111.386
-4.7747	-11.3867	112.427
-5.43033	45.7232	83.435
-5.41968	49.5312	82.0288
-11.3685	45.7163	82.7118
-5.37672	42.7035	84.0546
-2.84869	19.2377	87.6304
-3.03273	21.4049	86.4371
-2.61805	16.5153	89.5038
-3.2321	23.3926	85.5948
-3.34713	25.379	85.0381
-5.04562	22.5215	85.0722
-3.26174	-51.4614	93.4827
-2.94052	-52.2752	95.1254
-3.59873	-50.1093	92.0423
-2.93643	-52.4592	96.2791
-3.02728	-52.3136	97.051
-5.34015	-52.3659	95.8104
-3.8807	-50.1352	99.3314
-3.72494	-51.0289	98.7228
-3.36984	-51.7637	97.9779
-3.89805	-45.591	100.179
-3.57057	-47.5616	90.477
-3.20512	-44.0035	89.1353
-19.7847	82.3073	60.7053
-20.7537	89.2618	54.3504
-25.3185	80.7343	59.5899
-19.0131	75.6383	65.5542
-16.8092	46.6088	81.8976
-16.7846	49.4146	81.0479
-22.0705	47.3697	80.8918
-17.1676	43.1197	82.3815
-18.3514	40.2281	82.1953
-20.0364	37.1801	81.5422
-23.4752	40.881	81.2905
-20.9768	35.2366	80.9076
-25.0783	35.9012	80.2601
-17.2286	34.4348	81.5221
-25.2639	26.4226	75.2539
-28.6272	27.1912	75.5783
-22.0266	25.2614	74.7838
-24.6782	27.5521	76.0098
-26.8728	24.9104	74.3748
-23.7632	28.9033	77.0419
-20.6742	28.0578	77.0051
-27.2724	29.5213	76.9667
-44.1429	85.5154	38.9663
-43.1128	79.6607	46.0269
-38.5942	89.0797	41.451
-45.7024	91.0959	29.2431
-30.4426	79.1071	57.8045
-35.9327	76.9507	55.2075
-31.7214	85.2295	51.8134
-27.2519	47.7733	79.5746
-31.9685	46.4415	78.5241
-27.5139	44.5248	80.3995
-29.6435	36.5629	79.73
-29.0252	38.8448	80.2323
-27.9629	41.8462	80.5575
-30.6647	29.5838	76.7402
-34.7465	29.2791	76.0927
-31.4377	28.3586	76.0736
-41.8814	74.324	51.5124
-40.6225	69.0205	56.1577
-47.9751	71.551	46.7024
-37.0992	45.2109	73.5289
-42.6088	42.8903	69.5391
-38.3208	26.2287	74.4373
-40.8958	25.1224	73.1886
-35.3327	27.0543	75.2713
-38.4382	27.2834	74.701
-39.3453	32.4429	75.0768
-43.7148	31.2478	72.8451
-38.9961	30.3815	75.0005
-38.7096	28.5661	74.8671
-39.3253	63.511	60.4135
-45.5387	60.8624	55.7249
-53.7802	69.3341	40.4508
-59.0626	67.4938	32.9248
-52.6978	63.8699	45.4873
-41.5146	22.4358	71.5204
-43.0448	21.0651	69.9392
-43.1533	23.712	71.5016
-44.6203	22.2001	69.9142
-42.1163	23.0639	71.65
-47.5071	29.3324	70.1644
-50.7129	26.5771	66.8516
-16.6865	30.3906	79.8222
-15.7277	31.6523	80.8467
-17.3766	28.838	78.5609
-14.7323	28.669	79.5601
-14.4702	33.1708	81.8563
-12.8	31.3721	81.7795
-18.2062	26.747	76.7305
-19.0607	25.1786	75.3134
-4.99631	39.5527	84.34
-68.8441	-64.1213	-8.6936
-68.6762	-64.66	-15.2206
-70.6262	-58.6514	-6.63484
-79.7789	23.4618	-37.031
-81.0715	17.8468	-31.7845
-80.0758	25.79	-28.792
-78.5788	29.0405	-41.8397
-79.5994	19.5601	-42.7785
-76.8942	-7.45156	-52.5344
-77.7566	-1.61523	-52.5488
-74.6004	-7.65577	-58.1936
-76.0392	-13.4513	-51.0283
-78.2747	4.59132	-52.1579
-80.3991	2.57821	-45.8516
-78.7832	10.1159	-50.2743
-76.217	6.31164	-58.684
-71.7549	-30.8254	-44.9639
-73.2873	-25.0445	-47.3615
-68.5678	-34.2962	-48.9194
-5.78629	55.2473	79.1111
-11.465	55.2353	78.6804
-16.7903	55.5592	77.8064
-17.6549	62.0147	73.955
-20.373	-103.192	53.9146
-14.8842	-104.898	57.7607
-26.5069	-100.809	48.1623
-18.2291	-105.834	46.2227
-46.8145	-86.0616	42.073
-47.644	-83.2397	46.0765
-51.9157	-82.4243	37.1293
-41.149	-89.7522	46.9038
-51.6485	58.1242	49.921
-57.302	55.3402	43.247
-18.2019	68.981	69.7601
-64.2516	65.5612	23.7605
-63.7422	59.0229	29.5875
-68.6476	63.8583	14.1003
-21.5382	97.2176	45.2055
-14.9547	98.9248	45.7555
-22.0905	104.784	33.9733
-27.4883	94.8724	44.5513
-60.9775	38.9674	44.9479
-61.8286	45.6384	40.1022
-45.6852	20.5519	68.2769
-55.9014	26.3789	60.5349
-54.5076	25.1491	62.2061
-56.833	21.5753	58.1576
-52.8822	23.9816	63.7823
-2.02084	-117.756	38.1496
-59.3492	-71.3085	38.2041
-58.2849	-75.2135	34.3887
-53.6871	-75.5423	45.0493
-60.2245	-67.4003	40.9835
-7.87092	-41.7469	98.9406
-7.23811	-39.3982	98.6485
-9.7673	-42.0829	98.4091
-25.8169	-47.2344	87.2969
-22.9729	-45.9444	90.3435
-24.84	-43.6213	88.5129
-10.8711	-38.104	96.8768
-9.86976	-35.7857	96.7042
-13.7979	-38.5633	95.3064
-11.8259	-40.3181	97.0281
-8.29244	-37.5173	97.9275
-34.687	-49.68	79.6659
-33.8907	-46.0356	81.2398
-36.4661	-50.5658	78.1639
-34.7463	-52.9441	78.244
-61.4884	17.212	50.9835
-63.3483	17.9373	47.721
-62.3558	11.1859	50.5429
-59.4217	16.7539	53.9668
-65.2853	18.6654	43.8416
-67.7574	18.6461	38.3552
-48.9458	17.1762	64.4788
-48.9739	15.1605	63.8955
-57.4316	16.3618	56.4678
-82.4077	9.81811	-36.9333
-82.4572	12.3733	-32.9124
-80.9375	11.7817	-41.0469
-82.3546	6.05106	-40.1721
-79.7016	-17.0214	-41.3634
-77.5753	-17.6152	-44.5724
-72.8047	-50.992	-16.9646
-73.1219	-47.7225	-22.8551
-70.6191	-56.8273	-19.6722
-72.5436	-52.8598	-10.6973
-74.7489	-46.505	-14.4877
-82.1547	1.37275	-42.2098
-78.166	-25.6235	6.03592
-77.2794	-26.3114	10.5567
-78.5869	-21.2579	6.40639
-77.6615	-29.7971	5.41847
-73.0039	1.14529	30.9269
-75.4863	-0.174523	22.2206
-73.2532	-6.44084	32.0323
-72.3573	9.30583	29.8656
-51.9041	10.3757	61.4969
-50.1205	8.25607	63.4058
-50.1739	11.9443	62.7714
-48.7632	13.3041	63.8742
-47.2778	12.0424	65.1348
-76.1845	-26.4516	17.0639
-76.6494	-21.3048	17.1141
-75.7182	-31.2764	16.375
-74.8293	-26.3561	24.0075
-23.4459	-13.1532	83.0206
-20.5265	-10.701	84.8955
-22.2417	-7.72399	81.8651
-27.0577	-14.81	81.2284
-32.4288	-15.8059	78.9268
-33.4746	-20.6334	79.5363
-38.8963	-16.6489	76.2969
-17.5608	-8.19053	87.3261
-18.0597	-11.947	89.1572
-14.6103	-5.13087	90.2825
-20.9853	-19.6917	87.8645
-19.6606	-17.1189	89.2953
-16.9665	-19.7366	97.4689
-17.7905	-20.7224	95.6876
-16.6621	-21.7001	96.7807
-15.5794	-18.7488	99.8662
-18.2926	-21.6948	94.0924
-17.7778	-23.862	93.4437
-37.3895	-34.0315	78.9971
-36.2389	-29.7655	79.4867
-38.501	-38.5874	78.4303
-32.9424	-33.3999	81.5355
-34.5836	-25.1127	79.6877
-5.55223	-33.1269	98.5075
-7.0779	-33.1804	97.7205
-6.00165	-35.1491	98.379
-56.8422	-48.9586	57.7524
-55.3202	-55.4032	57.2484
-52.3258	-47.5165	64.0712
-57.9339	-43.0776	58.3179
-28.6595	-40.8935	85.1843
-30.8539	-41.3072	83.7678
-26.327	-40.4624	86.8489
-39.042	-43.2968	77.6134
-35.5962	-42.3964	80.3906
-43.1909	-44.5848	74.0668
-39.1795	-47.946	76.8223
-6.62463	-37.1624	98.4464
-53.3642	-62.0888	56.6431
-50.3093	-67.6134	57.585
-49.4705	-58.858	63.3871
-57.0692	-63.508	50.0247
-58.6523	-27.983	60.9733
-63.8294	-27.4176	53.287
-58.8633	-32.7306	59.9253
-28.3569	-91.946	70.2855
-23.1827	-94.8059	75.2545
-28.796	-88.8118	72.6574
-38.4998	-79.8706	64.8979
-33.8606	-82.6968	69.3791
-37.5083	-75.8429	68.5907
-42.5341	-76.5453	61.8897
-54.3422	-6.26888	63.9285
-48.6178	-6.94161	68.659
-51.9915	-1.3008	64.6253
-44.7442	10.6098	67.3532
-45.765	8.55406	66.9062
-50.2636	1.92685	65.0909
-48.4451	4.42929	65.8143
-45.2716	0.807419	68.9348
-42.7521	14.0224	68.4418
-3.08007	-92.7105	92.2023
-45.6973	-56.1264	68.6818
-41.9496	-53.7284	73.0647
-46.8195	-51.2204	69.0683
-44.0211	-60.4869	68.82
-36.381	-71.6424	71.7171
-32.6696	-74.4203	74.4601
-34.5479	-67.4081	74.8633
-39.2783	-68.1711	70.2805
-42.7669	-6.9185	72.0429
-41.0509	-2.61216	71.8707
-44.2499	-12.0756	72.5649
-47.7595	-45.8807	69.4504
-45.1727	-17.5002	73.081
-10.1168	-82.9487	91.5234
-14.6451	-82.182	88.9968
-10.4334	-78.2308	91.5506
-19.3537	-81.0448	85.7462
-19.2438	-76.3605	86.4735
-23.9346	-79.2497	82.0333
-39.6509	0.408557	71.7964
-33.0489	0.853139	74.0329
-38.3913	2.81417	71.918
-47.0019	6.53227	66.3751
-42.7452	5.30346	69.5387
-37.3913	4.99975	72.0169
-31.1418	5.33327	73.796
-11.747	-2.63292	93.6418
-11.5585	1.72007	90.2148
-12.2141	-6.56362	96.6133
-13.1749	-13.3289	102.821
-13.4632	-14.3318	103.148
-10.4366	-12.3629	107.015
-12.9947	-11.9793	101.592
-11.4238	12.445	81.9174
-11.4308	9.72072	83.9482
-21.0859	-2.11289	80.0092
-2.47869	12.8196	92.4502
-61.957	5.38872	52.5331
-11.478	5.92238	86.9033
-61.0891	-63.0603	43.1087
-65.6695	-60.1528	34.5495
-67.816	-14.5346	47.0852
-70.8442	-13.5258	39.7272
-67.9388	-21.111	46.2704
-66.4994	-38.2536	44.9923
-69.3187	-38.1468	37.9751
-63.0292	-38.1521	51.9684
-67.2005	-32.6127	45.3292
-67.7408	-26.8914	45.6564
-70.5502	-26.8735	38.5695
-18.4737	-97.2125	79.036
-10.4017	-74.1701	91.8574
-14.4604	-73.4149	90.0491
-6.71978	-74.5305	92.998
-18.932	-72.4029	87.4035
-25.559	14.6106	72.9978
-27.3216	2.13657	75.3148
-26.6241	4.84253	74.8229
-26.0266	6.88532	74.4286
-3.34328	-74.6669	93.6125
-6.86037	26.6111	83.4909
-6.61681	24.0099	83.7437
-5.30924	27.1644	84.1853
-7.56408	28.9337	83.3257
-8.19236	25.7055	82.6238
-18.8831	17.0392	71.8988
-18.8349	18.2678	71.9491
-16.1918	17.1566	73.7918
-9.26173	24.5387	81.5922
-10.2496	26.9229	81.4191
-3.51686	27.6739	84.6329
-5.37548	-25.7407	104.561
-5.94848	-24.3751	106.241
-7.65329	-14.9991	111.859
-10.6376	-14.9072	108.109
-7.69391	-13.4352	111.291
