1913
6.01019	-39.1289	101.869
4.58966	-40.2463	103.121
3.27048	-56.5678	99.9966
1.15963	-57.1614	100.077
3.13749	-54.9346	99.3313
3.07953	-53.9376	98.5844
5.16625	-53.3194	98.224
3.14929	-53.393	97.857
1.06732	-54.4659	98.6279
7.00552	-52.1878	97.1035
8.90226	-51.3787	96.0262
6.96753	-51.7459	96.3867
3.13944	-52.9091	96.3534
5.18764	-52.1495	95.5887
0.927241	-53.4876	96.2704
10.6795	-50.4128	94.0434
10.5993	-50.242	93.4843
10.8959	-50.6625	94.4615
13.908	-57.5037	94.7865
14.3483	-58.6328	93.872
13.5479	-56.4412	95.3851
11.4019	-59.1147	96.8063
8.97328	-61.0641	97.7577
9.1947	-62.0857	96.7666
8.80557	-60.1563	98.4391
6.66647	-62.5637	97.8917
3.98856	-63.3029	98.0797
1.52958	-63.7417	98.1889
10.0462	-49.2815	92.3133
8.20153	-49.8092	93.3298
9.71784	-48.9557	90.8528
23.7786	-48.9248	86.103
22.3353	-49.2745	86.3576
19.4702	-49.7823	88.1021
17.9952	-50.2315	89.8137
6.73402	-52.3062	90.2917
6.66849	-51.5722	92.6378
8.78434	-51.6362	89.1303
7.01368	-53.4108	88.8123
6.91838	-51.5049	95.2142
8.70647	-50.7498	93.2707
9.43378	-63.3022	95.4318
12.2557	-61.5962	94.3141
13.1398	-55.2952	95.8391
10.9028	-57.1801	97.8377
14.9659	-60.0249	92.6072
17.3292	-57.9834	90.9962
9.46787	-48.3566	89.9197
7.97189	-48.9695	90.6137
9.71711	-47.1687	88.8121
11.7477	-47.9496	89.146
5.9639	-49.4417	91.2001
4.33655	-49.9443	91.6356
6.20724	-48.0171	89.6835
6.04948	-50.2177	92.9585
10.8787	-43.7055	87.101
8.76613	-44.0124	87.5841
11.8064	-39.5077	85.6414
12.7577	-43.5835	86.6008
20.8215	-53.9931	82.9378
24.2249	-57.2945	80.5375
19.1423	-54.4141	83.8088
2.99695	-57.1122	88.169
5.09067	-56.4364	87.9977
3.44974	-59.7478	86.9575
1.23136	-57.6248	88.1731
6.72571	-44.4328	87.9884
4.66875	-44.9756	88.3106
7.12918	-40.0453	86.8373
7.445	-55.6291	87.5503
8.15114	-58.8019	86.5032
9.73955	-54.9382	86.9252
25.7325	-48.417	78.571
28.4733	-48.1124	75.7635
11.2967	14.2722	77.7334
10.8777	12.8943	79.4729
80.949	-9.44668	-43.8067
80.2399	-13.8924	-43.0539
79.1103	-8.79458	-47.1525
81.565	-4.81215	-43.7983
82.4243	-9.97628	-42.097
80.3398	8.6871	-6.57518
80.7784	11.6454	-10.8031
79.3084	10.742	-1.71077
80.9173	13.8494	-16.0031
80.6649	19.3706	-17.2785
81.3255	8.83497	-17.0697
81.5528	13.5266	-23.0112
74.8999	-34.1377	-34.6016
77.3377	-31.8461	-32.9519
73.8617	-38.4232	-32.039
76.0943	-30.1596	-36.4089
77.1013	-26.4385	-38.4766
74.5122	-28.4127	-41.3361
78.2515	-22.3993	-40.2869
79.3381	-25.2616	-36.6137
83.8871	-9.93623	-41.2069
85.4223	-9.41801	-40.8371
83.2937	-14.1441	-40.3016
84.2639	-4.8905	-41.3872
85.7072	-28.4841	-31.2935
86.8526	-24.3688	-33.3634
86.4104	-28.9409	-30.0733
84.4826	-32.5658	-28.7817
90.2503	-18.5803	-31.3867
90.2326	-18.0216	-30.6095
79.1823	-41.3886	-20.5499
79.6269	-41.6288	-19.8395
78.7144	-42.0915	-18.5222
78.3569	-40.4712	-22.6454
79.9719	-34.1212	-7.91906
79.6465	-34.7574	-7.87487
79.2218	-35.7712	-8.094
90.1722	-17.6494	-30.1985
89.6479	-18.2646	-29.2441
93.159	-2.85781	-34.0364
93.2441	-2.18292	-35.554
93.0225	-4.20872	-32.3838
93.4548	7.41134	-31.582
93.7376	8.78136	-31.6932
93.8682	10.8767	-30.6648
93.2749	10.6495	-28.4493
94.0575	11.3509	-31.0645
93.5082	12.916	-27.5784
83.2239	-10.9121	-8.3549
84.5309	-5.37401	-8.96395
82.6889	-10.1799	-7.00557
82.2761	-15.021	-7.75302
77.94	-27.2565	-1.23229
76.9812	-27.7097	1.57016
77.4078	-31.0616	-1.74049
78.4664	-22.884	-0.717405
81.8715	-22.1762	-10.3594
82.2017	-24.2184	-10.8824
81.8587	-20.1943	-10.492
81.3201	8.31965	-17.0703
81.7348	9.66195	-20.5537
81.3539	8.31584	-16.8624
89.6399	16.0186	-17.6418
90.6622	17.7649	-20.7751
88.7888	16.4307	-18.8073
88.1371	12.8382	-14.6802
90.4124	15.3028	-16.6568
90.2336	18.4862	-25.8046
89.4153	18.2003	-22.7985
90.5252	18.6211	-25.3099
90.7443	17.2563	-29.4645
89.4121	17.438	-27.1649
91.0652	3.18395	-40.0839
90.268	2.70922	-40.2644
91.4171	9.17905	-37.2264
92.1272	3.42872	-39.5504
85.5146	-0.703751	-9.56998
85.8061	-1.95171	-10.2365
93.8714	2.53877	-37.0291
94.3394	7.68845	-34.7912
93.5404	-0.284998	-37.2146
93.9241	2.44249	-37.3961
92.952	13.7577	-23.6105
91.9683	13.1451	-19.6181
92.7345	12.3978	-24.3422
93.052	14.7462	-23.0006
87.0397	0.130581	-12.3838
86.4599	-1.66371	-11.7994
87.6298	2.48959	-13.1112
93.3945	3.19365	-34.3163
93.4937	1.14893	-36.172
90.6261	5.68588	-22.7247
90.1218	4.30877	-21.9444
91.999	5.25862	-26.8906
85.0998	-6.70401	-13.5953
85.266	-6.41594	-14.3073
85.6134	-5.08109	-12.4984
90.0441	-5.6487	-27.647
92.1056	-2.95403	-29.5671
89.7768	-5.20687	-27.0209
89.9222	-6.75357	-27.8049
78.9865	-18.8734	-0.739144
79.7297	-14.2491	-1.59281
78.1053	-19.1111	1.85613
84.511	0.383818	-39.9087
83.3722	-0.186046	-41.0446
84.3844	5.06177	-37.781
85.4972	2.90083	-38.9639
87.8987	7.908	-36.2747
87.6592	11.6691	-33.055
90.2822	12.5975	-34.3669
88.029	3.83618	-39.1802
89.1947	1.71585	-40.2343
88.011	-3.85602	-41.0282
87.5735	-8.91566	-40.6646
81.0947	-24.6224	-35.7514
80.0957	-27.8072	-33.9291
81.9561	-21.332	-37.4344
82.664	-17.8854	-39.0194
81.0078	-18.114	-40.0452
89.0635	-18.2196	-28.2207
79.0997	-30.7832	-32.2155
78.0428	-34.4596	-29.8676
80.3057	-30.4923	-31.7603
78.1091	-38.4116	-25.2603
77.6698	-38.4153	-25.6136
77.2953	-41.9237	-20.6744
78.4728	-41.7965	-15.6752
77.9713	-42.0641	-15.5121
77.4309	-42.2671	-15.2111
90.1362	-7.49984	-28.2836
92.1168	-6.07246	-30.4802
82.0776	-9.57739	-5.88544
81.3393	-9.17883	-4.64249
79.8331	-23.3112	-4.33497
80.1681	-23.475	-5.01917
82.7402	-27.76	-10.6192
83.7047	-29.7669	-12.2318
82.9382	-26.6413	-11.4673
81.6902	-18.0639	-7.2539
82.1196	-18.1964	-9.4819
87.3372	13.4601	-29.8538
84.9459	9.76037	-32.665
86.3545	14.037	-26.5088
84.0201	8.22352	-34.4635
83.6064	7.9332	-35.5527
83.3534	10.314	-30.1874
81.7615	-18.1946	-12.3552
81.9943	-18.1466	-11.4731
92.6235	4.31574	-29.2569
92.4358	2.78875	-28.9149
85.716	-5.68708	-15.7592
85.075	-8.00765	-16.8157
86.7572	-4.41251	-18.4385
89.7429	-4.36616	-26.5163
91.5383	-0.705102	-27.7185
89.1565	-4.32991	-25.1289
6.86086	85.1834	65.979
6.69418	77.894	71.7346
14.8481	84.1532	65.4458
7.25861	92.6046	58.6475
-1.34772	85.573	66.2281
6.39894	70.7074	76.4663
-1.41777	70.7824	76.9052
6.37965	62.9573	80.6772
14.0234	70.2844	75.5377
29.5801	55.284	78.4192
29.3143	50.0543	81.4935
24.7916	55.8435	80.3623
0.34393	-25.2044	105.619
0.867187	-23.9772	107.818
-1.18705	-25.1712	106.089
2.40633	-25.1299	104.125
1.79693	-15.1514	113.116
4.43566	-15.0429	111.995
1.84953	-13.1373	112.537
-0.672054	-15.1789	113.44
1.79156	-16.9733	113.148
1.76864	-18.7976	112.653
-0.659763	-18.8837	113.025
1.67134	-20.5624	111.631
0.072668	-29.2001	98.5666
-1.79332	-29.4449	98.6395
0.985365	-34.5573	98.3486
3.18962	-33.8988	97.8992
-1.17692	-34.9665	98.4108
1.42686	-22.3072	109.981
3.73017	-22.1756	108.553
-0.7363	-22.3374	110.469
1.83192	-10.9688	111.436
4.37975	-11.1691	110.442
1.85882	-8.25257	109.504
-0.586038	-10.8427	111.693
5.44269	45.2686	87.6149
-1.34191	45.9175	88.2315
4.92769	41.9261	88.2009
11.0831	44.8431	87.0062
5.65275	49.3406	86.4989
0.839428	18.6174	88.2383
0.887588	16.0017	89.8653
0.91719	20.786	87.1948
-0.802947	18.9141	88.3231
1.0763	22.784	86.5322
3.082	21.7536	86.0365
1.21945	24.7231	86.208
-0.76769	23.0551	86.671
2.28158	-50.2889	91.7462
-0.0491953	-50.9205	91.8986
2.43856	-48.8328	90.2421
2.2481	-51.3344	94.1136
2.16837	-51.5069	96.3701
-0.00340793	-52.0973	96.2739
4.33082	-50.9764	95.6583
2.24774	-51.0266	98.0793
2.40551	-45.4169	103.881
2.5291	-47.0258	102.928
-0.356936	-45.9479	104.092
2.43917	-49.205	100.871
-0.0936862	-49.5175	101.176
2.23278	-40.9202	103.798
-0.460951	-41.577	104.081
2.48823	-45.283	88.4729
2.23588	-40.8841	87.3594
-0.142284	-45.6265	88.4642
21.4712	82.9492	64.4841
21.0337	76.3942	69.734
27.6043	81.3122	63.1097
22.1315	89.8031	57.589
17.0861	45.2126	86.26
16.2011	42.1704	86.9782
22.7853	45.8856	85.48
16.9818	49.5512	84.9951
16.9134	38.5672	87.1842
18.0256	35.1746	86.8192
22.2384	39.293	86.2923
19.4017	32.9069	85.7873
16.2523	32.4225	86.5716
24.0049	34.064	84.8548
26.4178	24.145	74.6765
25.5249	25.331	75.8921
22.7846	22.945	74.0986
30.1175	24.8645	74.9351
28.1997	22.5793	73.4036
24.0386	26.6905	77.7102
28.1429	27.3666	77.3548
20.7943	25.7716	77.5399
46.6056	85.6888	40.8968
47.6601	91.205	30.7967
40.7712	89.3498	43.6401
46.1216	79.8794	48.2394
33.2174	79.6024	61.0362
34.0399	85.6553	54.6849
39.1428	77.3498	58.0785
28.6456	46.0138	83.7775
28.9677	43.9869	84.3083
35.2217	45.5951	80.1821
30.277	35.5117	83.0376
29.9134	37.2439	83.8055
29.1999	40.7721	84.3972
32.5253	27.5784	76.6931
33.4649	26.2581	75.5742
37.7084	27.2157	75.2888
45.4073	74.5833	53.9332
51.5979	71.619	48.5827
44.6426	69.2977	58.6823
42.1236	44.0278	74.3559
48.571	41.8166	69.3619
41.1179	23.8625	72.7928
41.545	24.9796	73.1332
37.7091	24.7507	74.1447
43.9984	22.6743	70.9874
44.4105	30.7867	73.6135
43.5912	28.5273	73.4414
50.0326	29.4435	69.8263
42.3496	26.46	73.3365
43.7901	63.715	62.8763
50.071	60.9103	57.6088
57.2323	69.2169	41.7309
56.6089	63.6696	46.7578
62.1058	67.0656	33.673
44.3121	19.9095	69.0729
45.964	18.3896	67.0435
46.4472	21.2127	68.8252
48.1385	19.5739	66.7262
45.0722	20.5852	69.1782
54.0386	27.34	66.0573
56.0779	24.5258	62.9775
15.9718	27.801	81.7955
14.0408	26.2223	80.6919
16.9229	26.3914	79.63
14.8608	28.8507	83.4698
13.6449	30.1201	85.1225
11.9839	28.5091	84.0462
17.9338	24.2132	76.7497
18.8063	22.5852	74.6931
4.67499	37.6213	88.2805
-0.365719	39.0392	88.307
66.93	-66.3749	-8.89014
68.5193	-61.1757	-7.07171
67.0987	-66.6406	-15.3694
80.0523	22.4826	-37.5617
79.785	18.6359	-43.2788
78.9251	28.2228	-42.3098
80.4388	24.688	-29.4218
81.2352	16.6882	-32.4417
76.687	-8.41628	-53.0026
75.7264	-14.4809	-51.5075
74.4445	-8.50099	-58.5903
77.6351	-2.54152	-53.0135
78.2448	3.70304	-52.6163
76.2492	5.55446	-59.0663
78.8268	9.23736	-50.7392
80.2954	1.53972	-46.3921
71.0593	-32.0507	-45.4324
67.9194	-35.3967	-49.2963
72.7285	-26.2034	-47.8434
5.85511	55.9363	83.9867
-1.32985	55.526	84.689
12.5289	55.5582	83.256
18.374	55.6425	82.1072
19.8004	62.7122	78.3583
23.9897	-103.328	57.2301
22.1335	-105.153	50.0124
29.999	-100.625	51.9713
18.3957	-105.214	60.1546
48.6896	-85.7584	43.0962
43.7768	-89.6294	49.1877
52.6484	-82.4009	37.1858
49.5158	-83.0484	46.6541
56.0229	57.8223	51.0494
61.2125	54.6612	43.6168
20.4787	69.8434	74.1637
66.827	64.9325	24.0669
70.7076	63.1168	14.0676
66.6408	58.2241	29.671
22.5732	97.6509	47.8145
28.9446	95.2654	47.0719
22.8576	105.138	35.9483
15.5451	99.3889	48.4359
64.6656	37.1825	43.5894
65.3539	44.2648	39.3737
48.6779	17.7784	65.0193
59.8889	23.9307	57.5887
60.094	18.9732	55.0211
58.5108	22.649	59.0614
56.963	21.5077	60.3767
7.02812	-116.929	40.5151
4.63982	-117.037	40.705
58.0297	-73.0039	36.9279
58.8823	-68.9685	39.2602
54.2124	-75.857	44.1615
57.0323	-76.7685	33.7283
5.72619	-37.43	100.247
7.3823	-37.4614	99.6897
5.31078	-35.2248	98.3732
21.4905	-43.1897	90.4207
21.1763	-39.6689	90.3284
18.8264	-41.4279	92.9379
8.75977	-33.8354	96.0985
6.44259	-33.5171	96.8766
9.2326	-35.7267	97.2578
11.3341	-34.382	95.0075
8.18143	-32.1635	95.3192
30.3867	-46.9346	84.0531
29.6231	-50.1714	83.692
32.9793	-48.3058	82.4217
30.5015	-43.5122	84.4412
63.9769	14.7176	48.051
62.1038	14.2578	50.8284
64.4245	8.76109	47.4256
65.5988	15.3709	45.0826
67.2529	16.0452	41.523
69.302	15.9787	36.3531
52.3851	14.2784	60.5033
52.2346	12.1254	59.9401
60.2544	13.9213	53.1693
82.3973	8.6533	-37.5693
82.2779	4.91222	-40.7803
80.9741	10.7421	-41.6161
82.491	11.1487	-33.5855
79.2077	-18.3182	-41.963
77.1238	-18.8156	-45.1196
71.0697	-53.2068	-17.5223
72.8807	-48.8495	-15.1392
70.5526	-55.299	-11.2272
69.0698	-58.8248	-20.057
71.6144	-49.7018	-23.4284
82.0018	0.229051	-42.8069
76.005	-28.5631	4.82737
75.3675	-32.8186	4.24171
76.6078	-24.1086	5.16779
74.9352	-29.331	9.31929
72.4325	-1.42086	29.605
72.5317	6.71422	28.3099
72.1105	-8.97242	30.6207
74.6478	-2.78696	20.8221
54.9396	8.06043	57.6246
53.1663	9.32179	59.0101
52.9193	6.06307	59.7489
51.531	10.4557	60.2834
49.9612	9.22187	61.6614
73.684	-29.4714	15.7588
72.2947	-29.3279	22.7234
73.0992	-34.4262	15.0927
74.347	-24.2602	15.845
23.7092	-10.3391	82.7526
27.6714	-12.0282	81.0191
22.6035	-5.79759	81.47
20.7378	-8.26543	84.3172
33.6399	-13.1946	78.348
40.5458	-13.501	74.5302
34.692	-17.6999	79.0821
17.7007	-6.17162	86.394
14.6142	-3.84036	89.258
18.0448	-9.66686	88.1113
20.8071	-15.7398	86.4515
19.4737	-13.963	87.82
16.2348	-18.2154	96.2271
14.7461	-17.6325	98.8301
15.8993	-20.028	95.4163
17.1397	-18.8066	94.2387
17.7414	-19.3543	92.4511
17.1865	-21.4196	91.6891
36.7667	-30.6345	79.792
31.7949	-30.1963	82.2561
36.73	-35.603	80.1928
36.331	-26.2948	79.6531
35.5631	-22.0336	79.4692
3.75878	-30.7946	96.7806
4.18101	-32.2194	96.9663
5.42425	-30.6403	96.0082
54.7473	-49.1529	57.0818
56.2225	-42.3268	56.9022
50.2177	-46.7841	64.9188
53.3315	-55.8874	57.3354
25.3285	-37.938	86.9964
23.0166	-37.1338	88.2792
27.7086	-38.6262	85.8133
36.6741	-40.9399	80.3711
36.5681	-45.9728	80.3239
40.9649	-42.4891	76.7804
32.8562	-39.9131	82.9528
4.77746	-33.5841	97.4279
52.1062	-62.3324	57.2469
56.1344	-64.1609	48.677
47.7878	-58.7683	65.5723
50.115	-67.5592	58.7248
59.6639	-24.3279	56.8605
58.7814	-29.8609	56.8331
63.6039	-25.7948	49.7432
31.2109	-93.7319	73.0111
31.0391	-90.7718	75.6311
26.5654	-96.7899	76.0939
40.0934	-80.2905	68.8834
43.9301	-76.2695	65.1351
38.1028	-75.5827	73.2061
35.4085	-83.6464	73.6122
58.002	-5.2589	58.6601
55.8178	-1.55097	59.8074
52.2761	-5.36404	64.2497
47.3527	7.88985	64.0659
48.458	6.16824	63.5298
53.7576	0.961144	60.7297
48.5615	0.110135	65.318
51.5228	2.82327	62.0217
45.2954	11.0163	65.2979
6.58602	-95.9678	87.4101
3.71358	-96.1873	87.6455
43.7323	-55.419	72.0128
42.5495	-59.8841	72.4779
44.6539	-50.2944	71.8209
39.7595	-52.482	76.906
36.2518	-70.805	76.2452
38.7388	-67.3264	74.7376
33.6842	-66.0876	79.0076
32.8461	-73.9826	78.3999
45.0099	-5.33595	69.2134
46.6324	-9.09306	69.3661
43.2208	-2.3348	69.3726
45.6254	-44.4383	71.5193
47.936	-13.2377	69.3601
13.8634	-83.7689	87.6613
13.2387	-77.5443	87.967
17.8963	-82.6525	86.3517
21.5288	-81.5251	84.8621
25.0838	-79.56	83.0642
20.525	-75.6458	85.4297
41.7996	-0.219476	69.4071
40.3999	1.52457	69.6645
34.216	-0.0358429	72.5878
49.889	4.44567	62.7956
45.5575	3.28231	66.4195
39.2199	3.02982	69.8441
31.9417	3.30869	72.288
11.5842	-1.74152	92.5484
11.9964	-5.32501	95.2512
11.2278	2.19605	89.4522
12.809	-12.5186	101.374
12.6641	-11.008	100.121
10.1699	-11.9587	105.135
13.0261	-13.5636	101.787
10.7916	11.1795	81.1476
10.8505	8.99369	83.2537
21.4526	-1.61021	79.4536
1.04647	12.541	92.4707
-0.577389	12.8949	92.5351
64.0904	3.42021	48.822
11.046	5.90172	86.1124
59.8125	-64.236	40.7567
63.3578	-62.7815	32.5883
67.4744	-14.9227	44.2235
67.1103	-21.2416	43.5224
69.7479	-15.1131	37.7357
64.782	-39.3716	41.8341
65.7876	-33.0631	42.211
61.6851	-37.6866	48.9813
67.2627	-40.271	35.2086
66.561	-27.0937	42.8209
68.8324	-28.2591	36.1138
22.6197	-99.2046	78.0276
12.2929	-72.5888	88.8223
8.94365	-73.165	89.619
15.8605	-71.7604	87.6845
19.1098	-70.6208	86.4434
25.9928	11.3358	71.286
27.3909	1.31139	74.2657
26.5068	3.14408	73.6882
25.8601	4.52575	73.1906
6.04507	-73.5587	90.0512
3.25766	-73.7817	90.2597
5.27798	25.2678	84.8793
6.87798	24.1397	83.7146
6.13252	27.057	85.0863
3.43462	26.1364	85.7172
5.02653	22.8309	84.7411
16.8856	14.6265	70.6475
16.6184	15.803	70.8573
14.7753	14.8427	72.4728
8.15454	22.7177	82.2531
9.16184	24.8114	82.4591
1.42812	26.8658	86.177
-0.783437	27.1373	86.3026
4.2211	-24.854	102.531
5.10812	-23.5933	104.357
7.32941	-14.8631	109.752
7.37523	-13.2398	109.242
10.3616	-14.7675	106.189
16.4012	-25.2069	88.9126
15.9796	-24.3916	90.1324
13.7544	-26.7089	90.315
7.10202	-11.5008	108.501
5.55	19.6072	84.6022
7.32605	28.9109	85.5962
9.05794	27.85	84.4732
17.0855	17.1856	71.107
10.5069	26.798	83.0991
11.5561	25.6268	81.4771
12.3408	24.3394	79.8712
18.2682	-30.0592	88.0921
15.3707	-30.4993	89.9605
19.2746	-32.9659	88.886
20.5186	-36.3575	89.5866
17.3689	-35.5482	91.4947
16.8113	-47.5852	87.1726
17.326	-46.587	85.986
15.159	-47.742	88.1003
20.3985	-47.1595	90.585
18.8596	-46.3642	93.1526
20.1737	-43.249	82.7811
17.1232	-43.3059	84.7166
22.532	-39.3931	80.1143
12.731	-30.8091	91.8191
10.0923	-30.7478	93.487
13.431	-32.7929	92.5529
14.5223	-35.0208	93.2264
15.0812	-37.3278	94.2954
13.6622	-48.1624	88.9324
13.4821	-46.7301	87.8008
14.8241	-43.2645	85.7404
16.8461	-39.2786	83.5293
7.65846	-30.6176	94.8753
7.20102	-29.1928	94.727
10.0165	-37.9176	98.6217
12.7632	-38.6341	97.1495
17.7168	-11.9276	90.1852
15.0545	-10.1014	94.0237
1.79873	-4.85096	106.735
-0.287787	-4.62296	106.924
12.2644	-8.47253	98.0455
6.12285	-21.696	106.598
8.6633	-21.2981	103.669
11.2215	-21.0509	100.556
12.1229	-19.1486	101.53
13.6091	-21.2972	97.1387
15.0767	-21.8485	94.6513
15.6842	-22.7265	92.7456
15.885	-23.5701	91.2645
12.9719	-14.6042	102.261
12.824	-15.8441	102.494
12.5919	-17.3944	102.238
40.5244	-145.666	13.7061
35.9716	-147.137	16.8656
41.5561	-151.382	12.6039
44.6284	-144.043	10.4641
39.2245	-137.881	15.2562
37.9068	-127.105	17.3841
41.9759	-125.475	13.6878
37.33	-117.602	19.3905
33.5588	-128.579	21.0263
40.2298	-100.801	26.4246
44.2686	-98.4063	21.4319
35.8623	-103.03	31.0082
38.9671	-105.713	22.8226
37.8815	-110.967	20.8986
33.3768	-112.631	25.321
41.954	-108.997	16.6373
41.0678	-63.8325	73.2213
44.408	-67.9497	67.8301
37.6639	-59.6971	77.3599
47.6472	-72.0334	61.044
49.454	-75.995	55.0793
50.0598	-79.6391	50.3093
34.5264	-56.6383	80.1245
35.4502	-53.5765	80.0946
31.2285	-54.3005	82.204
32.8977	-59.4146	80.5511
28.7712	-52.6138	83.5553
27.2299	-54.2649	83.985
47.7329	-96.012	16.7208
49.3868	-91.5891	19.8979
46.6597	-101.028	13.8861
51.0289	-93.7746	11.4029
51.555	-87.3945	23.6565
54.0995	-85.5301	17.1701
53.7359	-83.5964	27.1485
55.5902	-80.1406	30.6376
57.9261	-78.3977	23.5551
45.7933	-123.646	9.8509
47.0263	-134.545	8.31549
49.4445	-122.124	5.80548
45.3108	-114.01	11.18
48.3214	-142.457	7.06741
49.6137	-148.368	5.92003
51.7748	-140.868	3.34871
45.6916	-106.809	12.3329
70.6846	-28.9619	29.5746
70.0517	-34.6194	29.0651
71.2867	-22.8798	30.0703
59.8323	-76.7837	16.8668
58.0768	-80.2154	13.8434
61.4369	-75.2784	9.93894
72.2425	15.3673	27.8325
75.3287	13.3826	17.0868
65.8792	-61.2804	25.1343
67.6479	-59.6818	17.4632
69.3235	-40.3982	28.6687
71.0126	-40.1047	21.8015
71.7152	-15.8655	30.8594
73.5071	-17.2713	23.1509
72.4037	-39.4715	14.5528
73.6492	-38.2689	7.9128
58.9254	-90.0832	-4.66902
58.5737	-95.1104	-5.87538
60.8377	-89.5023	-9.51595
59.4813	-85.6162	-3.13596
56.6798	-90.8847	0.322851
58.3655	-100.699	-6.55649
60.3319	-81.4258	-0.923109
58.503	-82.4722	4.65944
61.9636	-80.6451	-6.59902
61.4155	-77.6184	1.13912
76.5239	-3.83621	12.1768
77.1593	4.02787	9.48738
75.7104	-11.721	14.6377
77.7233	12.3262	6.40816
78.1339	20.1942	3.75357
78.4585	28.2042	0.513255
79.8503	27.45	-10.1798
78.739	36.1896	-3.21146
68.8094	-58.1221	9.473
69.5785	-56.9393	1.61565
74.9832	-18.343	15.8174
76.2231	-19.2036	9.46056
53.0096	-120.526	1.3396
53.9923	-131.375	0.218583
56.4373	-83.9157	10.9038
55.0344	-87.8053	8.08592
55.0408	-139.153	-0.851842
56.186	-144.86	-2.11653
62.0525	-115.47	-16.5644
62.5579	-124.757	-17.9367
62.379	-88.8111	-14.3254
63.431	-86.9141	-19.4307
62.8599	-84.154	-13.3891
63.5581	-79.5408	-12.1381
63.0242	-131.663	-19.4857
63.3983	-137.09	-21.4917
70.0326	-56.4889	-5.48517
74.6922	-36.9546	3.39053
75.7946	-35.1809	0.127185
74.0981	-40.7381	1.87238
77.1653	-19.3989	5.26005
62.6777	-94.4474	-27.4192
61.3966	-90.037	-34.2453
63.1776	-88.1391	-26.3167
64.0188	-82.175	-25.3707
63.5196	-75.5837	-31.4317
67.2781	-65.1494	-21.8851
74.0812	-46.2951	-13.8892
75.4146	-43.5583	-20.4577
58.562	-120.419	-45.4116
58.6907	-127.991	-46.8303
55.2861	-117.597	-52.4307
58.5008	-112.298	-43.8961
72.6189	-44.5824	-28.1825
75.0026	-40.8801	-26.5131
76.6949	-39.1549	-25.8317
31.2263	-148.38	19.7886
30.1097	-140.672	21.742
26.4376	-149.513	22.385
32.3114	-153.912	18.2731
28.2347	-113.932	29.8593
23.0706	-114.934	33.739
27.8744	-120.263	27.6474
29.3766	-109.362	32.0439
35.3669	-97.9589	46.6713
32.8735	-101.163	41.1862
37.4706	-95.27	51.374
30.8154	-105.071	35.863
25.5789	-106.675	40.0794
28.7824	-129.668	24.7304
23.9158	-131.07	28.0366
31.0899	-62.2629	81.1342
27.9412	-58.6038	83.1909
39.0925	-92.8869	55.3682
25.5979	-55.9691	84.6734
23.6925	-57.7756	85.6935
23.8807	-53.894	85.7483
22.5245	-52.5315	86.6146
20.7822	-54.0329	88.0957
29.1609	-77.1412	80.7324
30.0254	-82.2535	79.4186
30.7166	-87.0649	77.6638
15.5448	-50.6678	91.3434
13.5128	-51.2135	93.4064
14.2095	-49.7564	89.9298
17.0067	-49.6576	88.9642
14.1267	-50.0177	88.9248
12.0993	-49.9427	90.8287
14.0918	-50.6493	87.819
14.7391	-51.9948	86.4447
11.807	-50.7741	88.2746
17.274	-54.5887	84.4973
19.499	-57.7666	83.0406
15.0276	-54.2814	85.4215
18.3647	-115.587	36.6186
19.3104	-111.468	38.9522
18.1592	-122.218	34.3825
21.5605	-150.66	24.6733
20.5206	-143.127	27.0957
16.7372	-151.521	26.6043
22.5855	-155.865	22.9256
19.2019	-132.241	30.8813
12.4121	-109.088	46.7403
15.8061	-108.776	45.3069
12.9615	-107.4	54.3733
12.4924	-152.12	27.9782
13.4049	-157.124	26.1919
13.9542	-106.353	62.0168
10.337	-50.2311	92.2492
10.1592	-50.4367	90.4967
10.1612	-51.0595	88.8244
10.4088	-52.0001	87.6857
12.0377	-54.5367	86.2776
13.7355	-58.0651	85.1389
74.1167	46.2252	14.3049
76.9515	44.896	3.38125
74.2886	53.972	9.06987
70.4849	48.2994	24.8853
80.3178	26.379	-20.1079
74.1952	-20.4629	-50.1261
71.4133	-22.2933	-54.9902
52.2543	-96.2249	-55.1304
52.8686	-86.0377	-54.0217
55.2553	-99.4374	-49.6564
52.1281	-106.4	-56.3131
49.1011	-93.8415	-60.0248
52.2589	-115.263	-57.6614
52.6307	-123.671	-58.8889
49.0296	-113.492	-62.3513
59.1967	-84.2821	-41.5305
58.5669	-93.8806	-42.0705
56.5452	-79.6734	-47.8748
60.4734	-75.7876	-40.1495
22.7765	111.835	22.0242
29.6863	108.927	21.7867
22.7132	116.759	6.70778
15.5409	113.891	22.2916
22.5495	101.839	-78.8024
23.1589	110.494	-62.9121
29.6565	99.7988	-76.9078
21.8091	91.0105	-91.9643
15.0919	103.272	-80.2293
21.3761	79.1266	-101.493
28.2399	77.4692	-99.4917
21.1145	65.9706	-108.679
14.4007	79.9031	-103.104
23.2393	116.315	-45.7946
30.4408	113.786	-44.1737
15.721	118.159	-46.8585
23.1368	119.241	-27.9019
7.79264	122.711	-10.8898
-0.202412	123.171	-11.0195
7.70278	120.216	6.47998
15.5121	121.435	-10.5909
7.86398	122.456	-29.1106
20.8575	52.9921	-113.595
27.2866	51.6439	-111.545
20.5408	39.5274	-116.869
14.3406	53.753	-115.061
20.0319	25.4613	-118.674
26.3628	24.4941	-116.481
19.5252	11.5813	-118.846
13.7171	26.3987	-120.187
17.4211	-27.0427	-107.929
23.232	-27.8219	-105.761
17.1122	-38.8544	-100.616
11.8544	-26.9226	-109.092
18.246	-14.3983	-113.77
6.53799	-0.45004	-120.02
0.149188	-0.378356	-120.353
6.75741	12.7103	-121.441
12.7767	-0.874542	-118.999
6.22571	-13.3044	-116.458
15.2694	-86.0788	-83.3107
15.5984	-76.5091	-84.2428
20.5516	-86.8933	-81.9771
15.0453	-95.5564	-82.9781
10.1918	-85.6073	-84.0704
5.06072	-104.094	-83.6698
10.0138	-104.56	-83.3725
5.16584	-113.738	-83.4873
0.289982	-103.853	-83.7638
5.1704	-94.4093	-83.9724
17.277	-48.1952	-94.5879
22.5614	-48.8085	-93.0323
16.9103	-56.5455	-90.0699
11.5697	-47.7014	-95.589
16.1427	-66.117	-86.4963
21.7558	-67.2817	-84.772
10.8665	-65.278	-87.4783
5.57184	-64.9628	-87.918
5.79321	-55.5718	-91.5251
5.31685	-75.5488	-85.5487
0.252831	-65.1231	-87.9601
48.3477	96.517	18.6653
54.161	90.9109	17.2932
49.0976	100.591	4.98375
42.4153	101.234	20.1153
47.2534	70.3499	-89.4822
52.7161	67.1908	-85.2564
46.9314	58.4218	-96.2599
41.4094	73.0365	-93.2971
47.6073	81.165	-80.3242
47.9122	90.5789	-68.3233
42.2285	94.229	-71.5585
48.5208	97.523	-54.2006
53.4478	86.1253	-64.7606
49.1923	101.694	-39.4755
54.966	95.9712	-37.7487
43.3557	106.429	-41.0544
49.967	103.084	-24.6347
49.719	102.855	-9.672
43.5963	108.002	-9.49503
55.5668	96.9424	-9.82996
46.3228	46.3208	-101.164
45.6672	33.7414	-104.414
40.4375	48.2519	-105.086
51.7469	44.0626	-96.8696
44.7158	20.9892	-106.24
50.0427	19.5087	-101.911
43.7437	8.06003	-106.356
39.0726	22.1443	-110.063
42.439	-4.47247	-104.915
41.1044	-17.3993	-101.41
37.1986	-4.10092	-108.552
47.2462	-5.2647	-100.736
40.261	-30.0714	-95.589
44.9737	-29.8605	-91.7721
39.6519	-41.1162	-89.2514
34.9498	-29.4013	-99.4958
39.0342	-50.7202	-83.6258
38.3153	-60.3018	-78.7752
33.8387	-50.4508	-87.3192
43.6196	-50.9965	-79.3746
36.2128	-88.9158	-73.9894
35.2989	-98.8323	-74.9222
31.1474	-88.4117	-77.3728
37.135	-79.3181	-73.87
40.8128	-89.9722	-69.9971
24.9824	-106.19	-80.451
25.1596	-115.022	-80.6601
19.9035	-105.457	-81.8774
25.2798	-97.1296	-80.2105
30.1319	-107.145	-78.3635
37.7034	-69.9303	-75.4303
42.3744	-70.3722	-70.9226
32.7981	-69.2064	-79.1591
67.4773	69.5394	-51.4883
68.5907	73.3392	-40.0176
71.4777	62.677	-45.7211
66.6686	63.4982	-61.9441
63.1669	75.58	-56.6675
69.3945	75.4193	-28.6569
73.206	67.4909	-23.5766
65.0698	82.8388	-32.7142
69.8384	76.206	-17.4408
69.0683	76.7723	-6.6012
71.954	69.2103	-1.9159
65.3273	83.8197	-8.81588
56.5184	41.7695	-92.3592
57.1732	52.9555	-87.4192
60.8472	39.0642	-87.5536
55.8145	29.9296	-95.5887
57.4941	63.8762	-80.8012
57.8878	73.3462	-72.1252
61.9752	59.9219	-75.9061
51.9844	-6.02502	-95.7958
53.7593	5.98586	-97.1346
56.5187	-6.92387	-90.2811
50.241	-18.1154	-92.7031
54.8803	17.8258	-97.208
59.3483	16.3953	-92.1332
49.1722	-29.4424	-87.6581
53.2652	-29.4784	-82.5724
48.6143	-40.6381	-80.9438
47.6978	-50.4197	-75.1357
51.3536	-48.8637	-71.1337
47.043	-71.132	-65.302
51.0113	-73.7633	-58.8309
46.108	-81.2197	-64.4794
77.3322	34.2992	-47.3387
76.522	28.417	-54.8045
75.3601	39.7979	-52.9538
59.3747	84.7204	16.5322
60.0585	88.7826	3.44994
78.4078	43.9661	-7.47013
77.6979	51.7754	-12.5174
66.9739	-7.88887	-74.4948
63.8737	-7.92165	-79.6272
68.4538	1.58227	-75.9041
69.8407	-8.29582	-68.9487
65.1232	-17.7906	-71.7048
69.2749	11.1364	-76.535
66.3394	12.9707	-81.9732
70.1278	20.1924	-75.037
72.0575	8.97664	-70.4896
70.9611	29.3542	-71.6593
67.9653	32.8865	-77.2952
71.8961	37.7073	-66.1655
73.6147	25.4413	-65.7558
59.5672	-43.1051	-60.4566
56.9202	-45.3291	-63.9744
61.2588	-35.3608	-64.329
62.2166	-40.9551	-56.689
58.1	-50.9918	-56.73
68.6988	-23.893	-59.6296
66.7988	-31.2837	-56.375
66.0619	-25.4714	-63.7676
70.6093	-16.3687	-61.9831
54.0745	-76.4995	-53.231
55.4186	-67.3865	-53.2598
76.2581	-39.2038	-5.57324
76.7951	-35.6002	-3.47232
74.6128	-42.2684	-3.36631
76.7278	-33.8606	-1.97326
80.5894	-8.00234	-3.31109
81.4013	-2.69034	-5.41919
93.1232	3.32346	-38.8169
93.2714	9.15318	-36.365
93.7428	2.91919	-38.1144
82.8782	-36.8085	-25.6064
81.604	-39.7133	-22.258
92.8715	13.8462	-32.795
91.9158	14.16	-33.2842
92.1992	16.9521	-28.6442
93.7467	13.1744	-32.2427
86.3971	8.54437	-12.117
85.0734	8.53549	-12.7855
91.4468	18.2178	-24.3707
92.3623	17.5014	-23.6358
88.1135	-19.8792	-35.7084
84.1448	-37.6521	-18.2176
83.4545	-37.57	-15.5562
82.45	-39.7886	-18.7288
81.8501	-0.0613371	-7.14281
88.0882	16.3843	-19.8895
86.1592	13.237	-17.2458
87.0131	15.5192	-21.4604
83.7638	8.825	-14.2123
82.894	9.27493	-15.796
91.2605	14.0021	-33.5039
82.1456	9.03232	-17.2345
83.4105	11.0646	-19.8726
84.9792	13.0394	-23.4406
82.8247	10.8748	-24.5247
87.2666	-28.5225	-28.6082
87.1867	-30.2558	-21.0175
80.8972	-41.014	-19.2108
82.6553	-36.7365	-13.2784
83.8443	-33.7915	-13.2219
84.8248	-31.3753	-14.0742
85.3407	-29.7835	-14.9859
93.9274	2.60957	-37.7061
94.3584	8.23959	-35.3418
90.8819	14.7067	-16.2165
91.0507	14.0622	-15.9327
92.0889	16.425	-19.2756
91.0172	13.4443	-15.7928
92.2824	15.2371	-18.7934
90.8348	12.3537	-15.9706
94.1191	12.6244	-31.8883
93.5669	15.4872	-27.739
94.2306	12.1132	-31.7526
92.9137	16.7885	-23.1608
93.1321	16.187	-23.0406
93.1358	15.5879	-22.7752
93.7052	14.4244	-27.3758
94.1853	11.7285	-31.437
93.3502	-1.79681	-36.6969
90.5581	11.0363	-16.525
87.917	3.66749	-14.1155
92.5233	10.8963	-24.9811
92.7745	-5.02564	-31.6145
92.8305	-3.12792	-31.2933
92.7582	-1.25034	-30.6888
92.5508	0.244206	-29.7704
92.1939	1.45306	-28.5109
91.2677	2.25969	-25.9644
83.2515	-26.2541	-12.6982
84.4951	-27.8407	-14.3823
85.9077	-3.08975	-11.1725
82.1123	-18.1758	-10.6773
85.4582	-29.0461	-15.4774
33.9942	25.1405	74.8247
34.783	92.6881	45.606
35.655	99.36	34.3381
7.48011	100.69	48.6898
7.62995	108.491	36.4808
-0.99069	101.25	48.7361
36.1136	105.502	21.0087
36.5039	110.095	6.36702
7.65837	115.212	22.4223
-0.528828	115.76	22.3278
22.8296	119.346	-10.1803
30.0693	116.365	-9.77978
36.8915	112.637	-9.64891
37.1911	112.793	-26.0203
66.1892	51.2228	34.5379
73.5538	61.5652	3.33232
75.4334	60.4383	-7.25984
60.6318	90.798	-9.89474
60.9173	90.7961	-22.8148
7.89915	119.302	-47.41
7.85691	113.199	-64.9109
-0.036076	119.704	-47.5648
36.9438	110.63	-42.3944
36.6671	105.385	-59.0248
75.825	59.5633	-18.0407
75.5718	58.2595	-28.9244
60.0658	89.8978	-35.698
59.2152	86.7712	-48.3903
74.6205	55.7495	-39.7256
73.679	51.5268	-49.9761
72.7362	45.5665	-58.8057
69.6573	50.7093	-64.7671
45.2864	-91.9487	-65.1381
44.6683	-102.009	-66.4392
44.7781	-111.382	-67.4325
44.9781	-119.983	-68.5984
39.8848	-109.421	-72.05
7.59217	104.23	-80.885
7.36006	92.7874	-94.3488
0.0743274	104.436	-81.2687
7.35974	80.3353	-104.024
7.42338	67.2115	-111.041
0.138621	80.4555	-104.334
7.44568	54.1862	-115.942
7.3063	41.0047	-119.216
0.161971	54.3732	-116.22
7.0173	27.0411	-121.113
0.168326	27.0681	-121.439
18.9514	-1.55427	-117.306
25.1073	-2.50355	-114.948
5.89118	-26.7113	-109.888
5.8792	-38.9635	-101.8
0.136288	-26.8231	-110.03
5.87722	-47.791	-95.8518
0.192992	-47.984	-95.8057
5.2543	-85.1029	-84.466
0.290927	-84.863	-84.5866
34.9123	75.4519	-96.751
35.4293	87.0673	-87.2639
34.4966	62.8347	-103.72
36.0107	97.258	-74.6497
33.9308	50.1119	-108.637
33.4188	36.9738	-111.848
32.7772	23.471	-113.572
32.1481	9.7497	-113.617
31.2971	-3.3416	-111.979
30.2565	-16.1443	-108.462
29.1574	-28.6017	-102.967
28.3675	-40.0079	-96.459
28.2353	-49.6504	-90.5852
28.065	-58.7652	-85.7519
27.3424	-68.2367	-82.385
26.6532	-78.1078	-80.4841
26.0056	-87.5915	-79.9838
35.1823	-108.102	-75.5569
35.4438	-116.935	-76.1472
58.3581	81.3541	-60.9282
66.0065	55.8565	-70.3638
65.3856	46.2256	-77.4042
64.565	36.3456	-82.6073
63.813	25.6415	-85.8652
63.0218	14.8609	-87.2092
62.0648	3.67945	-86.6403
60.3573	-7.66461	-84.9287
58.4777	-18.566	-81.9899
56.7715	-28.6686	-77.9884
60.0685	-28.1295	-72.945
55.4348	-38.5837	-72.6356
54.2312	-47.1195	-67.6416
56.9168	-59.2105	-53.877
59.0524	-57.7321	-50.5075
75.641	22.1522	-60.2954
74.963	14.7687	-63.4609
77.535	18.2658	-54.2967
72.1757	-8.431	-63.9908
73.4461	-0.498218	-64.8642
63.0908	-26.9167	-68.38
74.2445	7.44156	-65.0114
64.9023	-38.5964	-53.0277
63.2668	-45.8789	-49.8402
20.4603	-107.923	43.3911
62.8801	-73.8756	3.23326
53.9869	-92.0725	5.94355
11.1928	-43.4443	101.291
13.927	-44.3234	98.9665
16.806	-45.2864	95.5794
8.13113	-57.1804	99.3238
8.38702	-58.2595	99.2213
8.61652	-59.2191	98.9126
21.6254	-59.6456	86.9349
20.0952	-57.471	88.4818
19.2353	-56.0294	89.474
15.9471	-40.0097	95.0194
36.0454	-50.1155	80.2694
28.3318	-29.4829	83.4509
29.1874	-34.3574	84.181
29.9463	-39.2693	84.5924
57.6873	-35.7844	56.7001
19.1854	21.2982	73.3502
79.2447	14.4481	-47.9096
81.9553	12.814	-28.7606
82.6	10.8101	-26.3987
73.2014	-45.202	0.0798169
25.8687	10.0569	71.6609
54.776	38.7309	63.5052
7.14765	-28.0549	94.7367
47.0524	16.8225	65.1619
11.0232	-26.7256	92.5281
82.482	10.5967	-25.3482
58.3817	-103.336	-42.9776
62.7153	-67.4262	-38.2786
61.7714	-60.6346	-43.4319
61.7106	-54.608	-47.1282
22.0837	-22.3122	84.4889
11.3526	-51.6723	95.4112
19.0992	-49.4157	87.6306
6.21354	-50.4437	95.2868
-69.7511	-46.1711	13.2726
-70.7096	-41.5567	14.6732
-71.0802	-44.3627	6.16685
-68.7176	-50.485	11.8171
-68.1732	-47.8608	21.2951
-57.1832	-116.562	-8.59605
-56.7499	-106.186	-8.14777
-59.2833	-115.122	-12.9876
-58.0664	-126.873	-9.59281
-54.4991	-117.841	-4.32547
-58.9715	-134.302	-10.7114
-56.5465	-136.275	-6.11698
-60.7273	-132.39	-15.338
-59.7462	-140.121	-11.8031
-50.5193	-101.074	1.72367
-53.9754	-99.6587	-3.13274
-50.5764	-108.855	0.764948
-46.926	-103.013	6.27139
-51.0707	-94.9028	2.90488
-60.3508	-97.2298	-16.0175
-58.8209	-97.8973	-11.7765
-60.5558	-91.6544	-15.5368
-61.2794	-95.8589	-21.006
-60.3374	-104.355	-16.5849
-62.1385	-64.8341	22.1652
-63.493	-63.8635	14.9333
-60.2614	-69.0617	19.7131
-59.9997	-66.2312	29.2199
-63.5287	-60.9941	24.2952
-73.1081	32.6848	24.9584
-76.4984	31.0612	13.1218
-72.5963	25.0601	28.0207
-69.0985	35.7582	35.9105
-73.9715	40.6091	20.4032
-78.7963	42.6615	-28.4235
-79.9637	35.3109	-23.5754
-79.2372	44.4839	-17.7459
-77.1933	49.6696	-33.5995
-78.1944	39.5905	-38.1491
-3.6903	-117.079	39.4595
-3.51404	-113.049	41.8373
-7.52977	-116.801	38.2742
-5.04082	-123.691	37.5756
-0.725635	-117.105	40.1982
-7.146	-134.209	34.0379
-8.78127	-144.809	30.1894
-3.79481	-134.416	35.2134
-10.8325	-133.303	32.4827
-2.21901	-152.762	29.3598
-2.7952	-157.65	27.7794
-1.60694	-145.489	31.8501
-5.93509	-152.42	28.7896
-66.7292	-52.9123	-32.4011
-67.6468	-45.3538	-36.5097
-64.0738	-59.0433	-34.8595
-66.1101	-59.1974	-27.269
-69.315	-46.7923	-30.0088
-68.619	-39.9479	-39.5183
-71.7621	-35.2939	-36.3049
-69.5651	-35.2372	-41.9482
-64.9535	-45.7833	-42.9613
-61.7276	-125.25	-31.3993
-62.2204	-128.393	-25.0749
-60.2404	-122.41	-38.0719
-61.7694	-131.892	-33.622
-0.689106	-134.714	35.8669
0.701723	-124.089	39.274
-66.2543	-49.0428	28.4142
-65.322	-53.6476	27.3836
-63.823	-49.4972	35.2787
-67.3642	-43.7037	29.0375
-64.6357	-62.6606	7.3092
-66.2019	-58.5624	8.89706
-65.4027	-62.1848	-0.665632
-62.9312	-66.7054	5.36578
-6.0661	-95.167	86.1221
-6.31703	-90.2457	87.4091
-10.7705	-94.164	84.5414
-6.11987	-99.208	83.8598
-2.0443	-95.6927	87.18
-15.5433	-92.2513	82.7219
-15.3278	-87.4029	84.1337
-20.0304	-89.4467	80.6947
-15.5135	-96.4139	80.6361
0.498843	-85.0434	89.2447
0.789235	-91.0064	88.9273
0.278702	-79.0323	89.3521
-2.94742	-84.9286	88.737
-6.35753	-101.902	81.1481
-2.49871	-102.348	82.1501
-10.9539	-100.926	79.7921
-7.10698	-103.67	77.732
-8.11285	-104.737	73.4435
-8.49135	-105.338	68.3461
-3.89957	-105.529	73.986
-16.7891	2.49992	81.1047
-14.2355	4.52706	83.2936
-16.2031	6.1068	78.928
-19.3967	0.991959	79.1283
-17.5278	-1.29677	83.1261
-47.4611	-24.2312	70.1456
-47.4488	-29.1826	69.9836
-41.5655	-23.6596	74.8356
-47.3056	-19.3013	70.0377
-53.3863	-24.7182	64.1052
-59.5306	-14.3869	57.7844
-59.4319	-19.8974	57.3723
-53.4982	-14.3158	64.2483
-58.9035	-8.92278	58.6054
-64.4868	-14.4416	50.918
-69.1815	2.83746	42.2201
-67.0981	4.96856	46.1216
-68.5705	10.5047	42.0523
-70.8245	1.54448	37.8191
-46.7316	-34.2994	70.0727
-41.0543	-33.4023	75.4702
-51.7992	-35.442	63.7795
-45.3332	-39.7704	70.6016
-2.00303	3.47828	99.9347
-3.93423	3.05494	99.2181
-2.11865	-0.974288	103.541
-2.07658	8.36621	95.9315
-33.8838	70.2873	70.516
-34.6399	75.8259	66.1541
-39.376	68.8529	67.525
-32.8458	63.853	75.3269
-28.6721	71.0181	72.7864
-0.0725273	-107.378	63.1169
-0.399746	-106.693	69.3305
-3.60392	-107.005	62.5274
0.726333	-108.226	55.6733
-60.5393	-49.6505	42.6104
-62.2266	-43.782	42.5118
-59.0996	-55.2263	42.284
-56.8296	-49.2834	49.9877
0.708005	-102.609	82.6134
0.179567	-104.664	78.7622
1.05009	-99.9693	85.3758
-0.27265	-105.935	74.2737
-36.2996	-85.5302	62.5268
-36.1768	-82.2586	66.0888
-41.5609	-81.727	56.5275
-35.8158	-88.5129	58.9604
-31.2152	-88.8046	67.9919
-40.8738	-91.0292	35.0686
-36.1104	-94.1728	40.4349
-43.3706	-86.9934	39.824
-45.1686	-87.8037	29.4191
-38.3551	-95.5119	29.6321
1.79451	-109.682	47.9674
2.50855	-112.764	42.8071
-1.13094	-109.784	47.2736
-7.43874	-5.95369	104.122
-4.77209	-5.23844	105.867
-6.86256	-2.03194	100.949
-10.4343	-7.04393	101.225
-7.93926	-9.09499	106.686
-26.4153	-18.7992	82.0104
-23.3355	-15.2335	83.3389
-24.8827	-13.5815	81.9033
-29.8695	-21.3112	80.7583
-24.1258	-56.7614	85.1855
-21.1272	-57.0646	86.4542
-22.4088	-55.8586	86.21
-13.727	-25.4184	93.0359
-15.7016	-25.3722	90.9375
-13.02	-26.4643	92.5381
-15.3184	-23.8968	93.1613
-13.1847	-29.6363	90.8202
-11.2017	-29.4482	92.4867
-13.1077	-28.6855	90.9833
-15.7451	-29.4722	88.7379
-13.5213	-31.0557	90.8214
-3.21811	-27.2274	100.929
-4.89955	-27.0436	99.9786
-3.40165	-28.2613	99.3525
-3.06527	-26.2387	103.021
-18.3658	-28.4141	86.8063
-18.5857	-29.9433	86.8645
-18.0399	-27.4	87.1554
-20.5848	-26.5348	85.3334
-8.23059	-17.8237	109.327
-8.37142	-16.1787	109.762
-11.2567	-17.4624	105.569
-8.02853	-19.7171	108.19
-5.55421	-18.3959	111.503
-20.7992	-69.4647	83.8007
-22.3701	-73.3488	82.212
-17.2697	-71.2049	85.2276
-18.933	-65.9587	85.7324
-23.971	-67.3765	82.5431
-23.8639	-50.6126	87.7009
-25.9144	-51.2398	86.1596
-21.9616	-49.8354	89.4532
-24.3473	-46.6256	87.978
-3.83759	-32.1339	97.3817
-3.7481	-30.5443	97.6775
-5.4977	-31.9789	96.771
-3.64307	-33.6918	97.5947
-6.45642	2.14412	97.6221
-6.45348	6.28417	94.0659
-9.42686	0.536866	95.1107
-19.8488	-16.9419	89.3294
-20.1938	-16.2938	87.9962
-20.0314	-18.3481	88.4669
-19.2868	-16.4705	91.5201
-19.0705	-15.4747	91.6304
-6.59176	-28.8287	96.7024
-5.24652	-28.9908	97.6374
-6.52872	-27.8104	97.4086
-7.94059	-28.9724	95.4651
-6.52359	-30.2547	96.2825
-6.32164	-26.9329	98.6661
-6.26666	-25.9584	100.419
-18.5119	-15.7645	93.6764
-18.9505	-17.3311	92.6264
-18.23	-14.9016	94.002
-19.9194	-21.0181	87.5768
-19.2369	-23.6972	87.2686
-19.3012	-20.0048	89.8131
-2.68916	-38.9946	101.336
-3.07127	-36.8019	99.2434
-4.90111	-39.0828	100.722
-2.80323	-40.6606	102.956
-23.2055	-31.8075	84.9597
-23.0004	-27.4485	84.0673
-25.0505	-31.7832	84.1486
-23.4077	-36.7659	86.5546
-21.1442	-32.1545	86.0747
-6.03473	-69.1391	91.662
-9.40424	-68.3263	90.6396
-6.28365	-71.2675	90.1734
-3.01504	-69.2658	92.4158
-5.80787	-67.4301	93.3695
-18.46	-52.6202	92.1159
-19.3607	-50.7941	91.8733
-19.8855	-54.0891	89.1131
-18.369	-53.4291	91.6936
-17.9639	-14.2647	93.9132
-16.4121	-13.3405	96.6721
-17.9893	-13.3959	92.5182
-12.8375	-66.7957	89.4009
-12.3302	-65.1278	90.9182
-15.5397	-65.2948	88.2331
-13.1032	-69.2186	88.0017
-0.293414	-68.9757	92.9332
-0.517975	-67.5126	94.3966
0.00311702	-70.8845	91.547
-61.9914	30.2326	56.4733
-62.549	31.3593	54.8689
-63.2456	24.2445	52.4135
-61.2449	29.3728	57.9882
-43.777	55.7492	71.0782
-44.597	61.1827	67.2891
-49.5133	53.1626	66.218
-43.135	50.8174	74.3237
-38.3801	57.3837	75.398
-55.1037	49.8235	60.651
-55.9236	55.2572	56.5136
-60.2387	45.7059	53.8921
-54.716	45.491	63.8348
-43.4148	43.2296	76.7987
-43.124	45.7301	76.4781
-43.8304	40.5012	76.6268
-38.5669	44.5786	81.563
-63.5431	32.5283	51.953
-65.8753	25.9287	46.4265
-59.6666	38.433	59.4475
-64.141	35.2777	49.3445
-25.6466	33.1788	81.6786
-21.9547	32.1108	81.978
-25.12	34.6968	82.8027
-29.8077	33.8141	80.857
-26.2741	31.4218	80.0698
-6.80728	16.1589	86.1792
-6.74021	13.6964	87.7933
-4.34278	17.8018	87.6222
-6.90168	18.1643	85.085
-9.25926	14.0391	83.916
-30.8207	-3.71364	75.0653
-25.0558	-2.15494	77.0046
-29.1469	-0.197648	74.5003
-37.9799	-4.35388	72.4678
-32.5166	-7.78907	75.8965
-59.5522	8.51321	55.3537
-57.1753	5.43853	58.18
-57.0771	10.1664	57.5326
-60.438	12.7283	54.2136
-61.7752	7.141	53.2125
-6.53144	10.3215	90.6061
-4.04046	11.839	91.9107
-9.16823	8.30812	88.5887
-44.2907	38.2771	76.2226
-44.2295	36.24	75.882
-38.9564	39.5747	80.6096
-50.1135	37.3375	71.9622
-55.3464	35.4632	67.3225
-58.4789	32.4801	63.3459
-54.8214	33.4377	67.722
-56.7999	17.7957	58.6814
-58.5983	17.7912	56.9209
-56.1433	14.4682	58.4133
-54.84	17.8088	60.4012
-57.268	21.6612	59.9593
-45.3196	22.2104	69.6101
-43.6111	23.2034	71.1379
-46.7838	21.0433	67.8527
-41.6852	24.0919	72.4085
-39.374	24.7465	73.3917
-41.8137	24.9717	72.8509
-44.0139	24.0639	71.478
-39.2096	25.6243	73.871
-36.5832	25.1377	73.9454
-33.6469	25.0077	74.0472
-36.2542	25.9402	74.3901
-33.0946	25.7167	74.4299
-30.8446	24.4208	73.7692
-28.2423	23.3966	73.2601
-25.5971	21.9649	72.4479
-23.2248	20.491	71.5496
-24.294	22.5578	72.7358
-27.0814	23.9381	73.5503
-21.8914	20.988	71.8769
-21.6421	19.1634	70.8388
-22.9007	22.9537	73.1094
-25.9654	24.5986	74.0572
-35.9597	26.8666	74.9452
-32.5531	26.5557	75.0019
-50.0509	16.5836	63.5859
-48.9691	15.6583	64.2783
-34.2732	34.084	79.8331
-34.3703	32.2141	78.5908
-34.1643	36.0723	80.9391
-39.175	34.012	78.1361
-50.7656	27.4709	69.1323
-48.7885	25.7224	69.7144
-47.437	28.7148	71.9005
-52.6658	29.4987	68.5169
-39.3715	8.49274	70.527
-32.5958	8.40222	72.2947
-44.5703	9.46685	67.972
-39.7693	6.95529	70.3126
-26.7373	9.52428	72.6054
-26.6639	7.93058	72.9069
-22.8004	10.8178	72.4382
-18.883	14.2707	71.9689
-19.7221	13.1061	72.1827
-18.4262	15.1685	71.8097
-38.761	11.4151	70.8669
-32.9209	11.409	72.1478
-43.3516	12.5224	68.8143
-22.2894	14.3285	70.9705
-21.4357	14.8842	70.7258
-24.0536	13.4763	71.4112
-20.7444	15.3463	70.6605
-20.1192	15.9547	70.6973
-15.2374	22.3536	76.1569
-14.3041	24.1959	78.2502
-17.1549	24.2689	76.3874
-16.5219	20.5221	73.8285
-18.1425	16.5806	71.7739
-29.1624	25.7955	74.6589
-17.4297	19.8538	72.7764
-18.8086	21.4957	73.0394
-16.8138	18.4009	72.7552
-38.7254	12.6333	70.9742
-32.9364	12.6319	72.1046
-22.5721	15.1824	70.434
-24.2154	14.6933	70.9016
-21.7206	15.4579	70.2973
-21.2336	15.8321	70.1652
-47.7801	19.8463	66.1829
-4.14596	31.5348	86.5727
-5.0175	34.3503	87.0103
-6.86992	31.0696	85.9291
-3.39813	29.2002	86.2499
-19.8985	5.55273	75.5957
-22.8543	4.23123	74.8345
-20.5978	3.08836	76.6586
-17.9122	6.93867	76.3362
-19.6221	7.41597	74.7674
-15.82	8.54251	77.5266
-13.7234	10.332	79.1871
-16.0375	13.6331	74.334
-16.3519	15.2815	73.4269
-14.2891	14.3021	75.9796
-10.7884	21.3996	79.9266
-10.066	22.4171	81.0678
-11.9481	23.4214	79.6703
-20.7477	11.9779	72.3519
-20.0576	10.6902	73.1388
-19.6207	9.12416	73.949
-22.214	7.71662	73.5868
-12.5013	-54.8523	90.0962
-10.5415	-54.262	90.8479
-14.8993	-55.3788	89.5454
-12.323	-54.6923	89.498
-16.5753	-55.7317	88.0762
-16.057	-55.5479	87.9192
-2.84596	-43.5219	104.4
-2.89453	-44.7508	104.338
-2.86048	-42.4562	104.179
-5.28858	-43.827	103.836
-7.10633	-47.6712	102.752
-8.64002	-49.0172	101.642
-6.95474	-49.3726	101.833
-5.4061	-46.8692	103.404
-7.16715	-46.0244	103.272
-10.8497	-50.2489	99.6765
-13.3073	-51.5929	97.207
-10.4877	-51.7386	98.301
-11.0744	-48.9369	100.507
-7.20599	-44.5811	103.267
-7.17712	-43.307	103.053
-8.98974	-46.03	102.437
-10.8833	-44.7328	100.677
-11.2107	-46.2626	100.869
-8.5399	-43.3279	102.158
-10.7542	-43.2919	100.049
-15.071	-53.1108	94.3509
-15.7422	-52.0074	95.225
-6.28535	-51.8027	99.08
-7.76027	-52.6739	97.6365
-5.64137	-53.2369	96.4377
-4.70783	-51.1763	99.9571
-9.82781	-52.9297	96.5248
-8.90629	-53.8156	94.0747
-18.6003	-54.7573	89.613
-20.0902	-55.8705	87.1962
-12.8142	-55.8516	90.9911
-13.1226	-56.0885	91.2707
-10.8254	-55.5111	92.3606
-12.5549	-55.7277	90.6725
-14.5161	-57.4765	91.5994
-12.7614	-57.8342	93.077
-14.0396	-57.0002	91.6579
-10.1853	-58.3634	95.2636
-10.7077	-59.2099	95.0747
-7.76923	-59.0158	97.288
-9.79998	-57.5505	95.156
-4.9933	-57.3001	98.3043
-2.78296	-57.5853	99.4299
-4.93012	-55.8314	97.5622
-7.11873	-56.6372	96.7138
-5.17886	-58.8934	98.7625
-0.78472	-60.0309	100.198
-0.755869	-58.9622	100.212
-2.76583	-60.2716	99.805
-0.839725	-61.0433	99.9749
-16.5672	-57.2363	86.7326
-16.5954	-56.691	87.6575
-14.3719	-57.1019	87.8698
-16.6849	-58.467	85.5563
-1.02995	-54.7579	91.0902
-1.185	-53.9162	93.8834
-0.739169	-55.9289	89.5209
-2.90201	-55.0133	90.6908
-0.869437	-62.1078	99.5606
-2.94166	-62.3913	99.2679
-0.940365	-63.0842	98.9886
-0.698102	-66.1962	95.9387
-0.870292	-65.0883	97.2212
-2.99992	-66.2109	95.7813
-7.0498	-42.4779	102.685
-5.1819	-41.7803	103.123
-6.62813	-41.2193	101.947
-0.837743	-57.6575	99.9605
-0.889767	-56.0368	99.3062
-0.916988	-54.9647	98.525
-1.12964	-54.4313	97.706
-3.0454	-55.313	98.0559
-4.94127	-55.1146	96.8558
-4.97377	-54.6816	96.1307
-6.71255	-55.1582	95.5684
-1.26337	-53.9737	96.1489
-3.32587	-54.2416	95.4842
-8.39264	-55.1027	93.8328
-8.6407	-55.4336	94.1939
-8.36946	-54.9156	93.2988
-11.5164	-61.9163	94.0574
-11.7314	-62.7012	93.372
-8.56157	-62.8267	96.2571
-11.2877	-61.1116	94.5391
-5.70974	-63.8792	97.5007
-5.71671	-64.757	96.5944
-3.06672	-64.2268	98.0551
-5.63802	-63.0951	98.0895
-0.921634	-64.1258	98.1782
-8.41296	-53.9099	92.1636
-8.238	-53.6092	90.7585
-6.92539	-53.739	93.0403
-17.1515	-56.4821	88.6812
-15.7738	-56.6693	90.4405
-4.50851	-55.1858	90.1956
-4.67274	-54.436	92.4165
-4.47757	-56.3172	88.7454
-6.49355	-55.521	89.0478
-4.89505	-54.4273	94.8619
-6.55462	-54.563	92.9903
-5.72101	-65.9416	95.1645
-8.75525	-65.0865	94.0174
-11.0044	-60.152	94.9089
-8.21474	-61.069	97.1565
-11.9989	-63.825	92.2681
-14.6939	-62.2088	90.7186
-8.15333	-53.0925	89.9606
-10.2152	-53.5358	89.3125
-8.53094	-51.8774	88.8041
-7.01074	-53.0882	90.5525
-5.33238	-52.6079	91.1106
-5.26546	-53.286	92.7377
-5.6525	-51.2138	89.6052
-4.06736	-52.2604	91.4614
-10.0842	-48.2808	87.0691
-11.7149	-48.8395	86.6334
-11.4087	-44.0795	85.9074
-8.21491	-47.9536	87.5496
-17.5721	-61.2332	84.0465
-14.8014	-60.9763	85.3476
-19.2278	-63.6113	82.4893
-0.483467	-58.0125	88.0742
-0.48959	-60.6718	86.9076
-2.40297	-58.3228	87.8323
-6.40819	-47.5058	87.9346
-7.21173	-42.9297	86.9296
-4.65097	-47.0685	88.2202
-4.30596	-58.4838	87.549
-4.56376	-61.5523	86.5756
-6.40585	-58.7556	87.0688
-23.55	-55.9847	79.1303
-26.1871	-55.3707	76.358
-12.1271	15.4671	78.3694
-11.6268	13.9259	79.9702
-80.6918	-8.00981	-43.1985
-82.18	-8.49489	-41.4648
-81.3528	-3.41189	-43.1938
-78.8477	-7.42695	-46.5863
-79.9384	-12.4085	-42.4395
-80.4717	10.4929	-5.52848
-79.4835	12.582	-0.593185
-80.9042	13.3973	-9.82633
-81.011	15.5268	-15.1077
-81.5914	15.1028	-22.2076
-81.3863	10.5306	-16.1807
-80.7755	20.9901	-16.41
-74.4156	-32.2638	-33.9154
-75.6639	-28.3688	-35.7247
-73.3141	-36.4328	-31.3525
-76.8911	-29.9551	-32.2277
-76.7152	-24.7292	-37.804
-78.9769	-23.5276	-35.9121
-77.8981	-20.7701	-39.6309
-74.0956	-26.7631	-40.7156
-83.6585	-8.42964	-40.5655
-84.0697	-3.41874	-40.7529
-83.0255	-12.5909	-39.6494
-85.1904	-7.91036	-40.2013
-83.5748	-24.7166	-32.7303
-84.5893	-25.814	-31.6229
-82.2745	-23.1592	-34.1557
-85.3557	-26.5992	-30.5864
-86.5318	-22.5842	-32.6719
-84.1	-30.559	-28.0616
-86.0691	-27.0256	-29.3564
-89.9979	-16.8359	-30.659
-91.3793	-12.3488	-33.819
-89.9882	-16.2697	-29.871
-78.7163	-39.0142	-19.7863
-79.1493	-37.4015	-22.8412
-77.8824	-38.1829	-21.8575
-78.2397	-39.6552	-17.7189
-79.181	-39.2317	-19.0791
-80.5753	-31.6598	-7.15377
-80.2573	-32.201	-7.12957
-79.6005	-33.3958	-7.41616
-89.9321	-15.8937	-29.4554
-89.4086	-16.4828	-28.4864
-92.9937	-1.33131	-33.358
-93.0754	-0.688034	-34.8926
-92.8562	-2.64174	-31.6849
-93.3619	8.88488	-30.8934
-93.6495	10.241	-31.011
-93.7967	12.3327	-29.9778
-93.4665	14.4025	-26.8612
-93.9851	12.7967	-30.3846
-93.2182	12.1442	-27.7332
-83.2053	-8.93524	-7.31852
-84.5538	-3.47572	-7.94093
-82.2241	-12.9752	-6.71078
-82.6831	-8.20718	-5.95621
-77.6846	-24.9218	-0.130386
-78.2984	-20.6725	0.407362
-77.0686	-28.6293	-0.640049
-76.6968	-25.3863	2.70081
-81.7331	-20.0221	-9.36109
-81.7434	-18.0706	-9.49507
-82.0281	-22.0368	-9.88876
-81.3805	10.0429	-16.1938
-81.4159	10.0407	-15.9768
-81.7708	11.3198	-19.7283
-89.7073	17.6172	-16.7747
-90.7051	19.3134	-19.9546
-90.4732	16.9173	-15.7825
-88.2211	14.5085	-13.7717
-88.8542	18.0182	-17.953
-90.2438	19.9643	-25.0678
-89.4485	19.7247	-22.0094
-89.407	18.9049	-26.4491
-90.7212	18.6829	-28.7835
-90.5425	20.107	-24.5605
-90.9022	4.54853	-39.4833
-91.9642	4.8044	-38.945
-91.3037	10.5359	-36.6154
-90.1093	4.07339	-39.6638
-85.5621	1.13834	-8.56177
-85.8434	-0.104626	-9.23863
-93.7186	3.972	-36.393
-94.2245	9.11217	-34.1412
-93.768	3.87371	-36.7597
-93.3736	1.16283	-36.5784
-92.9449	15.2932	-22.8479
-91.9907	14.7412	-18.8019
-93.053	16.2823	-22.2339
-92.716	13.9359	-23.5812
-87.0703	1.93293	-11.4243
-87.6667	4.26238	-12.1695
-86.4865	0.164523	-10.8273
-93.2627	4.66338	-33.6508
-93.3405	2.60416	-35.5252
-85.0755	-4.83505	-12.6383
-85.612	-3.22165	-11.5312
-85.2361	-4.55737	-13.3616
-89.9066	-3.98724	-26.8855
-91.9653	-1.35253	-28.8336
-89.7758	-5.08225	-27.0426
-89.6467	-3.54168	-26.252
-78.8914	-16.7505	0.38748
-78.0091	-16.9989	3.00747
-79.6981	-12.2095	-0.474489
-84.3577	1.83361	-39.263
-85.3571	4.35411	-38.3124
-84.2709	6.50896	-37.1204
-83.2122	1.23627	-40.4168
-87.793	9.32606	-35.6283
-87.889	5.24345	-38.5547
-90.2084	13.9825	-33.7301
-87.5926	13.1077	-32.3802
-89.0379	3.10182	-39.6267
-87.8149	-2.42604	-40.4102
-87.3432	-7.43326	-40.0341
-80.7536	-22.8779	-35.0452
-81.6425	-19.6533	-36.7475
-79.7181	-25.9882	-33.2058
-82.3697	-16.2728	-38.3496
-80.7062	-16.5191	-39.3773
-88.8325	-16.4196	-27.4518
