1955
78.7527	-33.7383	23.1759
75.3003	-40.4208	29.314
75.857	-42.1904	18.9898
78.8223	-35.9476	13.5712
83.7489	62.6152	23.6773
84.4915	70.1165	19.4951
79.5815	65.2173	34.7562
83.2956	55.4754	26.3608
87.2102	61.0517	11.9112
89.4263	72.1566	-28.8746
88.854	69.0982	-38.56
87.7441	79.0995	-33.9167
89.8217	73.9591	-18.2621
90.6767	64.8995	-24.187
17.0611	-90.2619	46.4127
13.6667	-90.4615	47.2837
18.2552	-96.7267	43.2396
21.3907	-89.7436	44.8835
17.3853	-86.4035	49.1548
19.7666	-106.84	38.0276
20.8862	-117.033	32.9746
23.7054	-105.855	36.3791
16.2035	-107.11	39.2741
13.7286	-124.679	31.5336
17.5895	-124.37	30.9751
13.3744	-117.698	34.6578
10.0099	-124.662	31.7507
14.1549	-129.391	29.5519
79.8953	-23.4298	-33.3839
82.3499	-17.2496	-31.0853
79.6578	-29.89	-28.2493
77.3103	-29.6406	-35.7192
80.41	-15.7722	-37.4962
81.1068	-10.3031	-40.4919
77.4703	-16.1983	-43.8646
81.8475	-5.55844	-42.8804
84.2054	-5.59648	-37.3286
74.2483	-96.0652	-31.5975
74.0304	-102.681	-33.7821
72.6347	-93.1466	-38.3035
74.8262	-99.2858	-25.222
12.8834	-107.412	39.9091
11.9814	-97.3034	45.0217
9.72736	-107.384	40.1445
81.0331	-18.5943	26.892
81.5296	-12.5562	27.4136
78.8876	-19.904	34.1503
80.4889	-24.1532	25.7971
79.6943	-34.1713	5.9057
78.0647	-38.5041	4.14516
80.1368	-33.3872	-2.01152
81.1588	-29.612	7.29717
22.9191	-64.4221	91.2243
18.7438	-64.7528	92.665
23.1597	-68.6808	89.383
27.3494	-64.0462	88.9392
22.3592	-59.8075	92.0756
31.785	-62.9165	86.0377
32.0208	-67.0893	84.3358
36.5136	-60.9492	82.0332
31.4822	-57.9139	86.8052
13.6538	-55.2635	93.9898
17.4934	-54.9633	93.3103
13.2041	-49.7387	92.9964
9.95062	-55.3899	94.1332
14.1744	-60.5253	94.2018
23.0175	-72.4452	86.5555
22.9229	-75.2908	82.8939
27.5138	-71.8181	84.5415
18.8559	-72.7031	87.9469
23.095	-77.2634	78.3289
18.4772	-78.0497	79.1934
23.0635	-78.5395	72.801
25.3551	34.1405	80.0016
26.0512	30.4398	82.2611
27.7366	32.2048	77.7885
24.5928	37.6066	77.7782
23.1776	36.4971	82.5564
56.9713	1.84322	70.5945
63.1544	0.897722	64.9475
55.9862	6.6455	70.6581
50.5258	3.93475	74.7793
57.6916	-2.49592	70.4152
67.7944	10.7776	58.3549
72.4297	11.9594	51.955
66.4357	16.2951	58.9236
61.495	11.1728	65.0105
68.3962	5.54169	58.3079
78.3801	32.8609	40.2587
80.5979	32.4679	35.6307
78.385	40.8362	39.772
75.9438	34.0093	44.1664
58.4024	-6.7363	69.6538
59.0037	-11.1058	68.8376
64.0819	-7.93869	63.8328
52.6757	-4.95905	74.2265
13.1737	37.1414	100.3
12.6818	41.9577	96.505
11.5026	37.4986	100.417
13.5576	33.0195	103.777
14.9729	36.4923	99.6176
41.3556	95.2678	71.6811
36.1085	96.2342	73.9129
40.4011	88.6727	75.9281
46.9999	93.7124	68.7042
42.4441	101.565	67.2981
13.833	-81.1686	67.3101
13.2306	-82.2241	60.3265
17.8491	-80.707	66.8125
14.1386	-80.0126	74.0348
10.0252	-81.3339	67.4351
76.2813	-20.3158	41.2152
73.0663	-19.9848	48.2633
75.3977	-27.0271	40.8481
76.7514	-13.9035	41.7483
14.6978	-73.0137	88.6221
14.8473	-69.4047	91.4794
10.6939	-73.2225	88.7337
14.4062	-76.2768	84.3905
14.3493	-78.4995	79.5553
10.3954	-78.6936	79.5271
52.395	-58.7319	60.4828
46.7667	-62.2824	66.8437
51.6401	-61.7057	58.0145
57.738	-54.7716	55.1247
52.4909	-55.1076	63.3937
57.5013	-63.2374	35.0806
54.485	-67.5612	30.2661
61.7626	-60.0806	29.3331
60.0008	-59.6264	39.3955
52.2621	-66.7142	41.0851
11.8454	-83.8224	54.1273
15.1506	-83.8272	53.5028
8.68598	-83.8149	54.203
10.304	-86.4279	50.3156
17.9787	27.9276	104.49
18.4139	25.0984	106.821
20.5275	26.6846	101.273
17.5751	31.4086	101.42
15.6679	28.756	106.297
34.7491	12.9901	79.6672
38.3577	10.202	78.5899
33.2559	17.9576	79.5928
31.4341	16.0504	81.4175
40.9659	-21.7669	76.5083
42.9749	-21.5252	76.2457
22.0444	8.00057	92.2894
23.4876	9.45402	92.3262
21.4106	6.97915	91.8147
23.4958	7.81147	90.3603
21.5871	3.70336	90.0787
22.1161	2.23445	89.818
23.5889	3.65639	88.099
21.3873	4.68168	90.3488
19.9181	4.12036	91.8339
12.5645	6.75435	100.576
12.6092	7.79644	102.4
11.0129	6.6915	100.811
12.6223	5.71263	99.16
14.2226	6.93586	99.6963
25.9165	4.42027	86.1869
28.301	5.9105	84.325
25.4696	5.43476	86.6391
26.5605	2.9799	85.9902
18.7852	16.7214	108.456
16.3242	16.5428	111.032
18.4188	14.7342	107.254
21.0928	16.7919	104.729
18.9568	18.4737	109.065
38.2509	-37.8563	80.7038
41.7257	-35.0315	78.0836
37.102	-33.8464	81.26
34.0895	-40.0016	83.7857
39.3385	-42.4227	80.0736
40.826	-15.6648	79.5182
39.4826	-11.9408	81.3639
38.2929	-14.9107	81.2824
43.1105	-16.3617	78.1926
12.8594	1.42674	96.4985
12.8837	-0.787511	95.9482
14.4864	1.72658	96.0685
12.7565	3.34191	97.2894
10.8201	1.3066	96.6827
17.0699	35.3764	98.1127
19.5147	33.5876	95.4956
16.6793	39.6114	94.6182
27.983	15.43	87.8637
27.3927	17.3994	90.223
27.538	16.3799	90.0871
28.0547	13.8397	86.9353
28.3277	15.7795	86.4562
15.6494	5.20678	96.5915
15.5164	3.64506	95.9788
16.8885	4.94845	95.2518
15.6796	6.18784	97.2676
14.3175	4.98429	97.504
15.5712	7.04556	98.4258
15.6017	8.01802	100.038
26.9055	17.499	92.402
26.696	18.3833	92.8108
27.2334	15.7824	91.2424
27.7677	11.1629	86.1753
27.3083	12.6062	88.4233
26.8172	8.73999	86.3917
12.6503	-9.05522	95.5507
12.9367	-11.1542	95.7404
15.365	-8.26043	95.2701
12.7154	-6.07956	95.4254
9.80411	-9.69271	95.636
33.5055	0.829429	82.5313
30.8634	0.811205	84.0032
35.8408	-3.48444	82.7206
35.8663	0.612217	81.5046
31.4403	4.84941	82.4667
20.6878	-36.8034	90.7535
20.7945	-34.2777	91.3018
16.6482	-37.3077	91.6234
20.5427	-39.9378	90.4758
24.8997	-35.9338	89.2784
36.2378	-17.3884	81.5508
36.7599	-18.0447	80.7013
39.1277	-18.5661	78.4611
35.8077	-15.803	82.8266
26.4858	18.9963	92.7513
26.5261	19.643	91.3678
25.2518	20.2173	95.697
28.9868	-34.7374	87.2126
29.2262	-37.6621	86.8496
32.6646	-33.2864	84.7107
28.7149	-32.5143	87.6977
13.129	-37.56	91.9708
9.87032	-37.6122	92.003
13.0322	-40.3301	91.6864
13.1785	-35.2754	92.5658
71.2412	56.7148	56.7219
70.187	55.3577	58.4764
73.0018	52.36	51.5776
72.0788	58.4265	54.759
51.3797	80.0779	72.2336
45.2924	81.6092	76.6463
51.3161	75.107	74.9227
57.628	78.0959	67.2536
52.2349	85.4531	68.6916
63.887	75.5723	61.2215
63.5606	71.0054	64.2646
69.5923	72.4489	54.1234
64.7821	81.0814	57.1892
52.5152	67.2033	77.0972
51.9633	69.7641	76.7639
46.3577	68.1947	81.9952
53.0988	64.726	76.9636
73.3469	60.4433	51.536
74.1078	63.6453	48.7164
68.7891	64.5925	59.7433
76.147	55.325	45.0429
33.4	58.2923	82.8018
33.902	57.6375	80.9165
37.4367	58.6474	81.8541
33.218	59.5971	85.1499
30.0598	58.0116	83.071
16.7885	48.5308	87.7134
18.907	46.1077	84.6787
16.9797	50.1521	86.762
14.347	50.2566	89.7012
16.6183	46.3424	89.2074
38.3104	26.578	73.4143
39.9782	22.0432	74.5726
44.9311	24.1219	71.5773
36.6222	30.4561	72.5962
32.9521	28.7338	75.2593
67.7249	35.793	53.2316
70.117	34.6509	51.0873
69.1466	40.2629	52.0967
65.3664	37.5235	55.2265
64.9803	32.1865	56.3289
16.5544	43.3716	91.5
18.9349	41.1418	88.9246
14.2418	44.9703	93.0678
53.6276	62.5843	76.7046
58.3591	61.5313	73.4931
47.907	62.5191	80.0961
53.5533	60.7163	76.4229
62.6457	59.6384	69.6615
61.9443	57.694	70.0244
66.5378	56.9509	64.7603
65.82	45.2211	56.9005
66.1599	48.7701	59.2741
63.6867	45.4566	58.6867
64.9625	41.8724	56.0789
67.6419	45.1957	55.2105
52.9645	51.3765	68.8457
54.6508	49.9374	66.896
51.1249	52.5653	70.4575
49.0302	53.664	71.7213
46.6765	54.4304	72.5025
49.2094	54.2465	72.3168
46.4962	54.9669	73.0941
51.5657	53.1398	70.9563
43.7098	54.8715	72.85
40.6068	54.7582	72.7868
43.3827	55.375	73.417
40.0484	55.1893	73.2657
37.336	54.1084	72.2702
34.3133	53.0908	71.5375
31.1903	51.8622	70.8345
28.3815	50.6507	70.2948
30.0006	52.3925	71.3259
27.3581	51.1334	70.7923
33.1235	53.5282	71.9661
26.4327	49.4278	69.9529
28.8842	52.7214	71.896
32.1964	54.0201	72.6704
43.1576	55.9549	74.2559
39.5595	55.7125	74.0442
58.2435	45.0694	62.0188
58.7531	46.0453	62.0253
56.9497	44.2569	62.7505
42.3154	59.1647	80.4706
47.9701	59.4083	78.4117
42.216	60.2188	81.717
42.3418	58.3399	79.1313
58.4575	53.901	70.039
56.6313	53.184	70.0668
59.9037	54.8801	70.1368
55.1777	55.5862	72.8881
45.8612	37.8552	69.175
51.6568	38.0648	66.5129
38.9406	38.5739	70.8053
46.3005	36.0006	68.8562
33.3115	40.0163	70.9603
29.3741	41.4456	70.9291
33.4956	38.5611	71.1687
25.3964	44.6479	70.8463
24.8293	45.6056	70.7103
26.3185	43.7218	70.8226
45.059	41.1789	69.7671
50.3846	41.589	67.6912
38.9372	41.4694	70.8465
27.8936	44.5787	69.7829
29.8041	43.7215	70.0704
26.9743	45.1008	69.6318
26.2996	45.553	69.6101
25.6638	46.1391	69.6975
23.5855	52.7442	75.9078
23.2975	54.4058	78.8472
23.6552	50.9578	73.0092
25.2572	54.1589	76.3196
24.3679	46.9908	70.7778
35.7359	55.0244	73.4074
24.0171	50.2255	71.8996
23.4827	48.875	71.8369
25.2049	51.7374	72.2811
44.9691	42.5916	69.9711
38.8806	42.753	70.847
27.8297	45.3753	69.2887
27.0058	45.6285	69.2604
29.7338	44.8437	69.635
26.3785	46.0403	69.245
55.7531	48.5216	64.9531
13.5296	61.3915	89.1265
10.1165	61.7467	89.1497
13.0768	59.8981	88.8263
16.3502	60.3794	88.5509
14.1522	63.3396	89.5652
27.7307	37.0427	73.7691
27.3349	38.7896	72.9415
25.9303	38.3527	74.6973
28.6756	34.4226	74.9178
30.5852	35.4716	72.9198
24.1782	39.8649	76.1226
22.4543	41.7544	78.1874
23.6207	44.4809	73.0369
22.4191	45.3938	74.8354
23.5772	45.9984	72.1625
20.4062	52.4331	80.6959
21.4866	54.0227	80.552
19.9773	53.4798	82.2267
27.423	42.6208	70.9097
27.1629	41.5606	71.5675
27.1457	40.2689	72.1834
29.5881	38.8596	71.7608
32.4643	-20.2109	80.5526
32.3802	-20.1219	80.2904
35.9814	-20.1641	77.7656
28.5877	-19.8616	83.8378
37.8705	-20.2699	76.6397
37.5508	-20.1768	76.6045
13.2351	-14.7188	95.633
16.329	-14.1315	95.1946
13.1906	-13.4076	95.8123
9.76389	-15.21	95.7704
13.1645	-15.9528	95.2934
19.036	-16.4533	93.4308
19.0191	-15.3121	94.0417
16.2905	-16.6446	94.2195
18.8127	-17.4951	92.6828
21.6897	-16.3801	92.3445
24.5256	-16.4446	90.7657
24.5553	-15.2731	91.4424
24.592	-17.6249	89.7641
27.8154	-17.1188	88.2702
18.9188	-14.0227	94.5129
21.5923	-13.9308	93.4922
18.823	-12.694	94.8089
23.4005	-12.0245	92.8714
24.2035	-12.9307	92.3854
22.957	-10.9437	93.0561
20.5905	-11.8881	94.2421
31.7297	-18.4659	84.1847
31.3404	-17.2989	85.7106
18.2876	-18.4326	91.7769
15.3918	-18.4746	92.7386
17.9043	-18.8911	91.0161
21.5289	-18.3981	90.4519
24.9823	-18.7418	88.2548
25.0242	-19.2902	87.2551
38.5393	-19.1645	78.2336
32.7037	-21.2419	81.0816
32.6685	-21.1572	80.7978
28.7641	-21.2562	84.8117
32.7389	-21.4833	81.4544
33.3275	-22.7877	82.0693
33.0779	-22.334	81.9947
29.8343	-23.5357	86.2432
26.6431	-24.0177	89.1835
26.3422	-23.1723	88.9112
23.2255	-24.3403	91.4789
27.1432	-24.8435	89.1646
18.4666	-22.3025	92.494
18.9082	-23.5502	93.0185
22.2582	-22.2716	90.8667
18.1074	-21.2056	91.8584
15.0974	-22.3819	93.4517
12.7692	-25.0719	94.8803
12.9266	-26.2206	95.0755
15.7358	-24.8456	94.3694
12.591	-23.8516	94.4972
10.1723	-25.1309	95.0018
38.2155	-21.7673	76.004
38.0385	-21.1352	76.5636
38.2078	-23.3187	75.4996
36.2418	-21.741	77.4639
12.2246	-21.4161	89.3265
12.1543	-20.7449	90.526
14.6967	-21.4287	88.9726
12.2599	-22.7664	88.1745
10.0205	-21.4132	89.3957
13.0633	-27.4354	95.1145
10.2474	-27.5178	95.2384
13.1886	-28.5903	94.9884
16.3022	-27.198	94.5909
13.2424	-33.052	93.3914
16.8227	-32.5829	93.0123
13.3035	-31.1104	94.1966
10.1548	-33.2531	93.436
18.5058	-11.7583	94.9403
17.7482	-10.4002	95.0613
16.0949	-11.6986	95.4872
12.402	-22.5201	93.8888
10.0541	-22.6398	94.0174
12.2367	-21.4091	93.1987
12.1508	-20.9128	92.7257
14.71	-20.7504	92.2963
12.1947	-20.6702	92.2751
9.96695	-20.9656	92.7512
17.9326	-20.7075	91.3972
21.5296	-20.7781	89.8895
17.8393	-20.4931	90.9765
12.2275	-20.565	91.5424
14.6466	-20.4664	91.1607
9.93606	-20.5918	91.5385
25.1905	-20.9725	87.6434
25.07	-20.795	87.2282
25.4947	-21.4045	88.0306
27.9573	-27.8031	88.9622
28.2251	-28.9902	88.6312
27.7167	-26.7862	89.1353
24.5565	-28.4884	91.2088
20.568	-28.9435	93.0829
20.7543	-30.2169	92.6432
20.3752	-27.8926	93.3269
16.7372	-29.4203	94.1899
13.2452	-29.7431	94.701
10.2641	-29.9037	94.7971
24.9567	-19.4372	86.585
21.3283	-19.0906	88.771
24.8228	-19.336	85.9838
40.8925	-20.5951	76.5955
39.8497	-20.8201	76.5984
37.979	-20.8718	77.16
36.1595	-21.2409	78.5541
17.8538	-21.4508	88.2053
17.7076	-20.7218	89.3218
21.4285	-21.4633	86.9221
18.0919	-22.7554	87.1624
17.7186	-20.4567	90.3009
21.2754	-20.5381	88.8264
20.8118	-32.0067	92.012
24.9651	-31.3517	90.2776
27.4191	-25.7996	89.2215
24.0246	-26.4073	91.5564
28.4682	-30.6288	88.1885
31.6237	-29.3868	85.6697
24.4938	-18.9608	85.5757
21.2397	-18.5323	87.1405
23.8629	-17.6543	84.8278
27.8001	-19.3483	83.3938
17.8981	-18.4051	88.3246
15.1867	-18.2817	88.7811
18.3828	-17.0884	86.8656
17.7248	-18.8886	89.3401
23.1487	-14.8084	83.7568
20.6381	-14.5276	84.7472
22.7927	-11.0952	82.8273
25.8374	-15.1381	82.4138
37.967	-27.0166	75.4005
37.171	-31.5479	76.2019
35.9306	-26.8721	77.0332
12.2382	-25.8618	87.0753
14.7362	-25.8197	86.8294
12.5697	-30.298	86.7166
10.1705	-25.899	87.1047
18.2233	-14.352	85.448
15.7119	-14.2109	85.9268
17.8021	-10.5813	84.4814
18.0133	-25.7868	86.1453
18.2081	-30.3454	85.6003
21.641	-25.858	84.963
41.1173	-22.1499	71.0985
41.1536	-22.7548	71.0102
20.9658	46.7967	77.7872
20.6998	45.4849	79.5728
92.1984	21.7329	-44.0032
91.556	17.3412	-43.2898
90.3032	22.2818	-47.3288
92.7567	26.3256	-43.963
93.722	21.272	-42.2925
91.5952	40.727	-6.86032
91.9828	43.479	-11.0175
90.5449	42.897	-2.00603
92.0662	45.4702	-16.1518
91.7192	50.8358	-17.3559
92.5727	40.5377	-17.28
92.6518	44.9595	-23.1356
86.8071	-2.52488	-34.9889
89.2268	-0.181035	-33.3358
85.9245	-6.71314	-32.4591
87.8706	1.37633	-36.7665
88.7656	5.02798	-38.794
86.1529	2.95902	-41.6554
89.7927	8.99118	-40.5719
91.0388	6.27366	-36.9258
95.2164	21.3363	-41.3996
96.7436	21.8357	-41.0324
94.7065	17.1847	-40.5229
95.5125	26.3331	-41.5476
97.5592	3.1418	-31.6335
98.5723	7.16145	-33.6709
98.2935	2.7164	-30.4198
96.483	-0.827581	-29.1605
101.862	12.9617	-31.6614
101.845	13.545	-30.8866
91.6551	-9.23546	-21.0982
92.1296	-9.45301	-20.4012
91.2613	-9.85538	-19.0872
90.7115	-8.4154	-23.1421
92.4669	-1.37295	-8.5246
92.1671	-2.00065	-8.48384
91.7727	-3.0208	-8.69963
101.784	13.9298	-30.4768
101.293	13.3566	-29.5315
104.403	28.4272	-34.2027
104.462	29.0659	-35.7153
104.303	27.1237	-32.5605
104.545	38.6306	-31.6918
104.802	39.9771	-31.7922
104.906	42.0692	-30.7535
104.334	41.8981	-28.5466
105.083	42.5234	-31.1461
104.538	44.1552	-27.6623
94.9471	21.4447	-8.81492
96.1076	26.8375	-9.3581
94.4025	22.2307	-7.48106
94.1077	17.4473	-8.26113
90.2297	5.78622	-1.91506
89.3185	5.4882	0.819917
89.8497	2.00901	-2.42773
90.5855	10.1072	-1.38993
93.9035	10.2843	-10.8599
94.2898	8.24434	-11.3784
93.8367	12.2228	-10.9807
92.5717	40.0345	-17.3284
92.942	41.2407	-20.7703
92.6042	40.0347	-17.1159
100.694	47.4734	-17.7226
101.657	49.0963	-20.7992
99.8412	47.8587	-18.8793
99.2803	44.468	-14.8307
101.472	46.7922	-16.7509
101.177	49.6905	-25.8139
100.395	49.4888	-22.8209
101.484	49.8369	-25.3149
101.676	48.3902	-29.4973
100.369	48.6409	-27.2025
102.133	34.2309	-40.2051
101.339	33.7677	-40.3882
102.409	40.2237	-37.3224
103.201	34.4815	-39.666
96.9681	31.3874	-9.9102
97.2858	30.1271	-10.5812
104.986	33.6861	-37.1519
105.389	38.8216	-34.8871
104.703	30.8878	-37.3535
105.036	33.5809	-37.5164
103.998	45.0871	-23.7026
103.053	44.5961	-19.7335
103.797	43.729	-24.4435
104.085	46.071	-23.0834
98.4457	32.0814	-12.684
97.9175	30.346	-12.1238
98.9731	34.3662	-13.3807
104.531	34.4053	-34.447
104.645	32.342	-36.3109
101.833	37.1886	-22.8937
101.363	35.8567	-22.1284
103.171	36.6396	-27.0389
96.6734	25.3571	-13.9506
96.8241	25.6129	-14.6507
97.1538	26.9774	-12.8501
101.433	25.8774	-27.8717
103.395	28.4654	-29.7669
101.165	26.3355	-27.2463
101.335	24.7831	-28.035
90.9497	14.0316	-1.38737
91.5342	18.5151	-2.18298
90.1087	13.9294	1.14713
95.6835	31.5789	-40.0484
94.531	30.9853	-41.1936
95.5096	36.2421	-37.8978
96.6491	34.0819	-39.0939
98.9573	39.0457	-36.3823
98.6829	42.8388	-33.147
101.25	43.687	-34.44
99.1207	34.9552	-39.3072
100.299	32.8114	-40.3659
99.2056	27.2899	-41.1963
98.8672	22.2917	-40.8535
92.8122	6.92681	-36.0587
91.9178	3.82044	-34.2727
93.5672	10.1379	-37.7109
94.1712	13.5105	-39.2661
92.4847	13.2668	-40.2972
100.73	13.4427	-28.5185
91.0052	0.910725	-32.5932
90.0147	-2.6989	-30.2976
92.2344	1.21175	-32.1325
90.2774	-6.46192	-25.7395
89.8329	-6.47197	-26.0976
89.7565	-9.79441	-21.1655
91.0631	-9.43282	-16.2353
90.5634	-9.69067	-16.0409
90.0385	-9.8841	-15.7568
101.558	24.0303	-28.5159
103.462	25.3592	-30.6906
93.7722	22.8722	-6.37602
93.0148	23.3152	-5.14207
91.9062	9.49115	-4.93622
92.235	9.29267	-5.60557
94.9421	4.75995	-11.1524
95.9431	2.68964	-12.7525
95.0892	5.8119	-11.9682
93.5961	14.4893	-7.78857
94.0407	14.2418	-9.98419
98.3616	44.6797	-29.9353
96.0417	40.9937	-32.7826
97.4011	45.3422	-26.5985
95.1362	39.429	-34.5898
94.6968	39.125	-35.6873
94.4789	41.6013	-30.3465
93.6735	14.1494	-12.8207
93.9083	14.1992	-11.9402
103.791	35.6393	-29.3975
103.63	34.1421	-29.0685
97.2411	26.2714	-16.0811
96.651	23.9605	-17.1466
98.2187	27.4233	-18.7274
101.117	27.1818	-26.7389
102.806	30.7436	-27.9124
100.547	27.2656	-25.3609
18.0016	112.896	67.1821
17.8141	105.227	72.9523
25.6512	111.95	66.6955
18.3266	120.695	59.7886
10.1195	113.193	67.393
17.3924	97.6657	77.7436
10.0716	97.6519	78.1532
17.0738	89.5791	82.2228
24.5429	97.3313	76.8657
39.2942	82.3874	80.1195
39.6597	77.4545	82.8199
34.8366	82.9186	81.8947
12.6891	9.02928	104.76
13.0954	10.503	107.035
11.221	9.09807	105.23
14.5539	9.01455	103.331
13.8301	20.0149	112.991
16.3904	19.993	111.676
13.8461	21.8682	112.47
11.4224	20.0238	113.384
13.8488	18.2719	112.996
13.837	16.4304	112.462
11.469	16.4437	112.935
13.7581	14.567	111.368
12.7045	4.65309	98.1403
10.9371	4.51141	98.3593
12.859	-3.40131	95.5559
14.9183	-2.78918	95.3037
10.3813	-3.76905	95.6298
13.5402	12.5419	109.496
15.6678	12.4596	107.881
11.4492	12.5952	110.054
13.7773	23.7103	111.529
16.2175	23.5664	110.333
13.7213	26.0709	109.799
11.4331	23.8199	111.834
16.4616	73.2992	89.406
10.0795	73.8886	90.3227
15.9771	70.3474	89.97
22.4386	72.5716	88.5617
16.5962	76.9813	88.2453
12.4358	51.1216	90.4066
12.3091	48.7902	91.7559
12.596	53.1167	89.4832
10.7702	51.4157	90.5957
12.7486	54.9242	88.9021
14.7586	53.939	88.2006
12.8357	56.627	88.6336
10.8362	55.2138	89.1378
12.5568	-18.1887	88.9259
9.96886	-18.2474	89.0299
12.8979	-16.8039	87.617
12.2076	-19.0396	90.4602
12.1673	-19.2589	91.5746
9.94163	-19.3423	91.5784
14.5915	-19.1191	91.1558
12.2538	-19.1326	92.3153
13.1105	-16.9519	94.8134
12.9417	-17.8405	94.152
9.78222	-17.1863	95.0001
12.6187	-18.5725	93.3385
9.86165	-18.7336	93.3773
13.1769	-12.3745	95.8239
9.77892	-13.0621	95.9481
12.9174	-14.1089	86.1989
12.6956	-10.3304	85.0975
9.98958	-14.0588	86.2544
31.99	110.826	65.7769
31.3875	103.912	71.0538
37.8693	109.273	64.4497
32.7409	118.038	58.8135
28.714	72.9209	87.5659
28.6562	69.7587	88.1835
34.198	73.3719	86.6554
28.1863	76.9355	86.3875
30.0956	66.0912	88.135
31.5222	62.6342	87.4756
35.1393	66.5777	87.1578
32.9871	60.6957	86.3147
29.4681	60.6558	87.2356
36.8422	61.4782	85.5954
34.9485	55.402	74.2485
34.6976	56.0696	75.8843
31.285	54.4898	73.6059
39.1477	56.0842	74.8242
36.5112	54.5203	72.6885
34.2375	56.7948	78.1712
38.2328	57.2198	77.9698
30.8578	56.2779	77.9255
56.8376	114.685	42.0851
57.9993	120.471	31.8074
51.067	118.197	44.8156
56.1797	108.608	49.5753
43.2835	107.673	62.4204
44.2934	114.052	55.9785
49.0589	105.57	59.5083
39.4631	73.4089	85.0203
40.1272	71.4218	85.3902
45.2902	73.1578	81.6193
41.4825	62.7985	84.2652
41.3742	64.2647	84.8709
40.7384	67.9604	85.3871
42.3403	57.5796	77.6115
42.767	56.9532	76.1826
47.287	57.4464	76.5987
55.2547	103.038	55.3912
61.5063	100.436	50.042
54.2585	97.4661	60.2764
51.7402	72.0351	76.0527
57.6908	70.4121	71.3449
50.3583	55.3032	73.5709
50.7388	55.9781	74.3262
46.8624	56.0997	74.6882
53.1533	54.1493	71.9022
53.2618	59.165	76.0338
52.5089	57.8361	75.5696
57.4478	57.8661	73.3565
51.5307	56.8296	75.0388
53.1387	91.5619	64.6487
59.568	89.2633	59.3739
67.2928	98.5067	43.1008
66.5389	92.8219	48.308
72.3915	96.8603	34.8866
53.5313	51.9163	69.277
55.2614	50.3634	67.148
55.5969	52.6822	69.7466
57.3642	51.0526	67.3815
54.2639	52.3389	69.6415
61.0779	56.15	70.1252
64.2005	53.9809	66.0513
27.4039	57.5674	82.6626
25.12	56.8477	81.8944
27.7238	56.7328	80.4433
26.7947	58.2609	84.2275
25.9206	59.4054	86.0536
23.5682	58.476	85.3395
27.8153	55.3759	77.1577
27.7617	54.2542	74.6629
15.7188	66.6351	90.0071
10.8358	68.2042	90.2628
80.1189	-34.4064	-9.68479
81.7299	-28.8985	-7.83922
80.0328	-34.8413	-16.1177
90.9325	53.401	-37.5764
90.6688	49.4885	-43.299
89.7086	58.9527	-42.2441
91.3412	55.7514	-29.4154
92.2309	47.8142	-32.4986
87.7871	22.5114	-53.1507
86.9332	16.5281	-51.6947
85.4528	22.3011	-58.7204
88.6629	28.3361	-53.1326
89.1995	34.5311	-52.7037
87.0874	36.2385	-59.1286
89.7415	40.0482	-50.8005
91.3679	32.5314	-46.513
82.6815	-0.793832	-45.754
79.4902	-4.25548	-49.6229
84.1955	4.97145	-48.1138
16.7704	82.8496	85.6626
10.1394	82.2685	86.4896
23.2068	82.5818	84.8194
28.8308	82.6803	83.6399
29.7766	89.6149	79.8813
34.1453	-76.0361	60.0739
32.0659	-78.4107	53.3349
41.0255	-72.8408	53.4969
27.4748	-78.3812	63.8982
61.7776	-56.4661	43.0996
56.1756	-60.5927	49.1293
66.3255	-52.7395	37.4795
62.5801	-53.6331	46.6632
65.7768	86.8707	52.7482
71.3167	84.4706	45.1686
30.6269	97.0003	75.542
77.2736	95.161	25.026
81.2786	93.6019	14.8371
77.102	88.5853	30.7536
33.209	126.264	48.892
39.4491	123.937	48.1879
33.4375	134.089	36.8323
26.323	127.938	49.4765
75.0822	68.5302	44.8154
75.799	75.1346	40.6258
58.1821	49.4429	65.1257
69.1139	54.111	59.8412
69.7643	50.1443	56.0159
67.5859	52.8393	61.2206
66.0882	51.8538	62.2596
10.5255	-90.6446	47.6216
7.75325	-90.5674	47.6542
72.1156	-42.7782	37.4313
72.9321	-38.6214	39.7001
67.8846	-45.9346	44.4301
71.1633	-46.5862	34.2755
17.217	-8.29299	94.9335
19.1065	-8.6061	94.4052
16.7647	-5.50781	94.8161
35.0838	-13.5463	83.9056
34.1102	-9.81341	85.0798
32.0567	-11.9212	86.759
20.3302	-4.08691	93.1802
17.9432	-3.23134	94.2463
21.0968	-6.53463	93.2042
22.991	-4.62319	91.6284
19.4603	-1.51357	93.1383
44.9363	-16.9419	77.3684
44.894	-20.1143	76.3074
47.1971	-18.2375	76.0399
43.9559	-13.4763	78.7084
74.0081	46.5287	47.8393
71.9048	45.7925	50.6161
73.9465	40.2023	46.7528
75.8919	47.6345	44.8253
77.8426	48.7513	41.0929
80.0948	48.9994	35.7954
62.0092	45.7889	60.0341
61.694	43.677	59.1581
69.8861	45.087	52.8432
93.4696	39.7819	-37.6786
93.3698	36.0118	-40.9046
91.9836	41.7334	-41.6915
93.5614	42.342	-33.6938
90.6196	12.9808	-42.229
88.4911	12.3835	-45.372
83.8242	-21.0639	-18.1527
85.6359	-16.5493	-15.7999
83.5275	-22.9849	-11.9733
81.8057	-26.9164	-20.698
84.1333	-17.7453	-23.9763
93.1332	31.3353	-42.9503
88.3934	4.80642	3.98911
87.9163	0.582238	3.40598
88.8254	9.19428	4.33986
87.347	4.24729	8.37202
83.4494	31.8066	28.285
83.5514	39.8557	27.3435
83.1633	24.1684	29.3093
86.0284	30.4439	19.7861
63.7541	38.9204	56.5661
62.2448	40.5467	57.9556
61.4961	36.7025	58.5792
60.8451	42.0116	59.3159
59.1263	40.7777	60.6211
86.044	4.37347	14.691
84.5236	4.70308	21.5143
85.6502	-0.517702	14.0332
86.5306	9.50687	14.7155
32.225	22.2171	79.0656
35.7792	20.2324	77.336
31.139	26.4263	77.9754
29.5194	24.249	81.084
41.4566	17.1427	75.6601
47.9652	14.01	73.7196
42.6748	12.0337	76.6393
26.7364	26.4787	84.2453
24.1891	28.9944	88.2185
27.0731	23.208	86.0018
29.397	16.6004	84.2099
28.2855	18.8012	85.6587
26.0899	15.3016	94.0118
24.9636	16.0721	96.7136
25.6733	13.3409	93.2784
26.6889	14.4691	92.0433
27.0308	13.6567	90.2704
26.3443	11.3472	89.7047
47.0987	-2.9002	77.1687
42.3191	-1.0851	79.3037
48.4907	-7.40706	76.7665
45.6958	1.76798	77.4759
43.8052	7.02952	77.2279
15.6866	1.66943	95.4888
16.0346	-0.481037	95.0922
16.9606	1.38106	94.5976
69.0767	-18.9133	55.3705
69.4128	-13.2641	55.983
64.3697	-17.4003	62.1625
68.2279	-25.2304	55.0702
37.8965	-7.68836	82.3619
35.4506	-6.97313	83.8031
40.2596	-8.42905	81.17
49.38	-11.9733	75.9027
49.9595	-16.3501	75.0343
54.0634	-13.8518	72.6613
45.527	-10.4412	78.2962
16.3478	-2.73098	94.9142
66.9279	-31.8573	54.8775
70.5	-33.6202	48.045
62.6191	-28.4918	61.8669
64.3938	-37.3693	56.355
68.609	0.709226	58.2669
68.9672	-3.87173	57.7121
73.421	1.33697	50.6864
41.3506	-65.3647	73.6157
41.6108	-62.1231	75.4652
36.3122	-68.1425	78.5383
52.2303	-50.8747	66.1177
56.6657	-46.7706	62.403
50.7396	-46.2073	69.5035
46.9309	-54.6122	71.2808
64.7428	21.433	59.3335
62.857	26.3352	59.7045
58.6241	21.1808	64.7119
56.1227	39.333	63.1884
56.978	37.0872	62.4777
61.1875	29.8131	60.1598
55.7713	29.0234	64.4843
59.3792	32.5387	61.0329
54.3181	43.0226	64.8592
14.6852	-65.1868	93.355
10.7456	-65.3234	93.5857
58.2492	-25.4674	67.3631
56.8352	-29.8505	67.8117
58.9708	-20.6199	67.5363
53.743	-22.6531	71.681
49.038	-41.4749	72.2344
52.1455	-37.7713	70.2302
46.6482	-36.6103	74.7249
44.9388	-44.6367	75.3898
51.8539	21.9861	68.8062
53.2591	17.0963	69.7184
50.39	26.3582	68.2647
59.3298	-15.7289	67.8987
54.6347	11.9648	70.2635
21.5939	-54.4914	92.0041
20.9249	-48.7818	91.2538
26.1947	-53.5398	89.8231
31.005	-52.3316	86.8796
35.6996	-50.2827	83.251
30.2862	-46.6125	86.6638
49.1888	29.4668	68.0095
47.9855	31.8899	68.2171
42.0382	31.0146	70.5427
58.1521	34.8394	61.6601
53.4184	33.8804	65.2881
47.089	34.0288	68.4497
39.9553	35.194	70.5763
21.862	31.3374	92.1811
22.405	27.925	94.7397
21.3703	35.1467	89.1501
23.3849	21.4068	100.131
23.2229	22.7847	99.0357
21.2421	22.4438	104.478
23.5834	20.3843	100.376
20.6933	43.832	81.1625
20.8055	41.7215	83.2113
29.9734	30.3293	76.5709
12.3915	45.7646	93.7394
10.789	46.0611	93.8923
72.8766	33.8879	48.1718
21.044	38.7493	85.9286
73.8201	-33.7064	41.1471
77.2652	-31.6308	32.8216
76.8435	14.0768	44.44
77.0766	7.9456	43.7438
80.0616	16.2051	37.2666
77.042	-8.06112	42.166
77.1802	-2.76974	42.5948
73.6992	-8.43025	49.3645
79.6743	-7.68567	35.0968
77.2298	2.54224	43.052
80.1162	3.55364	35.8737
31.8903	-70.3536	82.1297
20.5059	-43.953	90.6626
16.5609	-44.3225	91.5666
24.9733	-43.0837	89.007
29.6319	-41.8434	86.6665
33.7861	43.8287	70.267
35.4821	33.2852	71.8581
34.6689	35.4056	71.5419
34.0396	37.019	71.2593
13.021	-44.5571	91.9869
9.75497	-44.5408	92.0011
16.836	56.624	86.9975
18.2984	55.6838	85.6273
17.5269	57.946	87.1992
15.0476	57.5008	88.0295
16.6067	54.7922	86.7783
25.1389	47.0622	69.953
24.9942	48.2925	70.1796
23.437	47.3527	71.9184
19.3584	54.4944	83.8662
20.3736	56.094	84.1748
12.8892	58.3084	88.6145
10.5256	58.5494	88.773
16.1227	9.17562	101.723
16.805	10.5404	103.385
18.9691	20.0049	109.197
18.9584	21.5514	108.794
21.4478	19.8317	105.257
25.3478	6.93036	87.3045
25.0578	8.08762	88.5031
23.129	5.56841	88.9407
18.6699	23.1578	108.209
16.8984	51.9044	86.3959
18.63	59.3769	87.6072
20.3687	58.4206	86.356
25.5045	49.6904	70.4698
21.7952	57.5288	84.817
22.6218	56.6457	83.0648
23.0476	55.6124	81.165
28.3389	0.512655	85.6861
25.5592	0.24005	87.754
30.5323	-2.73158	85.6111
32.7195	-6.32005	85.3446
29.4144	-5.64482	87.4975
36.7409	-19.7624	76.8096
36.438	-18.7273	76.3754
34.5722	-19.829	78.3393
36.9367	-18.493	80.1029
34.3121	-17.6363	83.097
35.68	-15.9779	75.7802
32.172	-15.7535	78.3536
34.3193	-12.8061	75.775
23.2235	0.077847	89.7222
20.8747	0.306893	91.5811
24.4809	-2.43416	89.7716
26.2245	-5.15592	89.5967
27.497	-7.75343	89.538
31.5934	-19.7859	80.5558
29.9493	-18.4071	81.03
28.8185	-15.48	80.6078
28.3385	-11.8094	79.8303
18.8263	0.835183	93.2709
18.3597	2.9164	93.4114
22.2371	-9.11298	93.1
25.4869	-9.57519	91.3403
26.9118	21.1111	88.2714
24.9569	23.057	92.6618
13.6497	29.2154	107.135
11.6771	29.4809	107.302
22.7785	25.094	97.3084
17.6945	12.6614	105.651
19.7224	12.7077	102.334
21.8209	12.6196	98.7729
22.6675	14.6689	99.7324
23.7885	12.1622	95.1189
24.8443	11.3815	92.6618
25.1092	10.2392	90.9051
25.0924	9.14781	89.5668
23.533	19.3899	100.775
23.3965	18.1649	100.893
23.1263	16.5158	100.553
51.2251	-116.647	14.2189
46.4492	-118.306	17.6658
52.1637	-122.294	13.0886
55.5217	-114.846	10.721
50.0318	-108.92	15.7887
48.9554	-98.1152	17.768
53.2564	-96.1943	13.6211
48.7946	-88.5379	19.4252
44.3197	-99.9323	21.996
52.4094	-71.9032	25.6015
56.5708	-69.193	20.2866
47.9033	-74.5611	30.813
51.1335	-76.6095	21.8752
49.7504	-81.8244	20.3801
45.1494	-83.9693	25.5922
53.8796	-79.468	15.7307
55.0686	-34.015	68.5019
58.2104	-37.9623	64.1246
51.3652	-30.0756	72.2354
61.2295	-42.2525	58.5773
62.6398	-46.3877	53.9887
63.0869	-50.2006	50.0035
48.5035	-26.8629	74.2995
49.4942	-23.739	74.1107
46.0287	-24.032	75.431
46.6784	-29.5163	75.0381
44.3107	-22.5292	75.9943
43.2424	-24.2469	76.1974
60.3174	-66.4325	15.3742
62.3952	-61.9928	18.6836
58.9205	-71.3291	12.6435
63.8259	-63.8878	10.1248
65.0188	-57.6537	23.1375
67.8011	-55.3386	16.357
67.6685	-53.6384	27.0619
69.7424	-49.988	30.9662
72.278	-47.8378	23.5254
57.2541	-94.1173	9.4244
58.2232	-105.157	8.21897
61.0587	-92.3939	5.14123
57.0799	-84.3003	10.3573
59.3678	-113.095	7.1003
60.53	-118.997	6.02698
62.9462	-111.352	3.19436
57.7208	-77.0196	11.229
82.5311	4.37148	28.7051
82.1932	-1.28714	28.3844
82.8279	10.4333	29.0259
74.0816	-45.8665	16.2994
72.1278	-49.4274	13.0891
75.3963	-44.0164	9.15187
83.2899	48.2996	27.275
86.5312	46.0901	16.6199
79.7114	-29.229	24.6872
81.364	-26.7438	16.67
81.8487	-6.94559	28.0558
83.7246	-5.93283	20.67
82.9466	17.3275	29.6479
85.277	16.4967	21.7989
85.1587	-5.49821	13.4726
86.3899	-4.64289	6.97746
71.7649	-59.3595	-5.74936
71.2023	-64.4989	-6.98031
73.5954	-58.6293	-10.5503
72.5403	-54.7522	-4.17039
69.5756	-60.381	-0.790503
70.7812	-70.2009	-7.6774
73.6227	-50.3888	-1.91716
71.9661	-51.6669	3.67583
75.0812	-49.4462	-7.56519
74.9135	-46.3632	0.21071
88.0459	29.1928	11.3708
88.531	36.7436	8.89847
87.4471	21.6243	13.6413
88.9614	44.7198	6.05012
89.2671	52.2758	3.59573
89.494	59.9542	0.502687
90.8383	58.924	-10.1769
89.6542	67.5917	-3.08455
82.3426	-25.0776	8.64764
82.9416	-24.1048	0.81901
86.9466	15.271	14.7045
88.2574	14.1708	8.53844
64.7527	-90.6131	0.524641
65.4429	-101.633	-0.277188
70.1055	-53.3601	9.95442
68.2831	-57.482	6.96176
66.3195	-109.488	-1.16072
67.3241	-115.235	-2.29007
73.9345	-85.1051	-17.4115
74.1928	-94.5594	-18.617
75.0298	-57.8381	-15.3028
75.9762	-55.8681	-20.3061
75.6589	-53.0312	-14.3394
76.5064	-48.2444	-13.0579
74.4899	-101.576	-20.0299
74.7289	-107.109	-21.9133
83.1998	-23.9384	-6.24299
87.3863	-3.56309	2.56983
88.4162	-1.96844	-0.613557
86.9215	-7.42311	1.07932
89.1997	13.8051	4.46039
74.8316	-63.6504	-28.1856
73.4405	-59.2316	-34.9074
75.4931	-57.1904	-27.0919
76.4661	-51.0599	-26.1295
75.839	-44.4242	-32.0742
79.9758	-33.4798	-22.5573
86.833	-13.8771	-14.519
87.9258	-11.4015	-20.9984
69.8396	-90.1932	-45.8367
69.8259	-97.8693	-47.1947
66.4457	-87.375	-52.8082
69.9313	-81.9636	-44.3986
84.9035	-12.7559	-28.6636
87.255	-8.95495	-26.9874
88.9075	-7.20081	-26.299
41.4558	-119.733	20.884
40.3469	-112.199	23.0765
36.3969	-121.027	23.7575
42.5254	-125.112	19.1896
39.6709	-85.7515	31.4524
33.4194	-87.4939	37.2528
38.631	-92.1556	29.5172
41.1127	-81.2792	33.3298
47.0441	-69.71	47.2242
44.5399	-73.1963	41.9622
49.1141	-66.7919	51.6972
42.5356	-77.1368	36.9427
36.5337	-79.4445	42.8873
39.1344	-101.408	26.3908
33.7282	-103.158	30.397
44.5777	-32.4431	76.1861
42.8985	-28.6753	76.8166
50.525	-64.3391	55.2793
41.8261	-26.2294	76.9353
39.5373	-28.3207	78.5936
40.7948	-24.4269	77.0093
39.9199	-23.0241	77.0325
38.0629	-24.6399	78.5126
40.533	-47.8362	79.1811
41.2452	-53.0162	78.1767
41.7778	-58.1569	76.7571
32.6454	-21.9282	82.0399
29.1932	-22.1742	85.6889
32.5025	-21.1953	80.6132
36.1305	-20.9503	77.9717
32.715	-21.3627	80.15
28.5283	-21.134	83.8843
32.8012	-21.7728	79.8441
32.9134	-23.1928	79.3983
28.7838	-21.758	82.7225
32.6322	-26.7309	79.2514
31.8101	-31.3539	79.805
28.814	-26.3842	81.5464
27.0907	-88.8619	41.8486
28.3061	-85.0157	44.2842
27.0157	-95.1062	38.5708
31.2451	-122.316	26.2983
30.0464	-115.057	29.183
26.1494	-123.283	28.4296
32.3566	-127.315	24.2415
28.4344	-104.611	33.8529
18.7527	-83.5936	52.6602
23.4173	-83.0747	50.9922
20.7319	-81.3243	58.8924
21.6769	-123.958	29.9472
22.756	-128.743	27.7855
22.3354	-79.7622	66.2337
24.8761	-20.7902	86.6609
24.8297	-21.0283	85.9241
24.8684	-21.5621	85.2482
25.2681	-22.8693	84.2296
25.1998	-26.0875	83.4341
24.9859	-30.7294	83.174
84.9164	77.4859	14.7955
87.773	76.1202	3.70188
84.9914	84.8515	9.64402
81.1781	79.3708	25.6672
91.2674	57.6248	-20.0772
85.5176	10.6219	-50.3515
82.6659	8.6741	-55.2057
63.5517	-65.7894	-55.5641
64.2864	-55.4672	-54.4831
66.6924	-68.987	-50.1528
63.3036	-76.0875	-56.7043
60.2663	-63.4329	-60.402
63.3124	-85.0459	-57.998
63.5648	-93.5418	-59.182
59.9763	-83.2877	-62.65
71.0581	-53.4878	-42.111
70.3078	-63.2566	-42.6527
68.226	-48.9187	-48.3979
72.4684	-44.8181	-40.72
33.2424	141.052	22.7021
40.1228	138.18	22.5105
33.1014	146.142	7.19679
26.041	143.071	22.9277
32.6401	131.731	-78.6998
33.2832	140.339	-62.7634
39.7582	129.701	-76.7936
31.8663	120.943	-91.8996
25.1758	133.154	-80.1354
31.4067	109.094	-101.455
38.281	107.44	-99.4474
31.122	95.9633	-108.661
24.4254	109.868	-103.069
33.3985	146.104	-45.5927
40.6136	143.592	-43.9498
25.8722	147.932	-46.6731
33.3403	148.954	-27.6329
18.056	152.255	-10.5812
10.0701	152.679	-10.7255
18.0674	149.565	6.90001
25.7711	151.003	-10.2641
18.0583	152.126	-28.8787
30.8554	82.9919	-113.591
37.2809	81.6487	-111.542
30.5406	69.527	-116.869
24.3394	83.751	-115.057
30.0321	55.4613	-118.674
36.3637	54.4931	-116.483
29.5252	41.5813	-118.847
23.7171	56.3987	-120.187
27.4581	2.99429	-107.938
33.3035	2.23653	-105.779
27.1971	-8.75777	-100.669
21.8729	3.10451	-109.095
28.2464	15.5976	-113.767
16.5379	29.55	-120.02
10.1492	29.6218	-120.353
16.7574	42.7103	-121.441
22.7764	29.1257	-118.998
16.2246	16.6975	-116.456
25.4245	-55.9556	-83.4564
25.7638	-46.3534	-84.4046
30.8194	-56.7411	-82.1451
25.1859	-65.4722	-83.101
20.2429	-55.5106	-84.1984
15.0049	-74.0867	-83.7388
20.0487	-74.5349	-83.4554
15.1114	-83.7649	-83.5319
10.1467	-73.8627	-83.8213
15.1184	-64.3651	-84.0641
27.4066	-18.053	-94.6937
32.7644	-18.6399	-93.1505
27.0673	-26.3749	-90.215
21.6319	-17.5794	-95.6861
26.3091	-35.9432	-86.659
32.036	-37.0721	-84.956
20.9346	-35.1294	-87.6257
15.5475	-34.8328	-88.0555
15.7839	-25.4428	-91.6514
15.2772	-45.4385	-85.6797
10.1329	-35.0127	-88.0906
58.7214	125.984	19.4908
64.5293	120.512	18.1326
59.4993	130.15	5.66313
52.8006	130.607	20.9164
57.3648	100.348	-89.4052
62.8632	97.2097	-85.1666
57.0255	88.4391	-96.2124
51.4921	103.021	-93.2329
57.7429	111.14	-80.2092
58.0781	120.524	-68.1576
52.3692	124.156	-71.4111
58.7219	127.436	-53.9731
63.6464	116.098	-64.5764
59.431	131.572	-39.1752
65.2357	125.894	-37.4253
53.5692	136.276	-40.7787
60.2465	132.917	-24.2438
60.0335	132.605	-9.17048
53.895	137.689	-9.02378
65.9049	126.772	-9.30559
56.4027	76.3503	-101.138
55.7393	63.7783	-104.403
50.4834	78.2669	-105.067
61.8684	74.1143	-96.8361
54.7865	51.0298	-106.241
60.1659	49.5809	-101.908
53.827	38.1085	-106.362
49.1011	52.1629	-110.067
52.5553	25.5962	-104.929
51.2852	12.7143	-101.441
47.2585	25.934	-108.561
57.4327	24.8502	-100.756
50.5574	0.118389	-95.6613
55.3673	0.388852	-91.8583
50.082	-10.846	-89.3788
45.1512	0.734721	-99.5476
49.5892	-20.3914	-83.8106
48.9746	-29.9366	-79.0105
44.2589	-20.186	-87.4805
54.3207	-20.5896	-79.5819
46.8935	-58.6438	-74.2385
45.9179	-68.6306	-75.1353
41.6755	-58.1867	-77.5938
47.8541	-48.9831	-74.1466
51.6532	-59.6525	-70.2779
35.3037	-76.1034	-80.59
35.4472	-84.9794	-80.7712
30.1231	-75.3927	-81.9963
35.6372	-66.9947	-80.3757
40.5667	-77.0337	-78.5264
48.419	-39.5623	-75.7
53.2689	-39.9279	-71.2264
43.3556	-38.8991	-79.3984
77.8257	99.6743	-51.2547
78.9732	103.492	-39.7181
81.9049	92.9216	-45.4832
76.9906	93.6296	-61.7691
73.4536	105.641	-56.4483
79.815	105.595	-28.2847
83.7062	97.8271	-23.2044
75.4263	112.901	-32.3535
80.29	106.405	-16.9867
79.5318	106.962	-6.05098
82.4863	99.5883	-1.35655
75.7394	113.866	-8.2696
66.6882	71.8502	-92.3185
67.3504	83.0213	-87.3513
71.0743	69.1841	-87.507
65.9866	60.0262	-95.5689
67.6823	93.9221	-80.6979
68.097	103.373	-71.9786
72.2163	90.0069	-75.7907
62.2613	24.1545	-95.8287
63.9796	36.1267	-97.1459
66.8975	23.3358	-90.3286
60.605	12.1231	-92.7642
65.068	47.9397	-97.2051
69.6081	46.5612	-92.1304
59.6715	0.876945	-87.7637
63.8899	0.9339	-82.7033
59.2955	-10.2175	-81.11
58.5432	-19.9285	-75.3662
62.3281	-18.2826	-71.3834
58.1394	-40.5897	-65.6509
62.3332	-43.1313	-59.2372
57.1896	-50.7535	-64.8282
88.0133	64.8637	-47.2299
87.1855	58.9511	-54.7466
85.9354	70.2305	-52.8345
69.7545	114.48	17.3802
70.4863	118.573	4.1656
89.224	75.0377	-7.23088
88.3969	82.5583	-12.2016
77.6698	22.6129	-74.5797
74.4662	22.4973	-79.6998
79.0524	32.0101	-75.9488
80.6501	22.3054	-69.05
75.9515	12.8059	-71.8398
79.7953	41.5028	-76.5483
76.764	43.2587	-81.9775
80.6051	50.5257	-75.0225
82.6867	39.443	-70.5168
81.4173	59.6656	-71.6135
78.3338	63.1177	-77.2442
82.3559	68.0141	-66.0835
84.1726	55.8541	-65.7227
70.8585	-12.2625	-60.7714
68.1096	-14.5764	-64.2724
72.3939	-4.58493	-64.5801
73.6153	-10.0147	-57.0167
69.539	-20.1058	-57.1091
79.8637	6.97349	-59.8385
78.1258	-0.325281	-56.6416
77.1404	5.31082	-63.9707
81.6407	14.4125	-62.1432
65.5794	-45.797	-53.695
66.9671	-36.5752	-53.7083
88.9817	-6.29544	-6.21943
89.4051	-2.584	-4.13694
87.462	-9.2446	-4.06461
89.2817	-0.772383	-2.66297
92.2071	24.5426	-3.79417
92.9125	29.6348	-5.84906
104.207	34.3921	-38.9295
104.29	40.2113	-36.4498
104.84	34.0094	-38.226
95.0642	-4.9157	-26.0405
93.9592	-7.66603	-22.7565
103.856	44.9338	-32.8521
102.884	45.2372	-33.3443
103.174	48.1007	-28.6759
104.745	44.2781	-32.3021
97.6403	40.3658	-12.3419
96.3176	40.336	-13.0003
102.426	49.4559	-24.3853
103.358	48.759	-23.6649
99.6869	11.5409	-35.9743
96.5174	-5.46529	-18.7215
95.9122	-5.24493	-16.0818
94.8941	-7.61021	-19.2681
93.301	32.1345	-7.52815
99.1428	47.7985	-19.9607
97.2977	44.8034	-17.3749
98.0724	46.9224	-21.5421
95.0012	40.5907	-14.4155
94.1175	40.9933	-15.9849
102.209	45.0786	-33.5687
93.3703	40.7056	-17.4251
94.5771	42.6143	-20.0239
96.0825	44.4442	-23.5525
93.9782	42.3134	-24.6819
99.1727	3.18518	-28.9597
99.2832	1.75287	-21.4168
93.3865	-8.82233	-19.7754
95.1316	-4.27962	-13.8277
96.212	-1.35593	-13.7407
97.0798	0.993565	-14.5739
97.5246	2.51938	-15.4531
105.034	33.7246	-37.8203
105.398	39.3352	-35.4273
101.953	46.2183	-16.3221
102.141	45.5953	-16.055
103.117	47.8066	-19.3329
102.124	44.9963	-15.9282
103.339	46.6621	-18.8926
101.962	43.9264	-16.1144
105.125	43.7438	-31.9519
104.564	46.6667	-27.7907
105.24	43.2529	-31.8258
103.923	48.0613	-23.208
104.147	47.4747	-23.1076
104.16	46.9004	-22.8537
104.713	45.6409	-27.4475
105.201	42.8849	-31.5154
104.547	29.416	-36.8517
101.708	42.6229	-16.6781
99.231	35.4939	-14.3654
103.608	42.2346	-25.0924
104.08	26.3439	-31.8036
104.101	28.2295	-31.4739
104.002	30.1038	-30.8623
103.779	31.6086	-29.9401
103.415	32.8402	-28.6792
102.503	33.7141	-26.1421
95.3771	6.14013	-13.1831
96.6377	4.48415	-14.8526
97.4085	28.9732	-11.519
94.0295	14.1949	-11.1535
97.6147	3.22954	-15.9341
43.0384	56.417	75.0789
45.1757	121.436	46.7528
46.0945	128.422	35.3
18.4087	129.172	49.6873
18.3677	137.336	37.2835
10.0786	129.655	49.6914
46.5252	134.805	21.7738
46.907	139.525	6.96043
18.1976	144.351	23.0218
10.0481	144.845	22.8948
33.0923	148.936	-9.82622
40.3387	145.979	-9.38793
47.1741	142.281	-9.21771
47.4251	142.55	-25.6907
76.6405	81.788	35.7165
84.1634	92.0978	4.01477
86.0522	91.042	-6.82136
71.0016	120.723	-9.35745
71.2617	120.762	-22.3824
18.0471	149.057	-47.2358
17.9697	143.016	-64.7829
10.1113	149.438	-47.399
47.1352	140.452	-42.1447
46.821	135.258	-58.84
86.4238	90.1002	-17.6848
86.1283	88.718	-28.6352
70.3731	119.877	-35.3547
69.4859	116.764	-48.1214
85.1424	86.1359	-39.495
84.1696	81.8637	-49.8004
83.2056	75.878	-58.6781
80.0384	80.9242	-64.6371
56.2903	-61.583	-65.4605
55.5764	-71.7391	-66.727
55.5951	-81.1923	-67.6838
55.6929	-89.8721	-68.8226
50.5716	-79.2524	-72.2615
17.6727	134.1	-80.7965
17.4084	122.708	-94.2933
10.1521	134.296	-81.1847
17.3822	110.298	-103.992
17.4237	97.2074	-111.025
10.1605	110.415	-104.303
17.4452	84.184	-115.938
17.3062	71.0045	-119.215
10.162	84.3708	-116.216
17.0173	57.0411	-121.113
10.1683	57.0681	-121.439
28.9517	28.4458	-117.307
35.1078	27.495	-114.951
15.8965	3.30797	-109.888
15.8835	-8.89006	-101.846
10.1315	3.19306	-110.03
15.8766	-17.683	-95.9456
10.1269	-17.8896	-95.8975
15.2067	-55.0234	-84.5799
10.143	-54.803	-84.6897
44.9708	105.428	-96.6979
45.5143	117.015	-87.179
44.5337	92.831	-103.692
46.1284	127.171	-74.5206
43.9492	80.1188	-108.626
43.4177	66.981	-111.853
42.7793	53.4686	-113.579
42.1515	39.742	-113.624
41.3058	26.6561	-111.989
40.3128	13.8911	-108.47
39.2835	1.48877	-103.001
38.5807	-9.85233	-96.5412
38.5361	-19.4411	-90.7238
38.4377	-28.5183	-85.9367
37.7511	-37.9836	-82.5949
37.0659	-47.8775	-80.6969
36.3988	-57.4048	-80.1767
45.7412	-77.9622	-75.7419
45.933	-86.8553	-76.3082
68.595	111.361	-60.7252
76.3093	85.9946	-70.2368
75.6797	76.3787	-77.3203
74.8559	66.5129	-82.5562
74.1173	55.8308	-85.8416
73.3595	45.0817	-87.2096
72.4633	33.9515	-86.6661
70.844	22.6732	-84.9908
69.0768	11.8493	-82.0931
67.5109	1.8284	-78.1397
70.9318	2.46575	-73.1172
66.3499	-7.99164	-72.8458
65.3132	-16.4561	-67.9139
68.4598	-28.3268	-54.3013
70.7205	-26.7535	-50.9462
86.2947	52.6695	-60.2763
85.6428	45.3026	-63.4745
88.3015	48.9172	-54.3011
83.0826	22.2622	-64.1057
84.2563	30.1241	-64.9395
74.0639	3.77005	-68.5698
84.9724	38.0056	-65.0531
76.3962	-7.55819	-53.3589
74.9202	-14.7855	-50.2329
29.8654	-81.5639	47.9235
76.5413	-42.3482	2.36137
66.8781	-61.8624	4.73631
24.423	-14.037	91.9842
27.7441	-14.7495	89.7216
31.0399	-16.2387	86.6162
19.3026	-24.6555	93.3282
19.7597	-25.6896	93.4371
20.0741	-26.8045	93.4591
36.2492	-31.0498	81.5618
35.6452	-28.971	81.7618
34.9764	-27.2152	81.9868
28.89	-10.5555	88.9908
50.0691	-20.2356	74.3903
38.6033	0.0553319	80.4484
40.8489	-4.6461	80.5058
42.5057	-9.26284	79.9013
69.3503	-8.40264	56.7506
27.8458	53.2645	72.9586
90.13	45.257	-47.9441
93.041	44.1055	-28.8681
93.7467	42.2089	-26.5592
86.1678	-12.0189	-0.686541
33.7098	42.5532	70.5597
63.5525	67.9705	66.0589
18.3544	4.5394	93.6024
56.5298	48.7817	64.942
21.1263	5.88234	91.2311
93.6501	42.0327	-25.5338
69.9587	-72.8682	-43.5275
74.8195	-36.264	-38.8236
73.7012	-29.509	-43.9163
73.4948	-23.5089	-47.5712
30.8269	8.50421	82.116
25.8129	-22.2119	88.5702
37.9944	-20.8298	76.8703
17.7178	-19.0365	90.2783
-64.5985	-14.2248	11.923
-65.0811	-9.39419	13.3012
-65.5966	-12.8155	4.9493
-63.9619	-18.9361	10.52
-63.3669	-15.4503	19.9766
-50.1488	-87.307	-8.3499
-50.1728	-76.9396	-7.95785
-52.2247	-85.8299	-12.8221
-50.6356	-97.6503	-9.33266
-47.4687	-88.6049	-3.96459
-51.2747	-105.096	-10.4617
-48.8456	-107.13	-5.79222
-53.0167	-103.127	-15.1429
-51.8392	-110.934	-11.5662
-44.3665	-71.9364	2.20268
-47.857	-70.5157	-2.87108
-43.9639	-79.5867	1.28986
-40.6469	-73.7723	7.01948
-45.436	-66.0069	3.24267
-53.9481	-67.8577	-16.0473
-52.5482	-68.6126	-11.7582
-54.4091	-62.2542	-15.6511
-54.737	-66.394	-21.0616
-53.6204	-74.9942	-16.5339
-58.8423	-35.7854	20.9405
-59.8569	-34.132	13.7993
-57.0899	-40.3266	18.5848
-56.9438	-38.0676	27.5566
-60.0678	-31.4307	22.9869
-63.6056	62.0361	24.3019
-67.0569	60.6077	12.514
-63.1226	54.7495	27.1071
-59.5194	64.7045	35.3379
-64.3664	69.7002	19.9874
-69.288	72.1953	-28.5965
-70.5733	64.919	-23.8417
-69.6963	73.9176	-17.9496
-67.5706	79.1585	-33.6945
-68.7172	69.2018	-38.3054
-0.0722635	-89.7623	45.6099
-0.957348	-85.5711	48.0476
-3.30825	-89.1664	43.9866
0.393932	-96.4785	42.9569
2.44342	-90.0928	46.606
-0.174508	-106.672	37.8395
-0.933338	-116.906	32.8194
3.2905	-107	39.1465
-3.97873	-105.612	36.139
6.29435	-124.647	31.4849
5.9262	-129.359	29.5057
6.52276	-117.66	34.605
2.4445	-124.301	30.8791
-59.9124	-22.7641	-32.8852
-60.4665	-15.1615	-37.0068
-57.2388	-29.0097	-35.2742
-59.6918	-29.1062	-27.7497
-62.4641	-16.5314	-30.5592
-61.1563	-9.743	-40.01
-64.2814	-5.02294	-36.8344
-61.881	-5.04435	-42.4206
-57.4858	-15.6621	-43.4019
-53.8986	-95.8116	-31.2918
-54.4468	-99.0166	-24.942
-52.3099	-92.9119	-37.9873
-53.6853	-102.473	-33.5236
6.58144	-107.359	39.8461
6.28655	-97.2054	44.9354
-61.6431	-17.574	27.5147
-61.2608	-22.996	26.2458
-59.5741	-18.9303	34.254
-62.0034	-11.7164	28.1931
-60.5232	-32.517	6.25911
-61.9679	-27.9513	7.74714
-60.7678	-31.9581	-1.58635
-58.8408	-36.9676	4.42522
-0.353856	-64.5523	91.0632
-0.498351	-60.0069	91.7227
-5.1723	-64.2587	88.1873
-0.622312	-68.8669	89.088
3.65175	-64.8194	92.6825
-10.2558	-63.1388	84.4276
-10.2584	-57.9751	85.2136
-15.343	-61.2104	79.7611
-10.3332	-67.4967	82.65
6.32855	-55.4156	93.77
6.7387	-60.6035	94.1011
6.38915	-49.8086	92.7137
2.89021	-55.1489	92.878
-0.890283	-72.5608	86.1
3.13392	-72.8122	87.7521
-5.62321	-72.0767	83.4088
-1.38757	-75.5225	81.9585
-2.00737	-77.5952	76.8547
-2.22281	-78.9007	71.164
2.54152	-78.2792	78.3528
-6.33866	33.8716	79.5782
-3.6378	36.2668	82.3782
-5.77893	37.6619	77.4091
-9.14282	32.1444	77.1058
-6.85055	30.1587	81.4929
-36.8697	3.52274	71.3758
-37.9559	-0.73586	70.7092
-31.292	5.38883	74.7644
-35.9672	8.14556	71.5859
-42.7797	2.50433	66.4001
-47.1554	12.0841	60.6099
-47.9609	6.97889	60.2891
-41.0466	11.9956	66.8823
-46.129	17.5227	60.6978
-52.946	13.2868	52.7384
-58.5038	32.3997	41.1681
-56.1431	33.8246	45.1205
-58.3246	40.1477	40.7836
-60.5549	31.8013	36.6084
-38.7456	-4.91208	69.5669
-33.0817	-3.47192	73.9709
-44.4895	-6.01029	63.8409
-39.1519	-9.52443	68.5618
9.72759	37.3048	100.276
7.73483	36.7503	99.6118
9.87507	33.1508	103.798
9.35569	42.0103	96.4996
-21.2152	96.6485	71.7174
-22.2915	102.555	67.1965
-26.9027	95.1273	68.6793
-19.869	90.0475	76.7174
-15.9339	97.4812	74.0118
6.33133	-81.2215	67.1647
6.42641	-80.1287	73.5804
2.54148	-80.8674	66.1633
6.24669	-82.2299	60.1309
-56.9828	-19.2949	40.7854
-57.3766	-12.7566	41.7332
-56.1139	-26.2205	40.0648
-53.5896	-18.975	47.6607
6.91687	-73.1182	88.489
6.71722	-76.3421	84.1852
7.21132	-69.4441	91.4808
6.54391	-78.6325	79.1121
-30.9659	-61.328	56.5336
-31.3081	-57.7063	59.6628
-36.5747	-57.3801	51.4155
-30.0518	-64.1177	54.0174
-25.5796	-64.2618	62.7593
-36.296	-63.9201	33.607
-31.2131	-67.3039	38.9255
-39.0588	-60.6741	37.1934
-40.9538	-60.4917	28.1731
-33.2988	-67.5971	29.5024
5.6233	-83.6918	53.8624
4.45581	-86.0992	49.7913
2.51866	-83.5135	53.0395
4.47842	27.9756	104.223
7.23381	28.8256	106.165
4.96028	31.6389	101.272
1.39603	26.7256	100.812
4.06293	25.1651	106.546
-15.3816	13.6101	79.3292
-11.7379	16.8412	80.9484
-13.8113	18.6906	79.1223
-19.3893	10.6186	78.304
-21.4793	-21.8141	76.1961
-19.4329	-21.9602	76.4295
-20.0712	-20.9293	76.4306
-1.24055	8.29621	92.149
-2.88395	8.04095	90.2228
-0.633394	7.26156	91.7674
-2.64752	9.76354	92.105
-1.01921	3.92891	90.0719
0.785548	4.29789	91.7828
-0.790791	4.91708	90.339
-3.21572	3.86517	88.0827
-1.58286	2.42696	89.8408
9.38959	6.77762	100.532
7.57645	7.0528	99.6439
9.21065	5.74005	99.1439
9.43954	7.8517	102.343
-5.76536	4.57725	86.0513
-6.48524	3.10736	85.8443
-5.22246	5.59282	86.526
-8.2921	6.19651	84.1551
3.77731	17.1566	108.56
3.63728	18.8096	109.082
1.03732	17.3156	104.544
4.00854	15.1983	107.331
6.46748	16.7838	111.127
-17.2631	-37.9656	79.3558
-18.5203	-42.8319	78.3373
-13.2327	-40.0631	82.4522
-15.8964	-33.8576	80.2801
-20.5813	-35.3289	76.9333
-19.6841	-15.9049	79.6543
-21.8357	-16.5459	78.3363
-17.3056	-15.1838	81.3934
-18.6589	-12.2643	81.5149
8.63105	1.44425	96.5082
8.91613	3.37163	97.3049
6.74599	1.74043	96.0112
8.25764	-0.879213	95.9129
5.09714	35.5738	98.0131
4.74912	39.5536	94.503
1.95744	33.6594	95.188
-7.52065	15.961	87.4905
-8.02572	16.3709	86.0824
-7.70112	14.4163	86.6656
-6.7814	16.8562	89.686
-6.63347	17.8139	89.7945
5.68302	5.40813	96.5144
7.21998	5.12619	97.4865
5.73934	6.43116	97.1821
4.15873	5.21049	95.1054
5.67783	3.76332	95.8807
5.96153	7.26973	98.2884
6.12149	8.24426	99.8917
-5.88171	17.9194	91.9466
-6.32944	16.2201	90.8507
-5.63448	18.7793	92.3052
-7.48727	11.7562	86.0525
-6.56892	9.06638	86.2096
-6.76901	13.1126	88.2359
6.97193	-9.22588	95.5015
7.3372	-6.38186	95.3822
4.37243	-8.50908	95.1785
6.69521	-11.2042	95.6785
-13.6745	0.680243	82.4777
-11.6582	5.09141	82.2842
-16.2505	0.422138	81.3968
-15.7896	-3.81542	82.749
-10.9331	0.735171	83.9241
-0.306718	-36.8372	90.1745
-4.41105	-35.8464	88.4757
-0.571243	-39.94	89.7272
3.48742	-37.4212	91.216
-0.0778602	-34.2828	90.8728
-15.0636	-17.6041	81.6275
-14.771	-16.0873	82.9446
-17.7801	-18.7578	78.5024
-15.4935	-18.2339	80.7646
-5.45909	19.3697	92.2248
-3.89574	20.6245	95.1894
-5.71512	19.9472	90.775
-8.30169	-34.5484	86.2332
