1935
-46.948	36.4329	70.434
-42.8439	40.5359	73.2045
-47.779	39.8475	68.8488
-52.5404	33.5877	64.186
-7.65124	-27.7052	96.1495
-7.84616	-27.2046	96.6672
-8.31905	-28.2185	95.1817
-6.59845	-27.8167	96.8005
-8.03694	-26.5496	97.5573
-8.96067	-26.2425	97.3023
-6.96234	-26.1688	99.0508
-44.7335	17.7425	63.3147
-44.3846	18.3878	63.7102
-15.2987	-18.4438	95.1712
-14.3204	-17.6586	96.7862
-15.671	-18.3731	94.3008
-15.357	-19.4797	95.1253
-64.4448	76.3753	14.8733
-66.5244	77.1324	5.16211
-65.0621	71.7284	19.4292
-62.0933	79.8694	16.0796
-25.394	-63.0377	78.2493
-24.4523	-62.7527	79.5147
-25.775	-63.8217	77.421
-25.8901	-61.2481	77.6821
-25.1928	-52.2695	77.8814
-25.7426	-54.2349	77.5034
-25.3904	-50.6818	77.1333
-24.018	-52.5308	79.2812
-10.2138	-26.001	96.7027
-10.6518	-25.0515	97.4117
-11.3309	-26.7617	94.861
6.81529	-26.5782	97.283
5.80929	-26.1606	98.9077
6.49292	-27.3055	96.3526
6.20009	-27.8365	95.8509
5.0826	-27.9684	96.6044
-8.87873	-28.9037	94.2276
-9.90529	-29.057	93.4954
-8.69053	-29.5555	93.9942
79.5589	-34.3126	-25.7407
77.7964	-34.8954	-25.4892
80.2034	-31.1492	-28.4261
80.7228	-34.6555	-25.1199
78.3389	-37.5957	-22.2568
68.3591	-46.9192	13.5158
66.7884	-48.5325	21.3525
67.3641	-51.403	12.4578
69.7573	-45.0229	6.58156
69.2758	-42.1766	14.5521
58.6514	-115.931	-6.79212
58.2554	-105.644	-6.06269
56.1151	-117.139	-2.49692
59.4093	-126.238	-8.12337
60.6266	-114.548	-11.2296
60.1761	-133.686	-9.50119
60.8429	-139.565	-10.8104
61.8775	-131.799	-14.1258
57.8149	-135.646	-4.93188
52.5305	-100.425	4.11474
53.0605	-94.3907	5.41536
49.2069	-102.186	8.67071
52.514	-108.108	2.93212
55.673	-99.1583	-0.811139
61.489	-96.915	-14.0535
61.5513	-103.911	-14.7056
62.3196	-95.5642	-19.2408
61.588	-91.4403	-13.5588
60.0882	-97.5447	-9.6815
60.89	-66.2347	24.9107
61.9391	-62.4855	26.6962
58.2934	-67.9383	32.881
59.7451	-69.9904	22.39
62.6144	-64.9511	16.8051
72.6066	32.6349	24.7756
73.5305	40.5995	20.4016
68.6464	35.6441	35.6241
71.9402	25.0019	27.6476
75.9253	31.0485	13.0167
78.4454	42.7018	-28.2854
77.8942	39.6095	-37.9978
76.9186	49.7065	-33.4564
78.8224	44.5213	-17.6244
79.5205	35.3395	-23.4508
7.20225	-115.715	38.422
4.46592	-115.802	39.0203
7.715	-122.545	36.7496
10.5395	-115.438	37.4932
7.15504	-111.445	40.7406
9.19747	-133.257	33.3889
10.4588	-144.043	29.7116
12.8844	-132.332	32.0537
5.86477	-133.488	34.3856
3.72095	-152.145	28.7865
7.41584	-151.783	28.3048
3.32247	-144.765	31.1229
0.169762	-152.181	28.9573
4.16508	-157.088	27.3117
66.6543	-52.9458	-31.4911
68.9942	-46.9017	-29.2105
66.1458	-59.3057	-26.1797
64.224	-59.0252	-33.8306
67.4105	-45.3813	-35.7497
68.3241	-39.9649	-38.8552
64.8125	-45.7658	-42.237
69.2383	-35.2445	-41.352
71.3334	-35.3394	-35.6996
62.6842	-124.73	-30.3004
62.6646	-131.397	-32.7028
61.1284	-121.915	-37.0571
63.2521	-127.851	-23.9189
2.76698	-133.821	34.8856
2.03829	-123.008	38.0872
-0.1673	-133.846	35.0374
64.8237	-49.3789	29.6435
65.8097	-44.1357	29.9184
62.5105	-49.6541	37.4369
63.8907	-54.1136	28.9535
63.8851	-63.5833	8.93801
62.5677	-67.4564	7.23483
64.8639	-62.868	0.844121
65.1653	-59.5605	10.2161
8.55332	-92.0613	86.9703
5.08416	-92.3895	88.3238
8.49485	-95.9912	84.8302
12.0709	-92.1843	84.7722
8.38192	-87.9334	88.2931
15.5909	-91.9503	82.062
15.3682	-96.2035	79.622
19.6622	-90.9121	78.5322
15.8731	-87.0774	83.5703
2.01895	-84.1986	90.7882
4.90387	-83.7788	90.1477
2.33776	-79.5863	90.6626
-0.676819	-84.506	90.9915
1.82455	-88.6793	90.2782
8.30004	-99.4263	81.6873
8.27074	-101.942	77.6362
11.6847	-99.5654	79.4202
5.01656	-99.4959	83.0905
8.57752	-103.449	72.8
5.05452	-103.789	73.6419
8.89293	-104.129	67.3122
14.5412	1.56759	79.1409
15.2714	-2.77717	81.3483
16.8854	-0.407629	77.7779
13.946	5.58223	76.9691
12.2433	3.84358	80.8078
45.8603	-26.5528	70.0753
51.8029	-26.9872	64.8233
45.5742	-20.8536	69.9679
39.6445	-25.6125	73.9685
45.8212	-31.6774	70.1617
56.9409	-15.1263	59.3463
61.0356	-15.1816	53.4197
56.1037	-9.3277	60.1327
51.5446	-14.5552	64.9672
57.0334	-21.1913	59.0349
66.987	3.16419	42.0817
68.9025	1.78279	37.3488
66.941	10.6009	41.459
64.6996	5.25718	46.1583
45.6448	-36.6505	69.9898
45.1384	-41.8463	69.9005
50.7205	-37.4853	64.7845
40.1809	-35.7511	74.2198
1.86981	3.33467	95.6479
1.49158	8.22689	91.5182
0.284846	3.63664	95.8004
1.93904	-1.28783	99.7073
3.61149	2.62405	95.0754
32.2408	70.5633	69.4489
27.0481	71.202	71.5372
31.4549	64.4888	73.3807
37.7896	69.3196	66.6821
33.1134	76.2263	65.4036
1.88335	-105.551	61.7543
1.53357	-106.512	54.2177
4.96712	-105.336	61.224
1.99754	-104.825	68.5411
-1.07467	-105.612	61.9336
59.8021	-49.7873	44.7296
56.637	-49.761	51.6962
58.2483	-55.5559	44.8255
61.032	-44.283	44.7156
1.86838	-99.9244	83.5017
1.98966	-96.7582	86.6057
-0.992984	-100.288	83.4069
1.82625	-102.525	79.0417
1.87715	-104.009	74.0817
-1.11235	-104.118	74.1919
33.3789	-88.8463	61.0923
27.9709	-92.9818	65.4945
32.8523	-91.4101	58.3433
38.7384	-84.0468	57.3389
33.5433	-85.4793	64.2536
42.005	-90.4168	37.3724
40.3858	-94.4585	31.8619
46.7896	-87.0457	31.9623
43.2947	-87.1035	41.9701
36.3609	-94.1592	42.1418
1.44969	-108.23	46.5512
4.23578	-108.27	45.9696
-1.24316	-108.23	46.6129
1.69579	-111.501	41.5069
6.16587	-6.96748	101.331
6.45753	-10.1154	104.127
8.7179	-8.28569	98.6246
6.00148	-2.96592	97.5464
3.89787	-6.05793	102.922
24.392	-21.3576	79.5893
28.135	-23.3647	78.3789
23.0112	-16.3911	79.4818
21.0962	-18.5308	81.179
25.1947	-57.5336	80.0686
27.1666	-57.2501	79.637
11.4238	-27.957	92.006
12.7895	-26.6024	92.114
10.8103	-28.9427	91.5424
13.0524	-28.1099	90.2663
10.984	-32.1772	89.9146
11.4491	-33.5176	89.7536
13.1793	-32.1873	88.1024
10.8354	-31.2715	90.1231
9.03338	-31.6132	91.5627
0.9092	-28.0619	99.6172
1.00549	-27.089	101.239
-0.632479	-28.1101	99.8494
0.914852	-29.0321	98.3621
2.55297	-27.9285	98.8331
15.4533	-31.2396	86.428
17.7415	-29.4091	84.7462
15.0879	-30.261	86.8022
15.9804	-32.6251	86.2821
6.71369	-18.9013	106.693
4.18025	-18.9871	108.881
6.48712	-20.8288	105.622
9.20795	-19.0694	103.431
6.83677	-17.1818	107.155
22.5874	-70.6007	81.2712
25.6282	-68.2756	79.4015
21.7103	-67.265	82.4177
19.0508	-72.368	83.608
23.3231	-74.3902	80.0188
25.7424	-51.248	82.7079
25.23	-47.5596	83.8753
23.685	-50.5369	84.1696
27.7232	-51.8397	81.5117
1.06357	-33.0898	96.1648
1.14282	-35.1274	95.8898
2.67982	-32.9207	95.7278
0.979352	-31.2794	96.7446
-0.797968	-33.1769	96.3522
5.70838	1.45085	93.7828
8.13217	-0.359882	91.7606
5.45102	5.87232	90.0353
17.1764	-20.0034	87.6043
16.3953	-18.3519	89.8705
16.557	-19.4007	89.8181
17.3153	-21.5433	86.9012
17.6176	-19.4062	86.1902
3.96213	-29.7855	96.0069
3.81032	-31.1944	95.5183
5.39506	-30.2496	94.7604
4.00262	-28.8106	96.6177
2.5741	-29.8177	96.858
3.92038	-27.9798	97.6433
3.99924	-27.0181	99.1038
15.7675	-18.5588	92.0585
15.5525	-17.5827	92.2589
16.1458	-20.2663	91.0729
17.1302	-24.2054	86.3594
16.4815	-23.1865	88.5175
16.2777	-26.78	86.7074
1.74559	-42.4828	96.4846
2.04815	-44.4985	96.8468
4.12864	-41.8356	96.0432
1.47798	-39.7684	96.054
-0.733619	-43.0708	96.7644
22.0898	-33.9516	83.2231
19.6385	-34.2937	84.632
23.3339	-38.3362	83.8962
24.4082	-33.9114	82.1047
20.6727	-30.0883	82.9408
8.72309	-68.6486	90.0551
8.66125	-66.7368	90.8308
5.57992	-68.8039	90.835
8.82005	-71.0387	89.3781
12.105	-68.293	88.7979
21.4132	-52.864	84.6605
21.6959	-53.5239	84.0536
23.602	-54.2641	82.1452
21.4944	-51.3362	85.4416
15.345	-16.8494	92.0706
15.4651	-15.9106	90.5597
13.883	-15.6521	94.7771
15.1872	-67.7326	87.2304
15.4023	-70.1428	86.4678
18.1202	-66.5844	85.3962
14.9322	-65.818	88.01
2.81361	-68.9069	91.2428
0.129348	-68.9366	91.4847
2.96058	-71.1483	90.6684
2.61508	-67.1438	92.0099
59.2989	30.7948	56.6988
58.1111	29.9803	58.2615
60.9145	24.9427	52.0018
60.3331	31.768	54.9565
41.7482	56.3861	70.5152
35.8282	57.7891	74.5281
41.0912	51.5111	73.5197
47.914	53.9509	66.0553
42.9364	61.846	66.7211
53.9261	50.3817	60.6638
52.9843	46.2818	63.9432
59.4398	45.6208	53.9284
55.0657	55.5869	56.5849
41.1296	44.7787	75.7185
40.9697	46.8349	75.439
35.3319	46.6533	80.2713
41.5099	42.5594	75.4617
61.9171	32.6271	51.9648
63.0958	35.0898	49.151
57.57	39.0179	59.786
64.578	25.9965	45.8332
21.6569	35.9721	81.4474
22.3091	33.9946	79.4022
25.8131	36.671	80.6265
20.9836	38.0156	83.3649
18.2777	34.5267	81.1811
5.5356	15.5799	82.4086
7.8428	13.4337	80.5314
5.51776	17.5391	81.4712
3.2225	17.1307	83.7327
5.42483	13.1473	84.0402
28.2624	-5.01387	73.949
30.1141	-9.43186	74.6887
35.3461	-5.49958	72.0426
26.3414	-1.16676	73.3269
22.4279	-3.8124	75.7201
56.6363	10.6329	54.9965
59.0189	8.42385	53.023
57.5697	15.3283	53.6953
54.1335	12.5869	56.8596
54.3957	6.53336	58.1127
5.36203	9.9261	86.6046
7.72755	7.87502	84.9461
3.10669	11.4397	87.721
41.8743	40.3984	75.1443
46.6266	38.4338	72.0967
36.475	41.1248	78.4152
41.7271	38.2053	74.7953
50.8796	36.036	68.5223
50.1237	34.094	68.7964
54.5677	32.7225	64.0337
53.8303	19.8272	57.8322
53.8699	23.0532	59.465
51.7608	19.6241	59.4044
53.2951	16.9289	57.4479
55.6112	19.8437	56.2687
41.3834	22.9487	68.1422
43.0282	21.9129	66.4104
39.5985	23.8783	69.6943
37.5652	24.6718	70.9147
35.3364	25.204	71.6983
37.7994	25.5835	71.3372
35.2122	26.1223	72.1648
40.0437	24.7828	70.0668
32.5856	25.4571	72.179
29.738	25.3454	72.3202
32.3011	26.3227	72.5931
29.2173	26.1844	72.6999
26.8393	24.8238	72.1583
24.1517	23.7263	71.7351
21.2808	22.0333	71.0205
18.6065	20.1228	70.2677
19.9846	22.6123	71.3133
17.5052	20.588	70.5907
22.9636	24.3898	72.0371
16.7743	18.4258	69.7773
18.7689	23.0297	71.7003
21.9504	25.1269	72.5155
32.0762	27.3588	73.1346
28.7401	27.2237	73.2585
46.5651	18.0727	62.4811
46.9953	19.1299	62.4382
45.45	16.9998	63.1313
30.9149	36.9769	79.0285
36.2827	36.7867	76.7745
30.837	38.7546	80.2152
30.9645	34.8306	77.5533
46.3745	28.3023	68.9042
44.6599	26.5393	68.9105
47.916	30.3	68.9524
43.15	29.6421	71.3226
35.9163	8.29101	69.2921
41.3826	9.71586	66.8709
29.3591	8.07123	70.8729
36.4437	6.86621	69.2253
23.4222	8.98587	71.2426
19.4429	10.4401	71.0981
23.3934	7.37023	71.5603
15.8409	13.5541	70.6883
15.3204	14.4174	70.5057
16.7	12.7407	70.7413
35.0041	11.1162	69.4734
39.889	12.7613	67.4266
29.3961	10.9506	70.6932
18.2777	13.7398	69.8237
20.1618	12.9262	70.1765
17.4003	14.2072	69.6359
16.7567	14.5931	69.5721
16.1663	15.0816	69.597
13.0047	22.3554	73.7894
12.2596	24.6462	75.5758
13.5069	19.9761	72.0007
14.5078	24.6825	74.2675
14.8082	15.6642	70.4793
25.257	26.5083	73.0301
14.0957	19.0786	71.238
13.6919	17.3815	71.2433
15.14	21.1014	71.5553
34.7884	12.4041	69.5678
29.2839	12.2255	70.6572
18.2691	14.5423	69.3368
17.4556	14.7394	69.2712
20.1342	14.1143	69.7378
16.8431	15.089	69.2143
44.1401	20.8241	64.8238
2.48601	32.6921	83.681
0.00864244	32.6373	83.6414
2.11722	29.576	82.7772
4.5513	32.4295	83.4015
3.20564	35.9551	84.8706
17.101	5.22893	74.1081
16.9677	7.25448	73.1547
15.4564	6.67309	74.5683
17.801	2.25223	75.37
19.8179	3.57215	73.587
13.7668	8.15089	75.4191
11.9557	9.76074	76.7438
13.8885	13.0461	72.53
12.3455	13.6713	73.9562
13.9353	14.5411	71.7092
9.3279	21.2727	76.6363
10.2461	23.6	76.5495
8.56098	22.2667	77.6505
17.6409	11.6535	70.9425
17.2448	10.4799	71.6125
17.0328	9.009	72.289
19.1761	7.39583	72.1922
17.8152	-55.1972	83.4766
17.6836	-55.118	83.2394
20.5584	-55.5979	81.4407
15.0858	-54.5905	85.5241
22.2281	-55.9453	80.3962
21.9273	-55.8113	80.3473
2.29972	-47.9371	96.8628
5.09239	-47.5548	96.2542
2.25155	-46.675	97.0247
-0.813062	-48.3453	97.196
2.25474	-49.1493	96.5216
7.56285	-50.1139	94.3465
7.57204	-48.9569	94.9642
5.07505	-50.0046	95.2843
7.32738	-51.1554	93.5984
9.86976	-50.4439	93.1846
12.2379	-50.9896	91.634
12.3071	-49.8978	92.2819
12.2032	-52.1087	90.693
14.9729	-52.0734	89.3257
7.51326	-47.603	95.4385
9.85507	-48.0062	94.3083
7.42183	-46.3303	95.7133
11.4403	-46.3891	93.6488
12.064	-47.5124	93.2102
11.0626	-45.2528	93.8324
9.01614	-45.723	95.0504
18.0031	-53.5587	86.1916
17.9938	-52.4967	87.2789
6.83971	-52.0648	92.6941
4.29226	-51.8948	93.6935
6.46673	-52.5378	91.9014
9.61364	-52.4417	91.3117
12.3462	-53.2275	89.2983
12.2802	-53.7789	88.3374
22.954	-54.8594	81.9761
18.0575	-56.1169	84.0149
17.9751	-56.0555	83.8031
15.2621	-55.7812	86.4136
18.1321	-56.3051	84.3042
18.6305	-57.488	84.8839
18.4438	-57.0609	84.7847
16.1286	-57.7152	87.6951
13.3792	-57.8808	90.2006
13.1497	-57.118	89.9528
10.7063	-57.9186	92.108
13.758	-58.6703	90.1949
6.91129	-55.6459	93.0687
7.35888	-56.7969	93.4195
9.97107	-55.9672	91.5857
6.56502	-54.6486	92.5884
4.09835	-55.4689	93.9653
2.08293	-58.0392	95.1565
2.20327	-59.1924	95.242
4.70496	-57.8738	94.5991
1.93911	-56.8322	94.9096
-0.327909	-58.128	95.4157
22.4423	-57.3534	79.635
22.3123	-56.7793	80.2716
22.3641	-58.6996	78.9303
20.6166	-57.1496	81.0443
1.45065	-54.6646	90.3887
1.44659	-53.9926	91.6246
3.51048	-54.7764	89.9271
1.43843	-56.0324	89.1063
-0.430083	-54.6512	90.6134
2.32333	-60.3872	95.1741
-0.305835	-60.4986	95.4291
2.44947	-61.4759	94.9464
5.15585	-60.195	94.6185
2.5236	-65.3639	93.0069
5.47183	-65.0817	92.6139
2.54095	-63.7554	93.9449
-0.173541	-65.514	93.1933
7.12108	-45.3758	95.822
6.40103	-43.9852	95.9122
4.88573	-45.1564	96.4828
1.80403	-55.5927	94.4881
-0.369838	-55.6857	94.7349
1.6407	-54.5698	93.9829
1.52631	-54.1324	93.6199
3.7305	-54.0314	93.1196
1.55099	-53.9069	93.2187
-0.443798	-54.1499	93.7555
6.38464	-54.1715	92.1995
9.39842	-54.6387	90.7458
6.28995	-54.0013	91.8722
1.55517	-53.8184	92.5608
3.59817	-53.8009	92.1318
-0.457536	-53.8352	92.7249
12.3009	-55.2498	88.7719
12.1948	-55.1091	88.3685
12.529	-55.5965	89.1244
14.3722	-61.4924	89.8286
14.5925	-62.5844	89.3706
14.1855	-60.5206	90.0825
11.6375	-61.9027	91.6109
8.60653	-62.0535	93.0689
8.68787	-63.2525	92.5275
8.47198	-61.0393	93.4003
5.42092	-62.3386	94.0461
2.52363	-62.5526	94.5557
-0.276678	-62.7104	94.7894
12.1646	-53.9368	87.6849
9.28743	-53.1756	89.6273
12.0141	-53.8499	87.1357
25.1742	-56.386	80.2324
24.119	-56.6258	80.2972
22.2954	-56.5257	80.9315
20.707	-56.5852	82.2209
6.091	-55.0358	89.1109
6.07124	-54.2787	90.2761
8.97188	-55.418	87.8929
6.20559	-56.3517	87.97
6.15003	-53.9889	91.2502
9.09791	-54.4603	89.7628
8.61942	-64.8711	91.7534
11.8453	-64.6021	90.4044
13.9536	-59.5746	90.2246
11.2906	-59.8986	92.0909
14.7676	-64.1057	88.7342
17.3923	-63.1227	86.7826
11.7354	-53.506	86.7937
9.10123	-52.7176	88.1574
11.2083	-52.2839	86.1602
14.3394	-54.0919	85.1013
6.31831	-52.2427	89.33
3.99963	-51.9436	89.875
6.65065	-51.1339	88.0095
6.2138	-52.6243	90.2639
10.6856	-49.5229	85.154
8.55934	-48.9795	86.0347
10.555	-45.8642	84.2486
12.9001	-50.0843	84.0574
22.0841	-61.7739	78.2373
21.5159	-65.2516	78.0201
20.2793	-61.6135	79.7309
1.40267	-58.8311	87.858
3.46604	-58.8911	87.5077
1.71964	-62.7491	87.0704
-0.345369	-58.8545	88.0355
6.48451	-48.5836	86.7116
4.31415	-48.2786	87.2415
6.21477	-45.0354	85.7978
6.10466	-59.0715	86.8269
6.27402	-63.0697	85.969
8.97241	-59.42	85.8125
25.3142	-56.8002	74.1871
25.5822	-56.7174	73.5027
10.5331	14.8689	75.7651
10.111	13.2936	77.1794
80.2469	-8.04249	-42.8769
79.4725	-12.4494	-42.0952
78.4535	-7.44911	-46.2645
80.9198	-3.43823	-42.8931
81.7043	-8.53477	-41.144
79.651	10.483	-5.59187
80.1535	13.3881	-9.82167
78.6544	12.5826	-0.72662
80.3338	15.5186	-15.0381
80.1631	20.9984	-16.336
80.6722	10.511	-16.0928
80.9768	15.0958	-22.074
73.8932	-32.3427	-33.3649
76.2869	-30.0589	-31.7252
72.7972	-36.5232	-30.7327
75.129	-28.4473	-35.234
76.2035	-24.7922	-37.352
73.6549	-26.8009	-40.2315
77.4014	-20.822	-39.219
78.4258	-23.5936	-35.4791
83.1538	-8.47516	-40.2541
84.6852	-7.95615	-39.8914
82.5081	-12.6388	-39.3108
83.5812	-3.45851	-40.4692
84.6993	-26.6943	-30.1496
85.906	-22.6607	-32.2717
85.3735	-27.1324	-28.9302
83.4089	-30.6813	-27.5829
89.3307	-16.9222	-30.3343
89.309	-16.3566	-29.5519
77.8619	-39.2596	-19.1607
78.3057	-39.4828	-18.4535
77.3423	-39.9248	-17.0964
77.055	-38.3868	-21.2766
78.437	-31.9523	-6.64304
78.097	-32.5751	-6.58702
77.6574	-33.5708	-6.78432
89.2464	-15.9806	-29.1395
88.7031	-16.5718	-28.1711
92.4271	-1.38639	-33.1095
92.5319	-0.741365	-34.637
92.2628	-2.69977	-31.4434
92.8129	8.84506	-30.6942
93.1096	10.2025	-30.8143
93.2561	12.2973	-29.7893
92.6511	12.1098	-27.5581
93.4519	12.7608	-30.1954
92.9039	14.3704	-26.6918
82.1396	-9.01639	-7.34075
83.5745	-3.53202	-7.96445
81.6008	-8.28317	-6.01159
81.0758	-13.0825	-6.72533
76.3431	-25.167	-0.128631
75.3235	-25.6345	2.61667
75.7453	-28.9068	-0.566763
76.9472	-20.8581	0.318489
80.5767	-20.1789	-9.22742
80.889	-22.2129	-9.72971
80.607	-18.2093	-9.38028
80.6599	10.0124	-16.1011
81.1002	11.3016	-19.6023
80.6926	10.0105	-15.8917
89.0629	17.6076	-16.6863
90.1067	19.3016	-19.8419
88.2246	18.0075	-17.8532
87.5204	14.4904	-13.7073
89.8158	16.9062	-15.7014
89.7	19.9518	-24.9147
88.872	19.712	-21.8745
89.9941	20.0922	-24.4165
90.2099	18.6665	-28.6106
88.8657	18.8892	-26.2836
90.4503	4.51161	-39.2379
89.6569	4.04	-39.4152
90.8423	10.5062	-36.3976
91.5022	4.76318	-38.7049
84.6529	1.09882	-8.57889
84.9244	-0.149503	-9.24029
93.2158	3.92236	-36.1561
93.7173	9.06891	-33.9308
92.8608	1.11299	-36.3277
93.2693	3.82344	-36.525
92.3438	15.2647	-22.7017
91.3421	14.7141	-18.6837
92.1138	13.907	-23.4322
92.4527	16.2551	-22.0919
86.2042	1.89121	-11.3887
85.5908	0.117566	-10.7996
86.837	4.22416	-12.1222
92.7265	4.61529	-33.423
92.8191	2.55435	-35.2794
89.9184	7.27082	-21.7713
89.393	5.91916	-20.9814
91.3074	6.78345	-25.9586
84.15	-4.89847	-12.5644
84.3265	-4.62023	-13.2754
84.6864	-3.2781	-11.4828
89.2248	-4.04295	-26.6543
91.3351	-1.40769	-28.6063
88.9568	-3.59532	-26.0259
89.0905	-5.13992	-26.8054
77.5508	-16.8969	0.256297
78.4176	-12.3174	-0.609355
76.6414	-17.15	2.80093
83.8666	1.80017	-39.0081
82.7475	1.20661	-40.1477
83.7689	6.48233	-36.8917
84.8595	4.31604	-38.0713
87.3	9.29746	-35.41
87.0792	13.085	-32.1861
89.7199	13.9604	-33.5284
87.4101	5.20755	-38.3126
88.5707	3.06699	-39.3717
87.3434	-2.46521	-40.129
86.8541	-7.47601	-39.7276
80.1711	-22.9482	-34.6292
79.1144	-26.0714	-32.759
81.0814	-19.7156	-36.358
81.8336	-16.3274	-37.9871
80.1878	-16.5718	-39.0108
88.1051	-16.5086	-27.1386
78.0476	-28.9937	-31.0001
76.8522	-32.6203	-28.602
79.2618	-28.6871	-30.5567
76.7948	-36.4061	-23.936
76.3604	-36.4236	-24.2783
75.9611	-39.7902	-19.2492
77.0261	-39.5878	-14.2478
76.5186	-39.8462	-14.0816
75.9515	-40.0463	-13.7614
89.2998	-5.88699	-27.2821
91.3195	-4.51324	-29.5042
80.9852	-7.68535	-4.90224
80.2245	-7.29547	-3.66263
78.3458	-21.2773	-3.2355
78.6886	-21.4418	-3.90502
81.3744	-25.709	-9.43382
82.3388	-27.7117	-11.0175
81.6061	-24.6121	-10.2987
80.3995	-16.0949	-6.19957
80.8891	-16.2286	-8.41325
86.7628	14.9123	-28.9704
84.3481	11.217	-31.7718
85.7768	15.5422	-25.6026
83.4149	9.66872	-33.5704
83.0208	9.36053	-34.6647
82.7533	11.7993	-29.2824
80.5815	-16.259	-11.2409
80.8067	-16.1943	-10.3691
91.9354	5.81112	-28.3362
91.7277	4.30181	-27.9843
84.7997	-3.91207	-14.7295
84.1273	-6.22309	-15.7681
85.8817	-2.67936	-17.4178
88.9289	-2.75365	-25.5236
90.7771	0.854538	-26.7603
88.3315	-2.69619	-24.1272
8.38861	85.9146	65.0823
8.35631	78.6074	70.5367
16.0707	85.3087	64.679
8.61498	93.3138	58.0417
0.496382	85.8688	65.2507
8.15629	71.3731	74.9932
0.670615	70.7893	75.3756
8.16433	63.7487	78.9691
15.4318	71.552	74.223
30.1593	58.4108	77.5565
29.7977	54.0741	80.4918
25.6979	58.7102	79.2122
1.05193	-25.9934	103.276
1.3419	-24.6594	105.299
-0.490262	-25.9489	103.705
2.96019	-26.0391	101.964
1.76228	-15.3728	110.388
4.22275	-15.4751	109.317
1.82939	-13.3836	109.744
-0.594181	-15.3377	110.694
1.76611	-17.1688	110.485
1.76539	-19.0591	110.047
-0.563152	-19.0589	110.426
1.74258	-20.915	109.074
0.949836	-30.0264	97.4721
-0.746117	-30.1263	97.6743
1.26815	-37.4634	95.8624
3.25575	-37.0064	95.5052
-0.826524	-37.7784	96.0347
1.61056	-22.8113	107.453
3.80851	-22.8802	106.079
-0.502785	-22.7996	107.9
1.87299	-11.3758	108.632
4.15389	-11.7472	107.735
1.99123	-8.9479	106.741
-0.348028	-11.2214	108.873
6.27936	47.1698	85.6558
0.0629031	47.1334	86.2117
5.48802	44.2423	86.2551
11.9648	48.1266	84.9642
6.62786	50.8162	84.5805
1.50974	17.9325	84.2153
1.34355	15.4808	85.7484
1.63201	20.0229	83.2268
0.0730028	18.195	84.3336
1.78673	22.0913	82.5686
3.43921	21.1559	82.0941
1.81941	24.277	82.2807
0.161309	22.3282	82.7369
1.72728	-51.7738	90.1715
-0.530624	-51.8008	90.4538
1.95222	-50.5811	88.9756
1.49653	-52.4665	91.5516
1.51883	-52.6204	92.557
-0.46807	-52.6891	92.7267
3.60955	-52.5793	92.0796
1.5938	-52.4626	93.3315
2.24601	-50.1487	96.0161
2.10754	-51.0768	95.3038
-0.759504	-50.3427	96.371
1.83606	-51.8548	94.4398
-0.598558	-52.0051	94.6285
2.23826	-45.6844	96.9988
-0.800296	-46.2692	97.3308
1.87999	-48.0764	87.6338
1.63836	-44.5862	86.5885
-0.6982	-47.9955	87.87
22.4408	84.4549	63.8694
22.0537	78.033	68.864
28.344	83.1488	62.6715
23.0249	91.1525	57.2209
18.5156	49.4472	84.5166
17.5396	47.4793	85.0455
24.2085	50.3374	84.1926
18.1991	53.0449	83.2559
18.161	44.9209	85.3115
19.375	42.0487	85.1649
23.3389	45.8661	84.8958
20.7834	39.7827	84.3753
16.8878	38.6132	84.981
24.9952	40.991	83.7978
24.3989	27.4231	73.6962
23.9059	29.0043	74.8918
20.8966	25.8969	73.1574
28.2646	28.3443	73.9411
26.0355	25.5965	72.5051
23.0732	31.0668	76.6734
27.0886	32.0282	76.5567
19.718	29.6136	76.2982
46.9157	87.6288	41.3196
47.956	92.8043	31.2348
41.1788	91.1149	43.8887
46.4084	82.1696	48.6397
33.7551	81.7289	60.8007
34.5848	87.5213	54.6329
39.5065	79.7622	58.103
29.3849	50.6055	82.7404
29.6262	49.0982	83.2692
35.0372	50.2047	79.7616
30.1992	42.038	82.4556
30.0924	43.6195	83.051
29.6444	46.7485	83.4475
31.035	32.1867	75.9325
31.5876	30.0429	74.5965
35.6151	31.6512	74.6784
45.6419	77.2126	54.2683
51.7875	74.329	49.2599
44.8072	72.3141	58.9274
41.0758	48.7737	74.7521
46.9781	46.6076	70.5339
38.7261	27.5751	72.1201
39.0509	28.9534	72.6471
35.5383	28.2404	73.1691
41.3853	26.6027	70.6214
41.373	35.8923	74.3722
40.6028	33.3584	73.8256
45.6405	34.2111	71.8434
39.6652	30.853	73.2253
43.8194	67.2015	62.9892
50.0992	64.3638	58.2675
57.4088	71.8267	42.6703
56.7621	66.5988	47.7995
62.2646	69.4791	34.7528
41.9007	23.7082	68.4418
43.5675	22.5673	66.6221
43.6784	25.3507	68.6969
45.4272	24.0292	66.7403
42.5698	24.4577	68.6535
49.2328	32.3144	68.9156
52.1686	29.477	65.1911
15.5477	32.3163	80.0524
13.3277	29.59	78.5155
16.1828	30.2398	77.9111
14.7388	33.9876	81.827
13.6345	35.5097	83.4388
11.3059	32.9416	82.0432
16.8217	27.2529	75.2811
17.321	25.1131	73.4399
5.24921	40.3531	86.237
0.826768	41.0213	86.0051
65.4493	-63.7832	-7.00363
66.8346	-58.611	-5.20854
65.8422	-64.1745	-13.6095
79.6426	23.7771	-36.7966
79.3686	19.8615	-42.5298
78.5957	29.3866	-41.5827
80.0193	26.0999	-28.586
80.7421	18.0992	-31.5834
76.1058	-7.17998	-52.1883
75.0865	-13.1719	-50.6402
73.9298	-7.37815	-57.8497
77.0997	-1.34834	-52.2332
77.7542	4.8611	-51.8676
75.8266	6.57988	-58.401
78.37	10.3932	-50.003
79.7351	2.82373	-45.5629
70.2828	-30.4918	-44.3541
67.2125	-33.9106	-48.2561
71.9954	-24.7341	-46.8432
7.34672	56.8826	82.1971
0.449353	55.6054	82.9166
13.8057	57.4005	81.583
19.4833	58.0986	80.6281
21.1062	64.6797	77.0321
18.2956	-102.666	55.9418
17.3116	-104.372	48.7824
24.6924	-100.165	51.3361
12.6999	-104.086	58.776
44.1916	-84.1745	45.9093
38.139	-89.1025	50.777
49.1514	-79.9735	40.8497
44.3453	-81.642	49.6275
56.0934	61.0416	52.1957
61.3353	57.5839	45.0335
21.5649	71.6096	73.0403
66.9365	67.1112	25.1612
70.7396	65.0481	15.1291
66.768	60.6409	30.957
23.3674	98.7743	47.6664
29.5954	96.6156	47.0366
23.5311	106.008	35.9561
16.5039	100.274	48.1829
64.4686	39.9431	45.1414
65.4022	46.9949	40.9305
46.286	22.4747	64.9433
56.9568	28.971	59.4998
57.5316	24.2601	56.226
55.3898	27.7207	60.7662
53.8653	26.579	61.7631
1.73569	-115.983	39.3285
-0.85818	-115.989	39.3772
54.4189	-70.1576	41.3246
55.1426	-66.1641	43.7308
49.5865	-73.7072	48.27
53.9271	-73.7976	37.8618
5.82581	-41.9696	95.6558
7.619	-42.4177	95.1006
5.19531	-39.4133	95.3272
21.2927	-49.1698	86.0625
20.6864	-45.2717	86.9224
18.8999	-47.2499	88.2661
8.66668	-38.5124	93.5351
6.24416	-37.5409	94.5572
9.38836	-40.7962	93.7689
11.3377	-39.3356	92.0605
7.93517	-36.2562	93.2867
29.4415	-52.1952	80.5848
29.1017	-55.5501	79.6346
31.5392	-53.0009	79.208
29.1252	-48.6214	81.4829
62.1837	18.5442	48.9297
59.9464	19.1415	51.6824
62.497	12.4958	48.3861
64.1952	18.3879	45.9597
66.233	18.6012	42.4295
68.5911	18.1517	37.2624
50.1058	19.5245	60.5795
49.9833	17.5436	60.0193
57.9046	19.4987	54.0254
81.844	10.0372	-36.7034
81.7086	6.26809	-39.9168
80.472	12.0464	-40.8021
81.9422	12.5772	-32.7034
78.3903	-16.8205	-40.9589
76.3514	-17.3678	-44.1489
69.6793	-50.8827	-15.9125
71.3761	-46.5628	-13.5993
68.9398	-52.8893	-9.56312
67.8201	-56.4999	-18.428
70.3821	-47.5216	-21.9296
81.3983	1.58341	-41.929
74.2565	-26.5331	5.79159
73.5119	-30.7075	5.29897
74.9723	-22.1435	6.06429
73.0565	-27.434	10.1554
71.2893	0.249592	29.9215
71.7366	8.59239	28.8993
70.5342	-7.51118	31.0317
73.5359	-1.03982	21.3336
52.4155	13.7732	58.0783
50.7727	14.9289	59.2584
50.5314	10.8277	60.1759
49.2989	15.8096	60.3401
47.8291	14.1609	61.6228
71.6459	-27.9051	16.3944
70.1352	-28.1047	23.1355
70.9186	-32.7296	15.8074
72.4876	-22.6818	16.3797
22.0073	-11.5577	78.8609
25.6284	-13.1279	77.363
20.8319	-6.84448	77.9141
19.1342	-9.42311	80.5458
31.5897	-14.5148	75.4346
38.0782	-15.0588	73.1819
32.6057	-19.5051	76.1204
16.0033	-7.26777	83.2458
13.1286	-4.768	86.3525
16.3612	-11.0274	85.0068
18.8843	-18.0695	83.7502
17.626	-16.0379	85.1358
14.8667	-21.0755	93.7345
13.5524	-20.3258	96.2318
14.5533	-22.9954	93.088
15.5704	-21.7948	91.9456
16.0521	-22.3895	90.2944
15.5581	-24.6128	89.7689
34.9066	-34.8148	77.271
30.3527	-34.3492	79.5101
35.1082	-40.1116	77.604
34.4228	-29.8713	76.99
33.4131	-24.59	76.6199
3.94442	-33.0284	95.1958
4.25247	-35.0266	95.0538
5.33071	-33.3943	94.4011
52.8877	-49.2992	58.5066
54.1664	-43.7275	58.5099
48.7057	-48.3582	64.7132
51.222	-54.9002	58.7363
24.2821	-43.1264	84.3443
22.168	-42.2787	85.5547
26.4343	-43.7445	83.1709
35.0861	-45.273	77.6902
34.7675	-50.1198	77.5979
39.4722	-46.2341	74.3679
31.295	-44.6741	80.2449
4.69616	-37.0383	95.1147
49.2535	-60.7121	58.8434
52.6559	-61.7781	52.2584
45.4649	-58.8936	65.222
46.1345	-66.2312	60.3053
56.5278	-27.2709	59.0145
55.8926	-32.8871	58.9089
60.3835	-27.4392	52.5669
22.9699	-96.2393	70.0203
23.5898	-93.1289	72.3347
18.641	-98.1552	73.7368
33.5417	-81.1941	67.4439
37.8917	-76.7007	64.8266
32.711	-76.7955	70.8204
28.7623	-85.4917	70.7464
54.6113	-4.16336	60.8226
52.7795	0.550308	61.3653
48.9085	-4.72929	65.7024
45.3233	11.981	63.9478
46.3593	10.0912	63.5982
51.0693	3.85238	61.849
46.0427	2.29155	65.8643
49.108	6.28157	62.6586
43.382	15.0105	64.9018
1.95903	-92.9056	88.8728
-0.9419	-93.3371	88.9153
41.6906	-57.2416	70.2391
39.7579	-61.3717	70.7727
42.9762	-52.6733	70.1499
37.6444	-55.6401	74.4171
31.6802	-72.841	73.5435
34.6136	-69.1502	72.3913
29.8271	-69.047	76.2573
27.8973	-76.0885	75.7454
42.2921	-5.22453	69.3747
43.6676	-9.89516	69.6989
40.7782	-1.31406	69.1956
44.2161	-47.3517	69.9518
44.8923	-14.9497	69.7479
8.28386	-83.4244	88.8885
8.61652	-78.712	88.8665
12.045	-82.889	86.959
15.9524	-82.2631	84.4514
19.8117	-80.8793	81.6241
15.8551	-77.5507	85.0686
39.5656	1.4565	69.0208
38.361	3.61022	69.0414
32.3026	1.09183	71.2543
47.6884	8.21622	63.1188
43.412	6.38313	66.335
37.355	5.39946	69.0844
30.239	4.98286	70.9988
10.5564	-2.53572	89.3118
10.9704	-6.51051	92.2104
10.2179	1.70735	86.1316
11.6641	-14.3497	98.8552
11.5302	-12.7719	97.5582
9.26679	-13.1808	102.694
11.8738	-15.5333	99.2638
9.98383	11.4528	78.5147
9.91928	9.0737	80.3644
19.2396	-2.41973	76.8772
1.36431	12.2296	88.1793
-0.126294	12.5235	88.2558
61.7483	6.4705	50.2551
9.9982	5.71107	82.9997
56.218	-61.595	45.1471
60.123	-59.8566	36.5004
64.7431	-14.1498	46.2861
64.2932	-21.1099	45.6444
67.5346	-14.0823	38.8151
62.0405	-38.8742	44.7743
62.9462	-33.2118	44.8726
58.968	-38.6287	51.8486
64.5442	-38.8562	37.6659
63.7368	-27.2092	45.1229
66.2814	-27.6148	37.7192
14.9917	-99.214	76.9542
8.81646	-74.4987	88.9338
5.63662	-74.7376	89.8727
12.2854	-74.0615	87.4924
15.7014	-73.5818	85.6653
24.2271	13.2049	70.3836
25.0943	1.67067	72.6719
24.3397	3.96225	72.2013
23.8093	5.7005	71.8181
2.74637	-75.0137	90.4283
-0.0462208	-75.0913	90.6915
4.87311	25.812	81.2672
6.3076	24.8574	80.2649
5.44916	28.6989	81.7843
3.47135	26.2845	81.9131
4.78229	22.8223	81.0638
15.6057	15.8953	69.7635
15.3804	17.0569	69.9058
13.744	15.8365	71.4322
7.58927	23.5368	78.9468
8.42314	26.4001	79.343
1.93114	26.855	82.3255
0.0472929	27.0054	82.4638
4.60524	-25.9587	100.547
5.24864	-24.6808	102.111
6.81626	-15.6049	107.19
6.85764	-14.0078	106.645
9.48213	-15.9671	103.739
14.9449	-28.8128	87.4442
14.5975	-27.7225	88.6038
12.7759	-30.3039	88.8615
6.59074	-12.3098	105.894
5.33834	19.5041	80.9696
6.46876	31.941	82.8202
8.12007	30.9725	81.818
15.798	18.6214	70.1551
9.60544	29.7738	80.5004
10.7526	28.1201	78.8
11.604	26.4368	77.2205
17.312	-34.8284	86.1467
14.6687	-35.2405	88.0042
18.5954	-37.7646	86.4667
19.8451	-41.472	86.7958
16.9774	-40.5893	88.5473
21.188	-55.3207	80.4845
20.9792	-54.2747	79.95
19.3116	-55.1243	81.8141
21.7508	-53.9775	83.5738
20.0472	-52.9515	85.6583
20.7194	-51.4111	78.946
17.7989	-51.0522	81.0838
20.324	-47.7692	78.1733
12.2965	-35.3966	89.7963
9.76902	-34.9932	91.5762
13.1651	-37.5473	90.0561
14.3631	-40.0018	90.1643
15.1551	-42.5728	90.4293
17.092	-54.7582	83.3086
15.9076	-53.403	83.3796
15.2359	-50.5983	82.7131
15.2361	-46.8414	81.6999
7.3831	-34.1773	93.2038
7.05659	-32.3556	93.1545
10.4181	-43.3743	93.7962
13.2342	-44.2478	92.1863
16.0575	-13.7399	87.3018
13.7233	-11.9707	91.2378
1.93702	-5.60174	103.74
0.0903682	-5.32668	103.894
11.2093	-10.0142	95.2833
5.95709	-22.7228	104.193
8.17006	-22.9481	101.204
10.474	-23.3855	98.0583
11.1394	-21.526	98.9451
12.6582	-24.0433	94.7739
13.912	-24.8066	92.5391
14.3794	-25.8165	90.8952
14.5382	-26.7499	89.6238
11.8392	-16.6515	99.7429
11.6868	-17.9947	99.9826
11.5139	-19.7424	99.6539
39.9924	-144.351	13.7132
35.3186	-145.917	16.7504
41.0607	-150.195	12.65
44.2073	-142.643	10.5856
38.6196	-136.415	15.2203
37.2128	-125.454	17.2817
41.4969	-123.681	13.7805
36.5693	-115.853	19.2747
32.6035	-127.096	20.7283
39.1063	-98.8239	26.8707
43.7185	-95.9458	22.32
34.0605	-101.539	31.0856
38.1888	-103.607	23.0339
37.1027	-109.063	20.9071
32.1504	-111.182	24.9736
41.5201	-106.81	16.9455
37.556	-65.3572	71.2994
40.1211	-68.1506	67.2431
34.6097	-62.8163	74.7126
42.6015	-71.5055	62.0128
43.795	-75.1399	57.4716
44.4067	-78.4547	53.365
32.1441	-60.6297	76.9533
33.352	-57.6607	77.0049
30.0109	-58.9128	78.3907
30.2662	-63.2289	77.3772
28.429	-57.9489	79.1822
27.3062	-59.6371	79.2963
47.5463	-93.2031	17.9393
49.029	-88.6263	21.5258
46.4846	-98.4328	14.7732
50.8879	-90.9422	12.8065
50.5739	-84.4687	26.0438
53.6448	-82.223	19.463
52.0825	-80.6151	30.205
53.1419	-77.1145	34.3987
56.3567	-75.0651	26.7795
45.4807	-121.729	10.1417
46.689	-132.885	8.56314
49.2424	-120.118	6.28064
45.045	-111.853	11.5706
47.9895	-140.983	7.30083
49.2847	-147.052	6.16538
51.5136	-139.333	3.69129
45.4843	-104.438	12.9181
68.3484	-27.8571	30.4955
67.5815	-33.3643	30.2102
69.1322	-21.8046	30.7242
58.5334	-73.401	19.6632
57.2139	-76.8903	16.3878
60.0398	-72.184	12.4231
71.7219	17.4127	28.7289
74.7775	15.3591	17.9982
62.9037	-58.5092	28.0698
64.8864	-57.171	19.6102
66.6808	-38.8425	30.2316
68.5605	-38.4889	22.4328
69.7939	-14.64	31.4153
71.7561	-15.9262	23.4575
70.0852	-37.5671	15.382
71.5231	-36.1528	8.97752
58.3917	-87.4015	-3.03243
58.1846	-92.5298	-4.39891
60.2547	-86.9159	-7.90099
58.7563	-82.8416	-1.34132
56.2323	-88.124	1.94706
58.0983	-98.2311	-5.23921
59.4033	-78.5749	1.04544
57.6781	-79.4912	6.74106
61.0091	-77.9184	-4.73804
60.2324	-74.7185	3.25838
75.4276	-2.0168	12.8737
76.3339	5.90444	10.3214
74.315	-10.0045	15.2072
77.1131	14.2333	7.3668
77.685	22.0864	4.79183
78.1374	30.0599	1.54589
79.4708	29.1486	-9.2143
78.4929	37.9583	-2.2127
66.3074	-55.5673	11.4254
67.4104	-54.373	3.47934
73.3324	-16.7162	16.3235
74.6528	-17.3853	10.1816
52.8649	-118.453	2.00048
53.806	-129.584	0.742698
55.8764	-80.7227	13.1246
54.6319	-84.8243	9.92491
54.8375	-137.568	-0.399752
55.9822	-143.449	-1.69351
61.8875	-113.452	-15.5277
62.4289	-122.962	-17.0746
61.7819	-86.3357	-12.7411
62.8084	-84.5578	-17.891
62.1082	-81.6191	-11.7114
62.628	-76.957	-10.3667
62.9071	-130.046	-18.7438
63.3048	-135.644	-20.8509
68.1884	-53.966	-3.6993
72.7353	-34.7559	4.56892
73.982	-32.967	1.34446
72.0783	-38.4492	3.19024
75.6514	-17.481	6.11702
62.254	-92.3605	-26.1161
60.949	-88.0937	-33.0025
62.6325	-85.9663	-24.9105
63.3408	-79.9423	-23.8835
62.8014	-73.4974	-30.0205
66.1767	-62.8336	-20.2606
72.5396	-43.9998	-12.3604
74.0688	-41.403	-18.9931
58.4428	-119.078	-44.6756
58.6181	-126.795	-46.2093
55.1752	-116.38	-51.7445
58.3278	-110.821	-43.0524
71.4771	-42.5419	-26.7831
73.7974	-38.8513	-25.1228
75.4353	-37.1467	-24.454
30.4446	-147.254	19.5519
29.1487	-139.441	21.4089
25.5329	-148.484	22.0419
31.63	-152.877	18.1167
26.3699	-113.076	29.18
20.4148	-114.51	32.8788
26.284	-119.158	26.9981
27.2556	-108.469	31.4644
30.7495	-97.3179	46.9411
29.4466	-100.212	41.073
31.605	-95.2176	51.6383
28.1932	-104.103	35.469
22.2488	-106.027	39.2241
27.5109	-128.37	24.2245
22.3282	-129.923	27.3508
28.2065	-65.9252	78.0721
26.7894	-63.2011	79.2651
32.2195	-93.5038	55.3487
25.8243	-61.4051	79.8585
23.6722	-63.1097	81.1763
24.9004	-59.9375	80.2897
24.1171	-58.6901	80.5641
22.3344	-59.9203	81.8836
24.04	-78.9666	78.4053
24.2444	-83.8255	76.6737
24.1842	-88.9316	74.4583
18.1151	-56.6612	84.7521
15.6065	-56.5638	87.2315
17.7724	-56.0974	83.6104
20.5989	-56.3726	81.6663
17.8001	-56.3191	83.2051
14.9481	-55.6979	85.6282
17.7914	-56.7626	82.8606
17.79	-58.1066	82.2391
14.8442	-56.3571	84.6426
17.5713	-61.1801	81.5224
17.1111	-64.9245	81.1782
14.6222	-60.4691	83.1994
14.8922	-115.169	35.7454
15.3972	-111.07	38.156
15.5102	-121.415	33.364
20.5472	-149.727	24.2357
19.2097	-142.122	26.5095
15.6366	-150.678	26.0878
21.7367	-154.989	22.5936
17.3169	-131.201	30.0394
7.11364	-108.212	45.3792
10.921	-108.091	44.0996
7.63941	-106.083	52.7624
11.3348	-151.349	27.4072
12.4479	-156.394	25.7381
8.53152	-104.847	60.6816
11.9803	-55.1152	87.8087
11.8467	-55.3601	87.1061
11.7507	-55.8814	86.4705
11.9486	-57.0953	85.5255
11.7932	-59.8985	84.6096
11.6535	-63.9012	83.9482
74.0871	48.3027	15.5197
76.8185	46.7541	4.44226
74.2486	55.8739	10.1867
70.5492	50.6307	26.2438
79.9112	27.9312	-19.1897
73.5111	-19.0824	-49.2008
70.798	-21.0078	-54.1236
52.0414	-94.9026	-54.2973
52.5738	-84.6331	-53.0981
55.0282	-97.9771	-48.7556
51.9815	-105.18	-55.5795
48.9059	-92.6571	-59.2654
52.1582	-114.15	-57.0203
52.5697	-122.669	-58.3407
48.9406	-112.485	-61.761
58.7535	-82.4998	-40.3631
58.2339	-92.1729	-40.9958
56.1286	-78.0587	-46.7913
59.9017	-73.9419	-38.902
23.3152	112.45	22.1226
30.1509	109.695	21.9455
23.162	117.145	6.82829
16.1572	114.363	22.3343
22.644	101.968	-78.7114
23.29	110.661	-62.8026
29.7365	99.967	-76.7991
21.8691	91.0962	-91.9015
15.2014	103.367	-80.1512
21.4067	79.1726	-101.456
28.2664	77.5387	-99.4414
21.1209	65.9809	-108.665
14.434	79.9321	-103.075
23.4132	116.52	-45.6762
30.5961	114.053	-44.0291
15.9154	118.311	-46.7601
23.3678	119.494	-27.7776
8.16666	122.87	-10.821
0.219124	123.252	-10.9721
8.20719	120.416	6.52278
15.8488	121.668	-10.4987
8.14591	122.582	-29.0311
20.8556	52.991	-113.591
27.2797	51.6388	-111.537
20.5394	39.5267	-116.866
14.3399	53.752	-115.059
20.0309	25.4611	-118.671
26.3586	24.4936	-116.473
19.524	11.5815	-118.843
13.717	26.3987	-120.187
17.3977	-26.9784	-107.854
23.1901	-27.7216	-105.66
17.0828	-38.7057	-100.455
11.8437	-26.8786	-109.033
18.2351	-14.3782	-113.745
6.53779	-0.449442	-120.018
0.149188	-0.377994	-120.352
6.75744	12.7103	-121.441
12.7759	-0.873532	-118.996
6.22419	-13.2976	-116.449
15.2673	-85.712	-82.963
15.5822	-76.1472	-83.8839
20.5267	-86.4485	-81.6002
15.0584	-95.1941	-82.6552
10.2151	-85.3065	-83.7454
5.12325	-103.841	-83.4049
10.0588	-104.256	-83.0937
5.23263	-113.49	-83.25
0.368782	-103.651	-83.5106
5.22591	-94.1559	-83.6833
17.2441	-47.968	-94.3404
22.4993	-48.5227	-92.7564
16.8799	-56.2585	-89.7612
11.5632	-47.5286	-95.3638
16.1156	-65.7822	-86.1485
21.6998	-66.8638	-84.3871
10.8678	-65.009	-87.1573
5.60221	-64.7507	-87.6171
5.81852	-55.4008	-91.2589
5.35592	-75.3094	-85.2349
0.311452	-64.9667	-87.6736
48.6058	97.7663	19.0806
54.3521	92.3309	17.8197
49.3505	101.492	5.38804
42.7369	102.327	20.4301
47.2499	70.558	-89.352
52.6943	67.467	-85.0879
46.9147	58.5794	-96.1537
41.4202	73.188	-93.1998
47.6205	81.4333	-80.1653
47.9439	90.914	-68.1302
42.2789	94.4996	-71.3988
48.5755	97.9338	-53.9758
53.4567	86.5377	-64.5268
49.2777	102.195	-39.2188
55.0189	96.5743	-37.4395
43.467	106.843	-40.8409
50.086	103.706	-24.3379
49.8747	103.621	-9.34048
43.7966	108.639	-9.22716
55.6765	97.8432	-9.42586
46.2957	46.4363	-101.077
45.6306	33.8278	-104.339
40.423	48.3131	-105.033
51.7011	44.2451	-96.7421
44.6683	21.0596	-106.169
49.9695	19.6507	-101.795
43.6812	8.13944	-106.274
39.044	22.1616	-110.023
42.3581	-4.35529	-104.809
40.998	-17.2066	-101.254
37.1468	-4.04474	-108.483
47.1317	-5.06736	-100.581
40.1202	-29.755	-95.3422
44.7927	-29.4533	-91.4698
39.4833	-40.665	-88.9019
34.8505	-29.1749	-99.3071
38.8462	-50.1466	-83.183
38.128	-59.6236	-78.2582
33.6998	-49.9879	-86.9407
43.381	-50.3004	-78.8582
36.0996	-88.1632	-73.4615
35.2187	-98.1427	-74.4578
31.0689	-87.7758	-76.9074
36.9964	-78.5324	-73.3031
40.6695	-89.0912	-69.4035
24.9715	-105.71	-80.1074
25.1699	-114.554	-80.3492
19.9123	-105.043	-81.5609
25.2492	-96.6252	-79.8327
30.1012	-106.589	-77.9884
37.536	-69.1758	-74.8683
42.1607	-69.4717	-70.2752
32.6724	-68.5771	-78.666
67.3942	70.2651	-51.0806
68.5172	74.1909	-39.5562
71.3555	63.546	-45.2323
66.5767	64.1239	-61.582
63.1181	76.1827	-56.3286
69.3386	76.4169	-28.1351
73.1123	68.6616	-22.9548
65.0502	83.6839	-32.2759
69.8007	77.3695	-16.8465
69.0603	78.1074	-5.93624
71.9191	70.742	-1.12607
65.353	84.9968	-8.24804
56.4485	42.0286	-92.1854
57.1157	53.2568	-87.2284
60.7491	39.4104	-87.3281
55.7307	30.1636	-95.4225
57.4491	64.2287	-80.5886
57.8571	73.7644	-71.8828
61.9036	60.3653	-75.6417
51.8345	-5.72327	-95.5699
53.6322	6.23969	-96.944
56.3274	-6.50101	-89.9701
50.0617	-17.732	-92.4181
54.7771	18.0556	-97.0378
59.2107	16.7246	-91.9006
48.9513	-28.9341	-87.2851
52.998	-28.844	-82.1084
48.3473	-39.9631	-80.4537
47.4056	-49.5984	-74.5401
51.0081	-47.9265	-70.459
46.7693	-70.05	-64.5388
50.6783	-72.4816	-57.9472
45.8799	-80.1344	-63.7419
77.0704	35.3384	-46.6847
76.2427	29.3812	-54.2026
75.145	40.7185	-52.3917
59.5134	86.3118	17.1764
60.1973	89.9797	4.04193
78.2249	45.6181	-6.53312
77.5422	53.2861	-11.6751
66.6291	-7.11265	-73.9667
63.58	-7.26026	-79.1697
68.1482	2.28968	-75.4337
69.44	-7.3959	-68.3429
64.7337	-16.9149	-71.0952
69.0106	11.7908	-76.1039
66.121	13.509	-81.615
69.895	20.837	-74.6188
71.7414	9.76107	-69.9762
70.7516	30.0191	-71.2388
67.7978	33.4347	-76.948
71.7065	38.4257	-65.7246
73.3599	26.2318	-65.2567
59.0662	-41.8793	-59.5633
56.4753	-44.1936	-63.147
60.7858	-34.2523	-63.5308
61.6506	-39.6352	-55.7337
57.583	-49.6479	-55.751
68.1507	-22.7083	-58.8162
66.2027	-29.989	-55.4701
65.5706	-24.3795	-63.0023
70.1052	-15.2746	-61.2446
53.6947	-75.0433	-52.2392
54.962	-65.9239	-52.2352
74.5226	-36.9133	-4.18654
75.0722	-33.3673	-2.18349
72.7396	-39.9179	-1.92366
75.0075	-31.6581	-0.741709
79.4651	-6.12137	-2.30471
80.4606	-0.852269	-4.43969
92.4869	4.67008	-37.9685
92.6774	10.4953	-35.5301
93.095	4.28095	-37.261
81.7203	-34.8159	-24.3415
80.3614	-37.6252	-20.9389
92.3085	15.2171	-31.956
91.3643	15.5225	-32.4503
91.6536	18.3734	-27.7834
93.1692	14.5563	-31.3973
85.7158	10.2575	-11.1355
84.3987	10.2448	-11.8059
90.9041	19.7008	-23.4744
91.8037	18.9942	-22.7377
87.236	-18.2572	-34.6734
82.8232	-35.5685	-16.9245
82.0674	-35.4511	-14.2482
81.1243	-37.6662	-17.4082
80.9912	1.75655	-6.16562
87.5245	17.9516	-18.941
85.558	14.8672	-16.2782
86.4394	17.0772	-20.5235
83.1002	10.528	-13.2319
82.2395	10.9641	-14.8193
90.7116	15.3619	-32.6729
81.4937	10.7118	-16.2608
82.7894	12.693	-18.9151
84.388	14.6002	-22.5096
82.2177	12.445	-23.595
86.21	-26.7061	-27.4616
85.9887	-28.3171	-19.8235
79.5725	-38.8741	-17.8525
81.2191	-34.5978	-11.9673
82.4424	-31.6979	-11.9544
83.4782	-29.3277	-12.84
84.0352	-27.7679	-13.776
93.2753	3.98312	-36.8452
93.7442	9.60696	-34.4953
90.2694	16.3212	-15.2638
90.4293	15.6853	-14.9816
91.5026	17.9854	-18.3448
90.3896	15.0704	-14.8425
91.6811	16.8069	-17.8649
90.1935	13.9813	-15.0164
93.5318	14.0163	-31.0372
92.9931	16.9258	-26.8696
93.6367	13.5121	-30.8946
92.3418	18.2888	-22.2622
92.5512	17.6915	-22.1426
92.5466	17.0969	-21.8717
93.1166	15.8726	-26.4964
93.5857	13.1325	-30.5734
92.6509	-0.377903	-35.7927
89.9004	12.6644	-15.5677
87.1465	5.38118	-13.128
91.889	12.4086	-24.0684
92	-3.49451	-30.6606
92.0733	-1.60731	-30.347
92.0168	0.265102	-29.749
91.8188	1.76341	-28.832
91.4659	2.98352	-27.5706
90.5326	3.82611	-25.0125
81.9447	-24.2431	-11.5199
83.1984	-25.8356	-13.1859
85.01	-1.28962	-10.1703
80.9092	-16.2127	-9.58917
84.1693	-27.0455	-14.2718
31.9572	28.4668	73.7276
35.3068	94.2425	45.7
36.1247	100.602	34.5289
8.63336	101.31	48.3501
8.55886	108.972	36.3465
0.374311	101.595	48.3334
36.5095	106.425	21.2395
36.8731	110.712	6.60681
8.3652	115.546	22.4142
0.278881	115.949	22.2775
23.1376	119.661	-10.0583
30.3437	116.774	-9.61756
37.1323	113.152	-9.43924
37.375	113.208	-25.824
66.3159	53.8323	35.9935
73.5154	63.2238	4.39464
75.3393	61.9727	-6.42913
60.7003	91.8271	-9.41537
60.9589	91.657	-22.3903
8.11887	119.406	-47.3263
8.0292	113.285	-64.8291
0.213919	119.763	-47.4922
37.0801	110.965	-42.2188
36.7635	105.657	-58.868
75.7037	60.9117	-17.3094
75.4236	59.4332	-28.2783
60.0856	90.6104	-35.3315
59.2134	87.3674	-48.0683
74.462	56.7707	-39.1499
73.5121	52.4187	-49.4575
72.5612	46.359	-58.3316
69.5202	51.3762	-64.3697
45.115	-90.9166	-64.4617
44.5512	-101.057	-65.8413
44.6996	-110.502	-66.903
44.9349	-119.178	-68.1362
39.8182	-108.671	-71.586
7.71969	104.296	-80.8154
7.43955	92.8291	-94.3019
0.221122	104.476	-81.2049
7.39744	80.3531	-104
7.42195	67.2053	-111.037
0.183044	80.4641	-104.311
7.4455	54.1856	-115.94
7.30625	41.0046	-119.216
0.162028	54.3724	-116.218
7.0173	27.0411	-121.113
0.168325	27.0681	-121.439
18.9476	-1.55134	-117.297
25.0961	-2.49723	-114.928
5.8884	-26.6809	-109.84
5.88662	-38.8808	-101.664
0.139201	-26.801	-109.988
5.89446	-47.6621	-95.6373
0.233064	-47.8952	-95.5988
5.30216	-84.8519	-84.1587
0.362392	-84.6649	-84.2941
34.9327	75.5558	-96.6807
35.471	87.2244	-87.165
34.5009	62.8929	-103.674
36.0767	97.4713	-74.5188
33.9237	50.1322	-108.611
33.4061	36.9663	-111.831
32.7639	23.4669	-113.553
32.1321	9.74772	-113.591
31.271	-3.33486	-111.932
30.2091	-16.0792	-108.388
29.0892	-28.447	-102.825
28.2813	-39.7464	-96.2291
28.1375	-49.2848	-90.263
27.9666	-58.3121	-85.3583
27.2543	-67.7223	-81.9516
26.5849	-77.5625	-80.0439
25.9541	-87.0554	-79.5651
35.1306	-107.456	-75.1401
35.4255	-116.316	-75.7706
58.3411	81.8526	-60.6473
65.9031	56.4059	-70.0366
65.2698	46.7129	-77.1038
64.4341	36.7859	-82.3249
63.6634	26.0613	-85.587
62.8461	15.2895	-86.9167
61.856	4.1539	-86.3103
60.1166	-7.12211	-84.542
58.2014	-17.9321	-81.5312
56.4541	-27.9196	-77.4462
59.693	-27.2551	-72.3186
55.0721	-37.6858	-71.987
53.8377	-46.0835	-66.892
56.4041	-57.7696	-52.8457
58.4707	-56.1963	-49.4131
75.3396	23.0594	-59.724
74.6318	15.6583	-62.8877
77.1751	19.3024	-53.645
71.721	-7.42271	-63.3194
73.0367	0.448507	-64.2424
62.6593	-25.9321	-67.6818
73.8784	8.34174	-64.4243
64.2699	-37.1907	-52.0254
62.605	-44.3607	-48.7505
16.2701	-107.352	42.33
61.4154	-70.9675	5.46301
53.7282	-89.2603	7.48829
12.2214	-48.6786	92.8102
15.0491	-49.812	90.7063
17.9045	-51.5087	87.9724
7.72114	-57.8383	93.6089
8.03555	-58.8697	93.6635
8.26123	-59.9685	93.6096
21.005	-64.9463	83.2245
20.4464	-63.1839	83.824
19.9121	-61.5869	84.3519
16.1805	-45.5862	90.1121
34.3159	-54.1511	77.2464
26.9813	-33.9608	80.9305
27.9305	-39.1753	81.6278
28.6288	-44.1502	81.8713
55.2683	-38.1127	58.5275
17.5899	23.6347	72.3124
78.8151	15.6206	-47.1754
81.3955	14.3041	-27.8539
81.994	12.3421	-25.4739
71.142	-42.8156	1.56488
24.1074	11.8565	70.6853
52.5429	43.6099	65.7214
7.11944	-30.9383	93.2265
44.8425	21.3548	64.8641
10.5161	-30.0455	90.9581
81.8694	12.149	-24.4263
58.1434	-101.735	-42.017
62.0071	-65.5252	-36.967
61.0823	-58.8909	-42.2118
61.0488	-52.9837	-45.9761
20.2141	-26.2426	82.4191
12.7561	-56.2584	89.6159
22.2728	-56.5052	80.6194
6.25814	-52.7137	91.1485
-69.1351	-47.9556	13.6687
-69.9906	-43.1761	14.8419
-70.3668	-46.109	6.61572
-68.1709	-52.462	12.4281
-67.6901	-49.5778	21.8265
-56.8361	-117.798	-8.10638
-56.3651	-107.654	-7.53289
-58.9067	-116.381	-12.4631
-57.777	-127.897	-9.20511
-54.2014	-119.019	-3.89142
-58.7203	-135.183	-10.3854
-56.3444	-137.107	-5.84358
-60.4454	-133.298	-14.9755
-59.5294	-140.872	-11.5397
-50.2527	-102.643	2.35553
-53.6403	-101.297	-2.44261
-50.3001	-110.168	1.25471
-46.7259	-104.398	6.79061
-50.8612	-96.7197	3.64242
-59.9313	-98.7831	-15.3242
-58.4137	-99.5013	-11.07
-60.1462	-93.2901	-14.7998
-60.8609	-97.3303	-20.3442
-59.9199	-105.785	-15.9562
-61.9409	-67.0698	24.0111
-63.2319	-66.2201	16.1472
-60.2504	-71.2322	21.2846
-59.8721	-67.9471	32.4205
-63.2486	-63.188	26.2871
-71.4941	31.7378	23.7438
-74.9764	30.2001	12.1891
-71.0536	24.2295	26.5078
-67.2227	34.5382	34.5747
-72.2713	39.6071	19.516
-77.7124	42.0098	-28.5443
-78.815	34.6054	-23.7515
-77.9937	43.7594	-17.9924
-76.1687	49.0682	-33.6642
-77.2418	38.9855	-38.1741
-8.87505	-115.745	37.6578
-9.25752	-111.389	39.9311
-12.1649	-115.408	36.334
-8.6779	-122.655	36.1769
-6.15994	-115.866	38.5293
-9.36889	-133.474	32.9767
-10.1792	-144.296	29.407
-6.13513	-133.624	34.1217
-12.9317	-132.643	31.457
-3.36893	-152.225	28.7095
-3.73457	-157.171	27.2439
-3.145	-144.842	31.0291
-7.03411	-151.946	28.1468
-66.1577	-54.2154	-31.8036
-67.0257	-46.5242	-35.9684
-63.5538	-60.3143	-34.2553
-65.5868	-60.6495	-26.6138
-68.6814	-48.1029	-29.4377
-67.9658	-41.0279	-39.0195
-71.0492	-36.3969	-35.8309
-68.8919	-36.2467	-41.4882
-64.3634	-46.8266	-42.4466
-61.399	-126.111	-31.0111
-61.9035	-129.291	-24.686
-59.9095	-123.204	-37.6958
-61.4654	-132.608	-33.2882
-3.08039	-133.886	34.7597
-3.16925	-123.043	37.915
-65.5665	-50.9742	31.0446
-64.771	-55.6477	30.1376
-63.2315	-51.1705	39.2825
-66.5074	-45.4948	31.2479
-64.297	-64.8761	8.31813
-65.7955	-60.7524	9.80948
-65.0125	-64.2336	0.217243
-62.6558	-68.9118	6.41846
-10.5235	-93.4584	86.2499
-10.1927	-88.9094	88.0244
-14.1715	-93.1675	84.2429
-10.5426	-97.4995	83.7226
-6.90383	-93.6165	87.7107
-18.001	-92.2278	81.8132
-18.186	-87.3238	83.5405
-22.2212	-90.7364	78.6556
-17.459	-96.7521	79.4444
-3.47779	-84.6576	90.7558
-3.65835	-89.2864	90.1077
-3.3225	-79.8849	90.7776
-6.62298	-84.396	90.072
-10.3354	-100.404	80.8346
-6.99306	-100.406	82.2372
-13.7186	-100.229	79.007
-10.3947	-102.419	77.1977
-10.9255	-103.585	72.7195
-11.443	-104.092	67.2761
-7.35468	-103.959	73.4827
-15.2023	0.8529	79.7224
-12.6313	3.29198	81.4709
-14.6316	4.7802	77.4545
-17.8247	-0.930458	78.0672
-15.8433	-3.11995	81.8233
-43.3864	-27.2386	74.5606
-44.267	-32.1257	74.2527
-38.2508	-25.8313	77.3592
-42.8289	-22.2173	74.4378
-48.9842	-28.2353	70.1961
-53.572	-17.6907	64.9086
-54.1412	-23.234	64.5655
-47.8064	-17.6317	70.3508
-52.8537	-11.8716	64.8961
-59.2941	-16.8335	57.2943
-66.4322	2.14953	42.5269
-63.8879	4.04716	47.0574
-66.3584	9.64939	41.1267
-68.5314	1.11598	37.2978
-44.8072	-37.0117	73.6414
-39.6856	-35.8215	77.4716
-50.1099	-38.1762	68.3941
-44.9386	-42.0926	73.2824
-1.29459	3.37925	95.7859
-3.06594	2.7556	95.3254
-1.51437	-1.21112	99.7846
-1.44639	8.18739	91.621
-30.3383	67.8911	69.682
-31.2474	73.9341	65.3926
-35.5331	66.3283	67.0009
-29.3507	61.0997	74.4501
-25.397	68.8609	71.7095
-4.18214	-105.539	61.7138
-4.1913	-104.852	68.5549
-7.46189	-105.288	61.1258
-4.14425	-106.463	54.1917
-60.5236	-50.9195	46.8576
-61.4997	-45.3147	47.1843
-59.2278	-56.5433	46.6573
-57.3326	-50.4555	54.1197
-3.81577	-100.411	83.0403
-4.02757	-102.753	78.7948
-3.71356	-97.4414	86.1343
-4.17054	-104.102	73.9962
-36.5811	-88.395	61.0129
-36.8466	-85.0859	64.3804
-41.5444	-83.948	57.1344
-35.7962	-91.0511	58.0503
-31.5068	-92.2057	65.3776
-41.2824	-92.098	35.7311
-36.7477	-94.8814	40.5785
-43.7187	-88.2661	40.8029
-45.4585	-89.2108	30.6034
-38.8303	-96.1349	30.1692
-3.92724	-108.198	46.3511
-3.77658	-111.5	41.2627
-6.67084	-108.175	45.5978
