1922
-28.508	89.3881	-89.8791
-30.0095	108.344	-61.0706
-14.3611	66.7879	-110.086
-27.4798	64.6486	-106.589
-30.146	116.549	-26.9279
-15.5686	121.298	-28.6941
-13.8631	40.4574	-118.306
-26.5317	38.3546	-114.764
-12.9082	12.3377	-120.462
-25.5061	10.7088	-116.556
-23.9313	-15.2394	-111.405
-12.0465	-13.7424	-115.412
-11.3772	-38.7556	-101.356
-22.4381	-39.2131	-98.8673
-10.2378	-75.951	-84.6427
-9.93422	-95.1954	-83.0435
-20.1351	-96.4651	-81.2661
-21.1317	-77.4544	-82.2007
-9.91737	-114.1	-82.5871
-20.0586	-114.729	-81.2731
-11.2011	-55.6895	-90.8567
-22.3929	-57.6637	-87.9481
-42.6193	105.843	5.80592
-54.159	95.3769	4.12084
-52.6391	77.702	-76.2811
-41.425	84.533	-83.9168
-40.6703	60.8684	-100.163
-52.01	56.0145	-91.9115
-53.6433	92.7485	-51.3751
-42.4074	102.023	-56.6787
-55.2042	97.5971	-23.8431
-43.4831	108.51	-25.2905
-50.7129	32.0879	-100.099
-39.5128	35.4711	-108.298
-37.9407	8.89314	-110.134
-48.6031	7.30452	-102.016
-45.583	-17.5576	-97.3275
-35.7985	-16.7676	-104.993
-34.1414	-40.6011	-92.9214
-44.6346	-40.8719	-84.8243
-33.6702	-59.6534	-82.0725
-40.4924	-100.28	-70.4247
-42.4172	-80.1112	-68.8364
-32.3495	-78.9252	-76.9227
-30.6065	-98.3144	-77.2503
-30.5209	-116.142	-78.0797
-63.4876	80.8042	-44.577
-61.9718	69.0227	-67.3394
-69.9063	58.2403	-55.8848
-71.5901	66.6787	-34.4543
-71.9799	69.3407	-12.4381
-64.8904	84.3758	-20.6534
-59.8403	28.1689	-90.6894
-61.1655	50.0562	-82.4935
-54.6252	-18.1889	-87.0993
-58.1072	5.14513	-91.6959
-52.6112	-39.5009	-76.2987
-74.1238	33.671	-60.1259
-62.1192	-17.8818	-76.4579
-68.2863	-16.4646	-66.4289
-71.2081	1.0562	-69.9479
-65.307	3.0599	-81.2368
-72.6204	17.854	-68.9212
-66.8847	23.4791	-80.5315
-68.4758	42.5988	-71.8398
-61.4952	-48.1971	-52.8463
-64.6892	-32.701	-59.8368
-58.8461	-36.7198	-68.061
-93.8187	9.93114	-35.422
-92.0187	10.6103	-36.6308
-92.6277	17.5802	-27.6944
-90.7235	18.7224	-28.8239
-88.2995	14.0688	-13.3862
-86.5601	14.9626	-15.336
-84.5022	14.362	-18.3064
-90.3046	9.04509	-37.5421
-89.5504	17.3372	-30.0831
-93.3205	-1.99168	-37.5401
-91.6832	17.4535	-18.5561
-93.2661	16.3309	-27.246
-40.8082	-118.73	-71.9328
18.0749	-100.562	72.7692
15.1194	-101.955	72.9301
20.6351	-100.232	69.7805
18.8101	-98.594	74.9046
64.525	-6.70942	48.8177
62.3898	-5.81768	52.1035
65.0961	-10.1055	48.2656
65.7823	-2.7309	45.0988
60.3675	-4.25434	54.3685
60.3481	-0.189775	52.815
57.847	-5.64113	57.8227
11.37	32.8026	89.5724
13.938	31.4924	88.9532
14.6443	35.6808	89.0771
8.69776	34.2587	89.9848
9.68372	29.6331	88.7258
9.87735	16.9747	82.2038
10.6108	16.1879	81.0895
10.4026	18.4234	81.4976
9.30493	17.2508	83.2438
13.5673	18.3244	76.1417
15.0779	17.4937	73.5151
14.2456	19.7695	75.8172
12.0512	19.2211	79.1204
13.0759	16.8829	76.8021
43.3744	15.4227	66.9661
40.3675	14.0132	69.3557
45.044	16.6467	65.3062
16.0857	11.5182	74.6118
15.8786	12.6155	74.2516
15.6379	10.4474	75.7831
17.4342	10.7664	73.9667
27.7843	-54.2743	76.4142
27.6735	-54.1603	76.665
27.8944	-54.3827	75.9772
27.6832	-54.2174	76.7201
26.6349	-53.0793	78.9798
26.9596	-53.669	77.6283
27.6919	-53.5167	77.8765
26.6924	-52.6276	79.642
24.9218	-52.6998	80.6773
30.6788	-54.2923	76.801
30.7839	-51.9473	78.3711
28.1884	-54.5775	75.1581
27.7918	-53.8119	75.8318
28.8012	-54.5867	73.8237
27.98	-54.8836	75.4728
22.7676	-57.3757	81.9621
23.1295	-58.1453	81.6125
25.8461	-56.1588	78.8499
22.6907	-56.749	81.99
19.5122	-58.086	85.1465
21.0647	-48.2411	88.422
20.6604	-46.8553	89.1708
17.9861	-46.5045	91.0655
21.3019	-49.0318	87.9509
23.5349	-49.6514	85.7221
26.9366	-54.2909	77.5153
27.0275	-54.325	77.4973
27.0678	-54.2916	77.395
25.3147	-54.3442	78.6017
79.541	-34.5571	-7.51366
78.9705	-34.963	-6.67385
79.2438	-38.0898	-10.5131
80.0776	-33.5812	-7.44568
87.4661	-25.5192	-19.2335
87.9636	-23.7019	-21.9067
86.2842	-23.8751	-18.0573
86.9817	-26.6479	-16.7678
87.9947	-26.8726	-19.8882
82.5488	-31.5059	-9.30086
82.5855	-28.8687	-8.63853
81.9041	-31.7796	-8.56632
83.2827	-32.7989	-10.9032
82.2968	-19.1064	-12.6289
82.2054	-18.0754	-13.4993
82.2138	-17.3284	-12.4208
82.5683	-19.6068	-11.3006
82.7835	-20.6526	-13.019
87.0066	0.466864	-13.6962
86.558	-1.50588	-14.4433
87.2721	1.25761	-14.2621
87.0285	1.01962	-12.7845
90.1999	11.277	-17.8603
90.1961	11.8737	-16.8729
89.8242	10.3371	-17.8285
91.4248	12.387	-20.9325
84.7631	-17.0068	-19.5882
83.7553	-15.5332	-18.1828
84.3789	-20.7494	-16.9471
87.1171	-20.1464	-22.3341
87.0303	-14.5942	-23.5056
88.8979	1.77873	-20.1465
89.2547	2.91292	-20.506
87.649	1.3597	-16.34
88.895	0.463526	-21.1934
92.6024	-9.03104	-32.1418
92.4863	-8.81382	-31.5646
91.8351	-12.13	-31.7078
92.937	-7.90896	-33.1002
93.2087	-6.26309	-34.7642
93.3305	-4.13141	-33.7138
93.1445	-6.96635	-35.8176
93.4172	-3.2161	-36.0185
88.3844	-22.0844	-23.8781
88.7779	-19.857	-25.7084
88.8514	-23.1434	-24.689
90.1834	-8.49283	-28.0039
89.217	-10.4567	-26.8577
91.4954	-8.78451	-29.8579
90.1616	-7.14541	-27.7348
80.6666	-26.5127	-5.33875
80.8049	-28.7862	-6.03657
81.2816	-26.104	-6.22453
80.3869	-25.6623	-4.68307
80.2085	-24.0268	-3.93754
80.4621	-21.9755	-3.92615
79.8214	-24.1737	-3.04762
81.3317	-14.9924	-4.31313
81.0837	-15.538	-3.87357
81.7023	-15.3414	-5.20916
81.6764	-11.8025	-4.53135
80.7915	-16.3192	-3.3912
80.4187	-16.1682	-2.45707
80.706	-18.7229	-3.66977
84.452	-22.3139	-15.6669
84.2907	-23.339	-13.8514
83.8503	-10.2853	-12.8717
82.8915	-14.0836	-12.5796
83.7878	-10.8013	-14.3621
84.8539	-6.48672	-13.1639
84.1887	-9.17983	-11.6564
93.0115	7.20542	-29.967
93.1287	7.94513	-30.2255
92.8598	6.7814	-29.3972
93.2903	6.01919	-31.7147
93.3125	2.34953	-32.5261
93.1397	1.24736	-31.0974
93.3882	0.670654	-33.4231
93.3983	3.67626	-33.3581
93.0528	4.1466	-30.5962
89.648	9.71313	-17.9939
90.5431	9.80853	-20.6229
89.0333	8.84983	-16.8584
91.5838	9.67647	-23.9202
91.17	8.62332	-23.2098
92.7743	9.37181	-27.993
92.1443	10.95	-24.8076
39.7886	26.2215	73.2058
42.063	25.1875	71.9407
36.9539	26.777	73.8965
24.6183	-99.4285	65.4203
23.6361	-101.173	62.1961
27.0921	-97.5731	65.1706
46.0793	20.0751	66.4947
45.2995	22.1028	68.4295
46.7294	18.4081	65.0267
49.5739	21.6054	65.7297
51.4373	22.744	65.0078
48.1216	24.1222	68.7164
47.8276	21.1027	66.5152
50.1266	19.1535	63.5879
73.8227	-47.4278	-2.98604
74.6745	-45.7943	-7.58517
74.1856	-45.8043	-1.57053
73.164	-49.6883	-3.36692
18.1155	16.7482	70.3309
18.4844	16.0395	70.1945
18.1919	17.6942	70.4271
17.3164	19.2425	71.5337
18.5528	20.9485	72.0093
17.0053	17.8825	71.3086
8.58584	18.2979	84.4195
7.93952	18.2827	85.4227
8.69791	20.1343	84.5294
20.9923	-52.7424	83.0291
21.7227	-53.1959	81.3029
21.4487	-52.4311	83.4924
17.8503	-52.0718	85.8935
66.8477	-70.7065	-7.9542
66.1084	-70.6932	-2.48179
66.2877	-73.4771	-9.82423
67.6642	-68.1159	-8.57394
79.1842	-3.75581	1.23781
78.4867	-10.8793	3.97084
80.1147	-4.55299	-1.41549
79.8538	3.86435	-2.36996
77.9955	-2.65988	5.64667
67.14	-73.6594	-21.3192
66.5888	-75.9201	-22.9955
67.7643	-69.2149	-21.7748
66.6161	-75.9725	-16.5921
64.0576	-109.546	-26.7688
64.0617	-118.104	-28.276
62.4297	-105.958	-34.4377
64.0679	-100.495	-26.6088
64.3074	-112.1	-20.6818
27.2668	-54.6905	77.5215
27.4075	-54.8374	77.4728
25.5189	-55.1713	78.9246
27.6355	-55.0813	77.4211
22.3585	-56.3088	82.259
22.547	-55.8736	81.9631
19.0881	-56.398	85.4491
29.0177	-95.7876	65.0449
33.1451	-94.1783	59.6481
29.0453	-93.5957	67.9646
49.7061	-60.7975	-65.8302
48.3203	-56.9271	-69.9076
52.4114	-59.7784	-62.0778
48.7846	-63.9494	-65.613
54.927	79.888	34.9169
56.7993	81.9635	27.8675
51.1337	82.9053	37.6451
55.7133	75.847	37.8292
90.1068	-18.7067	-32.9565
91.3452	-13.705	-35.8311
90.6059	-17.8972	-31.9434
89.0287	-22.8602	-30.3586
89.5003	-18.7625	-34.1931
84.0859	1.63863	-8.05781
83.3446	-2.61504	-6.88139
85.0861	1.53882	-8.72856
84.8154	5.8837	-9.69503
82.8039	1.82461	-7.32135
82.3152	-19.547	-7.45409
81.8788	-20.2081	-6.38399
82.8291	-22.1762	-8.71673
82.6885	-19.8192	-9.02787
82.2499	-17.8722	-7.12535
82.3648	-25.9751	-7.85746
81.8108	-23.1392	-6.5904
83.1894	-25.7022	-9.22836
92.271	-7.99035	-38.2697
91.5077	-7.99446	-39.0795
92.8346	-1.85693	-39.3285
92.7306	-7.99342	-37.4125
90.4998	-7.8671	-39.7392
89.7828	-13.3805	-37.7815
89.4566	-7.63116	-40.1134
90.8824	-1.87857	-40.6203
81.5622	5.8007	-8.61918
81.8236	8.00547	-10.3856
81.3071	6.84027	-8.30912
81.6064	4.16556	-7.43831
86.7592	-16.9457	-37.1286
85.0517	-16.3962	-37.8999
87.3903	-12.5769	-38.945
87.8305	-17.5451	-36.431
85.7566	-20.8317	-35.2233
89.0477	-24.2204	-25.482
89.5676	-21.1521	-27.9323
88.6902	-26.1832	-23.3307
88.9415	-25.175	-26.6911
86.5958	-32.8489	-23.4813
86.0218	-34.6482	-20.6322
85.2712	-34.2559	-24.5246
87.5045	-29.6879	-26.1826
87.9179	-30.1425	-22.0576
87.2652	-31.0233	-16.8244
86.7678	-32.7406	-17.16
87.7605	-29.9421	-18.4232
86.8253	-30.3231	-15.4985
76.9575	-41.4923	-12.7459
76.4413	-42.4599	-13.2312
78.0152	-40.5881	-14.4444
76.9843	-40.4873	-8.43192
81.7073	-37.9437	-13.87
82.0733	-38.7452	-16.2522
82.8975	-36.5608	-13.4644
81.187	-36.0942	-10.8319
80.6633	-38.8125	-14.0931
87.7121	8.06859	-10.9097
87.715	9.55715	-11.0162
86.3885	4.61561	-10.0748
88.0252	8.02661	-11.2748
87.674	10.4718	-11.2468
88.9902	13.7067	-13.1648
87.3188	10.4617	-11.2574
92.9508	-7.81595	-36.6678
92.1014	-12.4503	-34.1565
93.4767	-2.19736	-38.0432
93.8732	6.40479	-34.6789
93.6715	5.39562	-34.409
94.0134	5.74687	-35.555
93.8011	7.94587	-33.1538
88.7219	9.06001	-13.0048
88.5812	8.82976	-12.4635
88.2998	7.50468	-13.261
89.2095	10.6302	-13.9771
88.2184	7.97392	-11.6513
87.449	4.83081	-11.5803
89.241	12.1539	-13.0972
92.2118	-8.78351	-30.9779
92.8178	-5.86523	-31.2763
90.9807	-12.3177	-29.9336
88.0214	5.92835	-14.7888
88.4246	7.51822	-15.3089
87.9298	5.78062	-14.3191
88.3321	5.00984	-16.5564
88.8076	8.30305	-16.481
89.3107	7.88546	-18.442
88.4101	-13.5253	-25.8958
89.0778	-15.3148	-26.9772
84.3333	-8.34507	-10.5023
85.351	-3.98576	-10.5932
84.1616	-8.31319	-9.40442
83.3437	-13.0098	-10.5182
87.4012	1.67084	-14.5682
87.6143	3.40851	-13.9751
54.1279	-57.7784	-60.1695
54.3198	-53.1549	-62.7977
55.5922	-57.9761	-57.4491
25.5601	-22.9989	82.0035
27.633	-27.2023	82.0329
25.8441	-21.4254	81.696
23.5031	-22.4322	82.7727
20.3758	-20.5598	84.6987
20.9186	-21.5699	84.2178
20.5646	-17.7849	84.8219
19.388	-21.0613	85.8857
49.02	37.3102	70.2334
48.7694	35.2276	71.2127
54.2178	33.437	64.351
49.6103	39.0874	68.6602
45.0566	38.8489	73.7427
9.23766	-25.8003	94.1675
8.5736	-25.2348	95.1698
9.02932	-26.4711	93.9942
10.3854	-25.8041	93.34
10.6042	-22.9762	96.4798
9.2521	-23.311	97.2278
11.7559	-23.5892	94.5454
11.0995	-22.0578	97.1652
45.626	17.3596	65.0184
45.3879	18.1428	65.3251
16.0832	-15.0695	95.0039
16.1701	-15.9824	94.8239
16.4638	-14.9601	94.1725
15.1112	-14.52	96.6541
84.7453	-24.8321	-33.0745
83.6707	-27.37	-31.6425
83.3837	-23.2583	-34.493
85.7993	-25.9462	-31.9699
64.6355	77.1411	15.037
62.2838	80.5741	16.254
65.2225	72.6192	19.5564
66.7544	77.8143	5.32733
28.9267	-59.9366	72.3198
29.5719	-58.1391	71.7883
28.9314	-61.0271	71.9178
27.9694	-59.536	73.5535
28.9226	-49.4328	73.0538
27.7388	-49.57	74.4194
28.7626	-48.3101	72.944
29.5936	-51.3099	72.3309
-18.9265	-102.535	71.2943
-19.2261	-100.905	73.3151
-21.6024	-102.3	68.2193
-16.1507	-103.687	71.6382
-63.8597	-6.63441	48.1679
-64.9927	-2.64461	44.9373
-64.538	-9.9165	47.5012
-61.6193	-5.91712	51.3884
-59.3429	-4.3481	53.8669
-56.774	-5.68091	57.1755
-59.2249	-0.179828	52.5604
-12.1339	32.6664	87.7676
-13.8197	30.286	86.7274
-10.1605	29.7757	87.6333
-9.54311	34.4811	88.5471
-14.9486	34.5232	87.3533
-9.32081	16.999	82.0908
-8.81723	17.2004	83.1042
-9.91181	18.4055	81.3861
-10.0649	16.3854	80.8811
-13.3997	19.1342	75.9558
-15.3739	18.7377	73.1852
-12.7515	17.7015	76.6356
-11.7368	19.4941	78.8773
-14.2108	20.4687	75.6214
-43.6858	16.2657	66.3674
-40.5731	14.6977	68.9405
-45.3673	17.4837	64.6879
-15.6286	12.4074	74.4246
-17.0593	11.5003	73.7854
-14.997	11.2549	75.6367
-15.5491	13.5951	74.0338
-25.3271	-53.931	77.0138
-25.2072	-53.8085	77.2892
-25.2192	-53.8743	77.3426
-25.4409	-54.0407	76.562
-24.0766	-52.7029	79.6186
-25.2457	-53.154	78.4305
-22.3004	-52.3579	81.2802
-24.1476	-52.2534	80.2325
-28.3224	-51.5422	78.6612
-25.7668	-54.2402	75.6924
-25.5514	-54.5526	76.0669
-26.4515	-54.2543	74.2433
-25.3143	-53.4626	76.3921
-20.4329	-57.0176	82.8527
-20.9116	-57.8284	82.4392
-17.5407	-57.9004	85.9045
-20.3032	-56.4168	82.868
-23.384	-55.7672	79.6724
-18.0376	-48.2007	88.2549
-17.6377	-46.7873	88.9282
-20.4991	-49.5884	85.7762
-18.2636	-48.9765	87.8364
-15.1002	-46.4379	90.7329
-24.4306	-53.9408	78.1951
-22.7578	-53.997	79.3535
-24.5646	-53.9422	78.0698
-24.5243	-53.9757	78.1769
-79.8477	-34.6506	-7.57636
-80.4825	-33.6796	-7.51321
-79.525	-38.2171	-10.6654
-79.2844	-34.961	-6.76308
-87.4554	-25.5723	-19.3188
-87.9262	-23.7753	-21.9853
-87.9962	-26.9385	-19.9803
-86.9929	-26.6759	-16.8616
-86.2644	-23.9215	-18.1352
-83.4322	-31.5214	-9.46183
-84.2399	-32.7541	-11.1165
-82.9548	-31.7451	-8.83289
-83.0089	-28.8174	-8.68186
-82.2365	-19.0819	-12.6583
-82.1375	-18.0643	-13.5296
-82.7428	-20.6459	-13.0738
-82.5146	-19.5848	-11.3292
-82.1361	-17.3068	-12.4376
-86.7359	0.429503	-13.6568
-86.7506	0.981589	-12.738
-86.9956	1.21909	-14.2253
-86.3056	-1.53862	-14.4124
-89.8748	11.2185	-17.8428
-89.8636	11.8135	-16.8503
-91.1067	12.3297	-20.9327
-89.5034	10.2791	-17.8106
-84.3739	-9.76774	-17.3829
-86.6813	-5.99033	-20.5703
-83.8739	-12.1724	-17.7806
-83.6307	-10.8068	-14.3537
-85.2145	-6.01438	-16.4393
-89.3337	4.38807	-20.7261
-88.9867	2.86497	-20.5054
-88.0365	4.96107	-16.5313
-89.8574	5.97901	-21.5386
-91.0967	3.83764	-25.598
-82.4484	-29.074	-30.9854
-83.6551	-27.5827	-31.7254
-81.2414	-28.9185	-31.486
-82.3416	-31.4037	-29.3892
-92.434	-9.1118	-32.2023
-92.7616	-7.98951	-33.1604
-91.6861	-12.2228	-31.7702
-92.3159	-8.89285	-31.6239
-93.0243	-6.34469	-34.8226
-93.1319	-4.20394	-33.7693
-93.2173	-3.29085	-36.0749
-92.9651	-7.05255	-35.8775
-88.3284	-22.169	-23.9546
-88.6987	-19.95	-25.7793
-88.8025	-23.2381	-24.7693
-87.0494	-20.2188	-22.4026
-90.0084	-8.56345	-28.0506
-89.0572	-10.5277	-26.9054
-89.9772	-7.2132	-27.7781
-91.323	-8.86014	-29.9103
-88.2754	-13.6003	-25.9488
-88.957	-15.399	-27.0372
-86.9085	-14.6598	-23.5572
-80.7867	-26.4208	-5.37435
-80.4472	-25.5776	-4.73442
-81.3812	-26.0317	-6.2573
-81.1295	-28.7255	-6.16332
-80.2448	-23.9329	-3.96748
-79.8622	-24.0664	-3.07946
-80.4569	-21.8884	-3.93719
-81.226	-14.9393	-4.25991
-81.5261	-11.7704	-4.45597
-81.601	-15.2905	-5.16534
-80.9867	-15.4801	-3.82137
-80.7079	-16.2555	-3.34099
-80.6569	-18.6489	-3.64401
-80.3357	-16.1012	-2.39633
-84.4257	-22.334	-15.7474
-84.3353	-20.7839	-17.0161
-84.2704	-23.334	-13.9272
-83.6853	-10.2888	-12.8526
-82.7722	-14.0756	-12.5778
-84.0086	-9.1864	-11.6322
-84.6492	-6.50248	-13.1338
-82.3766	-15.9103	-12.0839
-82.6052	-15.8697	-11.2016
-92.7462	7.1533	-30.0027
-93.0346	5.96554	-31.7559
-92.5953	6.72886	-29.4313
-92.8605	7.89385	-30.2618
-93.0769	2.29079	-32.5723
-92.907	1.18892	-31.142
-92.8044	4.09152	-30.6357
-93.1573	3.61962	-33.4048
-93.1631	0.608775	-33.4729
-89.3317	9.65653	-17.9763
-88.7169	8.79344	-16.8323
-90.2363	9.75345	-20.6192
-91.2897	9.62313	-23.9329
-90.8786	8.57085	-23.218
-91.8474	10.897	-24.8254
-92.4943	9.32212	-28.0221
-90.3307	7.32701	-22.3166
-91.7581	6.78671	-26.5162
-89.006	7.83177	-18.4266
-39.6303	26.6115	72.938
-36.7668	27.1917	73.6831
-42.0352	25.6476	71.6567
-25.5424	-101.786	63.6913
-27.851	-100.157	63.1359
-24.7991	-103.479	60.6868
-46.2717	20.8862	66.0708
-46.9419	19.3187	64.5539
-45.3727	22.755	68.0726
-49.4775	22.4788	65.6258
-48.1384	24.6571	68.4171
-51.1517	23.059	64.5909
-49.7806	19.8716	63.3412
-48.0497	21.8841	66.1295
-74.3345	-47.4804	-3.37362
-73.7085	-49.8221	-3.77792
-74.6861	-45.7987	-1.94151
-75.092	-45.9391	-7.89602
-19.7782	18.1456	69.3642
-19.992	17.4188	69.2704
-19.9738	19.0529	69.5276
-18.5676	20.5811	70.8964
-19.6446	22.0589	71.4702
-18.1125	19.2957	70.7016
-8.21071	18.0795	84.2678
-8.44572	19.9143	84.3641
-7.65324	18.069	85.2412
-18.2719	-52.5295	83.5312
-15.1647	-51.9098	86.1254
-18.6431	-52.2292	83.9427
-19.0075	-52.9504	82.0056
-67.4805	-72.1297	-8.23198
-68.2792	-69.3243	-8.88688
-66.8607	-75.1227	-10.0088
-66.8711	-72.1196	-2.88524
-78.9277	-3.77814	1.4207
-78.3348	-10.8479	4.15397
-77.7185	-2.71397	5.89465
-79.5231	3.80092	-2.21421
-79.8706	-4.5623	-1.27235
-67.3692	-75.2347	-21.2963
-66.9743	-77.7165	-16.6072
-67.9805	-70.566	-21.8187
-66.7747	-77.6049	-22.9253
-64.3239	-111.917	-26.3162
-64.306	-120.354	-27.8119
-64.5948	-114.712	-20.1792
-64.3307	-102.824	-26.2202
-62.6605	-108.033	-34.0337
-24.7786	-54.3529	78.2082
-23.0215	-54.8165	79.7228
-24.6248	-54.2025	78.2461
-24.9088	-54.4954	78.1654
-26.5274	-53.9957	77.4813
-25.6833	-55.2738	77.9558
-19.9677	-56.0222	83.1143
-17.0428	-56.2615	86.1491
-20.1005	-55.5985	82.8047
-29.6747	-98.5501	62.7248
-29.4982	-96.6092	65.369
-33.8903	-96.8841	57.3851
-49.717	-61.4601	-65.7412
-48.7991	-64.6501	-65.5061
-52.4455	-60.4941	-61.9883
-48.2938	-57.4841	-69.8326
-54.7135	79.7829	34.3248
-55.4573	75.7535	37.2222
-51.0179	82.7948	37.0482
-56.5753	81.8286	27.3388
-90.0032	-18.8475	-33.0298
-91.2051	-13.829	-35.8978
-89.3965	-18.914	-34.2638
-88.9638	-23.0129	-30.4415
-90.4977	-18.0224	-32.0161
-83.7864	1.59411	-7.96398
-83.0846	-2.63888	-6.78503
-82.5047	1.77824	-7.22203
-84.4846	5.82075	-9.60894
-84.7867	1.49617	-8.6397
-82.2679	-19.4943	-7.46136
-81.8443	-20.1427	-6.39296
-82.1822	-17.8218	-7.11661
-82.6418	-19.7812	-9.04767
-82.8149	-22.1281	-8.75137
-82.476	-25.9175	-7.88237
-81.8287	-23.0698	-6.6277
-83.2752	-25.6612	-9.26284
-92.0991	-8.09319	-38.3323
-92.5572	-8.09176	-37.4765
-92.631	-1.93956	-39.3886
-91.3369	-8.10248	-39.1413
-90.3308	-7.98082	-39.7995
-89.6446	-13.517	-37.8432
-90.684	-1.96858	-40.6789
-89.2899	-7.74716	-40.1726
-81.2417	5.74615	-8.53387
-81.2925	4.11309	-7.3423
-80.9767	6.77728	-8.213
-81.4944	7.94597	-10.3144
-86.651	-17.1057	-37.1911
-84.9407	-16.5578	-37.9635
-85.6795	-21.0105	-35.2913
-87.724	-17.7056	-36.4939
-87.2518	-12.7162	-39.0058
-89.0079	-24.3327	-25.5695
-89.4942	-21.2678	-28.0095
-88.9075	-25.3099	-26.7832
-88.6752	-26.2887	-23.4257
-86.6495	-33.0365	-23.6091
-87.9519	-30.2735	-22.1754
-87.5128	-29.8656	-26.2918
-85.3276	-34.484	-24.6523
-86.1307	-34.8309	-20.7723
-87.3657	-31.0973	-16.9325
-86.9441	-30.381	-15.56
-87.8146	-30.0129	-18.5429
-86.9162	-32.8742	-17.2517
-77.2411	-41.6538	-12.9643
-77.3214	-40.5563	-8.6651
-78.2714	-40.7531	-14.6421
-76.7369	-42.6444	-13.4569
-82.3836	-37.734	-13.8545
-82.4095	-38.8605	-16.3881
-80.9761	-38.9025	-14.2386
-82.1873	-35.9335	-11.1952
-83.7629	-36.3947	-13.6037
-87.3716	8.00694	-10.8415
-87.6888	7.96651	-11.2131
-86.0686	4.56228	-9.9974
-87.3641	9.48783	-10.9482
-87.3177	10.397	-11.179
-86.9636	10.3864	-11.1896
-88.6254	13.6275	-13.1143
-93.6211	6.35279	-34.7272
-93.5392	7.89522	-33.1986
-93.766	5.69361	-35.6055
-93.4238	5.34235	-34.4567
-88.388	8.99967	-12.9547
-88.8705	10.5684	-13.9346
-87.977	7.44864	-13.212
-88.2462	8.7691	-12.4118
-87.8855	7.91543	-11.5946
-88.8896	12.0847	-13.052
-87.1386	4.78145	-11.5225
-92.0407	-8.86185	-31.0349
-90.8338	-12.4038	-29.9929
-92.627	-5.93342	-31.3321
-88.4925	8.24737	-16.4518
-88.1093	7.46415	-15.2729
-87.7144	5.87754	-14.7499
-87.6216	5.72983	-14.2767
-84.1426	-8.35009	-10.468
-85.1159	-4.00661	-10.541
-83.2084	-13.0041	-10.5077
-83.9697	-8.31352	-9.35644
-87.1231	1.632	-14.5326
-87.3206	3.36638	-13.9346
-87.3775	1.31941	-16.317
-54.1726	-58.4967	-60.0902
-55.6509	-58.7326	-57.3672
-54.3311	-53.7781	-62.7354
-23.453	-23.0931	80.9031
-21.2508	-22.5189	81.7465
-23.775	-21.6186	80.61
-25.6191	-26.99	80.7713
-18.0861	-20.7217	83.8144
-17.0554	-21.107	85.0289
-18.4443	-18.1014	83.9041
-18.6095	-21.648	83.2885
-48.9	36.9034	69.613
-48.9535	34.9452	70.2647
-44.3018	38.7608	73.5635
-49.2011	38.7748	68.2413
-53.832	33.2756	63.9972
-6.12227	-24.476	95.5393
-6.30459	-23.9929	96.0637
-6.77119	-24.9208	94.3756
-5.13879	-24.7011	96.3999
-6.49868	-23.3654	97.0237
-7.39807	-22.994	96.5935
-5.47994	-23.177	98.7675
-45.9472	18.2531	64.4248
-45.6901	19.0815	64.8134
-14.061	-14.9339	94.167
-13.1424	-14.3562	95.9259
-14.4335	-14.8715	93.2904
-14.1093	-15.8693	93.9891
-64.3076	76.9722	14.6537
-66.4294	77.6532	5.0133
-64.8577	72.4466	19.169
-61.9945	80.4135	15.8409
-26.9257	-59.7405	72.7401
-25.8401	-59.294	74.1312
-27.2611	-60.9539	71.9997
-27.5235	-57.8796	72.1149
-26.5871	-49.0432	72.9882
-27.3248	-50.9194	72.3493
-26.5656	-47.9048	72.5932
-25.2828	-49.2275	74.51
-8.63017	-22.6746	95.7533
-9.13032	-21.7387	96.4856
-9.68904	-23.3024	93.645
8.23286	-23.6833	97.5827
7.17019	-23.4468	99.1146
8.0245	-24.2921	96.7216
7.79865	-24.7821	96.2374
6.64564	-24.9948	96.9916
-7.3675	-25.5067	93.239
-8.38149	-25.5669	92.3108
-7.21396	-26.1476	93.0549
81.8562	-34.3211	-26.667
80.1323	-34.8987	-26.4307
82.3134	-31.168	-29.2925
83.0408	-34.6717	-26.0442
80.8692	-37.5798	-23.2593
72.8108	-45.9951	11.8091
71.5965	-47.2679	19.5803
71.891	-50.7703	10.6339
73.8505	-44.3787	5.0138
73.5618	-41.0284	13.0368
60.5187	-116.244	-6.77086
60.4118	-105.896	-6.19988
57.9895	-117.485	-2.35102
60.9927	-126.65	-7.97416
62.4799	-114.843	-11.2992
61.5654	-134.165	-9.2853
62.0761	-140.112	-10.5442
63.2702	-132.235	-13.988
59.1813	-136.188	-4.6082
54.9065	-100.684	4.17463
55.633	-94.693	5.33449
51.5803	-102.441	8.93428
54.6825	-108.398	3.11085
58.0667	-99.4184	-0.947278
63.7832	-97.1667	-14.4677
63.6368	-104.163	-14.9839
64.5388	-95.8223	-19.6665
64.0552	-91.7025	-14.0946
62.4385	-97.8013	-10.0461
65.5107	-67.4247	22.5995
66.8267	-63.4773	24.2781
63.168	-69.6564	30.2496
64.0458	-71.085	20.468
67.0662	-65.4146	14.8826
71.2667	33.3254	24.2326
72.1843	41.0275	19.8077
66.893	36.3523	35.0171
70.7394	25.9233	27.2363
75.0616	31.5822	12.5136
78.2847	42.6474	-28.6358
77.884	39.5299	-38.3279
76.7382	49.6082	-33.7531
78.4784	44.5168	-18.0024
79.4186	35.3493	-23.8525
6.01116	-122.591	45.0941
2.82664	-122.962	45.9879
7.20793	-128.014	42.4393
10.0653	-121.795	43.6313
6.18501	-118.258	47.5395
8.94679	-137.208	37.7174
10.2496	-146.967	32.9762
12.9446	-136.071	36.1423
5.3336	-137.628	38.9233
3.14279	-154.683	31.6188
7.02866	-154.269	31.0585
2.66212	-147.874	34.6312
-0.605348	-154.768	31.8582
3.6497	-159.312	29.6805
69.0093	-53.1374	-32.3293
71.408	-47.043	-30.1131
68.7553	-59.5072	-27.0725
66.4998	-59.2637	-34.5856
69.5371	-45.5507	-36.5565
70.2497	-40.1105	-39.6268
66.6811	-45.9604	-42.9448
71.008	-35.3785	-42.0829
73.2989	-35.4437	-36.5111
64.0138	-125.117	-30.2613
63.8183	-131.834	-32.6071
62.3891	-122.308	-37.0183
64.6156	-128.241	-23.8615
1.9722	-138.053	39.5662
0.904611	-128.841	44.213
-1.23521	-138.155	39.8363
69.7649	-49.277	27.6523
70.5219	-43.5945	28.1193
67.5851	-50.5162	35.1752
68.9667	-54.4324	26.6353
68.1236	-63.7384	7.19957
66.5788	-67.7708	5.63894
68.7616	-62.9683	-0.687955
69.5754	-59.4846	8.39193
10.0177	-89.7883	85.5092
6.11701	-90.0228	86.6927
10.1463	-93.9357	83.7408
14.5016	-89.5271	83.5392
9.95025	-85.642	86.3321
19.2027	-88.418	81.052
19.3689	-92.5001	79.3735
24.0733	-86.5634	77.8517
19.0541	-83.8821	81.992
2.97241	-82.1326	88.0422
6.16253	-81.6792	87.5553
3.15804	-77.567	87.7956
-0.07911	-82.4494	88.1486
2.81557	-86.4543	87.9483
10.2004	-97.7904	80.9773
10.4523	-100.859	77.4574
14.7434	-97.2312	79.2579
6.25515	-98.0022	82.1646
10.9857	-103.165	73.3387
6.73195	-103.923	74.0296
10.985	-105.18	68.5323
15.9477	2.26998	81.3846
16.4902	-1.69107	83.5525
18.3016	0.482424	79.7565
15.428	6.10003	79.1408
13.6486	4.41821	83.3784
47.824	-26.5644	72.4827
53.5371	-27.4039	67.1235
46.9788	-21.3409	72.5877
41.8284	-25.3755	76.4797
48.3449	-31.5669	72.2052
57.3301	-17.2771	61.487
61.7036	-17.0193	55.1061
55.8523	-11.7355	62.0639
51.7757	-16.4161	67.5474
58.2074	-22.7808	61.1264
66.3349	3.0077	42.3887
68.5993	2.37845	37.5118
65.8524	10.9756	41.6679
63.8282	4.42481	46.4526
48.7994	-36.4997	71.2823
49.0188	-41.6434	70.2548
53.998	-37.8369	65.6486
43.4684	-35.2278	75.6719
2.47638	2.64491	99.4926
2.15071	7.97856	95.9476
0.755149	2.95941	99.5997
2.6588	-1.63478	102.581
4.39392	2.12334	98.8075
29.8386	68.2336	69.9494
24.6684	68.8637	72.1459
28.7714	61.8251	74.1396
35.4293	67.039	67.0069
31.0141	74.1929	65.7412
2.0848	-109.093	64.1721
1.37462	-111.793	58.2573
5.86409	-108.583	63.6713
2.77698	-106.633	69.7042
-1.44719	-109.365	64.3214
64.9947	-51.0974	42.2977
61.8847	-51.0057	49.3187
63.7745	-57.1949	41.8226
65.7671	-45.1821	42.9673
2.71599	-98.38	82.6238
2.73988	-94.6653	85.3596
-0.509749	-98.8067	82.5325
2.87651	-101.837	78.6146
3.02951	-104.415	74.3114
-0.460777	-104.729	74.2927
40.0714	-85.8766	59.4496
34.7194	-88.1941	65.0209
39.3174	-88.9613	56.8658
45.4441	-82.8156	54.3866
40.2594	-82.3173	62.351
46.1647	-91.3024	35.3139
43.934	-95.3445	31.0486
50.5959	-88.0708	30.0283
48.0835	-87.8449	39.3534
40.766	-94.7868	40.7382
0.300951	-114.951	52.6768
3.49562	-114.827	52.0323
-2.70884	-115.077	52.8138
-0.33054	-118.795	48.7506
7.3738	-6.06494	102.688
7.82116	-8.93279	104.754
10.0246	-6.97903	99.9462
7.01218	-2.75973	100.219
4.91414	-5.42053	104.348
25.4616	-18.6679	81.6962
29.5896	-21.1686	80.565
23.7989	-13.7768	81.6854
21.9346	-15.6681	83.2855
30.007	-55.2704	76.7064
32.0465	-54.9434	76.4502
12.8196	-24.317	92.7384
14.0815	-23.0082	92.8055
12.2909	-25.2477	92.3154
14.4318	-24.2971	91.1146
12.6491	-28.3797	90.7806
13.253	-29.8915	90.5419
14.8555	-28.3442	88.9794
12.4212	-27.3868	91.0309
10.7869	-28.0037	92.2907
2.24766	-25.3149	99.9207
2.33205	-24.4956	101.518
0.641679	-25.3749	100.081
2.2666	-26.1959	98.6693
3.95878	-25.1601	99.1155
17.1893	-27.4508	87.25
19.4241	-25.8584	85.646
16.7128	-26.3836	87.6613
17.8687	-29.0161	87.0816
8.11443	-17.039	106.632
5.54528	-17.5061	108.745
7.83482	-18.8714	105.532
10.6817	-16.8022	103.412
8.26631	-15.4365	107.104
26.4533	-67.8597	78.4133
29.9885	-65.8107	76.3261
25.3783	-64.7359	79.4171
22.3935	-69.5461	80.9717
27.4067	-71.5197	77.416
30.5556	-49.0645	80.5719
29.6147	-45.2447	82.7907
28.196	-48.385	82.4466
32.6904	-49.6725	79.1519
2.70224	-30.4088	96.3067
3.06889	-32.8316	95.8564
4.52904	-30.2373	95.9407
2.4217	-28.43	96.9961
0.590026	-30.4719	96.3675
6.59852	1.28382	97.3624
9.13841	0.0228235	94.9568
6.31151	5.8916	94.1868
18.3353	-16.563	88.9041
17.4885	-15.0103	91.0025
17.6916	-15.978	90.8783
18.5723	-18.0214	88.0994
18.7278	-16.1076	87.6947
5.62474	-26.7738	96.4197
5.54687	-28.2539	95.894
7.15937	-27.1172	95.23
5.58374	-25.8312	97.0301
4.08535	-26.9007	97.232
5.41575	-25.1019	98.0005
5.41434	-24.2811	99.3577
16.9104	-15.2211	92.915
16.6612	-14.3874	93.2002
17.3407	-16.7624	91.9046
18.5292	-20.5592	87.4034
17.8351	-19.4757	89.3828
17.7959	-22.9821	87.5497
4.14985	-42.5733	95.709
4.46793	-44.8003	95.8747
6.73587	-41.7152	95.4795
3.93216	-39.1635	95.54
1.52046	-43.2612	95.781
24.6589	-31.4891	84.1311
22.0846	-31.5369	85.4592
26.7239	-36.0905	84.3514
27.0259	-31.6611	83.1663
22.5979	-27.1021	84.0212
9.94933	-66.9952	87.9208
9.96265	-64.9218	88.7682
6.49626	-67.4049	88.6043
9.93385	-69.6852	87.1293
13.7742	-66.3019	86.6766
25.9789	-50.89	82.3254
26.334	-51.5548	81.4012
28.4623	-52.1561	79.0774
25.8245	-49.3183	83.7854
16.4478	-13.7758	93.1054
16.5297	-12.9832	91.8589
15.1104	-12.8655	95.5363
17.6218	-65.2197	84.8833
17.8368	-67.7014	84.1229
21.0939	-64.0158	82.7279
17.3327	-63.2569	85.6742
3.56035	-67.6107	88.8964
0.863901	-67.5747	89.0461
3.55239	-70.0065	88.1786
3.45847	-65.588	89.8207
58.0159	28.771	57.9212
56.9695	27.6242	59.9052
60.0318	23.5238	52.7953
58.8822	30.2652	55.7085
39.606	53.4989	70.882
33.5935	54.8137	75.147
39.4979	48.002	74.1707
45.7427	51.4348	65.9829
40.5648	59.3843	66.9036
51.6341	48.7984	60.0823
50.6884	43.8846	64.2264
57.057	45.5372	53.0876
52.7446	54.469	55.7497
40.4036	39.8563	77.3683
40.0375	42.4272	76.6906
34.7282	40.5281	82.0059
40.8325	37.3919	77.5509
60.2748	32.0329	52.0845
61.2209	35.329	48.7471
55.4288	37.0705	60.5039
63.2173	26.0172	45.9183
22.5432	29.1891	83.5966
23.5707	28.4304	81.5501
26.5797	30.091	82.5789
21.9097	30.6534	85.8174
19.583	28.2743	83.8
6.62609	15.1361	88.1183
9.20799	13.3917	85.0203
6.72152	16.8532	87.3754
3.72379	16.3677	90.2921
6.44122	12.9132	89.4297
29.522	-4.14211	75.8891
31.2348	-8.49594	76.8914
36.1311	-5.56532	74.0723
27.7173	-0.379563	75.1632
23.7204	-2.59001	77.6022
55.6776	6.50782	55.9116
58.0587	5.40787	53.7027
56.6643	10.8413	54.5817
53.3749	8.11641	57.872
53.4612	3.24947	59.1094
6.2964	9.89493	91.4165
8.91591	8.1035	88.9534
3.85608	11.2993	92.8962
41.1956	35.2757	77.4901
44.7852	34.7255	75.0154
36.3112	35.0038	80.5593
41.0642	33.3701	77.3578
48.3549	33.3105	71.931
47.7459	31.338	72.4359
52.7944	30.1155	66.8063
53.377	15.9452	59.0099
53.4679	20.0684	61.1989
51.6016	16.2775	60.7324
52.7426	12.3206	58.4506
55.015	15.9136	57.3447
42.9991	22.6909	69.4851
44.2642	21.1486	67.9255
41.3972	23.9393	70.8948
39.5201	24.9759	71.9812
37.3279	25.5984	72.5824
39.6145	25.5659	72.5298
37.0276	26.1425	73.1379
41.6862	24.5617	71.3894
34.5324	25.8981	72.8889
31.6229	25.6495	72.9296
34.1521	26.3892	73.4376
31.0404	26.0362	73.4125
28.6522	24.7789	72.6573
25.9133	23.5046	72.167
23.0546	21.9931	71.6134
20.6341	20.4482	71.0836
21.8937	22.3873	72.0822
19.6324	20.8451	71.5356
24.7652	23.8237	72.6142
18.9484	19.0259	70.6786
20.7833	22.5802	72.6323
23.8145	24.2159	73.322
33.8424	26.9716	74.242
30.4858	26.5255	74.186
46.962	15.8298	64.0335
47.3761	16.8442	63.9943
45.9073	15.0428	64.7305
31.3787	30.9657	80.9712
36.4823	31.6497	78.9532
31.1365	32.1907	82.2561
31.7103	29.9504	79.4636
45.8297	26.4342	71.7538
45.2399	25.2076	71.144
46.5077	27.9542	72.2803
43.3527	27.8713	73.8652
36.8652	8.74307	70.9761
41.8932	9.07312	68.4063
30.4105	9.01751	72.6479
37.339	6.93721	70.8811
25.0091	9.72556	72.8367
21.2475	11.0483	72.5089
25.0172	8.06033	73.2642
17.816	14.1964	71.7408
17.3497	15.1294	71.4835
18.6381	13.3072	71.8838
36.0903	12.1662	71.105
40.6677	12.5271	69.1341
30.4293	12.1971	72.2899
20.2474	14.2731	70.8933
21.9609	13.5059	71.3682
19.407	14.7432	70.6437
18.7852	15.1531	70.5454
18.2235	15.705	70.5295
15.2646	21.6052	76.2864
14.3606	22.9895	79.2739
15.9755	20.2111	73.4772
16.7305	23.2538	76.8202
16.9757	16.4917	71.3913
27.0695	25.5529	73.8254
16.514	19.6366	72.412
16.0339	18.2651	72.3299
17.4947	21.1574	72.8481
36.0327	13.6625	71.1158
30.4002	13.5424	72.1519
20.2426	15.0717	70.3302
19.4648	15.2697	70.2397
21.9853	14.6793	70.8002
18.8854	15.6439	70.1567
45.0032	19.527	66.4155
3.04184	28.8649	89.4503
-0.341408	28.9663	89.4809
2.41267	26.7109	89.1691
5.94927	28.1379	88.8992
3.69043	31.5203	89.8807
18.6863	5.72198	75.9443
18.5308	7.76049	74.9053
16.9909	7.15342	76.4562
19.4094	2.85182	77.2376
21.5166	4.11984	75.3808
15.3185	8.65942	77.376
13.5271	10.2866	78.9984
15.7879	13.8103	73.7612
14.3238	14.4498	75.4277
16.0057	15.3987	72.7667
11.1516	20.3372	81.1388
12.2614	22.1682	80.9863
10.4297	21.1841	82.6663
19.4968	12.2218	72.2052
18.9995	11.0389	73.0189
18.6695	9.53545	73.8669
20.8849	7.94968	73.8578
21.8613	-53.3015	80.6359
21.7782	-53.2215	80.406
25.232	-53.607	78.1365
18.1698	-52.6592	83.4773
27.0126	-53.8056	77.0148
26.7107	-53.6919	76.9953
4.72301	-48.2567	95.5464
7.66659	-47.6244	95.1677
4.69996	-47.0373	95.8359
1.45699	-48.7861	95.6528
4.60985	-49.2965	95.0951
10.1002	-49.5115	93.1774
10.1893	-48.5379	93.9319
7.49006	-49.7648	93.9324
9.70185	-50.4035	92.2436
12.5111	-49.4197	92.1552
15.1247	-49.6105	90.6939
15.317	-48.5535	91.5288
14.9511	-50.6451	89.5282
18.1833	-50.4862	88.3294
10.1732	-47.3989	94.531
12.6995	-47.155	93.6114
10.1238	-46.1732	94.9394
14.5136	-45.2524	93.2249
15.2041	-46.2416	92.7131
14.1342	-44.1989	93.4588
11.86	-45.3048	94.4789
21.7195	-51.7534	84.4903
21.5904	-50.7804	86.0834
8.98414	-51.1814	91.092
6.40424	-51.239	92.0562
8.41104	-51.5516	90.1155
11.9214	-51.1779	89.8287
15.0281	-51.5583	87.9205
14.8607	-52.0118	86.7558
27.7905	-52.7418	78.7723
22.0426	-54.2002	81.1753
22.0161	-54.1469	80.9414
18.2446	-53.7256	84.355
22.0449	-54.3623	81.4639
22.4429	-55.4501	81.9119
22.2573	-55.0557	81.8868
18.8287	-55.2439	85.3308
15.5715	-55.3723	87.9424
15.3903	-54.6779	87.7563
12.3052	-55.8137	89.9413
15.9584	-56.0788	87.8846
8.29449	-54.1789	90.994
8.42091	-55.2199	91.3512
11.7526	-54.1196	89.5549
8.22564	-53.3501	90.5692
5.33916	-53.9994	91.8326
3.14118	-56.012	92.954
3.20927	-57.0726	93.079
5.39214	-56.1681	92.4974
3.1125	-54.9514	92.6783
1.14547	-55.8539	93.112
27.2309	-55.1979	76.2126
27.107	-54.6402	76.8549
27.1132	-56.5248	75.5021
25.2807	-55.1675	77.6488
3.15151	-53.432	88.1235
3.16444	-52.8207	89.4113
5.2866	-53.5343	87.7661
3.06363	-54.6356	86.8694
1.2589	-53.3782	88.2382
3.32062	-58.2348	93.054
1.19494	-58.0686	93.2494
3.48593	-59.3303	92.868
5.63573	-58.47	92.5579
3.44222	-63.5981	90.9139
6.21511	-63.4753	90.5409
3.51426	-61.7941	91.9048
1.01218	-63.5988	91.0728
9.8392	-45.2852	95.1245
9.11307	-43.9594	95.2915
7.4762	-45.3069	95.6337
3.12921	-53.9345	92.2619
1.16959	-53.9252	92.4202
3.13585	-53.1795	91.8184
3.13231	-52.9078	91.5391
5.41156	-52.8869	91.077
3.22085	-52.7365	91.15
1.18803	-52.8632	91.566
8.21396	-52.9759	90.2258
11.4468	-53.0361	88.8558
8.21101	-52.8098	89.896
3.26183	-52.6616	90.4384
5.39858	-52.6792	90.0762
1.2434	-52.6143	90.4684
14.8077	-53.2547	86.9439
14.7745	-53.1544	86.5942
14.9499	-53.4828	87.1936
16.6326	-58.8272	87.4544
16.8783	-59.9587	87.0202
16.4144	-57.8429	87.7124
13.4002	-59.6867	89.3713
9.45404	-60.3532	90.9955
9.66104	-61.5289	90.4601
9.27298	-59.3421	91.3185
5.90429	-60.6701	92.007
3.48985	-60.4834	92.5091
1.11917	-60.4114	92.7128
14.7132	-52.1166	85.949
11.3734	-51.692	87.8954
14.6232	-52.0083	85.359
30.0138	-54.1335	76.9498
28.9375	-54.3699	76.9351
27.0902	-54.4024	77.5198
25.329	-54.6138	78.8706
8.04651	-53.6611	87.0655
8.03621	-52.988	88.2628
11.2465	-53.7742	85.9309
8.10405	-54.8541	85.9221
8.1118	-52.766	89.2617
11.2932	-52.8766	87.9179
9.82082	-63.0738	89.6858
13.754	-62.3263	88.2298
16.157	-56.9254	87.8738
12.9426	-57.7114	89.8544
17.1067	-61.5185	86.3974
20.1691	-60.5349	84.1865
14.4153	-51.7098	85.0681
11.3949	-51.1596	86.4872
14.0293	-50.6548	84.5868
17.5018	-52.2159	83.1216
8.37651	-50.9703	87.5669
5.96042	-50.8171	88.0121
8.96228	-49.8511	86.4376
8.16327	-51.4211	88.4166
13.6288	-47.9669	83.8519
11.2781	-47.5591	84.7506
13.5508	-44.1725	83.3402
16.1383	-48.4174	82.6391
26.6306	-59.5355	74.8385
25.5868	-62.8898	74.8202
24.5889	-59.4261	76.4332
2.86248	-57.1794	85.6041
4.9775	-57.2542	85.3473
3.0213	-61.0452	84.7956
1.12249	-57.1594	85.693
9.03001	-47.3098	85.3834
6.70164	-47.1482	85.8313
8.80624	-43.551	84.8195
7.81962	-57.3601	84.7309
7.91012	-61.2256	83.6971
11.0809	-57.508	83.7027
30.2073	-54.7715	71.2064
30.2596	-54.792	70.9655
12.3731	15.276	78.2444
11.7343	13.6665	80.0562
81.3202	-8.08294	-43.4577
80.6774	-12.4906	-42.7112
79.4649	-7.52164	-46.8091
81.868	-3.47385	-43.4445
82.818	-8.55548	-41.7404
80.0427	10.8935	-6.12433
80.4848	13.6958	-10.3466
78.8769	13.0676	-1.23589
80.6564	15.7264	-15.5495
80.3158	21.1509	-16.8213
81.2039	10.7462	-16.6358
81.3756	15.2292	-22.5795
75.8656	-32.4026	-34.2007
78.2583	-30.0824	-32.5741
74.9668	-36.5905	-31.6208
76.9432	-28.5004	-36.0255
77.855	-24.8407	-38.0956
75.2815	-26.8883	-40.9468
78.8968	-20.8676	-39.9171
80.0971	-23.6125	-36.2384
84.2885	-8.49735	-40.8517
85.8095	-7.99554	-40.4878
83.7771	-12.6643	-39.9439
84.5748	-3.47979	-41.0293
86.5888	-26.748	-30.9371
87.6115	-22.7162	-33.0104
87.3065	-27.1848	-29.7235
85.5016	-30.7291	-28.4259
90.8647	-16.9334	-31.0393
90.8378	-16.3537	-30.2603
80.5782	-39.2038	-20.2402
81.0572	-39.424	-19.54
80.1674	-39.8438	-18.2199
79.6521	-38.3647	-22.3009
81.3283	-31.5715	-7.76005
81.0273	-32.1979	-7.71572
80.6318	-33.21	-7.92538
90.7713	-15.9708	-29.8486
90.2697	-16.5527	-28.8932
93.3984	-1.39689	-33.6721
93.475	-0.749089	-35.1908
93.2822	-2.71445	-32.0199
93.4767	8.85454	-31.1932
93.7329	10.2093	-31.3025
93.8169	12.3127	-30.2658
93.2088	12.1352	-28.0462
94.0005	12.7715	-30.6645
93.3923	14.4079	-27.1642
83.6519	-8.621	-8.05767
84.76	-3.16532	-8.61099
83.085	-7.84026	-6.70929
82.8499	-12.662	-7.49981
79.066	-24.5146	-1.15087
78.1665	-24.8709	1.58083
78.7022	-28.3015	-1.67139
79.3849	-20.1685	-0.607772
82.7241	-19.8384	-10.1119
83.1308	-21.8792	-10.635
82.6417	-17.8871	-10.233
81.2078	10.2234	-16.6815
81.6346	11.4508	-20.1673
81.2364	10.2234	-16.4668
89.3204	17.7423	-17.1633
90.3507	19.3916	-20.2891
88.4877	18.1324	-18.3271
87.8606	14.6945	-14.2187
90.0908	17.0516	-16.1805
89.9728	19.9944	-25.338
89.1255	19.7879	-22.3099
90.2672	20.1379	-24.8493
90.5496	18.6816	-29.0414
89.1914	18.9399	-26.7146
91.2053	4.45445	-39.7379
90.4166	3.99456	-39.9163
91.4337	10.4717	-36.8698
92.2615	4.70143	-39.2024
85.5787	1.43913	-9.17832
85.9221	0.172512	-9.85684
94.0114	3.89376	-36.667
94.3736	9.05039	-34.4154
93.7369	1.08729	-36.8547
94.0668	3.7863	-37.0358
92.7809	15.3407	-23.1772
91.7628	14.8384	-19.1703
92.5954	13.9716	-23.9195
92.8556	16.3315	-22.5597
87.0978	2.16787	-11.9875
86.5745	0.409613	-11.4159
87.6182	4.48228	-12.7003
93.5131	4.61241	-33.9424
93.6594	2.54448	-35.8058
90.6188	7.37925	-22.3121
90.1406	6.03117	-21.5364
92.0305	6.83895	-26.492
85.3949	-4.60858	-13.2358
85.5522	-4.34372	-13.9419
85.8476	-2.9851	-12.1356
90.3396	-3.98445	-27.2746
92.3268	-1.37703	-29.2009
90.0595	-3.52536	-26.6449
90.2474	-5.08406	-27.4344
79.7021	-16.2032	-0.586035
80.2254	-11.6518	-1.36711
78.8607	-16.3476	1.96155
84.7185	1.78976	-39.5471
83.5945	1.19898	-40.685
84.5015	6.47609	-37.4077
85.6554	4.2937	-38.6049
87.9374	9.2882	-35.9081
87.6023	13.1006	-32.6711
90.2145	13.9585	-33.9812
88.1551	5.17822	-38.8279
89.3646	3.03352	-39.8842
88.2889	-2.51169	-40.6874
87.9539	-7.52744	-40.3154
81.8499	-22.9635	-35.3817
80.9409	-26.0822	-33.5603
82.6193	-19.7385	-37.0677
83.235	-16.3525	-38.6559
81.57	-16.593	-39.6822
89.6928	-16.4718	-27.8712
80.0159	-29.0002	-31.8467
79.0082	-32.6212	-29.5101
81.2385	-28.6992	-31.3934
79.233	-36.3987	-24.9146
78.7878	-36.411	-25.2668
78.676	-39.754	-20.3128
79.9493	-39.4615	-15.3896
79.4471	-39.7212	-15.2049
78.9133	-39.9179	-14.9094
90.4798	-5.84008	-27.9161
92.4178	-4.49806	-30.1174
82.4358	-7.19909	-5.59204
81.6602	-6.75877	-4.34494
80.7128	-20.7284	-4.16739
81.0453	-20.9176	-4.83945
83.8038	-25.3838	-10.4058
84.8208	-27.4329	-12.0071
83.9516	-24.3149	-11.2288
82.366	-15.6504	-7.0258
82.8236	-15.8727	-9.23515
87.2213	14.9525	-29.4465
84.9392	11.2409	-32.2952
86.1968	15.613	-26.0881
84.0672	9.68062	-34.0922
83.6579	9.37603	-35.1783
83.3345	11.8518	-29.8242
82.4738	-15.9229	-12.0745
82.7034	-15.8826	-11.193
92.6926	5.83854	-28.867
92.5321	4.32967	-28.5291
85.9814	-3.66751	-15.3866
85.42	-5.98651	-16.4494
86.9867	-2.48751	-18.0604
90.0016	-2.67701	-26.1368
91.699	0.908522	-27.3422
89.4102	-2.59964	-24.7467
7.13169	84.3734	65.6182
6.81505	76.8478	71.1782
14.6198	83.6191	65.1848
7.60032	92.0179	58.4619
-0.563721	84.5391	65.7699
6.28526	69.4023	75.8063
-0.87825	69.163	76.1482
5.86879	61.4381	80.2002
13.2945	69.3563	74.995
27.7827	55.0411	78.6051
28.0866	49.7291	81.8359
23.3933	55.2834	80.3872
2.42046	-23.687	103.327
2.74565	-22.6973	105.069
0.887018	-23.6983	103.654
4.30072	-23.6073	102.078
3.09907	-14.2835	110.414
5.64672	-14.1817	109.277
3.15848	-12.3774	109.889
0.693985	-14.2993	110.756
3.06644	-16.0282	110.435
3.04211	-17.7864	109.937
0.675619	-17.8451	110.32
3.01854	-19.4819	108.902
2.33896	-27.1489	97.7732
0.535091	-27.2398	97.8798
3.46306	-35.7922	95.6031
5.71967	-35.3869	95.3888
1.12215	-36.2407	95.6141
2.98622	-21.1411	107.211
5.13569	-21.0859	105.816
0.873549	-21.1061	107.754
3.05777	-10.4965	108.989
5.48515	-10.6187	107.969
2.89584	-8.09125	107.397
0.731999	-10.3521	109.233
5.69647	43.6168	88.7645
-0.633946	43.2897	89.527
5.36167	40.1038	89.7167
11.4968	43.4518	88.0281
5.71547	47.7005	87.1914
1.61171	17.0239	90.9872
1.75376	14.8981	92.0036
1.59515	18.9396	90.1904
-0.0952671	17.2348	91.0974
1.6696	20.7763	89.5998
3.88098	20.041	88.9436
1.82579	22.6859	89.2182
-0.231266	20.9526	89.737
3.62466	-50.7003	88.1911
1.32123	-50.7158	88.3176
3.99102	-49.5308	87.1907
3.28934	-51.4731	89.4668
3.25407	-51.7348	90.4864
1.26556	-51.7518	90.5068
5.39804	-51.6561	90.1112
3.3681	-51.6975	91.3976
4.51505	-50.0874	94.5041
4.29756	-50.7858	93.6687
1.42462	-50.3055	94.7321
3.812	-51.3227	92.6819
1.33175	-51.4104	92.7403
4.68564	-46.032	95.9155
1.48786	-46.7459	96.002
4.10432	-47.0455	86.1003
3.91158	-43.2387	85.3406
1.37669	-46.9813	86.1754
20.8403	82.6905	64.3111
20.1243	76.0154	69.3988
26.6165	81.3549	63.0258
21.7228	89.6632	57.5641
17.736	44.0299	87.0865
17.48	41.0083	87.971
23.0136	44.9854	86.1534
17.0559	48.4953	85.4194
18.7138	37.4817	88.2671
20.1172	34.061	87.921
23.7411	38.5607	87.2308
21.4588	31.9216	86.9448
17.837	31.1739	87.9633
25.437	33.1666	86.1016
26.251	25.8897	74.6873
25.6772	26.6077	76.3415
22.8419	24.5877	74.2523
29.9595	26.9238	75.0134
27.8533	25.1032	73.0895
24.7092	27.4357	78.7137
28.3523	28.313	78.3628
21.6099	26.3699	78.5175
45.4918	86.5299	41.2063
46.8076	91.9602	31.1338
39.8489	89.9423	43.8893
44.7175	80.8377	48.502
31.9414	79.955	61.039
33.0567	86.0121	54.7944
37.6293	78.0549	58.1823
28.0629	45.3635	84.4763
28.6906	43.3506	85.0691
33.6762	45.4852	81.0955
30.1371	34.7966	84.6613
30.0147	36.21	85.1185
29.312	40.0171	85.345
32.1988	28.9392	77.8153
33.0887	28.1817	76.2478
36.704	29.1911	76.7565
43.7207	75.6552	54.1332
49.8403	73.0426	48.8999
42.6782	70.5085	58.8375
39.8587	44.7402	75.7077
45.2401	43.1226	71.3871
40.2442	26.8333	73.8269
40.2012	27.6563	74.6016
37.1003	27.4248	74.689
42.7331	25.8145	72.4076
40.869	31.7191	76.9917
40.5219	30.1306	76.3414
43.9241	31.04	75.1866
40.3423	28.7355	75.4968
41.5194	65.084	63.004
47.8414	62.6759	57.8489
55.4945	70.9051	42.1638
54.6348	65.6041	47.1783
60.489	68.9042	34.2071
43.4769	23.2881	69.8872
44.7126	21.659	68.2106
44.8238	24.3764	70.5696
46.1764	22.6437	68.624
44.0565	23.7986	70.248
47.0673	29.627	72.5894
50.7192	26.9234	68.2769
17.276	27.137	83.2905
15.238	25.7488	82.4414
18.1114	26.278	81.0409
16.222	27.8229	84.9953
14.9333	28.8818	86.7613
13.1184	27.3037	85.9778
18.915	24.9324	77.7393
19.5019	23.8844	75.2401
5.16577	35.5405	90.191
0.292005	36.6865	90.1943
68.9403	-63.9277	-8.31862
70.4761	-58.6398	-6.62998
68.9953	-64.3489	-14.7597
79.9087	23.7399	-37.2114
79.7416	19.7985	-42.9408
78.7754	29.3162	-41.9492
80.1718	26.1152	-29.0164
81.1188	18.117	-32.0482
77.0274	-7.28242	-52.6753
76.1616	-13.278	-51.1665
74.7703	-7.49214	-58.284
77.8956	-1.44381	-52.6948
78.4225	4.77003	-52.303
76.4054	6.47616	-58.7813
78.9334	10.3083	-50.4232
80.5003	2.76102	-46.0541
71.8668	-30.6158	-45.0261
68.736	-34.0605	-48.8814
73.4	-24.8501	-47.4613
5.70044	53.9671	84.1554
-0.816662	53.045	84.9049
11.9141	54.202	83.3401
17.4818	54.7175	82.1266
18.4446	62.0216	78.0109
21.5785	-103.973	57.7679
19.8027	-107.562	51.7289
28.8727	-100.833	52.1117
15.0215	-106.331	61.0215
49.5748	-84.7933	42.8595
43.9365	-88.6023	48.3677
54.1382	-81.2615	37.667
50.2512	-82.0839	46.3477
53.8023	60.009	51.4551
59.1009	57.163	44.2021
19.2792	69.3128	73.7292
65.3835	66.7884	24.647
69.4843	64.8704	14.684
64.9764	60.4365	30.3022
22.3648	97.6148	47.8926
28.4766	95.419	47.2074
22.7811	105.181	36.0694
15.6122	99.1755	48.4483
62.3911	40.5274	44.3911
63.2752	47.2499	40.109
46.8601	20.6962	66.6744
55.9389	26.4884	61.4427
56.8097	21.5305	57.7557
54.4614	25.1308	63.0335
53.0708	23.9761	64.1458
-0.157188	-123.295	46.4323
-2.88945	-123.357	46.5773
59.8322	-72.0143	37.9291
60.723	-68.1669	40.3385
55.5606	-75.0368	44.4975
58.9184	-75.4524	34.8449
8.55974	-41.7384	95.1965
10.4486	-42.0379	94.7275
7.9882	-38.62	95.0758
25.3617	-47.1286	84.9927
24.7199	-43.3216	86.4379
22.7677	-45.6028	87.6925
11.4768	-36.8883	93.6428
8.96394	-35.9071	94.5542
12.351	-39.6564	93.6909
14.1917	-37.3865	92.2908
10.4363	-33.9801	93.5534
34.4704	-50.0719	78.2186
34.1061	-53.3313	76.74
36.6358	-51.0241	76.7674
33.8708	-46.4182	79.9474
61.1983	17.1489	49.5769
59.1387	16.5043	52.5212
61.4532	10.7604	48.9004
63.0675	18.0763	46.377
65.0245	19.0592	42.5057
67.3934	19.2057	37.0931
50.1825	16.6511	62.0492
49.9585	14.2946	61.3206
57.1334	15.8099	54.9531
82.4574	10.0357	-37.1996
82.4171	6.25041	-40.423
81.0301	12.0018	-41.2651
82.4791	12.6065	-33.2004
79.7365	-16.8649	-41.6135
77.6477	-17.4463	-44.7683
72.735	-50.911	-17.0982
74.5034	-46.5022	-14.8279
72.3449	-52.8596	-10.8931
70.7784	-56.6209	-19.5344
73.1118	-47.5894	-22.9818
82.2208	1.55463	-42.4543
77.2668	-25.6272	4.73874
76.8003	-29.8663	4.13384
77.6567	-21.2011	5.12603
76.2724	-26.2912	9.09693
71.5247	1.69833	29.8494
71.3001	9.85417	28.7649
71.6408	-6.14045	30.8483
74.2479	0.276157	21.0421
51.8688	9.45059	59.12
50.4985	11.0495	60.3735
50.0473	7.51454	61.1959
49.2536	12.5857	61.6216
47.8102	11.4803	62.9746
75.0754	-26.3067	15.3567
73.7141	-26.0735	22.1092
74.6856	-31.247	14.6405
75.4752	-21.0849	15.4997
22.7501	-9.444	81.1229
26.577	-11.0867	79.5657
21.7526	-5.23608	80.0464
19.9309	-7.59612	82.8275
32.7303	-13.367	77.8714
39.2895	-15.1818	75.7763
34.13	-18.3674	78.6326
17.0355	-5.75476	85.4593
14.2763	-3.59779	88.6759
17.2864	-9.0345	87.1022
19.7564	-15.1261	85.7806
18.5614	-13.2356	86.999
16.116	-17.6521	94.3009
14.9243	-17.1864	96.5079
15.7945	-19.4708	93.7053
16.8108	-18.1804	92.6511
17.3486	-18.7527	91.0354
16.9135	-20.8483	90.5212
38.0693	-33.8434	78.6821
33.3202	-32.8547	80.9014
39.0289	-38.961	78.1193
36.9208	-28.9462	79.1196
35.3227	-23.4963	79.024
5.89777	-30.3482	95.4789
6.55322	-32.7178	95.1769
7.44414	-30.7657	94.705
57.9961	-50.206	56.5712
58.5862	-44.3878	57.619
53.5307	-48.7074	63.44
56.898	-56.1254	55.8538
28.3475	-40.8785	84.0124
26.0931	-40.104	85.4166
30.5944	-41.4938	82.7682
39.5672	-43.8693	77.0509
39.6703	-48.5535	75.9203
44.0255	-45.3001	73.7216
35.7418	-42.8674	79.63
7.28987	-35.4499	95.0815
55.2951	-62.23	55.2571
58.6395	-63.7169	48.5178
51.3434	-59.5512	62.1236
52.5066	-67.4162	56.3605
58.5127	-28.1788	60.7008
58.7557	-33.5154	59.8652
62.9742	-28.3968	53.2218
29.2404	-90.5787	70.6428
29.4792	-87.4878	72.3689
23.9068	-93.5996	74.4184
40.0709	-78.5531	64.9591
44.645	-75.4171	61.6204
38.7755	-74.6382	68.1042
34.9036	-81.0916	69.2444
54.0305	-6.81051	62.3711
51.9522	-2.06861	62.6286
48.6304	-6.8742	67.4181
45.456	10.3009	65.342
46.2698	8.19795	64.8217
50.2836	1.29324	62.9149
45.7253	0.587562	67.0747
48.5319	3.85978	63.6801
43.9124	13.9033	66.5326
2.70093	-90.5293	87.1392
-0.406785	-91.137	87.1008
47.3318	-56.7852	67.6104
45.6993	-60.8468	67.6077
48.2329	-52.1979	68.2639
43.0519	-54.3365	71.9736
37.1971	-70.8116	70.7066
40.4963	-67.9129	69.1908
34.8674	-66.9757	73.2758
32.9653	-73.2404	73.2349
42.6023	-6.43252	71.2499
44.1416	-11.122	71.9686
41.1413	-2.25197	70.7502
48.861	-46.9567	69.1067
45.6591	-16.0068	72.322
9.9007	-81.2277	86.5258
10.0124	-76.8631	86.4377
14.2623	-80.4394	84.7945
18.89	-79.3206	82.43
23.5504	-77.6501	79.5429
18.6002	-74.8243	82.7836
40.0478	0.697237	70.4889
38.9845	3.03571	70.5696
33.4189	1.25001	73.0227
47.3517	6.05635	64.1821
43.5681	5.15796	67.6005
38.1409	5.07483	70.6619
31.373	5.45806	72.8339
11.6712	-1.66395	92.0058
12.1141	-5.24386	94.3671
11.4006	2.34834	89.1532
13.1079	-12.0289	99.2534
12.9088	-10.5934	98.2475
10.748	-11.3282	102.959
13.3546	-13.0692	99.5232
11.4728	11.8134	81.6244
11.308	9.45144	83.6434
20.5599	-1.28312	78.8039
1.94534	12.0486	93.5071
0.319848	12.302	93.6507
60.8202	4.56427	50.6498
11.3135	6.16987	86.2019
61.8109	-63.6108	41.9216
65.3767	-61.3581	33.8677
65.9935	-15.7575	46.9267
66.435	-22.3243	46.1196
69.0526	-14.1974	39.1623
66.2845	-39.3668	43.6581
66.5789	-33.6218	44.4056
63.015	-39.3156	51.1556
68.8788	-39.017	36.2457
66.6567	-28.0081	45.1801
69.494	-27.3948	37.3579
19.2826	-95.8217	77.2541
9.91149	-73.1401	86.6051
6.4624	-73.3917	87.3646
13.8642	-72.3192	85.3031
18.1526	-71.1564	83.3595
25.7444	14.0815	71.6284
26.5775	2.35642	74.4735
25.8706	4.56766	74.0249
25.4017	6.3266	73.5847
3.40557	-73.4804	87.741
0.465308	-73.4532	87.8674
6.25124	23.6864	87.5298
7.99495	23.0184	86.1685
7.12126	25.4259	87.5971
4.1955	24.1625	88.5285
6.02808	21.5413	87.399
17.7337	16.6076	70.6644
17.5937	17.8211	70.8244
15.9491	16.7624	72.4475
9.4442	22.0391	84.3762
10.4411	23.9716	84.6118
2.02534	24.6875	89.0782
-0.311701	24.7494	89.2201
5.94641	-23.36	100.798
6.5601	-22.3405	102.122
8.26748	-13.9708	107.163
8.28155	-12.44	106.722
10.9732	-13.8673	103.807
16.4828	-24.9069	88.308
16.0503	-23.8576	89.4337
14.3182	-26.3843	89.7695
8.02634	-10.9002	106.107
6.56078	18.6395	87.0424
8.29814	27.2988	87.9557
