1937
-2.20066	-30.6494	94.2847
84.0409	-20.8133	-26.5973
82.4032	-21.6814	-26.3786
84.0802	-17.5462	-29.2189
85.2568	-20.9641	-25.97
83.4596	-24.2897	-23.1948
75.9313	-34.3468	11.8361
75.1056	-35.7676	19.7443
75.7796	-39.5765	10.5935
76.7657	-32.5551	5.02131
75.8783	-28.959	13.1478
76.7955	-105.71	-6.59168
74.452	-95.8649	-5.89195
74.4483	-107.286	-2.21177
79.5596	-115.51	-7.96142
78.5686	-104.018	-11.1157
81.7684	-122.552	-9.3806
83.5601	-128.067	-10.7345
83.1171	-120.424	-14.0293
79.804	-124.837	-4.78985
67.5264	-91.7992	4.58303
67.0192	-86.0735	5.77228
64.4325	-93.8881	9.32265
68.9869	-99.1314	3.38508
70.581	-90.0966	-0.566007
76.3659	-86.7417	-14.2161
77.6333	-93.5208	-14.7553
77.0718	-85.1492	-19.4826
75.5634	-81.3983	-13.848
74.962	-87.6816	-9.73859
72.5692	-58.8304	22.5922
73.4414	-54.2789	24.2876
71.3697	-61.9468	30.5692
71.4341	-63.0446	20.5385
73.3607	-56.2104	14.8152
61.4743	44.1336	25.2587
61.1891	51.9555	20.5096
56.3097	45.9939	36.1366
62.2546	36.8252	28.5212
65.8538	43.3023	13.3048
68.2098	55.1663	-28.4957
68.5416	52.0606	-38.2146
65.6603	61.8277	-33.6831
67.8548	56.9902	-17.8091
70.423	48.1019	-23.6272
29.3964	-110.738	37.855
26.9973	-111.207	38.5522
30.4995	-117.97	36.4599
32.3873	-110.045	36.7847
28.8908	-106.497	40.0902
33.135	-128.828	33.356
35.8419	-139.597	29.795
36.486	-127.363	31.9734
29.9872	-129.551	34.4052
30.5031	-148.769	28.984
34.0595	-147.841	28.4529
29.0209	-141.393	31.3107
27.0193	-149.352	29.2124
31.6941	-153.665	27.5098
74.5265	-41.7733	-32.2991
75.814	-35.3143	-30.0835
75.1027	-48.3097	-27.0543
73.1452	-48.2481	-34.545
73.9712	-34.0219	-36.5025
73.9162	-28.4219	-39.5562
71.4649	-34.7881	-42.8735
73.9837	-23.5359	-42.0047
76.068	-23.2927	-36.4363
82.7347	-113.227	-30.2628
83.9425	-119.633	-32.6347
80.7489	-110.625	-37.0209
83.8108	-116.265	-23.8691
27.0389	-130.366	34.9733
25.253	-119.32	37.9757
24.1776	-130.847	35.2036
74.2037	-38.4065	27.8607
73.9378	-31.901	28.4977
73.0297	-40.2552	35.4961
74.2357	-44.3445	26.8793
74.0922	-53.8621	7.15528
73.2229	-58.2371	5.66043
74.7564	-52.6254	-0.690424
74.858	-49.18	8.30774
25.1904	-90.8296	86.809
21.6232	-91.8115	88.3229
25.8538	-94.9271	84.3534
29.3977	-89.8688	84.2801
24.4831	-86.1699	88.301
33.6639	-88.334	81.2559
34.1608	-92.4732	78.914
38.1606	-86.1774	77.4243
33.0116	-83.482	82.8681
17.5698	-82.9934	90.889
20.4065	-82.262	90.2203
17.0171	-78.3119	90.71
14.9366	-83.5291	91.077
18.1369	-87.9542	90.4128
26.4153	-98.0485	81.1267
27.1675	-100.156	76.9926
30.4658	-97.0198	78.7994
22.8909	-98.8219	82.7364
28.344	-101.282	71.8165
24.5389	-102.383	72.8027
29.0435	-101.673	65.9252
13.2383	2.79605	82.0974
14.7386	-1.15488	84.4086
15.9019	1.05043	80.6312
11.7313	6.44068	79.9918
10.4802	5.15782	83.9027
52.0391	-17.6052	72.9245
58.1564	-16.9355	67.1361
50.3678	-12.4464	72.8403
45.0606	-18.1653	77.4756
53.2999	-22.5979	72.9059
60.5401	-5.44746	61.1093
64.2868	-4.49724	54.8841
58.1319	-0.161625	62.1795
54.8714	-5.77521	67.3901
62.1023	-10.9786	60.7331
63.7547	14.6065	43.6865
65.6963	14.1831	38.6959
61.0803	21.8067	43.2057
61.1623	15.8354	48.0041
54.4222	-27.6785	72.3753
55.2789	-33.0605	71.7129
59.846	-27.8665	66.5936
48.3493	-27.6521	77.0544
0.770595	3.62992	100.195
-0.383926	8.83056	95.6477
-0.739151	3.70268	100.281
1.734	-0.954773	104.026
2.54935	3.31675	99.5078
14.4859	71.8937	66.6135
9.48108	71.8854	68.396
14.2001	65.3505	70.5405
20.0212	71.3967	64.1968
14.9742	78.1563	62.6195
22.0688	-103.973	60.3816
22.3299	-104.204	52.929
25.3936	-103.159	59.8011
21.7308	-103.724	67.3428
18.7938	-104.577	60.6359
71.291	-41.3705	42.9822
68.7495	-41.687	50.5963
71.1552	-48.7336	42.5833
71.0435	-34.392	43.5346
19.9491	-99.5843	83.4578
19.4012	-96.6877	86.5785
17.4847	-100.122	83.6167
20.6247	-101.897	78.8144
21.2151	-103.178	73.3843
18.1279	-103.743	73.6278
53.6482	-84.0091	57.7305
48.6035	-87.4527	62.6146
53.213	-86.4618	54.9484
58.2576	-79.6811	53.8436
53.4496	-80.7117	61.1007
58.6594	-84.9036	35.1154
56.5395	-88.2765	30.8995
61.8501	-81.3852	30.4123
60.5221	-82.1099	39.1195
54.5008	-88.6713	39.5884
23.0172	-105.004	45.7254
25.6483	-104.52	45.0968
20.4616	-105.509	45.8741
24.2164	-107.339	41.1004
6.99574	-5.78081	104.987
7.97122	-8.95417	107.725
9.70598	-6.65528	101.872
5.99125	-1.88723	101.594
4.49386	-5.27463	106.825
26.3831	-17.5617	83.5017
30.8996	-18.5377	82.2689
24.0177	-13.0522	83.4262
22.4441	-15.4072	85.0741
36.0837	-51.1923	78.9074
37.9617	-50.587	78.6757
15.2232	-25.2414	93.9486
16.1085	-23.5781	94.2456
14.8685	-26.3441	93.3964
16.5856	-25.0094	92.352
15.6726	-29.5545	91.6055
16.407	-30.8575	91.3217
17.5423	-29.0832	90.0009
15.3364	-28.626	91.8797
14.0229	-29.5404	93.0304
6.50171	-28.2639	100.863
6.25722	-27.2339	102.936
5.08085	-28.5454	101.117
6.79488	-29.312	99.2673
8.03733	-27.8374	100.021
19.5029	-27.7673	88.5018
21.3899	-25.7562	87.1137
18.9133	-26.8239	88.932
20.3771	-29.0651	88.2448
9.96371	-17.5859	110.05
7.44735	-18.2074	112.762
10.0357	-19.5856	108.791
12.2617	-17.2629	106.133
9.77182	-15.8419	110.674
36.6367	-65.2771	80.4636
39.358	-62.3522	78.5375
34.8107	-62.0986	81.5926
33.2791	-67.7478	82.9933
38.5476	-69.0505	79.0975
35.4977	-44.8866	82.1176
34.0672	-41.2086	83.8696
33.1511	-44.5302	83.6308
37.6743	-45.1675	81.001
7.85312	-33.4018	96.5381
8.27042	-35.4217	96.0035
9.31313	-32.8741	96.2268
7.42969	-31.6348	97.2969
6.07835	-33.8439	96.6269
4.76174	2.55539	98.0164
7.39935	1.16636	95.6436
3.64143	7.23141	93.9157
18.916	-16.5783	90.6998
17.8688	-15.0402	92.6932
18.1923	-15.98	92.6049
19.3501	-17.9835	89.9258
19.2494	-16.1404	89.5184
9.76982	-29.3537	96.9217
9.99723	-30.8534	96.2336
11.0309	-29.3523	95.7653
9.62624	-28.355	97.6309
8.53421	-29.793	97.6741
9.32845	-27.5298	98.8401
9.11534	-26.5353	100.612
17.35	-15.2397	94.5678
16.9938	-14.4328	94.7951
17.9796	-16.7474	93.6436
19.7057	-20.5374	89.1331
18.8608	-19.4391	91.1892
19.4026	-23.1695	89.0717
9.73503	-43.0053	95.4679
10.2922	-44.9765	95.6249
11.7528	-41.9341	95.304
9.11781	-40.3003	95.4151
7.66899	-43.9013	95.4861
27.2885	-29.3101	85.364
24.6743	-30.0708	86.5486
29.9192	-32.9185	85.2951
29.7507	-28.834	84.5085
24.6475	-26.0942	85.5404
21.2049	-66.909	89.9335
20.9393	-65.1844	90.4252
18.1266	-68.0331	90.5853
21.5327	-69.1903	89.491
24.6409	-65.6591	88.6695
31.4487	-47.3389	83.6655
31.9075	-47.9407	82.9598
33.9656	-48.2798	81.0071
31.0866	-45.7872	84.7338
16.7292	-13.8249	94.6626
16.7298	-13.0365	93.367
15.3678	-12.9496	97.2196
28.0007	-64.3013	86.8305
28.7221	-66.5153	86.1805
30.9074	-62.4517	84.7046
27.3524	-62.594	87.4534
15.4523	-68.7216	90.8902
12.8894	-69.2105	90.9926
15.9044	-70.7598	90.5476
15.0183	-67.1813	91.3667
48.769	38.4843	57.1331
48.0168	37.5918	58.7323
51.7154	32.9687	53.2386
49.3357	39.6098	55.3769
25.8797	59.0222	68.1763
19.8207	59.5889	71.6837
26.378	54.6396	70.7233
32.4113	57.8362	64.2639
25.9924	64.3726	64.7117
38.939	55.8319	59.4947
39.06	52.0534	62.6783
45.1419	52.7271	53.3378
39.0468	61.2195	55.2784
28.22	49.0003	72.4905
27.5	50.6221	72.2436
22.484	49.8165	76.3974
29.0516	47.2591	72.4363
50.3799	40.9008	52.3997
50.7521	43.7338	49.5345
45.1484	46.1345	59.3258
54.3478	35.5171	47.0779
13.1386	37.5975	77.6084
14.1393	36.083	76.5487
16.7847	39.0391	76.969
12.2378	39.3065	78.7739
10.298	35.9636	77.763
1.56672	17.5451	84.5882
4.06419	15.2976	83.0466
1.12379	19.7524	83.2209
-0.904752	19.0715	85.5304
2.04455	14.9826	86.6346
27.684	-1.3952	77.1766
30.3645	-5.24385	78.2006
34.9465	-0.448911	75.3795
25.1411	1.87758	76.4073
21.7713	-1.19668	78.7077
52.5054	17.3959	58.0228
55.2999	16.5297	55.6585
51.948	21.7052	56.4624
49.6425	18.486	60.0786
51.5593	13.6949	61.1066
2.73094	11.561	89.8194
5.34938	9.56516	88.183
0.400795	12.7949	90.9399
29.9584	45.5155	72.4027
34.7731	45.3664	70.204
25.0077	45.1834	74.9591
30.3403	43.6689	72.4177
39.5705	44.0283	67.3478
39.3989	42.0689	67.8504
44.1704	40.7805	63.6133
46.997	25.4782	60.5211
45.9907	29.223	61.5309
44.9989	24.8529	62.4562
47.5764	22.2277	60.4782
48.6622	25.8904	58.7547
34.2626	27.4354	70.5502
36.0476	26.4531	69.2884
32.3901	28.1642	71.7124
30.4775	28.7639	72.4608
28.4937	29.133	72.8335
30.4601	29.829	72.5877
28.1331	30.191	73.0012
32.5738	29.2556	71.7997
25.9756	29.047	73.0679
23.4038	28.4383	73.1762
25.4872	29.9623	73.2278
22.7233	29.2544	73.3303
21.0563	27.307	73.2487
18.9409	25.6199	73.1804
16.3736	23.4475	72.858
13.7697	21.1608	72.5299
14.8722	23.9568	73.0163
12.3949	21.5734	72.7856
17.6023	26.1931	73.2914
11.9532	19.2646	72.3276
13.3763	24.3555	73.3098
16.3288	26.8965	73.5136
25.035	30.9837	73.4133
22.0271	30.2392	73.5384
40.3163	22.3455	66.3213
40.4411	23.4404	66.1379
39.5246	21.2636	67.088
21.1896	40.3113	75.7918
25.9469	41.1041	74.1307
20.7061	41.9395	76.5206
21.7707	38.2472	75.0122
37.3869	34.617	69.4054
36.2751	32.0667	70.0665
38.3274	37.377	68.8074
33.9777	35.2541	71.3196
32.4884	12.8218	73.0853
37.4877	14.6408	70.7483
26.0877	11.5911	74.4199
33.4221	11.4376	72.9773
20.5003	11.2211	74.4647
16.4343	11.8655	74.1393
20.687	9.49418	74.7797
11.8853	14.3272	73.5375
11.061	15.1319	73.3421
13.0973	13.6391	73.6037
30.9517	15.5235	73.1775
35.2704	17.2891	71.3249
25.607	14.5334	74.1857
14.7351	14.8877	72.6993
16.8018	14.4766	73.1644
13.662	15.1907	72.4546
12.8263	15.47	72.3668
11.9852	15.8762	72.3877
6.62436	23.8785	75.7008
5.70556	26.5769	76.6881
7.56851	20.8441	74.5483
7.96868	26.3135	75.4056
10.1004	16.3714	73.3368
19.163	28.8781	73.5972
8.45925	19.8287	73.8484
8.34343	18.0841	74.0378
9.30861	22.0816	73.7865
30.495	16.7201	73.1906
25.3005	15.7321	74.0931
14.5793	15.681	72.1688
13.6246	15.7256	72.0638
16.5945	15.6215	72.6558
12.8369	15.9702	71.9873
37.3608	25.2047	68.1825
-4.12734	33.1463	81.5405
-6.33519	32.7347	81.5652
-4.0901	30.5659	81.7131
-2.10389	33.1621	81.2534
-4.03961	35.7709	81.6444
14.9175	6.05991	77.155
14.279	8.05297	76.2662
12.9064	7.36724	77.6586
16.2914	3.3982	78.2842
17.9731	4.91441	76.5886
10.8645	8.83004	78.5154
8.73324	10.6905	79.7465
9.6395	13.6878	75.502
7.89779	14.4259	76.9403
9.32292	15.1923	74.6093
3.58523	23.4962	78.373
3.97962	25.7449	77.8898
2.76747	24.6842	79.0759
14.3344	12.7298	73.877
14.0267	11.4623	74.604
14.0104	9.87871	75.3446
16.5633	8.57115	75.3057
28.3246	-50.5759	82.2261
28.2001	-50.5168	81.9778
31.2526	-50.227	80.0979
25.0372	-50.856	84.5662
32.9312	-50.1955	79.0902
32.6304	-50.1248	79.0555
11.1593	-48.3077	95.3819
13.4967	-47.4586	95.0636
10.8775	-47.0892	95.6324
8.52437	-49.1615	95.4237
11.3445	-49.4714	94.9499
16.299	-49.2111	93.1944
16.0653	-48.1643	93.9049
13.9916	-49.8183	93.8675
16.3413	-50.2258	92.2996
18.6414	-48.7046	92.2437
21.1638	-48.2503	90.9569
21.0045	-47.137	91.7009
21.3906	-49.3665	89.8962
24.1641	-48.2697	88.886
15.7967	-46.9499	94.4476
18.1998	-46.4261	93.5355
15.4839	-45.7154	94.8127
19.5835	-44.2017	93.1267
20.3894	-44.9791	92.6852
18.9832	-43.2748	93.3593
16.9783	-44.6557	94.3398
27.8038	-48.9914	85.3782
27.3906	-47.9161	86.7351
16.0812	-51.2171	91.1988
13.6712	-51.7262	92.0277
15.8098	-51.7475	90.2992
18.8848	-50.6598	90.0762
21.8039	-50.3801	88.4136
21.8754	-50.9055	87.3809
33.4505	-48.9815	80.7556
28.7565	-51.4881	82.7283
28.6874	-51.4296	82.5129
25.4314	-52.1747	85.3911
28.8438	-51.6909	83.0258
29.561	-52.8277	83.5636
29.2851	-52.4342	83.4857
26.7824	-54.3097	86.6374
24.0142	-55.2771	89.0736
23.5945	-54.5074	88.8387
21.2688	-56.1295	90.7896
24.5723	-56.0098	89.089
17.0017	-54.8419	91.3958
17.6692	-55.9644	91.8075
20.122	-54.2089	90.164
16.468	-53.9036	90.906
14.3181	-55.4593	92.1034
12.8998	-58.5807	93.2672
13.2271	-59.693	93.4219
15.3573	-57.8284	92.8722
12.5389	-57.3991	92.9616
10.6018	-59.086	93.3593
33.4469	-51.5653	78.3608
33.1826	-51.0044	78.9651
33.7122	-52.954	77.7121
31.6553	-51.7586	79.7008
11.5946	-54.8419	88.4723
11.4535	-54.2923	89.5827
13.611	-54.4864	88.2166
11.8581	-56.0636	87.3456
9.79119	-55.16	88.5126
13.5673	-60.8593	93.4367
11.0622	-61.4159	93.5257
13.9071	-61.9259	93.3086
16.2108	-60.0403	93.0616
14.6576	-65.6337	91.9862
17.4782	-64.6566	91.7376
14.4052	-64.1592	92.6085
12.0931	-66.2807	92.0219
15.0615	-44.8616	94.9706
14.1677	-43.6492	95.1197
12.9272	-45.159	95.4467
12.177	-56.1368	92.4764
10.1158	-56.6398	92.5748
11.8042	-55.1013	91.9177
11.5812	-54.5523	91.4544
13.6977	-54.0143	91.196
11.5496	-54.2866	91.0517
9.72145	-54.9812	91.5093
16.2198	-53.442	90.5095
19.1963	-52.8757	89.3131
16.0652	-53.2464	90.1463
11.5258	-54.1619	90.4647
13.4822	-53.7268	90.221
9.62081	-54.5483	90.4503
22.2474	-52.5228	87.6839
22.1193	-52.3579	87.294
22.5614	-52.8888	88.0306
25.8353	-58.6879	88.8443
26.2996	-59.7051	88.4918
25.4302	-57.7657	89.0322
23.1046	-59.8373	90.5963
19.9862	-60.9643	91.9061
20.3137	-62.0502	91.5506
19.6467	-60.0137	92.1181
16.8765	-62.09	92.7222
14.1823	-62.9826	93.0371
11.5027	-63.6345	93.1045
21.8166	-51.045	86.7143
18.717	-51.3305	88.3974
21.6722	-50.9521	86.163
35.8272	-50.0739	79.0597
34.8678	-50.4747	79.0522
33.113	-50.7505	79.6054
31.6094	-51.1977	80.8409
16.1663	-54.0106	87.6526
15.9565	-53.4048	88.6845
19.0888	-53.4657	86.6913
16.553	-55.179	86.6394
15.9393	-53.2025	89.5677
18.9028	-52.6764	88.4117
20.5605	-63.4796	91.0503
23.8729	-62.2584	89.7576
24.9745	-56.8776	89.1365
22.3172	-57.9802	90.8913
26.8115	-61.0788	88.0095
29.3559	-59.408	85.9083
21.3302	-50.6471	85.8127
18.5078	-50.789	87.0415
20.5828	-49.4889	85.2006
24.2286	-50.4959	84.1603
15.7032	-51.2222	87.9649
13.4602	-51.5489	88.3027
15.8467	-49.8505	86.7707
15.6565	-51.7214	88.8027
19.5417	-46.8156	84.4164
17.3302	-46.9511	85.1868
18.7378	-43.2643	83.8924
21.9252	-46.7106	83.3761
34.1707	-56.2193	77.105
34.4354	-60.1186	77.0051
32.2672	-56.4244	78.5652
12.4118	-58.8684	86.3089
14.4168	-58.4676	86.1276
13.4807	-62.6507	85.9808
10.7351	-59.1877	86.3379
15.2491	-47.1695	85.7162
13.1361	-47.4313	86.061
14.3592	-43.5804	85.1986
17.0307	-57.9525	85.6259
18.0625	-61.8996	85.0706
19.9742	-57.4869	84.7539
36.8295	-50.7431	73.4622
37.1136	-50.8901	73.0212
5.89404	16.1729	78.4809
5.98246	14.7391	79.9027
79.8501	5.42399	-43.3285
79.9039	0.918461	-42.5904
78.0052	5.69701	-46.6927
79.6477	10.105	-43.3028
81.3537	5.19514	-41.6135
74.7211	23.9434	-5.61486
74.7724	26.7932	-9.8888
73.1224	25.8864	-0.644277
74.7076	28.842	-15.1556
73.4985	34.1579	-16.4543
76.0924	24.0023	-16.252
75.6467	28.4911	-22.2519
78.0533	-19.8483	-34.1182
79.9996	-17.1373	-32.4847
77.7305	-24.2203	-31.5506
78.5611	-15.7451	-35.9329
78.9507	-11.9167	-37.9966
76.8139	-14.363	-40.8578
79.404	-7.75862	-39.8112
80.9127	-10.3267	-36.1378
82.7556	5.50286	-40.7274
84.171	6.26986	-40.3547
82.8983	1.25943	-39.8292
82.231	10.5461	-40.8921
87.6915	-12.352	-30.848
88.1265	-8.12794	-32.9068
88.435	-12.6629	-29.6486
87.1635	-16.5477	-28.3494
90.4067	-1.79821	-30.9194
90.2718	-1.2306	-30.1312
83.3228	-26.005	-20.1733
83.7914	-26.1432	-19.4933
82.9426	-26.724	-18.1787
82.3396	-25.2878	-22.2527
82.5711	-18.1931	-7.65797
82.3611	-18.885	-7.61973
82.1215	-19.9802	-7.83848
90.136	-0.863376	-29.7153
89.7062	-1.53449	-28.7584
90.5163	14.1236	-33.497
90.5189	14.782	-35.0124
90.5811	12.7942	-31.851
88.8871	24.311	-30.9773
88.9233	25.7009	-31.0859
88.6437	27.7981	-30.0373
88.0273	27.5121	-27.8091
88.7592	28.2873	-30.439
87.8201	29.7919	-26.9123
81.4762	5.24131	-7.73704
81.7386	10.8564	-8.24788
80.7695	5.92471	-6.36355
81.2841	1.07381	-7.21303
79.1384	-11.4349	-0.940311
78.2346	-11.9153	1.80585
79.3365	-15.326	-1.50755
78.8208	-7.00247	-0.338948
82.2706	-6.1492	-9.91093
82.9905	-8.13458	-10.4572
81.9027	-4.20242	-10.0207
76.182	23.4866	-16.3123
76.4724	24.7871	-19.8338
76.2056	23.4918	-16.1009
83.0182	32.3512	-16.8007
83.8457	34.1867	-19.9736
82.146	32.5884	-17.9669
82.0121	29.0626	-13.8236
83.8847	31.8046	-15.818
83.4758	34.732	-25.0623
82.593	34.3593	-21.9895
83.7397	34.9216	-24.5818
84.3516	33.5449	-28.801
82.8895	33.5471	-26.4368
87.54	19.5905	-39.5707
86.8348	18.9948	-39.7514
86.7363	25.5904	-36.682
88.5278	20.0168	-39.0359
81.8273	15.5649	-8.78834
82.3868	14.3646	-9.48554
90.331	19.5007	-36.4919
89.8094	24.6763	-34.2216
90.5166	16.6629	-36.6851
90.4104	19.4086	-36.8663
86.9836	30.5973	-22.8904
85.9772	29.9109	-18.8455
87.0386	29.2129	-23.6454
86.8838	31.5914	-22.2674
83.2694	16.5384	-11.6277
83.0232	14.7049	-11.0602
83.4257	18.9218	-12.3351
89.6651	20.1127	-33.7468
90.1817	18.0891	-35.6197
86.1119	22.3201	-22.0285
85.8408	20.9014	-21.2548
87.6853	22.0421	-26.2471
82.6697	9.50118	-12.9214
82.7965	9.78951	-13.6305
82.8492	11.2022	-11.8076
87.7548	10.9887	-27.0692
89.3595	13.9404	-28.9999
87.389	11.3929	-26.4311
87.8408	9.87859	-27.2348
78.5639	-2.97375	-0.267283
78.4283	1.64804	-1.00016
77.7069	-3.23255	2.30325
81.4946	15.8036	-39.3852
80.5266	15.03	-40.5223
80.4713	20.4148	-37.226
81.9892	18.4463	-38.4297
83.408	23.7954	-35.7121
82.3857	27.5062	-32.4485
84.8814	28.8214	-33.7701
84.3557	19.7674	-38.6517
85.9292	17.8501	-39.7181
85.7769	12.1567	-40.5335
86.24	7.10802	-40.1744
82.5073	-9.37956	-35.2895
82.046	-12.6649	-33.4725
82.8058	-6.01407	-36.9678
82.9193	-2.51927	-38.5502
81.3521	-3.04443	-39.572
89.0946	-1.56496	-27.728
81.5399	-15.7576	-31.7637
81.0361	-19.5744	-29.434
82.6813	-15.2418	-31.3181
81.7006	-23.358	-24.8675
81.2739	-23.4488	-25.2076
81.5268	-26.8661	-20.2728
82.586	-26.3981	-15.3514
82.1312	-26.7409	-15.1658
81.6186	-27.0357	-14.8656
88.2027	9.17051	-27.7237
89.9678	10.8584	-29.9351
80.0084	6.44845	-5.22528
79.1532	6.74829	-3.95944
80.2908	-7.36469	-3.93501
80.6622	-7.50024	-4.6146
84.1838	-11.5185	-10.2677
85.5435	-13.4031	-11.8919
84.1851	-10.4172	-11.0903
81.2411	-1.99729	-6.76431
81.7692	-2.14379	-9.00183
81.6363	29.2635	-29.1978
80.0299	25.1937	-32.0767
80.4411	29.7266	-25.8111
79.448	23.5073	-33.8828
79.1366	23.1416	-34.9582
78.2823	25.5031	-29.5782
81.4863	-2.28931	-11.8412
81.6903	-2.19715	-10.9639
88.5526	21.1741	-28.6453
88.6314	19.6485	-28.3114
83.1414	10.5352	-15.0851
82.9659	8.12437	-16.1667
84.0032	11.8832	-17.7786
87.1858	12.2266	-25.9155
88.3286	16.0956	-27.1208
86.5567	12.1962	-24.5136
-8.76214	84.9865	61.7835
-7.94951	77.5261	66.8859
-1.64708	85.3518	61.5206
-9.45423	92.5293	55.1523
-15.9747	83.9655	61.8489
-7.36741	70.0775	71.0285
-13.728	68.8712	71.2041
-6.78242	62.1257	74.7743
-1.07873	70.9403	70.5213
14.1677	59.459	74.1836
15.0458	55.6515	76.5178
9.87606	59.2086	75.3828
5.88949	-26.0575	105.703
5.78565	-24.5947	108.333
4.41476	-26.2097	106.299
7.70752	-25.7415	104.233
4.50633	-15.3175	114.56
6.89222	-14.8421	113.335
4.15589	-13.4267	113.964
2.30156	-15.7043	114.907
4.83106	-17.0152	114.601
5.12801	-18.8044	114.087
2.98827	-19.2284	114.489
5.40405	-20.6279	112.968
7.10546	-30.3675	98.1713
5.52372	-30.7887	98.317
8.71668	-37.8053	95.5995
10.4701	-36.9884	95.4691
6.83305	-38.4657	95.5862
5.65148	-22.6087	111.004
7.71421	-22.2814	109.45
3.70003	-22.8968	111.542
3.66618	-11.4221	112.853
6.05829	-11.2263	111.751
3.1105	-8.73249	110.784
1.47895	-11.6578	113.097
-3.73779	46.2444	80.683
-8.95463	45.2253	81.1599
-3.63459	43.5904	81.3297
0.689736	47.774	80.0351
-4.4704	49.6884	79.6666
-2.69302	19.5992	85.8952
-2.17907	16.976	88.0018
-3.08638	21.7038	84.5527
-4.1047	19.633	85.9171
-3.37453	23.72	83.5431
-1.55078	23.1434	83.222
-3.68752	25.7887	82.8056
-4.9535	23.6355	83.6286
11.3034	-51.872	88.3953
9.21727	-52.2971	88.4498
11.3075	-50.4542	87.3095
11.2008	-52.7433	89.6494
11.2446	-52.9605	90.5471
9.41168	-53.3702	90.5563
13.19	-52.4712	90.2855
11.3081	-52.8497	91.2683
11.5148	-50.4406	94.3525
11.5491	-51.3728	93.5301
8.8955	-51.1064	94.4297
11.4316	-52.225	92.4777
9.2253	-52.7664	92.4512
10.6636	-46.1249	95.6846
8.16689	-47.1215	95.7161
10.8316	-47.7608	86.2343
10.0111	-44.1061	85.6016
8.44176	-48.1221	86.2319
4.32452	85.3291	60.8621
4.46863	78.5305	65.6123
9.9569	84.8164	59.8326
4.25158	92.3824	54.5382
6.29828	50.0516	79.5596
6.12065	47.8951	80.0774
11.2049	51.5664	79.417
4.72702	52.9926	78.5427
7.73238	45.7209	80.3528
9.78265	43.1775	80.2615
12.2302	47.3255	80.0253
11.6538	41.0509	79.5799
8.20177	39.4733	80.2824
15.284	42.9851	79.0823
18.0969	29.7881	73.8823
17.0137	31.4458	74.3948
14.9221	27.681	73.8632
21.2451	31.3936	73.8053
20.1246	28.0477	73.3883
15.5947	33.4092	75.2037
19.0064	34.8968	74.8553
12.6024	31.6066	75.3553
27.6854	92.9113	39.5651
28.3734	98.5771	29.7927
21.7088	95.4364	41.9648
27.5695	87.0193	46.6548
15.2071	84.17	58.1504
15.5586	90.447	52.2206
20.9205	83.0737	55.6829
15.8333	52.4847	78.4628
16.6293	51.3357	78.8165
21.1073	52.8318	76.0679
19.3221	44.926	78.1735
18.9044	46.4162	78.5884
17.4697	49.2497	78.9186
22.582	35.6754	74.3445
23.8083	33.6196	73.8414
26.9431	35.861	73.5
27.1707	81.5574	52.1241
33.5947	79.8642	47.4393
26.7342	76.0823	56.722
27.0661	52.2636	71.6978
33.2352	51.3627	68.3449
30.7414	32.0167	72.665
30.6511	33.694	72.669
27.909	32.3814	73.2346
33.283	31.3769	71.7112
30.6075	41.5292	72.4517
30.6453	38.7721	72.5012
34.8975	41.3768	70.6563
30.6186	35.8237	72.6038
26.2177	70.2988	60.8328
32.8441	68.8426	56.4339
39.5909	78.6365	41.1989
39.3998	72.9923	46.2923
44.9913	77.555	33.646
34.5356	28.3482	70.6262
36.3832	27.2426	69.3057
35.7156	30.4347	70.3006
37.709	29.123	68.8893
34.9349	29.2203	70.5842
39.0299	40.0563	68.2793
42.6792	36.9887	65.3599
8.06361	33.7424	77.5497
6.34369	31.2018	77.2768
8.97247	31.8739	76.4732
7.09814	35.099	78.5385
5.83165	36.102	79.5375
4.20647	33.9414	79.2267
10.0273	28.9854	75.296
11.0404	26.6609	74.3837
-3.05248	39.544	81.8424
-6.87252	39.7386	81.7156
75.3161	-53.2864	-8.28824
75.924	-47.6996	-6.63457
75.6784	-53.4854	-14.7179
73.1159	36.7525	-37.0334
73.723	32.8493	-42.7919
71.1806	42.1122	-41.8134
72.8054	39.1076	-28.7816
75.1272	31.356	-31.8162
75.6975	5.57223	-52.5824
75.7799	-0.549056	-51.0798
73.6436	5.03098	-58.2092
75.602	11.5197	-52.5925
75.0955	17.7752	-52.1934
72.9717	19.1721	-58.6953
74.6481	23.3446	-50.3041
77.3379	16.0901	-45.9163
74.1636	-18.6048	-44.9476
71.7575	-22.506	-48.806
74.8221	-12.5735	-47.3817
-5.58654	55.673	77.5156
-10.8026	53.9751	77.9953
-0.459975	56.5977	77.1166
4.27681	57.8443	76.4473
4.32698	64.3935	73.3753
38.5181	-98.2379	54.0732
37.3289	-99.6276	47.2181
44.553	-95.0897	49.0894
33.1559	-100.48	57.267
61.8333	-79.6754	42.7235
57.3184	-84.3807	47.3673
65.1917	-75.3614	38.1188
62.3614	-77.4223	46.46
39.3137	67.0371	50.742
45.1673	65.0772	44.0064
4.39335	71.6635	69.6038
50.3302	76.406	24.3797
54.9137	75.3516	14.5941
50.7566	69.8063	30.2168
3.80656	100.307	45.4245
9.97291	99.1031	44.8714
3.18624	107.764	34.2105
-2.87438	100.767	45.8677
51.0523	48.8366	45.2773
50.8849	55.859	40.6215
38.8525	27.1887	67.774
47.3019	36.5206	60.0063
49.0537	31.2918	57.7458
46.1913	35.0346	61.5188
45.0101	33.5023	62.8437
24.6331	-111.788	39.0105
22.3198	-112.241	39.2442
69.3845	-65.2547	38.5841
69.9163	-61.0721	41.109
66.2434	-69.444	45.3568
68.6126	-68.9064	35.3573
13.3646	-41.6927	95.0466
15.1445	-41.6996	94.6014
12.4823	-39.1129	95.0447
30.2693	-43.7403	85.6688
28.8738	-40.1398	86.9081
27.3304	-42.6002	88.0665
15.6073	-37.1222	93.7444
13.246	-36.7676	94.671
16.681	-39.3498	93.6607
18.1383	-37.0531	92.4247
14.4104	-34.8496	93.8351
39.5281	-45.2516	80.2591
39.6789	-48.6696	78.9803
42.0336	-45.8194	79.0652
38.6188	-41.6057	81.6203
54.5868	27.1753	50.8698
52.6574	26.59	53.8214
56.8614	21.5358	50.6005
56.2168	28.1079	47.7466
57.8309	29.1895	44.1221
60.1937	29.6884	38.8335
43.3476	24.3933	63.9102
43.8891	22.2624	63.5956
50.7906	26.1119	56.3342
77.8926	23.5957	-36.9986
78.5427	19.8475	-40.2448
76.2423	25.3265	-41.0994
77.4053	26.128	-32.9653
79.6446	-3.60981	-41.5014
77.7562	-4.51086	-44.6675
77.2728	-39.2251	-17.0868
78.2388	-34.4921	-14.8082
76.9807	-41.3866	-10.897
76.3423	-45.2679	-19.5178
77.3197	-35.7015	-22.9581
79.1585	15.1595	-42.2957
77.3748	-12.7789	4.97813
77.5309	-17.163	4.31192
77.1353	-8.24633	5.43043
76.3885	-13.5207	9.37494
68.1736	13.7345	30.9007
66.241	21.5122	30.0051
69.7188	6.23771	31.7018
70.7354	12.7195	21.9087
47.6434	19.2028	61.4193
45.5994	19.9531	62.8085
46.4448	16.5338	63.6972
43.7195	20.5099	64.1026
42.6115	18.8845	65.5835
75.1331	-13.5467	15.7675
73.8749	-13.3209	22.7366
75.4563	-18.6347	14.9522
74.8396	-8.228	15.9688
22.3476	-8.61578	82.5829
26.2944	-9.50341	81.1145
20.6245	-4.2907	81.1506
19.3529	-7.1114	84.0982
32.9411	-9.74088	79.2265
40.545	-8.81431	76.6506
35.2775	-14.1461	80.0283
16.137	-5.37594	86.5758
13.0106	-2.97224	89.5687
17.0052	-8.92243	88.4405
20.2202	-15.1618	87.5471
18.7275	-13.2843	88.7886
17.0266	-17.7669	96.0479
15.8363	-17.4149	98.4985
17.0299	-19.6122	95.4461
17.7303	-18.1834	94.3984
18.2937	-18.6988	92.8394
18.2674	-20.9175	92.1796
42.1435	-27.6855	80.2522
36.6901	-28.1242	82.4044
43.7805	-32.7467	79.7914
40.134	-23.2049	80.5599
37.4458	-18.5864	80.5013
10.4062	-32.6579	95.7947
11.0788	-34.6051	95.4117
11.6793	-32.6542	95.0689
65.2277	-41.0718	58.2189
64.9932	-34.2588	58.8796
60.848	-39.8962	65.1391
65.0867	-48.16	57.6484
32.1564	-37.1156	84.898
29.7535	-36.8408	86.0632
34.577	-37.2823	83.8967
44.8393	-37.7425	79.0076
45.3625	-42.6313	78.1569
50.0609	-38.1796	75.7466
40.4104	-37.5402	81.2923
11.7717	-36.6966	95.1846
64.4972	-55.3794	57.0992
67.6619	-56.6421	50.1182
60.2403	-52.4608	64.2083
62.6763	-61.5784	58.0064
63.0038	-16.5422	60.5961
63.7816	-22.2372	60.28
66.7634	-16.3324	53.2433
43.4244	-90.4741	68.1344
43.4774	-87.3701	70.5092
38.4478	-93.266	72.7882
52.683	-76.4565	64.6495
56.5384	-72.0715	62.0471
50.6146	-71.6255	68.7487
48.0861	-80.1196	68.3493
55.1903	4.39179	63.0396
51.7722	8.32467	64.0519
49.5344	2.91502	68.2879
40.7389	16.8907	67.8618
42.3353	15.4338	67.3508
49.0452	10.903	64.8117
44.3492	8.75614	69.0218
46.302	12.6335	65.9409
38.0695	19.5016	68.8221
18.7378	-92.8349	88.9305
16.4525	-93.4829	89.0347
55.501	-49.822	69.9142
54.4974	-54.6946	69.8435
55.7909	-44.624	70.3981
50.1817	-48.0205	74.4241
48.0702	-67.089	72.1489
50.6248	-63.2575	71.0025
44.4839	-62.7731	75.37
44.5009	-70.446	74.3746
42.6562	1.29702	72.3202
45.4464	-2.85784	72.6172
39.9791	4.63008	72.3466
55.7932	-38.8418	70.9375
48.0383	-7.32589	72.6562
23.8281	-81.3123	88.8935
23.1283	-76.5406	88.9806
27.7776	-79.9476	86.7833
32.1569	-78.4693	83.8779
36.311	-76.2792	80.6806
30.9579	-73.7011	84.6887
37.9843	6.92166	72.356
36.1965	8.61617	72.5817
30.5215	5.12982	74.625
44.2585	14.0391	66.6459
40.4975	11.9356	69.9291
34.7588	10.0918	72.7515
27.6296	8.50301	74.5041
10.1535	-0.783259	92.7396
11.3228	-4.65251	95.4527
9.08913	3.29226	89.4298
13.4696	-12.0741	101.323
13.0372	-10.5868	100.179
11.3198	-11.4085	105.576
13.8626	-13.1648	101.645
6.43783	12.8834	81.3432
7.01663	10.561	83.3612
18.5274	-0.428546	79.7416
-1.30329	13.324	91.3791
-2.68111	13.4545	91.3697
58.2957	15.9309	52.4176
7.94298	7.26603	86.1804
70.3866	-56.0422	42.7295
72.6757	-52.6173	34.1621
67.2595	-2.83266	47.2052
68.5367	-9.6237	46.1876
69.2022	-1.48445	39.5261
70.6186	-27.8577	44.0881
70.0859	-21.6978	44.6651
68.1379	-28.0681	51.7979
72.3052	-27.1823	36.5976
69.431	-15.6622	45.2941
71.2474	-14.8849	37.5187
34.4099	-95.4625	76.2285
22.2302	-72.4988	89.1482
19.1629	-73.4251	90.0093
25.8359	-71.1864	87.6386
29.7406	-69.7782	85.4402
20.6763	15.622	73.5528
23.4088	4.2431	75.7523
22.1722	6.18232	75.3746
21.3405	7.81314	75.0225
16.4596	-74.1207	90.4645
13.746	-74.5777	90.6108
-0.913715	27.6338	81.3215
0.524538	26.9757	80.6105
-0.701155	30.1484	80.8605
-2.39241	27.9137	81.8713
-0.567964	24.9221	81.8979
11.1148	16.635	72.568
10.5511	17.8225	72.6794
8.7772	16.5047	74.2881
1.80709	25.851	79.813
2.20041	28.4499	79.3059
-3.92972	28.1656	82.1538
-5.71719	27.9605	82.2668
9.3085	-25.2856	102.599
9.54616	-23.8411	104.562
9.50169	-14.3538	110.753
9.24404	-12.764	110.186
12.0596	-14.1151	106.507
18.4896	-25.3719	89.6272
17.9432	-24.3009	90.8101
16.7791	-27.2497	90.8366
8.64338	-11.1603	109.471
0.573039	21.7653	82.4083
-0.139817	32.8605	80.7084
1.53206	32.1876	79.9506
10.7068	19.4319	72.7365
3.04936	31.286	79.0522
4.14463	29.9493	78.1537
4.94715	28.4296	77.4494
22.4217	-30.9887	87.8467
19.8818	-31.9064	89.5143
24.6745	-33.5317	87.6708
27.1229	-36.7138	87.2997
24.0044	-36.6692	89.0427
31.8473	-49.8111	79.2232
31.4739	-48.8023	78.83
29.9692	-50.053	80.4965
32.0648	-48.3814	82.4303
29.9333	-47.7826	84.7868
30.6213	-46.0301	78.2386
27.4729	-46.3624	80.3109
29.3613	-42.7761	78.0616
17.7499	-32.6191	91.1122
15.5191	-32.8977	92.6352
19.2333	-34.6582	91.0033
21.1162	-36.8787	90.7303
22.6366	-39.227	90.5566
27.4864	-50.3263	82.1244
25.9	-49.2676	82.3837
24.5497	-46.5951	82.0157
23.7394	-42.9972	81.4547
13.4935	-32.8169	94.0142
12.7736	-31.0177	94.1823
18.0662	-41.6384	93.471
21.0717	-41.4549	91.9714
17.0437	-11.2721	90.5453
14.7019	-9.6849	94.1371
2.40152	-5.17345	107.717
0.57445	-5.23793	107.863
12.2291	-7.99397	98.1743
9.82636	-21.689	107.069
11.853	-21.3254	103.661
13.7833	-21.1801	100.249
14.1069	-19.1586	101.217
15.5909	-21.1678	97.0363
16.7582	-21.6053	94.7895
17.3707	-22.3806	93.1669
17.6924	-23.3051	91.8704
14.0241	-14.249	102.087
14.119	-15.6037	102.309
14.1811	-17.2664	102.023
64.151	-135.859	13.7916
59.9528	-138.034	16.804
66.3062	-141.418	12.6967
67.8844	-133.61	10.6886
61.3015	-128.25	15.3499
57.8153	-117.616	17.4948
61.4811	-115.428	14.0858
55.2595	-108.184	19.5271
53.8507	-119.721	20.8266
55.0227	-92.0547	26.8465
58.3631	-89.0228	23.0361
51.2532	-95.0209	30.42
54.4228	-96.3077	23.5187
54.3952	-101.476	21.2572
50.435	-103.845	24.9973
57.9177	-98.9798	17.5715
53.1477	-59.3002	69.945
56.932	-63.018	65.2147
48.3882	-55.8866	74.09
60.3044	-67.0865	59.3451
61.9318	-71.0159	54.3704
62.6088	-74.3539	50.1393
44.5821	-53.5461	76.4593
45.2435	-50.3017	76.7365
41.4108	-51.9238	77.792
43.0659	-56.4644	76.7387
39.4092	-51.1218	78.3846
38.6487	-52.9732	78.3913
61.337	-86.1297	18.7968
62.5114	-82.1349	21.7999
61.0105	-90.7635	15.7058
64.2538	-83.4973	13.2703
64.1938	-78.5175	25.1553
66.2114	-75.7316	18.9322
65.9748	-75.0854	28.5264
67.4785	-72.0344	32.1449
69.0641	-69.1416	25.1627
64.8798	-113.095	10.5159
68.3417	-123.774	8.77937
68.1974	-111.093	6.67119
62.3365	-103.568	12.1114
71.2226	-131.466	7.42757
73.6888	-137.148	6.22742
74.3305	-129.36	3.83577
61.1903	-96.3995	13.6641
72.6201	-13.9886	30.0658
73.1049	-19.9393	29.5611
72.0039	-7.71436	30.6175
70.2754	-66.5868	18.1804
69.0921	-69.8346	15.2796
71.327	-64.1975	10.9788
63.8214	29.7015	29.8174
67.8902	28.2123	18.6436
73.9789	-49.5554	25.7571
74.7822	-46.6068	17.4501
73.5465	-25.8907	29.1046
74.6201	-24.4406	21.5074
70.9429	-0.688297	31.6754
72.7506	-1.27205	23.5449
75.6801	-23.8567	14.2599
76.7334	-22.7869	7.79046
71.5389	-78.3344	-3.28852
72.1205	-83.2684	-4.46692
73.429	-77.3736	-8.25465
71.2728	-73.9352	-1.82226
69.3876	-79.5872	1.84629
72.9723	-88.7565	-5.16439
71.3453	-69.7841	0.273706
69.7167	-71.3873	6.00179
72.9037	-68.5339	-5.50018
71.7176	-65.9395	2.20156
72.9357	11.7647	13.1103
71.9732	19.3516	10.6341
73.7384	4.12906	15.2713
70.9401	27.3643	7.66126
69.9107	34.9664	5.01008
68.9175	42.73	1.63641
70.942	42.0366	-9.26945
67.9765	50.4698	-2.24873
75.4174	-44.4834	9.48457
76.0368	-43.0927	1.77952
74.337	-2.31893	16.1589
75.7664	-3.28304	9.82057
71.4427	-109.021	2.36157
74.6327	-119.605	0.97647
68.0664	-73.4152	12.453
67.2574	-77.2084	9.69874
77.2378	-127.157	-0.251546
79.5264	-132.627	-1.61893
79.6964	-102.696	-15.4899
82.0191	-111.78	-17.0084
74.9519	-76.3897	-13.1761
75.7739	-74.3018	-18.3925
74.5625	-71.7238	-12.3033
74.3977	-67.0545	-11.1438
83.8374	-118.517	-18.6741
85.2831	-123.793	-20.7817
76.5478	-42.6002	-5.19247
77.6094	-21.4788	3.41385
78.4549	-19.6389	0.258005
77.7082	-25.4818	1.89612
76.7841	-3.51401	5.66306
76.5892	-81.8348	-26.4061
74.6684	-77.68	-33.3102
75.9053	-75.5176	-25.3297
75.6404	-69.4732	-24.4449
74.1041	-63.0097	-30.6117
75.7365	-51.9505	-21.2352
78.9704	-31.6489	-13.5688
79.9378	-28.8163	-20.048
77.6645	-108.162	-44.6279
79.2234	-115.624	-46.1272
74.0273	-105.936	-51.6803
76.0731	-100.149	-43.0478
77.5121	-30.4937	-27.6999
79.1584	-26.3539	-26.0497
80.4872	-24.3391	-25.3843
55.5234	-140.022	19.5916
52.8864	-132.437	21.4477
51.0273	-141.92	22.0766
57.6718	-145.412	18.159
45.7265	-106.063	28.8844
40.8598	-107.939	32.2839
46.6479	-112.3	26.809
45.9536	-101.622	31.036
49.8721	-91.9818	44.4233
48.0549	-94.4972	39.2953
51.3645	-90.0588	48.7069
46.6173	-97.8676	34.4076
41.5704	-100.187	38.1421
49.3886	-121.538	24.2141
44.8827	-123.698	27.2673
41.5352	-59.5404	77.2909
39.1515	-56.7757	78.3932
52.4161	-88.4113	52.1294
37.5963	-54.9941	78.8637
35.8625	-57.2001	80.1211
36.3385	-53.6572	79.1613
35.2697	-52.5482	79.3514
33.8593	-54.1742	80.5718
40.6305	-73.7461	77.2008
42.1453	-78.5294	75.1681
43.2686	-83.4127	72.6554
28.8544	-52.1086	83.4846
25.9649	-53.0362	86.165
28.5112	-51.5084	82.3162
31.4768	-50.9927	80.3076
28.6351	-51.6893	81.8968
25.1759	-52.0748	84.5871
28.725	-52.1278	81.5571
28.9984	-53.4892	80.9747
25.3623	-52.6562	83.5607
29.376	-56.7321	80.385
29.6538	-60.8199	80.237
26.0864	-56.9507	82.1505
36.1713	-109.269	35.0072
36.0909	-105.23	37.3184
37.4175	-115.755	32.9588
46.4466	-143.858	24.2815
43.9226	-136.428	26.5277
41.8661	-145.515	26.1586
48.465	-148.937	22.6568
40.454	-125.617	29.9356
28.2916	-104.004	44.4427
31.7264	-103.323	43.0943
28.4383	-102.649	51.4565
37.8056	-146.82	27.5132
39.6773	-151.711	25.8534
29.025	-102.025	59.241
21.938	-52.3579	86.7393
21.9122	-52.5662	86.0536
21.9837	-53.0477	85.43
22.4918	-54.2223	84.4781
22.9728	-57.1849	83.595
23.7231	-61.269	83.0953
60.737	59.579	15.3588
64.3978	58.7121	4.30964
60.033	67.0883	9.87167
56.2039	60.9261	25.952
72.0238	40.8951	-19.3346
75.2975	-6.68965	-49.6854
73.003	-9.03707	-54.5699
67.2298	-85.3472	-54.3294
65.9956	-75.1843	-53.2235
70.649	-87.9938	-48.8021
68.9524	-95.4195	-55.5411
63.7966	-83.5517	-59.2754
70.7095	-104.157	-56.9433
72.6296	-112.405	-58.2357
67.2892	-102.971	-61.667
71.6385	-72.356	-40.6642
72.7475	-81.9458	-41.1674
68.3497	-68.2588	-47.0605
71.3459	-63.7375	-39.3408
2.26656	114.316	20.8727
9.22944	112.697	20.7015
1.62569	119.093	5.99199
-4.8907	115.05	21.0774
4.42371	104.341	-78.8209
3.48033	113.003	-62.9638
11.7087	103.579	-76.9164
5.61194	93.5064	-91.97
-3.11109	104.447	-80.2566
7.27789	81.6855	-101.494
14.2911	81.2548	-99.4848
9.32887	68.646	-108.678
0.296759	81.232	-103.109
2.5055	118.772	-45.9081
9.91999	117.552	-44.2756
-5.11871	119.268	-46.9837
1.83303	121.649	-28.1226
-13.647	122.364	-11.3274
-21.4431	121.413	-11.4767
-13.3362	119.861	5.71148
-5.98399	122.46	-11.0149
-13.5175	122.132	-29.3569
11.336	55.8089	-113.592
17.9039	55.5921	-111.534
13.3635	42.4928	-116.866
4.78827	55.4269	-115.061
15.3053	28.5526	-118.671
21.7047	28.6987	-116.473
17.2163	14.7958	-118.844
8.92453	28.3796	-120.187
21.8095	-23.5497	-107.86
27.6347	-23.291	-105.674
23.5074	-35.1599	-100.449
16.3258	-24.4067	-109.033
20.4543	-10.997	-113.747
6.51652	0.692702	-120.018
0.212534	-0.346206	-120.352
4.44764	13.6906	-121.441
12.7335	1.35824	-118.996
8.43873	-12.0137	-116.447
29.7442	-81.8008	-82.7502
28.4119	-72.3248	-83.7107
35.0212	-81.6869	-81.4111
31.1737	-91.176	-82.4124
24.7231	-82.214	-83.5077
22.9221	-101.301	-83.0928
27.8359	-100.911	-82.8071
24.7027	-110.795	-82.9268
18.2266	-101.882	-83.1727
21.3495	-91.7391	-83.3924
25.2413	-44.2656	-94.3075
30.4978	-43.9397	-92.7382
26.2898	-52.5039	-89.6895
19.5823	-44.7807	-95.3148
27.1645	-62.0207	-86.0282
32.822	-62.1866	-84.2877
21.8845	-62.1129	-87.0167
16.6681	-62.7217	-87.4542
15.2787	-53.4869	-91.1488
18.2357	-73.1557	-85.0156
11.5121	-63.7999	-87.486
28.7077	103.903	17.9657
35.0414	99.475	16.7882
29.2767	107.944	4.56941
22.3908	107.451	19.2505
34.0525	77.6092	-89.4348
39.883	75.4771	-85.1872
35.868	65.7701	-96.2114
27.9124	79.2141	-93.2668
32.4449	88.3652	-80.2799
31.0076	97.734	-68.2876
24.8855	100.316	-71.5412
30.2695	104.723	-54.1911
37.1025	94.3413	-64.7007
30.039	108.99	-39.5149
36.5276	104.401	-37.7494
23.6342	112.605	-41.122
30.3272	110.539	-24.7521
29.8236	110.303	-9.92427
23.1542	114.248	-9.81329
36.3442	105.563	-9.99625
37.4196	53.7192	-101.117
38.9917	41.1987	-104.368
31.3557	54.5713	-105.056
43.0701	52.469	-96.8018
40.287	28.4652	-106.193
45.7117	27.9654	-101.842
41.5699	15.5685	-106.302
34.5887	28.5952	-110.03
42.437	3.02091	-104.846
43.317	-9.90245	-101.306
37.2736	2.44884	-108.503
47.2308	3.109	-100.642
44.6023	-22.4684	-95.4101
49.1237	-21.4145	-91.5653
45.8275	-33.39	-88.9744
39.336	-22.7618	-99.3512
46.8011	-42.904	-83.2463
47.6842	-52.426	-78.2927
41.7328	-43.5628	-86.969
51.2618	-42.3557	-78.9633
50.5479	-80.9557	-73.3658
51.4094	-90.908	-74.3192
45.5651	-81.3411	-76.7743
49.7724	-71.3281	-73.252
55.1642	-81.1942	-69.3428
42.7065	-99.9477	-79.8939
44.4394	-108.624	-80.1296
37.6339	-100.098	-81.3222
41.4018	-90.9612	-79.6381
47.8792	-100.003	-77.7978
48.712	-61.9914	-74.8626
53.2763	-61.5998	-70.319
43.856	-62.1437	-78.6228
53.2654	80.5798	-51.3044
53.4451	84.5876	-39.8229
58.1596	74.5916	-45.4659
53.7252	74.4338	-61.7722
48.1833	85.7256	-56.5371
53.5614	86.8504	-28.4629
58.3695	79.8073	-23.2705
48.3065	93.3333	-32.6027
53.5136	87.79	-17.2495
52.2706	88.2749	-6.42916
56.0153	81.4472	-1.58107
47.6884	94.4812	-8.76993
48.0726	51.074	-92.2667
46.7117	62.2311	-87.3243
52.6979	49.1993	-87.4321
49.4767	39.2749	-95.4963
45.0526	73.076	-80.7074
43.6917	82.5144	-72.0329
50.022	69.9999	-75.7813
51.9356	3.2258	-95.6635
51.6206	15.3417	-97.0261
56.4493	3.17536	-90.1025
52.2688	-8.95048	-92.5286
50.6765	27.1874	-97.1119
55.2208	26.5967	-92.0037
53.0988	-20.2434	-87.4167
57.0313	-19.5278	-82.2853
54.378	-31.3083	-80.6062
55.0774	-41.0555	-74.6975
58.3139	-38.8634	-70.6751
57.878	-61.5192	-64.6512
62.1013	-63.4056	-58.1223
58.7132	-71.6258	-63.7873
68.7322	47.7372	-46.9091
69.1641	41.7487	-54.4314
66.0194	52.7431	-52.6055
40.8874	94.3654	16.2444
41.51	98.3708	3.32531
66.5551	57.9158	-6.69655
64.8245	65.3516	-11.9175
66.5611	4.17531	-74.2119
63.6317	3.55932	-79.3772
66.3943	13.7375	-75.6514
69.3262	4.32524	-68.629
66.4138	-5.86595	-71.3771
65.5571	23.2749	-76.2998
62.4734	24.5223	-81.7777
64.7954	32.3476	-74.8029
68.5294	21.69	-70.2074
63.958	41.5358	-71.4205
60.5347	44.4399	-77.1028
63.3153	49.963	-65.9127
67.1001	38.2054	-65.4649
65.1582	-31.6757	-59.9482
63.0215	-34.3585	-63.4751
65.5411	-23.7781	-63.8876
67.3015	-29.0603	-56.1779
65.0229	-39.6864	-56.15
70.7276	-11.1361	-59.2207
70.09	-18.7183	-55.9235
68.5097	-13.1912	-63.3684
71.3354	-3.41762	-61.6073
65.4771	-65.56	-52.4682
65.1915	-56.3293	-52.5546
79.7387	-23.8365	-5.3598
79.5909	-20.0415	-3.26467
78.5928	-27.1388	-3.21637
79.1794	-18.2448	-1.77757
78.1113	7.82601	-2.56103
77.9763	13.0619	-4.6243
89.5065	20.0944	-38.3003
88.5499	25.8862	-35.8174
90.1672	19.8167	-37.5989
86.2683	-20.9502	-25.1984
85.4523	-23.9642	-21.8893
87.2077	30.4884	-32.2043
86.2194	30.6288	-32.6946
85.8458	33.4986	-27.9961
88.1756	29.9869	-31.6499
81.0006	24.6591	-11.2629
79.7165	24.4019	-11.93
84.7096	34.7003	-23.6474
85.7336	34.1605	-22.9164
88.6214	-3.52579	-35.2404
87.5328	-21.3832	-17.9195
86.8018	-21.3299	-15.2722
86.2375	-23.8146	-18.4441
77.9705	15.6469	-6.32994
81.5081	32.4151	-19.0507
80.0807	29.0775	-16.3993
80.6534	31.3738	-20.6524
78.4148	24.4424	-13.3725
77.5234	24.7049	-14.9732
85.5926	30.3687	-32.9096
76.8712	24.31	-16.4401
77.839	26.4506	-19.0993
79.1583	28.5748	-22.7077
77.4633	26.0788	-23.8598
89.1807	-12.0704	-28.1933
89.2789	-13.6021	-20.6366
84.9231	-25.3054	-18.9036
85.8122	-20.5488	-12.9968
86.4511	-17.4128	-12.9036
86.9908	-14.8765	-13.7363
87.2273	-13.2436	-14.6252
90.3922	19.5599	-37.1891
89.7497	25.1992	-34.792
84.4655	31.3175	-15.3872
84.7646	30.7251	-15.1204
85.4894	33.1391	-18.4932
84.8474	30.1216	-14.9867
85.8912	32.0228	-18.0256
84.8703	29.0237	-15.1579
88.6277	29.5205	-31.2948
87.4346	32.308	-27.0924
88.8216	29.0486	-31.1548
86.3986	33.5575	-22.4493
86.7168	33.01	-22.3375
86.8137	32.433	-22.0561
87.7411	31.3056	-26.712
88.8326	28.6717	-30.825
90.5843	15.1574	-36.1616
84.8541	27.6803	-15.717
83.5177	20.1009	-13.33
87.1238	27.693	-24.3027
90.4642	11.9686	-31.0825
90.1638	13.8512	-30.7472
89.7341	15.6981	-30.127
89.2303	17.152	-29.1912
88.6183	18.3058	-27.9123
87.4747	18.9955	-25.3363
84.452	-10.0308	-12.2993
86.0146	-11.4464	-13.9947
82.7314	13.2373	-10.449
81.7902	-2.18144	-10.1844
87.2191	-12.512	-15.0994
24.6232	32.0953	73.5913
15.7011	97.6261	43.6419
15.9452	104.396	32.8863
-10.4441	100.624	45.9738
-11.5103	108.354	34.538
-18.2794	99.6876	45.9136
15.8123	110.493	20.0223
15.8353	114.995	5.7523
-12.5587	114.959	21.1509
-20.3973	114.055	21.0112
1.41098	121.694	-10.5933
8.8526	120.044	-10.1751
15.9973	117.596	-10.014
16.4663	117.794	-26.2097
50.9837	62.8454	35.396
58.4552	74.2441	3.98027
60.9892	73.4696	-6.76729
42.146	100.458	-9.96334
42.7815	100.453	-22.8101
-12.9289	119.024	-47.5472
-11.9089	112.988	-64.9835
-20.7258	118.032	-47.714
16.7408	115.597	-42.4839
17.48	110.354	-59.0532
61.9633	72.5668	-17.6064
62.353	71.1344	-28.5353
42.3979	99.352	-35.6514
42.3353	96.0685	-48.3147
62.1928	68.3979	-39.3867
62.293	63.9972	-49.6736
62.6145	57.8987	-58.531
58.8709	62.3659	-64.5515
59.8117	-82.3559	-64.4397
61.0135	-92.3986	-65.7631
62.8146	-101.635	-66.7921
64.582	-110.093	-68.002
57.7317	-100.561	-71.449
-10.6112	104.08	-80.9203
-8.85488	92.7337	-94.3658
-18.0013	102.972	-81.3104
-6.69573	80.431	-104.033
-4.35473	67.4772	-111.049
-13.8125	79.2935	-104.345
-2.07683	54.6567	-115.943
0.074896	41.6505	-119.216
-9.28237	53.5759	-116.221
2.21506	27.8488	-121.113
-4.53456	26.6861	-121.439
18.9297	1.76216	-117.298
25.1501	1.89813	-114.931
10.4293	-25.2391	-109.835
12.5253	-37.23	-101.637
4.79028	-26.3483	-109.978
14.033	-45.8616	-95.5713
8.51137	-47.0386	-95.5158
19.821	-82.5614	-83.898
14.9419	-83.1752	-84.0077
21.1624	80.4424	-96.7343
19.5988	92.0155	-87.2512
22.9892	67.9072	-103.702
18.331	102.196	-74.6471
24.6771	55.2505	-108.62
26.4838	42.2065	-111.825
28.195	28.804	-113.55
29.9567	15.1847	-113.592
31.3856	2.14849	-111.936
32.5354	-10.6055	-108.406
33.5569	-23.0072	-102.852
34.6876	-34.3092	-96.2499
36.161	-43.7676	-90.266
37.5148	-52.7274	-85.3287
38.4088	-62.1485	-81.8786
39.4273	-71.9718	-79.9227
40.4391	-81.4272	-79.4053
52.9466	-100.076	-74.9777
54.7907	-108.736	-75.5976
42.619	90.5304	-60.8386
54.5451	66.7447	-70.1984
55.7221	57.1118	-77.2447
56.7151	47.2082	-82.4539
57.885	36.5195	-85.7123
58.9975	25.7634	-87.0485
59.9829	14.601	-86.4583
60.244	3.1572	-84.7119
60.238	-7.87411	-81.7264
60.2437	-18.0838	-77.6679
63.2845	-16.9369	-72.5905
60.5547	-28.0382	-72.2386
60.7662	-36.6203	-67.1634
65.2403	-47.994	-53.2309
67.002	-46.1454	-49.8665
69.5221	35.3796	-59.9561
70.2134	27.9659	-63.131
71.8981	31.9547	-53.9017
71.5299	4.64707	-63.6417
71.412	12.6645	-64.5327
65.9449	-15.1755	-68.0009
70.8171	20.6151	-64.6867
69.4423	-26.2303	-52.5236
69.0463	-33.6824	-49.2836
36.416	-102.043	41.2207
72.452	-62.0358	4.11667
66.9155	-81.3069	7.61212
20.7035	-46	92.287
23.8141	-46.0636	90.3506
27.0236	-46.9281	87.5873
18.2318	-56.9788	92.0644
18.758	-57.9603	92.1906
19.2024	-59.0121	92.2245
33.5632	-59.903	82.2629
32.6421	-58.209	82.724
31.736	-56.7575	83.1573
24.2823	-41.7785	89.9568
45.5799	-46.7197	77.3296
32.6911	-28.3701	83.5686
35.1556	-32.8288	83.439
37.0417	-37.3112	82.7818
64.562	-27.8955	59.4346
11.7311	24.9864	73.7432
74.0651	28.5762	-47.4566
76.4015	27.7538	-28.0791
77.3201	25.9441	-25.704
77.6191	-30.2618	0.138128
20.7524	14.2853	73.8922
39.2673	49.9441	64.3676
12.482	-29.4759	94.4425
37.8319	25.8384	68.1134
14.8245	-27.4722	92.768
77.2165	25.748	-24.6908
74.3027	-91.3143	-42.0845
72.0318	-55.0623	-37.551
70.0208	-48.5117	-42.7672
68.9889	-42.5724	-46.51
23.2816	-22.6502	85.4432
22.9689	-53.64	88.5186
33.0947	-50.7303	79.3066
15.6835	-51.8823	89.5941
-58.481	-56.4115	13.1811
-60.1729	-51.6621	14.5109
-59.9139	-54.9955	6.30816
-56.7079	-60.896	11.8597
-57.1673	-57.6574	21.1595
-35.2505	-123.733	-6.01464
-36.4197	-113.408	-5.32669
-37.5152	-122.811	-10.5186
-34.5147	-134.192	-7.38409
-32.4751	-124.361	-1.65727
-34.2138	-141.801	-8.80594
-31.5644	-143.267	-4.23531
-36.225	-140.277	-13.4406
-34.0611	-147.775	-10.1709
-31.2702	-106.875	5.07524
-34.7583	-106.38	-0.0387332
-30.0922	-114.472	3.89566
-27.6007	-107.769	9.79963
-32.8153	-101.156	6.27038
-41.3389	-105.523	-13.5901
-39.7197	-105.809	-9.14332
-42.408	-100.132	-13.2025
-42.5073	-104.404	-18.8162
-40.2192	-112.489	-14.1366
-48.2973	-75.9809	23.249
-49.4049	-74.5331	15.7016
-45.7113	-79.7376	21.1662
-46.7387	-77.7698	30.8392
-50.4782	-72.237	25.1438
-72.0911	20.9325	26.439
-75.9056	18.6497	14.343
-70.1679	13.7688	29.8692
-67.9933	24.5276	37.4117
-74.6823	28.3668	21.4321
-82.4566	28.9411	-28.1224
-82.0597	21.6078	-23.1321
-82.7501	30.7636	-17.368
-82.3888	36.0154	-33.4093
-81.7238	25.9231	-37.8841
14.5485	-113.515	38.407
13.7516	-109.549	40.6911
10.8897	-113.862	37.4563
14.6565	-120.67	36.687
17.3178	-113.079	38.9589
14.9784	-131.835	33.5246
15.5991	-142.959	29.9565
18.2457	-131.507	34.5166
11.2623	-131.512	32.2012
23.534	-149.939	29.0338
23.9313	-154.973	27.5614
22.6687	-142.452	31.3617
19.8629	-150.22	28.5552
-54.8141	-63.1918	-31.4749
-57.0274	-55.8821	-35.699
-51.2804	-68.7871	-33.8059
-53.0986	-69.3027	-26.2148
-58.278	-57.5705	-29.2028
-58.931	-50.7199	-38.7726
-62.6903	-46.6414	-35.6134
-60.6903	-46.2463	-41.2589
-54.4691	-55.8638	-42.1428
-38.3548	-133.508	-29.6891
-38.3193	-136.675	-23.2832
-37.392	-130.464	-36.4697
-37.3463	-140.099	-32.0985
21.3119	-131.324	35.0279
20.222	-120.203	38.0483
-55.5822	-59.5765	29.4855
-53.7627	-64.7173	28.4545
-54.1633	-60.3659	37.1006
-57.5111	-53.6639	30.0262
-50.6608	-72.9858	8.10987
-52.8516	-69.0475	9.36519
-51.5552	-72.3745	0.274971
-48.3957	-76.7307	6.5385
7.52194	-94.0841	86.5579
6.64244	-89.3175	88.0787
3.41231	-94.2193	84.2026
8.23004	-98.1743	84.1082
11.1298	-93.9874	88.0344
-1.24838	-93.7903	81.1734
-2.36771	-88.9067	82.6653
-6.17073	-93.037	77.3847
-0.144679	-98.1541	78.8698
12.2865	-83.9339	90.8221
13.0871	-88.9426	90.3179
11.4381	-79.2233	90.6652
9.20517	-84.1941	90.0449
8.52407	-101.007	81.1341
11.9848	-100.694	82.6529
4.60456	-101.247	78.8638
8.25278	-103.142	77.0418
7.63344	-104.486	71.9871
7.52199	-105.001	66.1437
11.5477	-104.401	72.9156
-13.1902	-1.73549	82.5437
-11.5491	1.22391	84.2159
-13.0589	2.18164	80.45
-15.0866	-3.94494	80.8726
-13.3482	-5.73348	84.524
-42.6346	-30.7887	73.981
-42.7166	-35.7609	73.4236
-36.6382	-29.5744	77.6678
-42.4489	-25.9797	74.1409
-48.2254	-31.9799	68.9873
-53.6647	-22.2763	63.5602
-53.6864	-27.6411	63.0499
-48.2561	-21.5352	69.3938
-53.1826	-16.9652	64.1361
-58.4048	-22.9525	56.2267
-63.9938	-7.12653	44.8548
-61.9715	-4.85285	49.1852
-63.8517	0.301356	44.5471
-65.63	-8.48288	39.9249
-42.2696	-41.0289	72.4964
-36.5795	-39.5183	76.8942
-47.3318	-42.886	66.8138
-41.203	-46.7366	71.5823
-2.11422	3.19865	100.178
-3.61075	2.42493	99.4807
-1.50383	-1.43776	104.011
-3.00589	8.35849	95.6349
-41.0498	63.3582	65.8914
-43.1222	68.7608	61.9244
-45.6608	61.1859	63.4544
-38.6898	57.2735	70.2436
-36.6079	64.8321	67.7543
15.526	-105.008	60.3963
15.0424	-104.755	67.5838
12.1046	-105.253	59.8738
16.4648	-105.177	52.9387
-52.4505	-60.4533	44.3529
-54.6473	-53.822	44.794
-49.9476	-67.1355	43.8647
-50.3613	-59.5657	51.3216
14.9753	-100.45	83.3965
14.9768	-102.778	78.8595
14.7617	-97.6572	86.4291
14.9505	-104.138	73.5191
-21.6879	-94.9394	58.5413
-22.5961	-91.7092	61.7672
-27.6441	-92.0889	54.7743
-20.3691	-97.3005	55.7257
-15.6732	-97.0061	63.0625
-25.3752	-97.5361	36.3275
-20.5589	-99.773	40.5665
-28.5701	-95.2363	40.5498
-29.7276	-94.9864	31.664
-22.0943	-100.083	31.6614
17.8518	-105.991	45.7357
19.3137	-108.404	41.3628
15.1133	-106.514	45.2012
-5.0349	-7.84827	104.907
-2.97939	-6.61726	106.779
-5.16722	-3.61089	101.514
-7.20041	-9.58486	101.785
-5.02481	-11.1789	107.609
-19.1061	-24.6038	83.2978
-16.0297	-21.1923	84.8049
-18.2696	-19.5324	83.2486
-23.2542	-26.8517	82.0725
-18.0901	-59.9558	78.1477
-16.0983	-59.8288	78.3833
-16.8938	-58.9543	78.3983
-5.88989	-28.6549	93.5136
-7.39264	-28.8734	91.7501
-5.18339	-29.5974	92.9294
-7.32808	-27.3338	93.8341
-4.90275	-32.852	91.0684
-3.28557	-32.3364	92.5625
-4.90951	-31.8783	91.3452
-7.02257	-33.0379	89.327
-5.16098	-34.3171	90.7626
3.60275	-28.7557	100.828
1.95905	-28.8133	100.005
3.73615	-29.8391	99.2272
3.32905	-27.6696	103.012
-9.42368	-32.3863	87.7475
-9.73749	-33.9461	87.5364
-9.154	-31.2863	88.1918
-11.7503	-30.9585	86.5076
-3.79469	-19.7856	110.248
-4.26199	-18.1349	110.787
-6.02804	-20.219	106.095
-3.15771	-21.6795	108.967
-1.38412	-19.6463	112.834
-11.8708	-73.1548	79.9714
-12.2927	-77.1911	78.747
-7.85189	-74.4893	82.5538
-11.1649	-69.6903	81.0947
-15.4127	-71.2601	78.0008
-17.3503	-53.6391	81.8318
-19.4269	-54.6485	80.5667
