1878
53.0805	67.4943	-85.0679
47.1585	58.5996	-96.1624
41.6108	73.227	-93.189
47.9369	81.4869	-80.1198
48.3047	90.9918	-68.0521
42.544	94.5832	-71.334
48.9899	98.0369	-53.8604
53.9396	86.6055	-64.4345
49.7547	102.323	-39.0625
55.6548	96.6859	-37.2549
43.8184	106.981	-40.7105
50.6441	103.858	-24.1363
50.5117	103.807	-9.09752
44.2603	108.845	-9.03111
56.5218	98.0038	-9.133
46.5072	46.4451	-101.103
45.8208	33.8276	-104.378
40.5461	48.3263	-105.054
52.0256	44.2448	-96.7747
44.8508	21.0499	-106.22
50.2841	19.6233	-101.862
43.8874	8.11315	-106.339
39.1243	22.1619	-110.065
42.6262	-4.41025	-104.892
41.3832	-17.3101	-101.368
37.2877	-4.07589	-108.544
47.5593	-5.153	-100.691
40.7008	-29.9433	-95.5165
45.5692	-29.6846	-91.6829
40.2707	-40.9619	-89.1303
35.242	-29.3128	-99.4363
39.8158	-50.5667	-83.4475
39.2316	-60.1748	-78.5209
34.4209	-50.3381	-87.1498
44.6202	-50.7919	-79.1812
37.1576	-88.9581	-73.4778
36.1414	-98.9307	-74.3507
31.8653	-88.4709	-76.8819
38.1414	-79.3029	-73.4423
42.0005	-90.0037	-69.452
25.3928	-106.341	-79.8672
25.5301	-115.206	-80.0377
20.1681	-105.615	-81.2919
25.7397	-97.2443	-79.6687
30.7062	-107.293	-77.7749
38.698	-69.8548	-75.0899
43.6325	-70.2559	-70.5651
33.5614	-69.1613	-78.8329
68.4476	70.2841	-50.9514
69.7142	74.2298	-39.3624
72.7043	63.5429	-45.0977
67.5195	64.1188	-61.5073
63.9343	76.2199	-56.2097
70.714	76.4651	-27.8613
74.8636	68.6846	-22.647
66.1157	83.7542	-32.0335
71.3544	77.4221	-16.4839
70.7665	78.1874	-5.49608
74.0467	70.807	-0.623693
66.7196	85.1015	-7.85815
56.9063	42.0135	-92.2263
57.5995	53.2563	-87.2404
61.3652	39.3761	-87.3799
56.1825	30.1331	-95.4885
57.9645	64.2433	-80.5643
58.4201	73.796	-71.8187
62.5802	60.3626	-75.6154
52.4597	-5.84394	-95.7281
54.1653	6.15934	-97.0624
57.1791	-6.66021	-90.191
50.8297	-17.9129	-92.6254
55.2514	18.0041	-97.1284
59.8666	16.6461	-92.0194
49.9411	-29.2089	-87.5574
54.2414	-29.1684	-82.4624
49.625	-40.3724	-80.7989
48.9179	-50.1558	-74.937
52.779	-48.5282	-70.9429
48.6066	-70.9654	-64.9282
52.9183	-73.5663	-58.4282
47.6603	-81.1522	-63.9916
79.098	35.2386	-46.7798
78.1234	29.2452	-54.3592
76.8337	40.6313	-52.4371
60.8968	86.5134	17.6352
61.407	90.1676	4.42691
81.4924	45.6415	-6.14644
80.2501	53.2831	-11.2996
68.229	-7.38959	-74.3484
64.9277	-7.5023	-79.4963
69.5955	2.06479	-75.7264
71.3215	-7.70479	-68.7916
66.5393	-17.262	-71.5842
70.3252	11.6145	-76.3296
67.1926	13.3657	-81.7956
71.1498	20.6968	-74.7939
73.3377	9.55238	-70.2593
71.9977	29.9061	-71.3615
68.8031	33.3494	-77.0366
72.9999	38.3339	-65.7939
74.8822	26.0917	-65.4256
61.5257	-42.543	-60.3628
58.6997	-44.8497	-63.843
63.0398	-34.7944	-64.2354
64.3729	-40.3022	-56.6313
60.2246	-50.4599	-56.6128
70.681	-23.1738	-59.5377
68.9677	-30.5427	-56.3174
67.8565	-24.8325	-63.6733
72.4423	-15.6703	-61.8564
56.2731	-76.2881	-52.8054
57.6662	-67.0352	-52.968
81.1659	-37.0767	-6.38915
81.7827	-33.3797	-4.28332
79.5489	-40.0846	-4.31537
81.7762	-31.5802	-2.79339
85.472	-5.91161	-3.21223
86.0739	-0.685343	-5.12481
95.6651	4.41518	-38.5097
95.8178	10.2909	-35.968
96.3281	4.02313	-37.7957
86.6816	-35.4014	-25.9031
85.629	-38.216	-22.6485
95.4971	15.0583	-32.2952
94.4978	15.3677	-32.7959
94.9615	18.2523	-28.0361
96.4146	14.3886	-31.7391
90.3812	10.3195	-11.5098
89.0109	10.3033	-12.1703
94.3846	19.6029	-23.6656
95.3509	18.8902	-22.935
91.1823	-18.6912	-35.7126
88.3881	-36.0064	-18.6531
87.8774	-35.8187	-16.057
86.6908	-38.1794	-19.1945
86.3508	1.88195	-6.75897
91.4021	17.9275	-19.2317
89.7159	14.8751	-16.6049
90.2589	17.0447	-20.8469
87.6039	10.5723	-13.609
86.6291	11.0034	-15.2025
93.8192	15.1974	-33.03
85.8131	10.6994	-16.6688
86.8766	12.6523	-19.2967
88.1966	14.5238	-22.868
86.0536	12.3661	-23.9958
90.8433	-27.1682	-28.7575
91.1924	-28.6735	-21.2601
85.1246	-39.4072	-19.7069
87.2048	-34.8844	-13.8329
88.3573	-31.9347	-13.7166
89.2426	-29.5426	-14.5073
89.6794	-27.9827	-15.3512
96.5401	3.73233	-37.3826
96.9756	9.39297	-34.9298
94.3459	16.262	-15.4953
94.5416	15.6286	-15.2207
95.3195	17.8922	-18.5324
94.5412	15.0211	-15.1069
95.5826	16.7279	-18.1132
94.3906	13.9436	-15.327
96.8153	13.8393	-31.3828
96.4039	16.7821	-27.1438
96.9384	13.3382	-31.262
95.9448	18.1757	-22.4741
96.1837	17.572	-22.3806
96.2162	16.9929	-22.1485
96.5778	15.7394	-26.8255
96.9154	12.9669	-30.9653
96.0883	-0.621771	-36.4701
94.1263	12.6283	-15.9255
91.828	5.37234	-13.6618
95.6007	12.2801	-24.4548
95.7961	-3.74782	-31.3795
95.8365	-1.8451	-31.0316
95.7667	0.0445664	-30.3995
95.5866	1.55965	-29.4574
95.2801	2.79628	-28.174
94.4869	3.66348	-25.5996
87.7161	-24.3765	-13.0367
88.8646	-26.021	-14.727
90.1665	-1.27972	-10.8663
86.6438	-16.2711	-10.8267
89.765	-27.2663	-15.8196
33.9118	26.4238	74.8456
35.5979	94.5857	45.8082
36.4841	100.902	34.6604
8.29402	101.874	48.1027
8.28953	109.441	36.1844
-0.133629	102.261	48.0157
36.8758	106.708	21.386
37.1957	110.995	6.75882
8.15369	115.942	22.3365
-0.0737473	116.39	22.1629
23.2125	119.906	-9.97838
30.5297	117.009	-9.5044
37.4441	113.374	-9.28781
37.6536	113.387	-25.6922
69.5944	54.2898	36.8178
76.1473	63.3105	4.92636
77.7935	61.9875	-5.96027
61.7784	91.9611	-9.0754
61.9138	91.7641	-22.1121
8.06135	119.576	-47.2913
7.98851	113.421	-64.802
0.0927087	119.943	-47.4692
37.3251	111.111	-42.1123
36.9803	105.773	-58.7883
77.9193	60.9118	-16.9618
77.36	59.427	-28.0494
60.9094	90.7043	-35.1192
59.9302	87.4443	-47.9127
76.1687	56.7472	-39.0139
75.0208	52.3739	-49.4007
73.9378	46.2918	-58.3403
70.6245	51.3309	-64.3586
46.7358	-91.9817	-64.5439
45.9803	-102.124	-65.7837
45.9567	-111.559	-66.7441
45.9997	-120.216	-67.9023
40.8418	-109.573	-71.411
7.69224	104.398	-80.7992
7.42455	92.8959	-94.2978
0.152433	104.585	-81.1956
7.39234	80.3871	-104.004
7.42617	67.2098	-111.045
0.161669	80.5	-104.317
7.44585	54.1869	-115.943
7.30634	41.0048	-119.216
0.16199	54.3737	-116.221
7.0173	27.0411	-121.113
0.168327	27.0681	-121.439
18.9521	-1.55452	-117.308
25.11	-2.50428	-114.953
5.8922	-26.7023	-109.866
5.87483	-38.9549	-101.719
0.124988	-26.818	-110.01
5.85984	-47.8036	-95.6991
0.0833108	-48.0193	-95.6485
5.14553	-85.2466	-83.969
0.041855	-85.033	-84.0809
35.0538	75.5953	-96.6742
35.6243	87.2856	-87.1372
34.59	62.9158	-103.683
36.262	97.5588	-74.4662
33.98	50.1445	-108.627
33.4222	36.9693	-111.865
32.7739	23.4674	-113.588
32.143	9.74224	-113.633
31.2962	-3.35666	-111.99
30.3299	-16.1218	-108.445
29.3326	-28.5456	-102.921
28.6611	-39.9288	-96.3622
28.6441	-49.5718	-90.4276
28.567	-58.7062	-85.5205
27.8908	-68.2186	-82.0704
27.2072	-78.1383	-80.0824
26.5256	-87.6645	-79.5035
35.9404	-108.249	-74.9494
36.116	-117.129	-75.5073
58.9702	81.9077	-60.5407
66.7744	56.383	-70.012
66.0937	46.6727	-77.1285
65.2281	36.7282	-82.3906
64.4642	25.9815	-85.6919
63.697	15.18	-87.0648
62.8119	4.0035	-86.5132
61.2123	-7.32429	-84.8193
59.4732	-18.2028	-81.8858
57.9427	-28.2857	-77.8765
61.4552	-27.6624	-72.8338
56.829	-38.18	-72.5002
55.8308	-46.7154	-67.4751
59.163	-58.7453	-53.6905
61.4995	-57.1868	-50.3632
77.1356	22.8972	-59.9376
76.4355	15.4658	-63.1671
79.3046	19.1202	-53.9187
73.8639	-7.75604	-63.8248
75.0304	0.166776	-64.6553
64.6786	-26.3666	-68.2768
75.7424	8.10994	-64.7622
67.2519	-37.848	-52.9991
65.7855	-45.1486	-49.8176
20.2228	-111.948	45.8799
68.1326	-73.6336	2.57155
58.9211	-93.5678	6.64681
14.0641	-48.8964	98.5291
16.2134	-49.2929	96.8172
17.1164	-49.7951	95.5584
8.86649	-54.7568	97.7325
9.3377	-55.6643	97.7728
9.7074	-56.7573	97.7195
23.1215	-60.315	90.0575
20.6697	-57.1783	91.6862
19.0437	-55.3729	92.1969
18.4872	-44.5748	96.1633
41.7108	-52.7403	81.6346
32.185	-32.7996	85.5686
33.8385	-37.2026	86.4191
33.862	-41.2469	87.0867
66.6278	-38.1702	59.7449
19.7461	22.2998	72.7458
81.3267	15.426	-47.5155
84.9318	14.2165	-28.2802
85.751	12.2779	-25.9795
78.1867	-42.9336	-1.06384
26.5983	10.662	71.9796
51.8761	42.1972	68.5156
8.79245	-31.6434	96.055
46.9795	19.3469	67.9829
12.0108	-30.6234	91.5663
85.697	12.0847	-24.8987
60.861	-103.48	-42.142
65.8342	-66.8342	-38.0966
64.6224	-60.0057	-43.3087
64.3605	-53.9472	-47.05
21.5464	-26.4823	85.714
13.8502	-53.1892	94.5779
18.5856	-51.8834	89.0781
8.6277	-50.903	96.2023
-76.1872	-47.1208	10.7867
-76.9759	-42.2908	12.1118
-77.2529	-45.5022	3.9726
-75.3292	-51.7701	9.28667
-75.0133	-48.3293	18.3459
-62.3115	-117.569	-5.90333
-62.4381	-107.298	-5.48364
-64.2363	-116.129	-10.5105
-62.5416	-127.818	-7.10269
-59.8048	-118.841	-1.39083
-62.9222	-135.218	-8.45881
-60.5475	-137.212	-3.75467
-64.608	-133.277	-13.1992
-63.2811	-141.053	-9.8014
-57.1159	-102.289	4.97236
-60.3072	-100.95	-0.339661
-56.7095	-109.87	4.12323
-53.7205	-104.058	9.9963
-58.0422	-96.5912	5.75622
-65.8487	-98.423	-14.1062
-64.5995	-99.1305	-9.64443
-66.2578	-92.941	-13.9407
-66.4807	-96.9944	-19.3328
-65.5488	-105.44	-14.4235
-69.491	-68.1359	20.1791
-70.8715	-66.2417	12.9675
-67.9417	-72.1949	18.1494
-67.3025	-70.3862	27.9051
-70.6939	-64.0285	22.1098
-76.7613	32.1416	24.5094
-80.0144	30.6178	12.5396
-76.6614	24.6663	27.3601
-72.512	34.9926	35.5097
-77.1474	40.0039	20.0912
-80.6074	42.2494	-28.6286
-82.1409	34.8336	-23.8504
-81.2786	44.0139	-17.9602
-78.6491	49.3278	-33.7534
-79.8093	39.2169	-38.35
-8.83774	-121.312	45.1232
-9.21642	-116.673	47.3858
-12.7912	-120.651	43.7212
-9.4338	-126.894	42.6824
-5.76332	-121.574	45.9649
-10.5318	-136.526	38.1199
-11.4036	-146.539	33.4998
-6.8476	-136.854	39.2676
-14.6164	-135.511	36.6223
-3.96623	-154.332	32.1124
-4.34429	-159.073	30.1774
-3.68942	-147.341	35.0981
-7.90998	-153.952	31.5658
-71.0608	-53.9944	-32.736
-71.5744	-46.3198	-36.9409
-68.3398	-60.1182	-34.9462
-70.9092	-60.4011	-27.5117
-73.6927	-47.8635	-30.5655
-72.2345	-40.8251	-39.984
-75.4749	-36.1675	-36.9033
-72.9458	-36.0511	-42.4185
-68.4644	-46.6608	-43.2481
-65.2152	-126.053	-29.6512
-65.8776	-129.223	-23.1756
-63.4994	-123.177	-36.4881
-64.8289	-132.678	-32.0385
-3.39416	-137.228	39.8643
-2.93613	-127.529	44.3259
-73.4614	-49.6233	26.4483
-72.6032	-54.7643	25.3866
-71.7673	-50.339	34.374
-74.2784	-44.2229	27.3226
-71.763	-64.6135	5.71587
-73.1626	-60.364	6.87546
-72.1376	-63.9278	-1.83705
-70.1673	-68.8476	4.24202
-9.64025	-85.9992	86.1647
-9.8934	-81.3567	87.6159
-14.2396	-85.8659	83.9324
-9.65581	-90.6614	83.7796
-5.57418	-86.3611	87.4348
-19.3394	-85.1804	81.0433
-19.6478	-80.9062	82.5835
-24.3756	-84.4534	77.5494
-19.0635	-89.5885	78.9327
-2.95498	-77.6148	90.2331
-2.62154	-81.6191	89.4934
-3.03149	-74.0814	90.8157
-6.4038	-77.4083	89.656
-9.65745	-94.3993	80.8426
-5.76348	-94.8019	81.9742
-14.2337	-93.9158	78.8925
-10.1718	-97.5349	76.8031
-11.1762	-100.17	71.8303
-11.638	-102.586	66.5166
-6.87403	-100.802	72.5535
-16.0814	-0.294466	81.5415
-13.6507	2.41521	83.1802
-15.7322	3.74306	78.8819
-18.6338	-2.19372	79.9202
-16.4866	-4.53146	84.0047
-54.1447	-25.6127	74.5538
-55.5569	-30.9915	74.353
-46.7533	-25.2142	78.7861
-52.6776	-20.2111	74.4559
-60.4852	-26.029	69.0792
-63.8539	-14.6899	63.1517
-65.1559	-20.3907	62.6176
-57.8076	-14.8058	69.355
-62.2387	-9.43719	63.5255
-69.1576	-15.016	55.6609
-73.5001	2.73836	42.6447
-70.7227	4.27642	47.2837
-72.6148	10.2558	42.073
-75.5654	1.9116	37.487
-56.4197	-36.0419	73.7181
-49.7415	-35.5396	78.8104
-61.9527	-37.0528	67.4544
-56.7332	-41.2278	73.0756
-2.26629	1.72077	98.9533
-4.06409	1.22347	98.2755
-2.31126	-3.26458	102.687
-2.30864	7.47735	94.6237
-31.4934	70.2973	69.166
-32.8482	76.0991	64.835
-37.285	68.8108	66.4457
-29.8954	63.637	73.745
-26.1478	71.1229	71.1825
-3.56921	-106.388	62.1547
-3.47216	-103.651	67.6142
-7.31989	-106.117	61.5736
-3.46623	-109.5	56.7561
-69.8245	-50.675	42.2618
-70.9399	-44.5172	42.9861
-68.4111	-57.0161	41.3873
-67.5546	-50.37	50.0756
-2.43742	-95.2872	82.3457
-2.83716	-98.5287	77.9661
-2.22074	-91.716	85.3853
-3.24307	-101.186	72.8944
-40.74	-87.5748	58.4665
-40.6333	-83.9802	62.1153
-46.157	-85.3395	54.1105
-40.3439	-90.5407	55.5619
-35.5091	-88.4468	63.7411
-48.1966	-94.1716	34.9455
-42.8802	-96.9025	40.111
-50.4468	-90.6549	38.3149
-52.8783	-91.1428	29.6843
-45.8912	-97.9314	31.3804
-3.09485	-113.103	51.9094
-2.98317	-117.121	48.5566
-6.33215	-112.996	51.3736
-6.79057	-8.80114	103.425
-4.44683	-8.06686	105.171
-6.46513	-4.60941	100.36
-9.46492	-10.093	100.579
-7.25108	-12.2023	105.893
-25.2268	-22.923	84.6863
-21.7415	-21.2925	85.7875
-23.657	-18.7744	84.1662
-30.7511	-24.0196	83.5456
-24.4872	-53.8229	91.4482
-20.7506	-53.475	92.2115
-21.2008	-52.7106	92.3034
-12.2208	-29.6968	93.379
-13.9794	-29.7123	91.6757
-11.676	-30.5944	93.1499
-13.6295	-28.2573	93.5079
-12.079	-32.1249	92.995
-10.5426	-32.0898	94.9348
-11.8903	-31.6316	92.6332
-14.0535	-31.7786	90.8657
-12.8946	-33.3416	94.1108
-1.78101	-31.6199	101.236
-3.79833	-31.1966	100.314
-1.98173	-32.3735	100.874
-1.63839	-30.4147	102.342
-16.7803	-30.8866	89.5925
-17.9267	-32.0982	90.2588
-16.4058	-30.5325	89.5891
-19.2941	-29.4408	88.2089
-7.78666	-20.8844	108.296
-7.91854	-19.2316	108.788
-10.5455	-20.9258	104.602
-7.51118	-22.8801	107.114
-4.98226	-21.2976	110.58
-26.4061	-70.2262	84.2588
-26.887	-74.6538	80.9475
-23.1684	-70.9285	85.5172
-25.2035	-65.0286	88.2729
-29.5959	-68.8701	83.3124
-24.6457	-48.1625	92.628
-27.097	-49.0891	91.3713
-23.0202	-47.6325	93.6179
-26.4429	-43.8281	92.3014
-2.15041	-35.9455	101.67
-2.00353	-34.3492	101.139
-4.23055	-35.4818	101.272
-2.22492	-37.672	102.244
-6.30096	0.140645	96.8487
-6.41345	5.09001	92.9338
-8.89935	-1.73063	94.6288
-18.196	-21.8854	90.4845
-18.6702	-21.559	89.2602
-18.4443	-23.5067	89.6328
-17.611	-21.2301	92.1425
-17.4255	-20.2088	92.1921
-5.61016	-32.0135	99.0076
-3.89637	-32.415	100.09
-5.84804	-31.2281	98.7297
-7.43551	-31.8875	97.8316
-5.38565	-33.7046	100.011
-5.54079	-30.805	99.0569
-5.2674	-29.9612	100.026
-16.8204	-20.2653	94.0575
-17.2243	-21.9738	93.137
-16.5575	-19.3456	94.3096
-18.4166	-25.7792	89.0926
-17.9148	-28.4123	88.8723
-17.6762	-24.8031	90.7167
-2.47059	-44.2926	103.186
-2.3607	-41.8064	103.019
-5.20873	-43.9147	103.021
-2.68454	-46.5516	103.201
-25.2867	-33.0316	88.6924
-23.019	-30.0274	87.5635
-28.2966	-32.9338	87.753
-26.924	-36.3102	89.9697
-22.4967	-33.4337	89.8968
-10.3332	-65.7893	93.4144
-14.8821	-64.1562	93.0419
-10.5198	-68.3776	91.7416
-5.9583	-66.5341	93.54
-10.0898	-63.6557	94.9398
-18.2192	-51.1921	94.0434
-19.3839	-49.9335	94.5178
-18.9676	-52.2101	92.4711
-17.982	-51.5921	93.6261
-16.3201	-18.6901	94.1936
-14.8986	-17.4819	96.5243
-16.3952	-17.9071	92.9375
-18.5917	-62.7925	92.282
-17.4342	-59.9523	94.01
-20.9739	-61.5312	91.802
-19.432	-66.6985	89.7856
-2.42698	-66.4523	93.6896
-2.28795	-64.688	94.8937
-2.60247	-68.492	92.5563
-62.69	28.6434	57.2713
-63.8017	29.9196	55.3847
-64.9594	22.9334	52.9644
-61.2672	27.7297	59.1428
-41.6732	55.0713	70.0817
-42.6483	60.9258	66.4477
-48.2866	52.4562	65.5895
-40.9874	49.8096	73.1427
-35.5825	56.7793	74.0366
-55.2409	49.1637	60.0094
-56.4094	54.7339	55.8442
-61.7395	44.9759	53.2681
-54.0828	44.5047	63.8176
-41.2106	41.5517	75.8395
-40.9517	44.1523	75.3758
-41.4489	38.7981	76.0062
-36.2118	43.0226	79.4711
-65.4667	31.2571	52.2526
-68.995	24.8773	46.2558
-59.7582	37.0752	60.1385
-66.6014	34.1676	49.1382
-23.0328	33.4689	78.5978
-19.2762	32.829	78.881
-22.7837	35.0438	79.3614
-27.068	33.4587	78.2344
-23.391	31.3864	77.4392
-6.95673	16.0074	84.9573
-6.72448	13.3457	86.6606
-4.46223	17.7977	86.5497
-7.13863	18.1417	83.8366
-9.35081	13.4319	82.682
-30.4807	-6.30264	76.7368
-24.3254	-5.35146	78.1507
-28.6961	-2.8452	75.5877
-38.3159	-6.18364	75.0044
-32.5186	-10.4903	78.1389
-60.6099	7.59677	57.2047
-58.2142	4.44009	60.4397
-57.2615	9.16077	59.2615
-61.4813	11.7884	55.674
-63.6899	6.16043	55.0649
-6.5018	9.69476	89.3957
-4.17159	11.5313	90.5085
-8.92036	7.27731	87.6562
-41.6361	36.4385	75.9476
-41.384	34.3777	75.7894
-36.7401	38.044	78.8963
-46.8874	35.5975	73.0526
-52.1343	34.1208	69.4485
-56.6258	30.6769	65.2041
-51.355	32.0255	69.9452
-56.228	16.1392	59.9781
-58.6154	16.2561	58.2121
-55.7416	13.0194	59.7888
-53.7232	16.1274	61.6894
-56.4774	19.9512	61.2279
-42.8939	20.4858	69.3262
-41.0449	21.5017	70.6042
-44.4585	19.248	67.9264
-39.107	22.5082	71.5884
-36.8932	23.0761	72.0947
-39.2676	23.3352	72.0758
-41.3855	22.2693	71.0177
-36.6908	23.8884	72.5975
-33.9891	23.4324	72.4413
-31.047	23.2433	72.4766
-33.6499	24.1921	72.8862
-30.4802	23.9219	72.8459
-28.5079	22.4634	72.169
-26.1656	21.1792	71.6368
-23.8141	19.4851	70.885
-22.1313	17.7404	70.1668
-22.8041	20.0348	71.1283
-25.1352	21.6808	71.8454
-21.1516	18.3076	70.4955
-21.0461	16.3339	69.6551
-21.5251	20.7372	71.5858
-23.9461	22.5596	72.3198
-33.1696	25.1265	73.4846
-29.7938	24.8345	73.3888
-47.968	15.0444	64.7053
-46.9227	14.1358	65.2424
-31.4038	33.112	77.9407
-31.5068	31.2615	76.9768
-31.5841	35.092	78.7684
-36.3248	32.6734	77.1847
-47.577	25.7551	70.4246
-45.8513	23.8788	70.3993
-44.2161	27.0898	72.5915
-49.1939	27.8938	70.3682
-37.7529	6.97262	70.9433
-30.9374	6.70046	72.2543
-43.2999	8.06935	68.7209
-38.4987	5.40576	71.0737
-25.7664	7.51662	72.3207
-25.8952	5.82614	72.8273
-22.2014	8.66802	72.0478
-18.7286	11.7882	71.2242
-19.5027	10.742	71.5354
-18.3096	12.62	70.9847
-36.6939	9.96796	70.6581
-30.8388	9.74567	71.6797
-41.5804	11.0376	68.8984
-21.6854	11.8708	70.3016
-20.9238	12.3613	70.0081
-23.1936	11.1604	70.7782
-20.3054	12.7591	69.9105
-19.7975	13.2645	69.8837
-15.0945	22.2594	74.8827
-14.0223	24.9413	76.7646
-16.4875	24.2451	74.9661
-16.407	19.0953	72.6841
-18.0203	14.0272	70.8589
-26.7224	23.9359	72.9558
-17.3174	17.8269	71.6486
-18.4651	19.6932	71.8328
-16.7803	16.1382	71.6737
-36.5371	11.1554	70.5345
-30.8028	10.8083	71.4786
-21.9272	12.6281	69.7054
-23.3104	12.1796	70.1951
-21.1622	12.8747	69.5409
-20.7397	13.1866	69.3878
-45.5527	18.141	66.7038
-3.43215	31.8488	83.7013
-3.69692	34.7826	83.7528
-5.97818	31.6792	83.0853
-3.16049	29.3633	83.8359
-19.4249	3.09482	75.7082
-22.5116	1.60772	75.1388
-20.1114	0.23723	77.1063
-17.4159	4.61907	76.2865
-19.1653	5.19259	74.6483
-15.4717	6.40734	77.1734
-13.5785	8.63604	78.3771
-16.1531	11.3676	73.3766
-16.4825	12.9255	72.4061
-14.5007	12.3071	74.8421
-11.0845	21.4974	78.3535
-10.2536	22.7489	79.4938
-11.9791	23.9853	78.0453
-20.4357	9.70821	71.8168
-19.7968	8.48681	72.6779
-19.2595	6.92565	73.6398
-21.8471	5.45487	73.494
-15.4436	-51.8763	92.6052
-13.7462	-51.1786	94.2151
-16.8551	-52.4897	91.0019
-15.528	-51.8319	91.9923
-17.5346	-52.8855	90.5546
-17.4451	-52.6842	90.1491
-3.20453	-49.4129	102.433
-3.19438	-50.1351	101.904
-3.04553	-48.5059	102.877
-6.3732	-49.2656	102.109
-9.21645	-50.4628	100.205
-11.4571	-50.4121	99.3985
-9.17307	-50.7247	99.5975
-6.62037	-50.4073	101.015
-9.02255	-50.0945	100.762
-13.2636	-50.5379	98.476
-14.7249	-50.8939	97.2988
-13.0894	-50.7869	97.9814
-13.3673	-50.1422	98.9103
-8.81532	-49.3589	101.403
-8.7139	-48.3524	101.959
-11.3433	-49.3459	100.454
-13.0509	-47.7641	100.24
-13.4748	-48.7244	99.7516
-10.5746	-47.5199	101.527
-12.8753	-46.4431	100.485
-15.6445	-51.3316	95.6441
-15.9921	-51.074	96.3234
-8.58691	-50.9695	98.6592
-10.8799	-50.8937	97.9848
-7.92856	-51.0775	97.7197
-5.997	-51.0689	99.3235
-12.935	-50.9911	97.1391
-12.5974	-51.0317	96.2601
-18.4302	-52.333	92.1823
-18.6534	-52.8411	91.6509
-15.8492	-53.5573	92.6931
-15.9754	-53.5756	92.9139
-14.4928	-53.1849	94.1996
-15.7315	-53.569	92.4363
-16.4269	-53.7956	93.4969
-15.1756	-53.2207	95.2887
-16.267	-53.7031	93.3599
-13.8366	-53.4799	96.4129
-14.1581	-53.7187	96.4529
-11.6864	-53.929	97.4251
-13.6654	-53.367	96.3086
-7.32725	-53.7179	98.1644
-4.06466	-54.1098	98.583
-7.21263	-53.6514	98.0665
-11.1243	-53.6207	97.2216
-7.56222	-53.8125	98.2061
-1.87719	-55.7981	98.9705
-1.76818	-55.1394	98.8804
-4.39371	-55.4745	98.8263
-1.97737	-56.4912	98.9607
-17.6737	-53.9131	89.7102
-17.4533	-53.5082	90.3429
-16.7889	-54.2541	90.0577
-18.7335	-55.2949	88.3727
-1.5893	-55.8653	94.4114
-1.52939	-55.1393	95.8955
-1.69251	-56.9979	92.8279
-4.0378	-55.7832	94.1993
-2.06673	-57.4487	98.8099
-4.85613	-57.522	98.7271
-2.15315	-58.5436	98.5076
-2.23504	-62.8673	96.1857
-2.27227	-61.1699	97.2823
-5.38367	-62.7069	96.2697
-8.36408	-47.4494	102.3
-5.952	-47.3286	102.874
-7.76544	-45.8971	102.613
-1.68897	-54.7702	98.7411
-1.59684	-54.7072	98.673
-1.52911	-54.6517	98.3833
-1.53203	-54.6454	97.8232
-3.89806	-54.1132	98.321
-7.14909	-53.6735	97.8172
-7.08239	-53.7647	97.35
-10.5926	-53.5391	96.653
-1.54286	-54.7792	97.028
-3.85856	-54.4503	96.9839
-13.0553	-53.2848	95.4206
-13.2384	-53.2507	95.7386
-12.8909	-53.3757	94.9852
-15.2809	-55.4101	96.2756
-15.7543	-56.3317	95.9187
-13.2183	-56.7912	97.1996
-14.8943	-54.7096	96.4295
-9.4564	-58.822	97.8037
-9.7362	-60.1182	97.2093
-5.16078	-59.7236	98.0535
-9.12061	-57.7024	98.1623
-2.23763	-59.7436	98.0328
-12.3439	-50.9569	95.3448
-12.1912	-50.7532	94.4474
-10.1972	-50.9002	96.1518
-17.574	-53.3689	91.1893
-17.0347	-53.7082	91.6254
-7.2956	-55.4113	93.8431
-7.08137	-54.5616	95.3887
-7.75849	-56.5408	92.2701
-10.49	-54.9159	93.1327
-7.00949	-54.0615	96.5619
-10.2988	-53.8276	95.5222
-9.84784	-61.7285	96.2589
-13.9553	-59.5222	95.9888
-14.4795	-54.1171	96.4869
-12.4362	-55.0847	97.5008
-16.4279	-57.857	95.1811
-17.5427	-56.6468	94.4881
-12.0732	-50.4408	93.6638
-13.6177	-50.8086	92.8906
-12.0262	-49.6786	92.4734
-10.036	-50.2691	94.2586
-7.39561	-50.427	94.8257
-7.33521	-50.8454	95.7977
-7.88781	-49.4689	93.5017
-4.85207	-50.5135	94.9836
-12.2663	-47.8471	90.6462
-14.0369	-48.292	89.9684
-12.7063	-44.9013	88.4801
-10.1745	-47.6624	91.3592
-21.2937	-58.4084	85.6759
-19.3403	-57.3701	87.4002
-24.3398	-62.561	82.0087
-1.73838	-58.6062	91.2606
-2.15352	-60.9726	89.4864
-4.41415	-58.5377	91.1058
-7.93505	-47.6583	91.9106
-7.72664	-44.7412	90.1662
-5.44144	-47.7076	92.3042
-8.15929	-58.0732	90.7528
-8.08047	-60.5122	88.9835
-11.5098	-57.2246	90.3605
-25.6203	-54.2105	81.4249
-29.2492	-55.3537	77.1363
-12.4587	14.0904	76.9687
-11.8681	12.725	78.5957
-83.3218	-8.60157	-43.6956
-84.9063	-9.09212	-41.9816
-83.8686	-3.97674	-43.6652
-81.3279	-8.00827	-47.0217
-82.713	-13.0307	-42.9662
-84.1735	9.94393	-6.25131
-83.2887	12.0718	-1.33896
-84.3311	12.8349	-10.4581
-84.1601	14.9665	-15.6644
-84.4611	14.566	-22.7405
-84.6726	9.97377	-16.8272
-83.68	20.4338	-16.869
-78.1699	-33.1245	-34.6133
-79.2051	-29.1819	-36.402
-77.3427	-37.3571	-32.0708
-80.6691	-30.793	-32.9908
-80.0452	-25.4834	-38.44
-82.3794	-24.26	-36.5914
-81.0261	-21.4741	-40.2307
-77.3373	-27.5257	-41.2716
-86.445	-9.04332	-41.0871
-86.7303	-4.01392	-41.2419
-85.9555	-13.2327	-40.2044
-87.966	-8.53938	-40.7338
-87.1213	-25.5261	-33.4515
-88.1853	-26.6592	-32.3643
-85.7494	-23.9262	-34.8455
-89.012	-27.4763	-31.3364
-89.9728	-23.4046	-33.3717
-87.9949	-31.5071	-28.866
-89.7954	-27.9188	-30.1148
-93.3347	-17.5858	-31.3579
-94.4385	-13.048	-34.4354
-93.3451	-17.0123	-30.589
-83.3941	-40.0799	-20.8503
-83.5742	-38.4256	-23.8143
-82.4171	-39.2209	-22.8752
-83.0718	-40.7402	-18.8718
-83.8878	-40.3216	-20.1511
-85.6883	-32.589	-8.64393
-85.403	-33.1478	-8.63039
-84.7772	-34.3708	-8.91556
-93.2998	-16.6336	-30.1809
-92.845	-17.2313	-29.2376
-95.763	-1.94904	-33.9039
-95.7674	-1.28483	-35.4337
-95.7232	-3.28693	-32.2417
-95.949	8.31852	-31.377
-96.1915	9.68254	-31.4805
-96.3176	11.7851	-30.4406
-96.0466	13.8525	-27.325
-96.4753	12.2527	-30.8387
-95.8304	11.5769	-28.2021
-87.4824	-9.58092	-8.37704
-88.6134	-4.09602	-8.86729
-86.662	-13.645	-7.87497
-87.0189	-8.82524	-7.03136
-82.9305	-25.6327	-1.76767
-83.4124	-21.3052	-1.1511
-82.4484	-29.4178	-2.33482
-82.0884	-26.0413	0.954206
-86.2807	-20.7951	-10.5881
-86.2263	-18.8355	-10.6766
-86.6209	-22.825	-11.1331
-84.6826	9.47267	-16.8452
-84.7248	9.46976	-16.6202
-84.8804	10.7353	-20.3269
-92.6264	17.0575	-17.29
-93.3999	18.7508	-20.4025
-93.4343	16.3451	-16.2942
-91.3988	13.9604	-14.3508
-91.734	17.4773	-18.472
-92.7326	19.4332	-25.4909
-92.0952	19.1967	-22.4829
-91.9183	18.3948	-26.898
-93.0868	18.1662	-29.1855
-93.0309	19.5796	-24.9663
-93.2604	3.99742	-39.9327
-94.3437	4.24528	-39.3921
-93.5959	10.0128	-37.0365
-92.481	3.52696	-40.1127
-89.4277	0.534252	-9.38634
-89.7113	-0.724407	-10.075
-96.2222	3.40035	-36.8685
-96.6723	8.55711	-34.591
-96.2599	3.29646	-37.226
-95.9462	0.581572	-37.0759
-95.6545	14.7378	-23.3332
-94.8848	14.1754	-19.3231
-95.7543	15.7292	-22.7108
-95.4381	13.3676	-24.0663
-90.7523	1.31292	-12.1991
-91.2309	3.65023	-12.8973
-90.2647	-0.462467	-11.6402
-95.861	4.08963	-34.1554
-95.9195	2.03287	-36.0374
-88.9601	-5.48002	-13.5382
-89.4854	-3.86536	-12.4046
-89.0781	-5.20257	-14.2462
-93.0712	-4.64016	-27.5468
-94.9272	-1.98648	-29.4407
-92.9684	-5.74319	-27.7121
-92.8321	-4.19088	-26.921
-83.8514	-17.3343	-1.06845
-83.1178	-17.5265	1.46635
-84.4526	-12.7631	-1.78733
-86.9356	1.25816	-39.7411
-87.9109	3.78449	-38.7941
-86.8184	5.93846	-37.5867
-85.7269	0.677088	-40.8927
-90.2491	8.78304	-36.08
-90.3333	4.69066	-39.0192
-92.5603	13.4665	-34.1499
-90.0736	12.5739	-32.8308
-91.4763	2.55189	-40.0906
-90.3698	-3.01337	-40.9153
-90.0502	-8.06046	-40.5705
-84.1906	-23.614	-35.7262
-84.8989	-20.3593	-37.3825
-83.3469	-26.7636	-33.9391
-85.456	-16.9456	-38.9418
-83.7329	-17.1761	-39.9701
-92.3257	-17.168	-28.2293
-82.4775	-29.7086	-32.2606
-81.5477	-33.365	-29.9698
-82.9967	-40.3827	-16.0728
-82.4966	-40.6467	-15.8967
-81.9754	-40.8428	-15.6149
-81.5195	-40.6239	-20.9338
-93.168	-6.49354	-28.1946
-94.9613	-5.10607	-30.374
-86.4603	-8.20913	-5.91631
-85.7883	-7.79379	-4.67276
-84.5798	-21.794	-4.70075
-84.8754	-21.968	-5.37369
-87.2649	-26.335	-10.9262
-87.3671	-25.2409	-11.7329
-88.2286	-28.3677	-12.4899
-86.1591	-16.6507	-7.44936
-86.4892	-16.8257	-9.64223
-89.8604	14.3962	-29.607
-89.0257	15.0149	-26.2357
-87.4737	10.6885	-32.43
-86.5417	9.1171	-34.2514
-86.0232	11.2706	-29.9691
-86.0526	8.81617	-35.378
-95.3029	5.25623	-29.0595
-95.1643	3.73734	-28.7238
-89.4256	-4.50281	-15.6815
-90.2725	-3.2757	-18.3344
-92.8048	-3.34488	-26.4111
-92.2966	-3.28863	-25.0267
-94.4165	0.278931	-27.5725
-8.11665	86.6169	64.4524
-8.4709	93.8901	57.5069
-15.8523	85.7374	63.9904
-7.86051	79.4389	69.8009
-7.28612	72.2935	74.1217
-14.4375	71.9815	73.5042
-6.61581	64.5291	77.934
-29.5991	57.2874	76.9907
-23.6639	57.5081	78.8382
-29.6546	52.1253	79.5012
-1.46661	-29.0435	104.298
-3.67672	-28.986	102.965
-1.74273	-27.5185	106.405
-2.17358	-18.018	112.337
-2.1424	-19.8072	112.356
-2.31785	-15.9978	111.762
-5.037	-17.8995	111.128
-2.15657	-21.608	111.835
-2.13379	-23.412	110.756
-1.9744	-33.0634	100.838
-2.3177	-39.7331	102.72
-4.66177	-39.2579	102.487
-2.03929	-25.4437	108.86
-4.51227	-25.4118	107.376
-2.29546	-13.9671	110.76
-2.27331	-11.2147	108.862
-4.86599	-14.2082	109.695
-5.63188	46.0125	83.7436
-5.86496	50.2884	82.9939
-11.4033	46.6744	83.0014
-5.48267	42.5376	83.9121
-2.54934	18.6048	87.2185
-2.63579	20.6946	86.1959
-2.41986	16.0522	88.6683
-2.72982	22.6726	85.372
-2.84138	24.6629	84.7224
-4.73868	21.9022	84.7244
-2.20063	-50.5188	94.9567
-1.98082	-51.172	96.4036
-2.51677	-49.5521	93.8061
-2.10689	-51.3991	97.5949
-2.41555	-51.399	98.7216
-4.62033	-51.2692	97.2792
-3.21593	-50.6394	101.305
-3.18073	-50.984	100.642
-2.92692	-51.2315	99.8207
-2.9472	-47.694	103.085
-2.62319	-47.8024	92.5214
-2.50675	-44.6788	91.022
-22.2764	84.6775	63.1691
-23.0608	91.3237	56.5744
-28.2507	83.2045	61.9816
-21.563	78.2747	68.1994
-17.5168	47.9728	82.3374
-17.6215	50.972	81.9577
-23.7349	48.9672	81.4947
-17.9997	44.0283	82.2804
-19.5045	41.3372	81.731
-21.3538	38.6837	80.8603
-25.3632	41.9498	81.0431
-22.3479	36.7875	80.13
-26.8909	37.0725	79.7186
-17.627	36.0578	80.6823
-25.568	24.8722	73.5063
-28.996	25.7899	73.9775
-22.3433	23.612	73.006
-24.6447	26.4701	74.4811
-27.7662	23.0585	72.4535
-23.7752	28.6064	75.8047
-20.5815	27.7577	75.7076
-27.7019	28.9788	75.8329
-47.6711	87.3337	40.6527
-47.0784	81.8391	47.9285
-41.7356	90.9209	43.2264
-48.7566	92.5494	30.6486
-33.7899	81.6438	60.1026
-39.7326	79.5313	57.3905
-34.8371	87.4284	53.9365
-29.8156	49.3654	80.2855
-35.166	48.0844	79.0377
-29.8679	45.5354	80.7316
-31.7511	37.2404	79.5128
-31.1191	39.6878	80.1334
-30.1929	42.6808	80.6328
-31.6852	29.0338	75.8008
-36.2059	28.4471	75.2069
-32.3394	27.3551	74.8288
-46.162	76.8467	53.5353
-45.0955	71.8802	58.243
-52.7124	73.8637	48.5161
-40.8624	46.5312	74.6151
-46.6997	44.4924	70.7194
-39.8992	25.0681	73.0134
-42.626	24.0111	71.7581
-36.5983	25.6833	73.7161
-40.0593	26.3235	73.6011
-41.4119	32.2065	75.3362
-46.2474	31.7196	73.1258
-40.9296	30.1254	74.8555
-40.4547	27.9728	74.211
-43.7689	66.5839	62.5257
-50.7131	63.6455	57.6002
-58.7793	71.2572	41.9668
-64.0325	68.9262	34.1083
-58.1359	66.0093	47.0474
-43.354	21.1264	69.6428
-44.9713	19.8087	68.1591
-45.0293	22.6542	70.0697
-46.5417	21.064	68.4286
-43.9422	21.8076	69.9317
-50.4791	30.0733	70.2149
-53.8685	27.0912	66.7659
-16.3702	31.3617	78.891
-15.4866	32.9493	79.9712
-17.1543	29.2309	77.4703
-14.4913	29.3648	78.6323
-14.2401	34.3753	80.9432
-12.3939	32.2586	80.8447
-18.2624	26.1895	75.3233
-19.2567	23.7126	73.6144
-4.89249	38.8813	83.8453
-71.9661	-64.8796	-9.19103
-71.6799	-65.2828	-15.4215
-73.6145	-59.5944	-7.61044
-82.1188	23.3122	-37.2791
-83.6368	17.5945	-32.1696
-82.7756	25.6033	-29.0772
-80.6876	28.9823	-42.0117
-81.7034	19.4123	-43.0273
-78.6518	-7.71286	-52.8464
-79.5143	-1.84401	-52.849
-76.1706	-7.86974	-58.4258
-77.8433	-13.7552	-51.3627
-80.0452	4.39812	-52.4366
-82.3873	2.3179	-46.2269
-80.6164	9.9462	-50.5395
-77.7633	6.17422	-58.8863
-73.7199	-31.2379	-45.3228
-75.1918	-25.4224	-47.72
-70.4052	-34.6598	-49.1464
-6.5795	56.854	80.9836
-12.2847	56.9735	80.5661
-18.097	57.2702	79.8105
-19.5839	64.6687	76.4239
-22.8774	-103.169	55.9781
-16.4911	-104.587	59.0448
-30.2181	-101.241	50.9345
-21.5233	-106.85	50.774
-52.0699	-87.4401	41.5856
-52.4975	-84.6874	45.3341
-57.1154	-83.9008	36.334
-45.7556	-90.9622	47.0558
-57.4331	60.3379	51.4522
-63.3715	56.8966	44.3785
-20.5978	71.714	72.4867
-68.9951	66.5324	24.6294
-69.1111	60.0116	30.4255
-72.9525	64.4808	14.7002
-23.5468	98.921	47.0886
-16.5769	100.568	47.661
-23.7549	106.147	35.4809
-29.8778	96.6387	46.4183
-67.7197	39.3477	44.8756
-68.3111	46.3345	40.5271
-47.6904	19.4882	66.8279
-59.8927	26.6391	60.6295
-58.0791	25.2632	62.12
-60.9679	21.4282	57.5536
-56.1224	23.9114	63.4231
-2.74645	-121.799	46.4413
-63.8981	-73.2093	35.9197
-62.804	-77.0217	32.8594
-58.9836	-76.6685	43.4365
-65.0196	-68.6321	38.8089
-7.46842	-43.8391	102.618
-7.06938	-41.4608	102.442
-9.67996	-43.9839	101.917
-21.5845	-46.7637	94.6402
-19.8252	-46.126	95.929
-22.67	-43.076	94.3644
-11.2914	-39.313	100.218
-10.2722	-37.1951	99.7628
-14.0083	-39.3814	98.6843
-12.0187	-41.7001	100.527
-8.80428	-39.1789	101.357
-30.4196	-50.2811	89.6398
-31.873	-46.0586	89.3048
-35.4975	-52.1304	86.7675
-29.3277	-53.722	89.6497
-66.714	16.859	50.2087
-69.0189	17.3555	46.9376
-67.4312	10.7069	49.916
-64.1416	16.5121	53.1603
-71.2747	17.9247	42.9588
-73.7915	17.94	37.4147
-51.2704	16.2531	63.2388
-51.3443	14.234	62.6535
-61.6429	16.1657	55.6298
-84.7379	9.52395	-37.374
-84.9576	12.0612	-33.3789
-83.1121	11.5513	-41.3965
-84.5451	5.7557	-40.6109
-81.8087	-17.435	-41.8951
-79.5872	-17.9961	-45.0249
-75.5137	-51.8147	-17.8113
-75.6897	-48.4513	-23.5646
-73.3411	-57.5245	-20.1624
-75.3653	-53.7882	-11.7441
-77.4644	-47.4007	-15.5705
-84.261	1.06434	-42.6585
-81.2144	-26.8456	4.08952
-80.2544	-27.5483	8.47665
-81.8266	-22.4334	4.54688
-80.5492	-31.0611	3.41636
-77.9831	0.708081	29.5556
-80.0488	-0.899695	20.5645
-77.9714	-6.85994	30.5175
-77.6875	8.70408	28.6413
-54.9977	10.2533	60.4752
-53.1793	8.10201	62.3827
-52.8895	11.3889	61.6591
-51.166	12.4521	62.6629
-49.6419	11.2173	63.883
-79.1748	-27.6403	14.79
-79.9465	-22.3502	14.9586
-78.4526	-32.6223	14.0082
-78.0692	-27.4693	21.5881
-22.8406	-13.6906	82.9297
-20.0028	-11.6245	84.1289
-22.0753	-8.65936	81.0382
-27.1197	-14.9974	81.5347
-34.6343	-15.2379	79.5612
-36.6201	-19.9883	80.7607
-43.003	-15.0429	77.2008
-17.0259	-9.45987	86.3085
-17.1479	-13.5906	88.4325
-14.143	-6.599	88.9948
-19.7992	-20.8658	87.5367
-18.5319	-18.4476	88.5723
-15.9259	-22.7159	95.4689
-16.6493	-23.3389	93.8233
-15.5476	-24.5586	94.8248
-14.7607	-21.9569	97.6538
-17.1737	-23.9897	92.3271
-16.6924	-26.1219	91.6897
-42.6307	-34.9714	82.4516
-40.5836	-29.4922	82.3466
-43.8591	-40.108	82.5248
-36.3222	-33.5074	85.0723
-38.3825	-24.7175	81.7049
-5.68028	-35.3435	100.848
-7.24352	-35.3427	100.244
-6.09107	-37.09	101.576
-64.6793	-49.4635	58.0709
-62.8288	-55.9065	57.3617
-60.9986	-48.3134	65.6174
-65.8263	-43.2335	58.9639
-27.2428	-39.9248	91.2432
-29.8004	-40.5958	90.0471
-24.911	-39.5985	92.3693
-43.6757	-45.0198	82.6445
-37.6459	-43.3321	86.1264
-49.7024	-45.9829	78.4281
-42.6412	-49.631	82.8526
-6.55478	-39.0626	102.09
-60.1246	-62.3691	56.927
-56.4166	-68.2893	57.5086
-56.6877	-60.0768	64.7541
-63.3357	-63.7361	48.6443
-65.8638	-26.5332	61.7897
-69.9798	-27.1666	53.8873
-66.2975	-32.3123	60.9473
-29.6504	-89.798	69.0335
-23.6714	-91.6112	73.3863
-29.7341	-86.6954	71.359
-40.2209	-80.2861	65.6847
-35.1752	-81.9121	69.3672
-39.1188	-76.8706	69.6522
-45.4087	-77.3736	62.9715
-59.7849	-4.65104	63.7167
-53.5416	-5.03695	68.6707
-56.7351	-0.419794	64.1704
-47.2396	9.7614	65.9036
-48.5273	8.01229	65.6425
-54.2375	2.43815	64.4419
-51.8406	4.74171	64.9129
-48.9502	1.30997	68.3865
-44.9736	12.7077	66.6446
-2.21366	-86.8046	87.9371
-52.5203	-57.839	71.5815
-47.1269	-55.907	77.7229
-54.7088	-52.5895	71.9009
-49.6726	-62.656	71.4484
-36.9838	-73.9882	73.8159
-32.258	-76.6311	75.6699
-34.6765	-70.8402	78.2097
-41.7741	-70.7332	72.4969
-46.6496	-5.5888	72.2414
-44.3478	-2.1848	71.7844
-48.8598	-9.9329	73.1378
-56.1614	-46.9231	72.3543
-50.7745	-14.9788	73.9075
-10.4462	-77.1808	88.5117
-15.0113	-77.021	86.5873
-10.7806	-73.5569	89.3827
-19.6247	-77.4141	83.9794
-19.5836	-74.3222	85.3894
-23.8924	-77.8639	81.0964
-42.5979	0.295238	71.3741
-34.7007	-0.420434	73.5033
-40.8981	2.20355	71.2728
-50.0354	6.43416	65.2772
-45.6336	4.95769	68.5503
-39.5588	3.87213	71.1569
-32.2772	3.32454	72.7966
-11.4228	-4.0041	91.9953
-11.3628	0.569592	88.6686
-11.7244	-8.32374	94.7326
-12.7398	-16.2526	100.125
-13.0492	-17.3977	100.445
-10.2971	-15.2607	104.126
-12.4919	-14.649	99.0248
-11.5163	10.9614	80.2981
-11.32	8.42006	82.516
-21.0169	-3.99399	79.1126
-2.32435	12.4454	91.0235
-67.0985	4.89761	51.9677
-11.3058	4.798	85.4365
-66.7663	-62.9884	40.3283
-69.5956	-61.2996	32.0879
-73.1595	-14.7768	47.1386
-75.7812	-13.9489	38.7485
-73.1842	-21.285	46.3681
-71.7395	-38.8893	43.7796
-73.5246	-39.0073	35.8614
-69.5004	-38.2908	51.8505
-72.3738	-33.4039	44.6455
-72.8758	-27.6216	45.4079
-74.9874	-27.7778	37.1243
-18.7782	-92.9825	76.639
-10.6742	-71.0039	90.3901
-15.1874	-70.8552	89.013
-6.57333	-70.9556	91.2276
-19.6554	-71.0764	87.0864
-26.2501	11.4756	71.0231
-27.7227	-0.0955272	74.5596
-26.9245	2.21848	73.8472
-26.3546	4.07091	73.2747
-2.81495	-70.8114	91.6293
-6.56184	26.0557	82.8386
-6.39971	23.4442	83.2151
-4.98089	26.5054	83.6044
-7.27311	28.6823	82.4632
-8.00403	25.2916	81.8752
-19.3729	14.0922	69.9263
-19.3844	15.3035	69.9394
-16.5788	14.4357	71.9185
-9.23557	24.1071	80.7169
-10.0146	26.7226	80.5056
-3.03212	26.9742	84.1634
-5.58843	-28.6302	101.559
-6.15292	-27.2351	103.13
-7.87601	-17.7903	108.845
-10.6967	-17.9931	105.066
-7.85266	-16.2662	108.349
-16.1272	-30.1794	89.7117
-13.7234	-31.3815	90.8275
-15.8423	-29.4181	90.2352
-7.5308	-14.5765	107.595
-7.01706	20.1935	83.2629
-8.07987	31.4322	82.3829
-9.6997	30.6319	81.5687
-19.9614	16.6991	70.0815
-11.0989	29.559	80.5421
-12.1591	28.2969	79.4726
-13.0706	26.8506	78.2566
-19.8075	-34.0502	91.2938
-21.3752	-36.6968	92.6698
-16.9721	-34.7052	93.1565
-22.3908	-39.4926	93.6417
-19.6307	-39.5217	95.2396
-17.4015	-52.3383	89.8422
-16.5722	-52.1347	90.5635
-18.0489	-51.404	88.6322
-17.8734	-51.8412	93.229
-16.9918	-51.284	95.0694
-19.8928	-48.9216	86.1332
-22.8694	-46.0639	82.7237
-17.5407	-48.8877	87.8441
-14.2377	-35.1484	95.343
-15.6184	-37.2298	96.3527
-11.635	-35.3299	97.4673
-16.789	-39.4953	96.9855
-17.7043	-42.2526	97.2957
-15.3394	-51.5646	91.6748
-14.9224	-50.6723	91.0959
-15.741	-48.6684	89.0892
-17.5951	-45.3359	86.0493
-9.26413	-35.4311	99.1822
-8.91349	-33.614	97.9393
-12.5162	-44.1573	100.608
-15.3892	-44.401	98.9961
-16.9003	-16.1528	90.3209
-14.6055	-14.201	93.6466
-2.29484	-7.59213	106.034
-12.0317	-11.8913	97.213
-6.90816	-25.0381	105.431
-9.33533	-24.9591	102.395
-11.6557	-25.2022	99.1564
-13.6418	-25.731	96.1873
-12.4931	-23.2103	100.034
-14.8173	-26.4127	94.1293
-15.3949	-27.3383	92.4806
-15.6551	-28.3891	91.1654
-13.1068	-18.4547	100.841
-13.0721	-19.7097	100.992
-12.925	-21.3724	100.691
-42.2552	-146.156	15.7862
-41.3284	-138.394	17.6056
-46.635	-144.385	12.4597
-43.0102	-151.878	14.4698
-37.3857	-147.783	19.0413
-40.6378	-127.639	19.9459
-35.8626	-129.491	23.7682
-40.673	-118.14	21.9829
-45.0444	-125.708	16.1168
-44.1457	-101.734	28.0688
-43.0667	-105.992	24.9777
-39.2232	-104.493	32.4826
-48.6642	-98.7696	23.4834
-41.7113	-111.262	23.2862
-46.0418	-108.789	19.0407
-36.692	-113.836	27.8335
-46.1173	-66.8942	71.7085
-42.0603	-64.1462	77.3777
-49.2336	-69.7874	65.955
-51.3795	-73.1055	59.9641
-52.6301	-77.1879	54.0003
-52.8124	-81.1672	49.3087
-37.5932	-61.4291	82.472
-35.0385	-64.5875	82.5026
-32.9845	-58.7775	86.6491
-39.6967	-57.9216	82.584
-28.4883	-56.0673	89.6458
-27.4195	-58.0102	89.7968
-52.5425	-95.9973	18.765
-56.0934	-93.7955	12.8435
-51.2121	-100.614	16.2343
-54.4371	-92.0851	21.2176
-56.6764	-88.2837	24.1315
-59.1035	-84.455	26.9769
-59.8334	-85.7496	17.45
-61.2909	-80.5503	30.0281
-64.1835	-78.0688	22.8704
-49.1083	-123.639	12.143
-49.6792	-134.69	10.4458
-49.1903	-113.712	13.5377
-52.9179	-121.942	7.97357
-50.5378	-142.673	8.98422
-54.1514	-140.973	5.19412
-51.4973	-148.664	7.66366
-49.9476	-106.327	14.6888
-76.6632	-27.5833	29.1971
-77.4027	-21.1529	29.7586
-75.8591	-33.4647	28.562
-66.1471	-76.0689	15.8485
-67.4754	-74.4025	9.08627
-64.1733	-79.8797	13.1923
-77.0116	17.2367	28.4295
-79.975	15.1446	17.4514
-71.6981	-59.5861	23.9323
-73.2909	-57.7509	15.7815
-75.0761	-38.8099	27.9985
-76.4765	-38.1988	20.4384
-77.8093	-13.9953	30.5954
-79.4319	-15.2298	22.249
-77.6887	-37.5238	13.2592
-78.8424	-36.4214	6.86455
-63.8117	-89.4815	-3.87789
-61.696	-90.5872	1.25561
-64.6038	-85.2557	-2.83784
-65.5436	-88.6335	-8.76339
-63.1973	-94.3108	-4.62575
-62.7003	-99.9121	-5.03241
-65.6617	-81.0485	-1.17521
-66.9872	-76.9316	0.644579
-67.083	-79.846	-6.58368
-64.0733	-82.2925	4.40433
-81.6087	-2.13917	11.9775
-81.1485	-9.95527	14.0761
-81.8595	5.6198	9.6086
-82.0013	13.8458	6.77501
-82.0333	21.6705	4.19613
-81.9347	29.4755	1.17158
-81.7611	37.3667	-2.54974
-82.9138	28.5611	-9.62722
-74.3034	-56.2266	8.0915
-74.9404	-55.1148	0.603063
-80.5907	-16.5025	15.014
-81.5691	-17.5113	8.85858
-56.5633	-120.205	3.37655
-56.922	-131.271	2.15227
-62.1985	-83.8362	10.7944
-60.464	-87.8509	8.57112
-57.5369	-139.172	0.928439
-58.3569	-145	-0.464362
-65.4174	-114.964	-14.9294
-65.4784	-124.433	-16.2931
-66.7792	-87.8429	-13.5169
-67.4404	-83.126	-12.8334
-67.5073	-85.9484	-18.5605
-68.312	-78.4266	-11.8318
-65.5948	-131.476	-17.9086
-65.679	-137.045	-20.0289
-75.1482	-54.8075	-6.18878
-79.8343	-35.1734	2.50811
-79.2236	-38.9439	0.968082
-80.8898	-33.4598	-0.609557
-82.3358	-17.7643	4.78172
-66.1117	-93.7208	-26.296
-66.7681	-87.3273	-25.3897
-64.4911	-89.3922	-33.2869
-67.7119	-81.2863	-24.6529
-66.8608	-74.7546	-30.9192
-71.3811	-63.9586	-21.7998
-78.736	-44.8202	-14.355
-79.6573	-42.2365	-20.7489
-60.5685	-120.254	-44.1814
-60.7676	-112.036	-42.668
-57.0448	-117.455	-51.3099
-60.4269	-127.916	-45.6656
-76.3733	-43.4354	-28.2521
-78.8234	-39.6902	-26.6564
-80.5235	-37.9466	-25.9984
-81.4785	-37.2173	-25.7992
-32.2885	-149.183	22.0635
-33.2063	-154.64	20.2843
-27.1243	-150.473	24.7593
-31.4025	-141.62	24.3631
-30.8344	-116.09	32.6681
-32.1492	-111.288	34.5226
-30.1009	-122.209	30.7053
-24.3104	-118.227	37.3699
-36.8878	-99.2023	45.5084
-38.4694	-96.0793	49.272
-34.9562	-102.916	41.3855
-33.3264	-107.006	37.496
-27.0694	-109.089	42.2168
-30.5195	-131.02	27.6879
-24.9483	-132.802	31.2531
-32.3609	-67.0657	82.7602
-29.5249	-62.9283	87.0857
-39.477	-93.3497	52.6642
-26.0412	-59.3913	90.1629
-22.5147	-56.1587	91.9308
-24.448	-60.2608	90.6751
-19.8719	-54.4291	92.3694
-19.3009	-55.2848	92.7838
-27.9412	-77.8029	78.1485
-28.9538	-80.5061	75.8684
-29.6213	-83.5011	73.478
-15.972	-53.5923	93.2765
-14.8023	-53.124	94.8596
-15.5796	-53.662	92.0624
-14.1436	-53.5006	93.2786
-15.5311	-53.9203	91.3973
-16.6936	-53.6716	90.8355
-15.5927	-54.317	90.8131
-16.0617	-55.0399	89.8866
-14.0468	-54.2536	91.7832
-17.3292	-56.7884	88.53
-15.3298	-56.4077	89.4387
-19.8071	-61.092	85.6113
-17.9919	-119.697	41.2223
-18.2407	-125.325	38.5091
-19.1412	-115.042	43.3754
-21.8538	-151.768	27.1349
-22.8572	-156.835	25.0797
-16.6505	-152.767	29.1434
-20.8201	-144.49	29.9819
-19.4941	-134.263	34.3363
-9.77241	-112.598	50.6927
-10.745	-108.81	55.3483
-14.1654	-112.066	49.2095
-12.0815	-153.483	30.5791
-13.0908	-158.315	28.4595
-11.5828	-105.368	60.9429
-12.6833	-53.6005	94.3195
-12.5165	-53.958	93.476
-12.5495	-54.4836	92.4917
-12.9265	-55.2712	91.3065
-13.5872	-56.6377	89.998
-14.3128	-60.1534	87.8094
-77.2052	47.6579	15.1812
-73.5512	49.9818	25.8532
-76.8986	55.2533	9.8291
-79.834	46.1312	4.13141
-83.0097	27.3809	-19.6535
-76.4628	-19.7134	-49.9885
-73.4749	-21.6165	-54.8295
-54.1885	-95.9515	-54.1655
-50.797	-93.6024	-59.1411
-53.8857	-106.21	-55.2851
-57.4465	-99.1264	-48.6012
-54.9514	-85.6754	-53.177
-53.8158	-115.139	-56.6215
-50.3939	-113.389	-61.3876
-53.9774	-123.617	-57.8742
-61.9298	-83.7291	-40.6974
-63.3245	-75.1272	-39.5387
-58.9938	-79.1761	-47.1101
-61.22	-93.407	-41.0234
-23.5029	112.598	21.7676
-16.2275	114.598	22.048
-23.2647	117.305	6.59888
-30.459	109.757	21.5405
-22.4107	102.048	-78.7262
-14.9162	103.456	-80.157
-21.6266	91.1803	-91.8922
-29.5655	100.036	-76.8223
-23.1184	110.75	-62.8283
-21.2487	79.3092	-101.381
-14.316	79.9677	-103.036
-21.0148	66.0144	-108.626
-28.0376	77.6249	-99.4481
-23.3066	116.617	-45.7243
-23.3337	119.603	-27.8621
-15.7369	118.435	-46.785
-30.5723	114.123	-44.1001
-8.0263	123.097	-10.8659
-7.95553	122.766	-29.0466
-15.7973	121.845	-10.5949
-8.11354	120.703	6.41892
-20.6609	52.9204	-113.599
-14.2064	53.7665	-115.016
-20.2369	39.5361	-116.872
-26.981	51.663	-111.57
-19.7041	25.4971	-118.678
-13.3848	26.4227	-120.188
-19.2127	11.617	-118.852
-26.0416	24.5414	-116.49
-17.2173	-26.9942	-107.903
-17.9714	-14.3605	-113.775
-11.6237	-26.8893	-109.069
-17.0162	-38.7942	-100.524
-23.0852	-27.7529	-105.725
-6.23932	-0.438125	-120.021
-5.94634	-13.2913	-116.458
-12.4797	-0.850583	-119.002
-6.44036	12.7224	-121.441
-15.3543	-86.1305	-82.7807
-10.1302	-85.6937	-83.5495
-15.1125	-95.6351	-82.3814
-20.8044	-86.9123	-81.4306
-15.6942	-76.5308	-83.7965
-14.9579	-105.002	-82.1709
-9.94161	-104.699	-82.7339
-15.0645	-114.233	-82.0403
-20.0946	-105.531	-81.2221
-17.2741	-48.143	-94.4174
-11.4714	-47.6782	-95.4263
-16.9692	-56.5131	-89.8181
-22.664	-48.73	-92.8496
-16.2288	-66.1088	-86.1502
-10.8124	-65.3005	-87.145
-22.0116	-67.2438	-84.4044
-5.3922	-65.0256	-87.5901
-5.12735	-75.6468	-85.118
-5.61847	-55.606	-91.2897
-49.3643	97.5732	18.6021
-43.3238	102.217	19.9646
-50.0065	101.368	5.02727
-55.322	92.0509	17.3396
-47.2121	70.5952	-89.3987
-47.6348	81.4613	-80.2127
-41.2888	73.2409	-93.2364
-46.8389	58.6239	-96.205
-52.7733	67.4817	-85.1505
-48.0315	90.929	-68.1924
-53.6675	86.5227	-64.6074
-48.7587	97.9308	-54.0651
-42.2667	94.5378	-71.4428
-49.5719	102.166	-39.3463
-50.5079	103.641	-24.5295
-43.6396	106.852	-40.9523
-55.4585	96.4964	-37.5887
-50.4216	103.525	-9.6135
-56.3963	97.6816	-9.71044
-44.194	108.605	-9.47621
-46.1899	46.4869	-101.13
-51.7163	44.276	-96.8162
-40.2214	48.3736	-105.073
-45.5106	33.881	-104.397
-44.5495	21.1122	-106.237
-38.8153	22.2244	-110.076
-43.6016	8.1771	-106.353
-49.9928	19.6783	-101.885
-42.3588	-4.34927	-104.903
-47.3019	-5.09808	-100.702
-37.01	-4.01579	-108.555
-41.1405	-17.2589	-101.371
-40.4926	-29.9046	-95.4976
-35.0221	-29.2721	-99.4269
-40.1007	-40.93	-89.0825
-45.3716	-29.6504	-91.6558
-39.6821	-50.5297	-83.3702
-44.503	-50.7546	-79.0842
-34.275	-50.304	-87.0902
-39.1343	-60.1204	-78.418
-37.0994	-88.8123	-73.3354
-41.9568	-89.8236	-69.2801
-38.087	-79.1831	-73.302
-31.7964	-88.3535	-76.7668
-36.0771	-98.7725	-74.2141
-25.3214	-106.234	-79.7774
-30.6399	-107.158	-77.6629
-25.6618	-97.143	-79.5789
-25.4686	-115.094	-79.9462
-38.6284	-69.7691	-74.9643
-33.4769	-69.0922	-78.7319
-43.5814	-70.1517	-70.4118
-68.1024	70.1289	-51.2975
-63.6351	76.0856	-56.4706
-67.205	63.9974	-61.7429
-72.3372	63.3512	-45.474
-69.3632	74.0362	-39.776
-70.3833	76.1893	-28.3358
-71.0482	77.0492	-17.0934
-65.8461	83.5036	-32.4633
-74.4828	68.3573	-23.214
-70.4775	77.7281	-6.24465
-66.4909	84.6984	-8.54646
-73.697	70.2678	-1.45057
-56.6042	42.0318	-92.2841
-55.8885	30.1659	-95.5309
-61.0704	39.3767	-87.4546
-57.2948	53.2531	-87.3195
-57.663	64.2129	-80.6712
-62.2813	60.3095	-75.7501
-58.1268	73.7326	-71.9654
-52.2146	-5.80198	-95.7367
-50.6106	-17.8783	-92.6164
-56.9468	-6.63672	-90.1972
-53.8994	6.20256	-97.085
-54.9691	18.0458	-97.1599
-59.5935	16.6708	-92.0596
-49.7549	-29.1833	-87.5192
-49.4816	-40.3492	-80.7213
-54.0712	-29.1566	-82.4106
-48.8143	-50.1212	-74.8199
-52.6876	-48.502	-70.8111
-48.5757	-70.8349	-64.7366
-47.6374	-80.9673	-63.7861
-52.9027	-73.3909	-58.193
-78.7957	34.9945	-47.0505
-76.5305	40.4319	-52.6898
-77.841	29.0557	-54.5621
-60.7311	85.9425	16.7057
-61.2451	89.7218	3.64828
-80.9964	45.041	-6.84495
-79.8161	52.7654	-11.9741
-68.0222	-7.43287	-74.3517
-66.364	-17.3101	-71.5494
-71.1205	-7.77849	-68.796
-69.364	2.02183	-75.7616
-64.7142	-7.52112	-79.4994
-70.0742	11.5701	-76.3927
-73.0938	9.47339	-70.3285
-70.8838	20.6414	-74.8867
-66.9348	13.3485	-81.8511
-71.7212	29.8296	-71.4878
-74.6105	25.9783	-65.5658
-72.7122	38.2239	-65.9644
-68.5211	33.3033	-77.1454
-61.4573	-42.567	-60.2074
-60.1898	-50.4468	-56.4193
-64.3111	-40.3514	-56.4739
-62.9361	-34.8378	-64.1191
-58.6252	-44.8523	-63.6925
-70.5473	-23.2775	-59.4616
-72.2759	-15.7755	-61.8206
-67.7206	-24.9082	-63.5966
-68.8715	-30.64	-56.2003
-56.2571	-76.0587	-52.5254
-57.6501	-66.8842	-52.706
-81.2724	-37.5865	-6.18754
-79.6697	-40.56	-4.10847
-81.8332	-33.9605	-4.09348
-81.7774	-32.1956	-2.61152
-85.0778	-6.59571	-3.33252
-85.6568	-1.35375	-5.31184
-95.3759	4.14476	-38.6512
-96.0366	3.74571	-37.9381
-95.5001	9.99498	-36.1608
-86.6596	-35.6672	-25.7521
-85.654	-38.4886	-22.4786
-85.6175	-35.4882	-26.5406
-95.1531	14.7234	-32.5418
-96.0686	14.0506	-31.9831
-94.5939	17.8723	-28.3354
-94.1622	15.0345	-33.0394
-89.9357	9.73187	-11.8151
-88.5836	9.72393	-12.4731
-93.9961	19.1777	-24.0117
-94.9564	18.4619	-23.275
-91.014	-18.9608	-35.6779
-88.4596	-36.3983	-18.4203
-86.7798	-38.5119	-18.9637
-88.1329	-36.2362	-15.7229
-85.9393	1.22725	-6.97402
-91.0003	17.4394	-19.5783
-89.3079	14.3452	-16.9315
-89.8813	16.5655	-21.1698
-87.1996	9.99539	-13.9074
-86.2484	10.4357	-15.496
-93.4975	14.8664	-33.2675
-85.4496	10.1477	-16.9452
-86.5165	12.1333	-19.5778
-87.845	14.0525	-23.1501
-85.7245	11.8872	-24.2369
-90.7249	-27.4682	-28.6571
-91.0874	-29.0486	-21.1492
-85.1937	-39.703	-19.5161
-87.7164	-35.2692	-13.5829
-88.6141	-32.4283	-13.4414
-89.2549	-30.0232	-14.3018
-89.6128	-28.4414	-15.2217
-95.1794	-8.36485	-36.9129
-95.6401	-2.7065	-38.2505
-96.2478	3.44721	-37.524
-96.6561	9.08621	-35.1207
-93.9165	15.7492	-15.8479
-94.9042	17.4213	-18.8909
-94.112	15.1086	-15.5652
-94.1102	14.5	-15.4422
-95.1647	16.2481	-18.4474
-93.9637	13.4244	-15.6488
-96.4702	13.4977	-31.6238
-96.5959	12.9918	-31.4961
-96.0337	16.3991	-27.431
-95.5477	17.7458	-22.8055
-95.7884	17.1397	-22.6988
-95.8219	16.5574	-22.4603
-96.2112	15.3516	-27.1008
-96.5742	12.6188	-31.1975
-95.8128	-0.912799	-36.5789
-93.7091	12.1138	-16.2299
-91.4349	4.81767	-13.8969
-95.2383	11.8602	-24.7127
-95.5274	-4.09165	-31.4748
-95.559	-2.1914	-31.1431
-95.4796	-0.311048	-30.5284
-95.2903	1.19115	-29.602
-94.9738	2.41228	-28.3319
-87.5952	-24.8742	-12.9545
-88.7651	-26.4838	-14.6289
-89.7922	-1.87145	-11.0354
-86.4251	-16.8419	-10.8157
-89.6726	-27.7129	-15.7122
-32.7656	26.0795	74.079
-35.7087	94.1571	45.0538
-36.5917	100.53	33.9788
-8.57029	101.782	47.9128
-8.51751	109.362	36.0251
-36.9452	106.402	20.7996
-37.2096	110.744	6.2815
-8.30517	115.875	22.2131
-23.1796	119.789	-10.1993
-30.4918	116.852	-9.79957
-37.3941	113.176	-9.65637
-37.5365	113.24	-25.969
