1904
71.3189	57.4442	19.9894
29.8415	104.106	35.4937
16.3015	108.624	36.3441
53.4759	-68.5838	50.0917
8.72822	-42.43	97.7368
21.0321	-45.6238	90.9432
7.64876	-38.1465	97.2748
14.5045	-43.6373	94.9309
12.4906	-38.9382	94.2611
35.341	-57.3513	79.3376
36.0088	-50.3219	80.3466
73.6733	-43.9923	-21.5527
74.5321	-33.2092	7.10711
75.8717	-24.1341	7.86164
75.5868	5.80382	17.5755
74.4534	-10.3872	20.4509
49.9412	8.10755	62.2639
73.424	-24.0922	20.5565
72.2503	-35.2449	19.7469
16.475	-9.02213	92.1376
16.1106	-21.8236	98.9673
18.1972	-23.8526	93.6019
34.6677	-40.8154	80.5843
52.0679	-54.9904	62.8095
43.4804	-52.361	73.6716
48.0288	-63.6257	63.863
63.8511	-36.5021	49.5231
41.4579	-71.8967	66.9848
33.2962	-79.4728	71.5815
49.5384	-5.24634	65.0326
45.7989	0.5177	66.0524
41.1374	-59.7954	73.7474
36.9421	-66.1615	74.667
14.8789	-79.3867	84.8453
32.4851	1.18771	71.1382
12.0611	-14.5997	109.076
69.9039	-24.1045	35.7115
68.9322	-36.0346	34.9098
9.28767	28.6855	84.039
18.2282	-39.2192	90.0916
22.9348	-55.9351	83.9379
21.5118	-49.057	81.822
33.7139	-136.516	20.7247
36.1481	-150.431	17.0541
45.0126	-147.62	10.7845
42.4124	-133.24	13.7562
42.0244	-99.5647	20.6809
33.5066	-104.328	30.2096
31.7648	-115.645	26.5859
40.5252	-112.326	17.7795
33.0595	-62.1633	79.1649
51.6059	-85.2947	15.7613
55.5482	-77.5343	22.0666
49.8367	-130.009	6.16393
52.4578	-144.341	3.35281
59.0888	-75.2455	8.36878
60.5776	-81.6586	-7.25571
56.6371	-82.7879	3.48543
60.5649	-95.9747	-33.8808
75.3695	-37.0686	-2.37359
61.8841	-80.0188	-32.3155
55.446	-124.015	-52.4447
54.8072	-107.036	-50.0638
23.8899	-139.004	27.0625
26.388	-152.719	22.3504
22.3453	-107.332	40.8253
20.956	-117.785	35.6549
27.4431	-63.2146	82.8236
18.9539	-58.2481	87.646
18.9352	-59.9719	86.0234
16.6599	-154.357	26.4421
18.1624	-66.3905	83.3008
76.9965	53.7779	-1.65953
49.5119	-81.549	-58.5245
55.288	-87.3268	-47.8922
48.486	-102.492	-60.5298
48.7217	-120.289	-63.3221
57.9533	-66.5164	-46.9691
30.2229	114.601	6.74187
15.8722	119.635	6.59874
15.7572	112.364	-64.2975
30.4723	108.472	-61.1263
28.9234	89.401	-89.9369
14.6388	92.2292	-93.5313
27.7988	64.6172	-106.618
14.4038	66.7937	-110.176
30.6326	116.896	-26.9192
15.9364	121.638	-28.7433
0.169534	123.232	-29.3293
0.160176	121.397	6.26948
26.8646	38.3198	-114.769
14.1548	40.4382	-118.322
25.8167	10.6628	-116.555
13.2236	12.3134	-120.46
24.2023	-15.2904	-111.389
22.5163	-38.9851	-98.9493
11.5373	-38.5701	-101.438
12.3262	-13.7649	-115.408
0.139994	-13.1796	-116.788
0.159153	12.7571	-121.767
10.1672	-75.058	-84.8424
20.8483	-76.4103	-82.3956
19.8401	-95.265	-81.4585
9.82894	-94.1101	-83.2399
9.80394	-112.945	-82.7744
0.0170672	-112.793	-83.1569
0.0279779	-93.1837	-83.718
22.2533	-57.0183	-88.1158
11.2275	-55.1566	-91.0311
0.0825434	-55.2375	-91.4322
0.0490511	-74.7438	-85.4147
55.1977	95.9278	4.28874
43.3636	106.561	5.97495
53.1665	77.6898	-76.3513
52.4331	55.954	-91.9781
41.0647	60.824	-100.206
41.8916	84.5383	-83.9786
42.9523	102.139	-56.7224
54.3035	92.8395	-51.4201
56.032	97.8553	-23.8012
44.1232	108.834	-25.251
51.0488	32.0116	-100.149
39.857	35.406	-108.321
48.8478	7.24701	-102.055
38.2406	8.82403	-110.139
45.6512	-17.4846	-97.3974
35.9813	-16.7609	-105.017
44.3409	-40.3921	-84.9847
34.0577	-40.2548	-93.0324
33.2854	-58.8219	-82.2594
39.6311	-98.5954	-70.6529
30.0676	-96.926	-77.4492
31.7832	-77.6479	-77.132
41.4959	-78.5464	-69.0783
30.043	-114.735	-78.2807
19.778	-113.475	-81.4621
64.3422	80.8207	-44.6376
72.7267	66.5196	-34.5671
70.6669	58.1256	-56.0121
62.593	68.9754	-67.4218
73.4394	69.2495	-12.5541
65.9862	84.4985	-20.6546
61.6211	49.9727	-82.5833
60.1621	28.0843	-90.773
58.2735	5.11238	-91.7872
54.541	-18.0409	-87.2294
52.1214	-38.9395	-76.5098
74.6421	33.484	-60.3345
61.8959	-17.7006	-76.6533
65.3976	3.04003	-81.3853
71.2291	1.02088	-70.165
67.9729	-16.3212	-66.6868
67.1841	23.3817	-80.6606
72.8869	17.724	-69.1213
68.9669	42.4781	-71.9707
58.209	-36.1664	-68.3073
63.9571	-32.2535	-60.1279
60.3025	-47.2945	-53.1385
94.2038	9.39046	-35.8714
92.402	10.1008	-37.0712
91.4492	18.0917	-29.3449
93.3365	16.919	-28.225
87.5453	14.0121	-16.1934
89.3244	13.0635	-14.2694
85.386	13.4645	-19.1222
90.6366	8.52969	-37.9964
90.233	16.7016	-30.6294
93.3429	-2.49941	-38.0007
92.6043	16.6023	-19.2537
93.9558	15.6433	-27.7928
0.195659	110.42	36.3779
0.191914	113.728	-65.2365
40.0866	-117.076	-72.155
0.193107	93.0339	-94.7238
0.156842	67.3504	-111.343
0.171727	41.1625	-119.519
0.110288	-38.9583	-101.765
-70.4012	-46.8897	18.5022
-72.895	-42.8132	4.27256
-68.322	-55.4912	16.0993
-59.9878	-103.133	-11.4241
-55.4583	-104.679	-2.317
-58.4011	-140.219	-6.01741
-56.6576	-126.228	-3.66116
-60.9772	-123.101	-12.9545
-62.1102	-136.482	-15.7774
-55.6322	-91.2825	-1.14993
-48.703	-107.233	7.71103
-49.6029	-93.2677	9.71269
-60.0218	-90.5955	-10.7082
-62.43	-88.9757	-20.3842
-62.0843	-101.46	-20.9278
-65.711	-62.4177	13.3511
-62.3025	-68.9612	10.2081
-59.0753	-71.5095	24.5251
-62.1942	-65.4355	29.0965
-77.6431	38.268	7.05264
-76.8714	22.0072	13.7172
-69.4968	26.9597	37.5289
-70.9927	42.904	28.8867
-79.674	32.2656	-34.3371
-80.1537	36.2107	-14.7926
-77.9051	51.5147	-23.8962
-76.2514	45.692	-44.5388
-7.30803	-106.927	49.9113
-13.1725	-106.712	47.6702
-12.6602	-118.017	41.8818
-6.50851	-118.919	44.5353
-14.8896	-140.87	31.4929
-7.07321	-142.108	33.9861
-8.2288	-155.131	28.8524
-71.0067	-41.1304	-35.3484
-64.8469	-51.9853	-40.8189
-68.9321	-53.5758	-27.0109
-73.1701	-31.942	-39.9387
-66.3436	-40.4171	-46.8926
-63.1119	-132.609	-26.7056
-60.6969	-128.266	-39.681
-64.3099	-58.9335	32.4644
-66.7963	-48.9225	33.7816
-67.5921	-59.6359	-1.84095
-4.17533	-88.8129	86.8011
-12.4369	-87.4691	83.2336
-12.2277	-95.4579	79.673
-4.02914	-96.3131	83.5692
-22.2866	-84.4514	77.373
-21.8104	-92.1846	73.9419
-5.51387	-80.4874	87.0182
-4.89051	-101.681	76.1016
-5.94131	-103.407	67.1908
-13.8587	-0.00373642	86.5736
-13.2404	8.61549	80.2076
-17.8227	4.25931	76.9623
-19.5826	-5.00869	81.4296
-53.9268	-34.3616	64.8245
-42.9729	-31.9334	74.9398
-41.1939	-21.5174	74.7804
-53.093	-23.3792	66.1984
-63.5639	-24.8084	51.7174
-51.8537	-12.298	66.1156
-67.6139	9.45533	43.9555
-71.5001	7.99414	34.4776
-43.9119	-42.7017	74.2734
-53.5068	-45.9666	63.1557
-2.88218	8.70912	97.234
-3.34566	-1.02523	105.619
-25.687	78.6581	67.612
-36.9865	75.6057	62.1658
-34.6093	64.5355	70.651
-23.5117	66.2939	76.1918
-6.15194	-103.987	57.8061
-61.3297	-48.8528	48.7209
-58.3579	-59.9142	47.8556
-32.5477	-85.9049	65.9856
-42.2106	-79.4476	57.9394
-41.2204	-84.9378	51.0258
-35.954	-94.8566	36.7481
-39.0767	-89.2153	44.632
-48.6864	-82.286	33.3011
-44.7755	-89.2204	25.91
-4.07095	-9.49421	112.987
-8.78342	-3.9007	100.756
-9.76719	-11.0839	106.767
-20.4936	-15.5015	85.0143
-27.5367	-19.644	80.6873
-31.2231	-60.8401	79.8942
-14.0288	-27.8552	93.4165
-13.3135	-30.3692	91.6992
-9.91076	-34.9312	93.9212
-13.5248	-32.5299	90.38
-14.4388	-34.5021	89.9538
-2.84138	-29.7434	104.684
-3.02637	-32.1203	101.101
-19.4789	-32.8026	86.4188
-4.08675	-18.0154	117.071
-10.1782	-17.5515	109.489
-9.58935	-21.3355	107.834
-3.95841	-21.9146	115.057
-30.3347	-72.4088	75.8394
-21.8122	-76.8009	80.1375
-20.9411	-70.8349	83.203
-28.2715	-67.0533	79.6573
-31.271	-50.3006	83.6671
-26.4538	-48.8581	86.8551
-3.25546	-34.6454	99.2989
-3.47557	-38.442	98.5395
-8.24584	4.92416	93.1854
-17.5739	-18.3893	91.6965
-17.4764	-21.5553	92.2294
-17.0753	-18.7436	93.9682
-6.02927	-34.4878	97.3899
-16.6405	-26.2925	90.6178
-3.99101	-42.4716	98.7352
-4.56486	-46.515	99.4416
-28.3504	-40.4738	84.2881
-23.25	-39.7696	86.7883
-13.2135	-68.8667	89.1526
-13.5023	-72.8767	86.319
-5.67117	-73.2936	88.3759
-5.14582	-69.4687	91.014
-23.4131	-54.3865	88.3694
-28.2931	-57.1039	82.7798
-14.7557	-14.3972	97.3988
-20.0167	-67.3706	85.8882
-58.4428	37.4844	61.9846
-65.3855	24.0868	48.4744
-62.1604	23.0472	54.5468
-48.336	59.46	60.8553
-46.4771	49.33	68.8484
-33.2812	53.1164	78.6481
-61.0778	51.9767	47.4537
-59.7797	41.6057	56.2932
-34.011	47.8167	81.0285
-46.1243	44.578	72.2462
-19.7582	31.7009	79.1757
-17.3392	34.4957	82.3981
-25.264	36.0287	81.3537
-27.1772	33.0193	78.6995
-8.43617	13.0221	85.7712
-2.86509	16.7331	90.5429
-2.90919	21.6393	87.679
-25.6608	-8.88347	78.5554
-22.8777	0.713455	75.4686
-35.9683	-2.17716	72.0594
-39.1309	-10.9128	73.3408
-54.9718	6.4114	59.1953
-58.1698	12.651	56.0882
-63.1132	10.6946	50.8856
-47.6152	36.6717	73.8174
-36.1605	36.3699	79.2199
-35.5472	41.5146	80.9858
-55.7747	31.6172	66.4269
-58.8629	22.055	58.5708
-36.912	32.7555	76.9959
-49.7315	24.509	67.5604
-45.4581	28.2855	72.0465
-12.7007	24.552	76.6502
-15.3297	28.4829	77.6874
-17.7651	24.7843	72.5836
-6.27538	36.0471	85.9036
-4.3695	31.0578	85.6938
-21.6675	5.82677	73.2913
-10.7835	27.303	80.346
-21.5472	9.51838	71.7473
-17.8131	-57.215	86.8731
-24.8715	-58.1126	82.4236
-5.16929	-51.4219	98.81
-4.99968	-48.7103	99.5427
-10.9288	-51.7026	96.6683
-11.1061	-54.145	94.809
-5.05875	-53.7029	97.2281
-17.6672	-52.9898	92.646
-10.3431	-49.2179	97.6996
-17.4535	-50.8719	93.6729
-10.8124	-55.8073	92.5216
-3.97893	-55.3336	95.0015
-18.1399	-58.9802	88.3327
-17.9701	-58.5523	87.7387
-18.486	-60.2633	88.8714
-12.396	-61.9804	93.4307
-11.6969	-60.0447	93.5117
-4.26666	-59.9867	95.9493
-3.93143	-57.6739	95.3569
-11.0224	-58.0708	92.9994
-4.50882	-62.2501	96.0236
-25.2551	-59.2103	82.214
-3.6745	-57.0928	93.0649
-4.7007	-64.3719	95.5238
-4.73697	-66.263	94.2381
-8.60771	-46.9564	98.3489
-3.80468	-56.9842	94.7566
-10.6848	-57.433	92.4307
-13.1746	-65.884	91.6288
-12.8703	-63.939	92.8751
-10.6036	-55.8646	91.021
-10.427	-57.6454	90.8592
-16.2043	-55.4752	86.6789
-10.5068	-54.2757	89.3268
-24.951	-61.0615	80.8671
-3.69494	-59.2034	89.9619
-3.86588	-55.3514	93.1541
-4.96816	-53.5296	90.6944
-10.5655	-59.6814	88.2113
-26.517	-50.6908	77.2076
-29.5127	-54.9446	73.9161
-15.1334	-48.6358	85.0776
-9.81401	-47.777	87.2493
-26.9033	-66.3846	75.5974
-22.7337	-67.2182	78.9291
-3.85794	-65.5017	86.34
1.13329	-65.349	86.8341
-4.70101	-47.1853	88.3126
-10.001	-66.0193	84.8548
-29.3299	-62.1461	73.3585
-81.597	-13.5959	-42.1051
-82.9205	-4.75599	-42.9028
-79.7084	-3.2135	-47.8291
-78.1391	-13.1689	-47.01
-79.5108	2.87075	0.455912
-80.5078	19.1633	-8.1619
-81.314	18.9317	-26.4688
-82.1511	10.7405	-22.5016
-78.1852	-27.9014	-35.7286
-76.089	-34.9468	-31.6693
-80.0706	-21.1062	-39.3111
-75.6282	-22.9839	-44.1807
-85.7061	-2.85798	-41.5627
-84.9283	-13.4413	-40.5355
-83.3022	-31.1692	-30.99
-85.8926	-22.8791	-35.5005
-80.2291	-39.1395	-24.2144
-77.7897	-41.056	-21.0913
-90.8799	-13.5299	-32.0648
-93.3482	0.904467	-36.0483
-77.872	-23.5681	-0.00999902
-76.5812	-31.8196	-1.08093
-82.0725	-20.1102	-10.8732
-82.267	-24.1254	-11.4042
-82.0857	10.0067	-21.1287
-89.6352	-2.92099	-41.8149
-90.192	18.7859	-22.7032
-91.8971	17.6543	-20.5942
-88.84	17.8303	-24.914
-87.1107	1.5059	-12.2122
-94.4739	8.42025	-35.7938
-92.182	-4.04912	-30.9467
-91.962	-1.30513	-29.6111
-85.5797	7.56012	-36.4752
-83.533	5.02542	-39.6024
-81.2962	-27.2445	-34.2306
-82.6565	-3.99469	-7.55997
-84.3116	11.5582	-29.5516
-83.3956	10.5813	-32.0829
-91.4713	9.84122	-22.4468
-87.6504	-9.78239	-25.2321
-15.3438	93.8587	58.0013
-13.9124	80.388	70.3612
-11.9013	66.5571	78.9639
-21.6441	53.9679	82.8987
-3.27641	-26.6516	109.752
-4.33544	-14.387	116.297
-10.7143	52.569	85.0798
-10.245	43.9917	86.065
-3.00691	26.0503	86.33
-27.8256	90.5816	56.0908
-21.7828	46.7053	84.1985
-23.8907	39.7364	83.0591
-30.0481	29.8338	75.2155
-22.6613	28.1015	74.346
-39.2953	85.9433	51.4613
-41.6534	97.552	32.4576
-38.2079	29.8094	74.7641
-50.1759	69.937	52.6091
-46.881	32.456	73.2532
-62.1273	63.8535	38.1863
-53.026	28.0254	67.4439
-13.2862	31.2768	81.4854
-68.3119	-58.9615	-15.0688
-81.2422	14.6268	-38.2304
-78.2374	24.1268	-49.7091
-75.3458	-0.939668	-59.7433
-72.8968	-14.8764	-57.4955
-80.6622	7.04202	-45.1797
-76.8076	12.6467	-57.8835
-69.3726	-28.0686	-52.9557
-13.5796	-102.982	55.0249
-25.4626	-99.5479	47.4077
-51.4328	-77.0591	40.3058
-71.5966	57.7053	19.0429
-15.9467	108.733	36.1425
-29.5359	104.304	35.1114
-51.4266	19.6827	63.1176
-52.5462	-70.8026	48.6247
-7.29225	-42.7981	97.887
-20.542	-46.0754	90.7229
-6.48702	-38.4474	97.3047
-11.2897	-39.1522	94.3965
-13.5884	-44.065	94.8597
-36.0425	-51.2915	80.1834
-35.7126	-58.2655	78.6028
-73.5904	-44.6667	-22.7238
-74.5629	-34.346	6.36452
-75.9751	-25.2005	7.32375
-76.1312	5.30933	17.2023
-74.7871	-11.3094	20.3261
-52.1437	10.3229	60.7742
-73.4575	-25.2869	20.4472
-72.1126	-36.6286	19.6471
-14.5769	-8.84174	92.2887
-15.9681	-24.1577	94.2065
-14.2055	-22.197	99.1015
-34.4189	-41.1767	81.0439
-51.1973	-57.1717	62.4111
-43.2869	-53.5246	73.4081
-47.1069	-65.6552	63.2778
-62.9514	-36.8896	50.1536
-32.1405	-79.1444	71.0336
-40.4461	-72.9053	66.4018
-49.4689	-2.2137	65.7137
-46.8723	3.12381	66.0937
-40.9715	-60.9808	73.1346
-36.6047	-67.0565	73.7918
-13.302	-79.2588	84.3461
-33.6265	2.89631	71.4402
-10.2755	-14.6969	109.027
-69.6127	-25.3217	36.1842
-68.4765	-37.7902	34.908
-8.10425	29.5758	83.6146
-17.3259	-39.491	90.3199
-22.4877	-56.4303	82.9648
-21.0272	-49.4968	81.5376
-34.1902	-135.776	20.3045
-42.7987	-132.452	13.1776
-45.2025	-147.125	10.3229
-36.3909	-149.973	16.6791
-42.6656	-97.8892	19.5288
-34.1274	-102.482	29.7253
-41.1377	-111.022	17.0355
-32.3789	-114.22	26.3603
-33.1687	-63.0773	78.1454
-51.7479	-84.2627	14.1067
-55.3367	-77.3038	19.7032
-50.1375	-129.257	5.46235
-52.6022	-143.858	2.83006
-59.1374	-75.0107	6.08523
-56.7999	-82.1615	1.67602
-60.6908	-81.3394	-8.92216
-60.5133	-95.8654	-34.7909
-75.3892	-38.0777	-3.42631
-61.6506	-80.0869	-33.4707
-54.8053	-106.96	-50.6228
-55.4454	-123.922	-52.8556
-26.6805	-152.344	22.076
-24.4607	-138.401	26.8003
-23.1006	-105.435	40.956
-21.8744	-116.417	35.7234
-27.1671	-63.8342	81.5044
-17.8298	-58.7651	86.6506
-17.8112	-60.5156	84.9837
-16.9883	-154.1	26.2669
-16.7111	-66.807	82.256
-77.0895	53.9214	-2.33191
-49.4527	-81.623	-59.0871
-48.4685	-102.473	-60.9715
-55.2182	-87.3484	-48.6107
-48.7039	-120.237	-63.6469
-57.79	-66.7382	-47.7883
-15.5613	119.677	6.45358
-29.9223	114.695	6.45785
-15.3774	112.386	-64.3355
-14.3058	92.2475	-93.5306
-28.5516	89.4535	-89.9692
-30.1004	108.517	-61.2085
-14.3681	66.8006	-110.109
-27.4991	64.6644	-106.631
-30.3031	116.944	-27.0854
-15.5976	121.658	-28.826
-13.8638	40.458	-118.308
-26.5385	38.3587	-114.776
-12.9084	12.3376	-120.463
-25.5105	10.7097	-116.563
-23.9375	-15.2568	-111.415
-12.0485	-13.7454	-115.416
-11.3181	-38.5734	-101.471
-22.3055	-38.9993	-99.023
-10.0745	-75.0714	-84.9102
-9.77426	-94.1099	-83.3017
-19.7892	-95.2695	-81.5866
-20.7618	-76.4392	-82.5429
-9.76948	-112.941	-82.8235
-19.7425	-113.467	-81.5653
-11.0674	-55.1734	-91.0912
-22.1039	-57.0574	-88.2473
-43.0972	106.709	5.56602
-54.9977	96.1274	3.75706
-52.8101	77.7741	-76.4646
-41.5199	84.6061	-84.0443
-40.7142	60.8878	-100.245
-52.0913	56.0274	-92.0573
-53.9627	92.9378	-51.6154
-42.591	102.212	-56.8575
-55.7546	97.9799	-24.1402
-43.8088	108.923	-25.5044
-50.7347	32.0779	-100.214
-39.533	35.4701	-108.344
-37.9503	8.88653	-110.168
-48.5705	7.29722	-102.131
-45.4167	-17.4857	-97.5211
-35.7328	-16.7343	-105.08
-33.8632	-40.2971	-93.1777
-44.1582	-40.4825	-85.2305
-33.1503	-58.8952	-82.489
-39.6	-98.6007	-70.9607
-41.4275	-78.618	-69.4684
-31.7035	-77.6967	-77.3852
-30.025	-96.9298	-77.6565
-30.0096	-114.721	-78.4439
-64.0032	80.9542	-44.9262
-62.2515	69.0713	-67.6068
-70.3512	58.2159	-56.3055
-72.413	66.7082	-34.9994
-73.307	69.434	-13.0982
-65.745	84.6644	-21.0825
-59.863	28.1357	-90.9043
-61.2985	50.0462	-82.7253
-54.3129	-18.0973	-87.4601
-58.0077	5.12434	-91.9488
-51.9437	-39.0905	-76.869
-74.4012	33.4943	-60.662
-61.6823	-17.8277	-76.9946
-67.777	-16.521	-67.1301
-71.0087	0.91376	-70.5203
-65.1516	3.00092	-81.6373
-72.6457	17.6885	-69.4342
-66.9083	23.4024	-80.8723
-68.6742	42.5346	-72.1972
-60.1605	-47.6225	-53.8535
-63.7892	-32.5454	-60.6984
-58.0338	-36.3846	-68.7789
-94.1115	9.20046	-36.401
-92.3014	9.92193	-37.5957
-93.2991	16.7686	-28.7538
-91.4047	17.9549	-29.8698
-89.4624	12.8059	-14.851
-87.6668	13.7738	-16.7862
-85.4777	13.2103	-19.716
-90.5333	8.33027	-38.5304
-90.1951	16.5454	-31.167
-93.2349	-2.79411	-38.5853
-92.6539	16.4104	-19.8064
-93.9261	15.4711	-28.3286
-40.0596	-117.049	-72.3919
17.5708	-101.39	70.2603
14.7817	-102.249	70.5004
19.9759	-100.808	67.4597
18.1039	-100.227	72.2979
67.2025	-9.26511	45.9284
65.4708	-8.43512	49.2695
67.4174	-12.6235	45.2389
68.333	-5.2707	42.5906
63.7397	-6.81546	51.6801
63.7668	-2.54278	50.5994
61.3768	-8.23142	54.8816
10.9001	35.9417	87.1259
13.4651	34.0507	86.7838
13.3556	38.1683	87.0923
8.19785	38.0446	87.498
9.4246	33.3043	86.3611
10.6072	19.8948	80.4854
11.3571	18.6753	79.4384
11.1629	21.6157	79.575
10.011	20.3501	81.5044
14.0594	20.1122	74.4755
15.3012	18.3818	71.972
14.6267	21.6914	74.1486
12.7883	22.0895	77.1449
13.6174	18.425	75.1892
42.8558	13.4763	67.1323
39.4851	11.5559	68.8123
44.6564	15.0157	66.0615
16.5006	11.7183	73.1646
16.1887	12.9477	72.8178
16.3009	10.6417	74.3207
17.7587	10.7	72.4391
27.6296	-58.2852	81.5979
27.54	-58.1866	81.8586
27.702	-58.3875	81.1252
27.551	-58.2382	81.9252
26.6373	-57.0642	84.2641
26.9114	-57.7041	82.9296
27.5933	-57.5245	83.0955
26.7346	-56.6092	84.8867
25.1945	-56.6066	85.9089
30.4044	-58.208	81.62
30.4443	-55.7168	82.8762
27.8861	-58.5254	80.1911
27.5426	-57.8383	80.8594
28.3092	-58.3907	78.5234
27.7393	-58.8248	80.5824
23.6923	-61.9996	86.9624
23.9663	-62.7088	86.5092
26.1024	-60.2686	84.2333
23.6365	-61.3372	87.0684
20.8449	-63.4254	89.5812
20.9626	-51.1589	92.145
20.3324	-49.7897	92.697
17.5923	-49.4973	94.6242
21.3098	-51.9593	91.8001
23.7287	-53.0473	89.6706
26.8956	-58.3109	82.8223
26.985	-58.35	82.8025
27.0132	-58.3095	82.6852
25.4966	-58.3789	84.0117
78.075	-35.8701	-8.43497
77.4661	-36.3045	-7.60272
77.6313	-39.152	-11.3463
78.6651	-34.9154	-8.37565
86.5229	-26.4791	-20.0192
87.0975	-24.5846	-22.6524
85.3815	-24.8884	-18.8426
85.9874	-27.684	-17.5829
87.0075	-27.7806	-20.6604
81.273	-32.802	-10.2118
81.4287	-30.2354	-9.58261
80.6049	-33.1065	-9.4892
81.9594	-33.9992	-11.7738
81.5868	-20.4416	-13.5789
81.5212	-19.3589	-14.4222
81.5731	-18.6492	-13.3829
81.8424	-20.9372	-12.2664
81.9954	-21.8977	-13.913
87.1552	-0.734622	-14.5993
86.6211	-2.69639	-15.3422
87.4444	0.076377	-15.1531
87.2102	-0.207611	-13.7023
90.639	10.2736	-18.6221
90.6716	10.8453	-17.6525
90.2378	9.32522	-18.5952
91.8322	11.4749	-21.6325
84.1255	-18.0122	-20.3763
83.1827	-16.5987	-19.0083
83.5776	-21.8281	-17.7425
86.366	-21.0404	-23.0632
86.4955	-15.4855	-24.2321
89.0015	0.789008	-20.9184
89.3907	1.9378	-21.2671
87.7967	0.24501	-17.1898
88.9426	-0.502108	-21.9508
92.2524	-9.70069	-32.7274
92.1456	-9.49877	-32.1603
91.3881	-12.8034	-32.3044
92.6191	-8.56234	-33.6728
92.9279	-6.89169	-35.318
93.1155	-4.78277	-34.2781
92.8399	-7.57262	-36.3578
93.2079	-3.83088	-36.5576
87.5789	-22.9161	-24.5886
88.0566	-20.649	-26.3926
88.0161	-23.9339	-25.389
89.8615	-9.27344	-28.6607
88.8321	-11.2682	-27.533
91.1577	-9.51496	-30.4863
89.8855	-7.93512	-28.3973
79.5929	-28.075	-6.37535
79.625	-30.2848	-7.03746
80.2382	-27.6244	-7.24431
79.3538	-27.2702	-5.74053
79.253	-25.6912	-5.02936
79.6124	-23.6529	-5.03595
78.8586	-25.8884	-4.15987
80.8375	-16.6595	-5.46026
80.562	-17.2304	-5.02857
81.1859	-16.9602	-6.33261
81.3423	-13.4509	-5.68602
80.2304	-18.0391	-4.55447
79.8665	-17.9406	-3.64635
80.0217	-20.4259	-4.81086
83.5902	-23.4252	-16.4753
83.4092	-24.5107	-14.7244
83.5398	-11.5768	-13.8341
82.4044	-15.3925	-13.5441
83.4438	-12.0472	-15.3052
84.7111	-7.7499	-14.1131
83.945	-10.4829	-12.6245
93.1307	6.47677	-30.5633
93.2631	7.22354	-30.8166
92.9753	6.04052	-30.0021
93.3563	5.32493	-32.2908
93.277	1.67224	-33.0966
93.0917	0.546438	-31.6855
93.3005	0.0114119	-33.9849
93.3883	3.01033	-33.9192
93.0842	3.4313	-31.1887
90.0396	8.69951	-18.7678
90.8868	8.86634	-21.3538
89.422	7.79484	-17.668
91.8629	8.81669	-24.5983
91.4328	7.73558	-23.9084
92.9774	8.60677	-28.61
92.4406	10.1236	-25.4563
38.6947	24.5588	73.7618
41.1869	23.4935	72.7927
35.6707	25.3351	74.1768
23.5662	-99.798	63.5603
22.7265	-100.403	60.7078
25.8142	-98.4746	63.326
45.99	18.5912	67.5306
45.0771	20.4356	69.3712
46.7512	17.0775	66.1087
50.9138	20.4297	66.4026
53.8569	21.7853	65.159
50.0463	23.0084	68.8088
48.4662	19.7766	67.4033
51.2266	17.9727	64.4697
71.6928	-48.4955	-3.75881
72.6775	-46.7119	-8.3186
72.1061	-47.0317	-2.39853
70.9426	-50.6182	-4.08855
17.7259	17.0178	68.8262
18.028	16.2094	68.6196
17.7816	17.9774	68.9801
17.1868	19.7978	70.0406
18.0991	21.3971	70.5405
16.9685	18.4304	69.7496
9.29001	21.6368	82.5414
8.61133	21.6638	83.5478
9.3757	23.7791	82.4798
21.7435	-56.7224	87.8083
22.4035	-57.2895	86.4558
22.1144	-56.3004	88.209
18.6	-55.9401	90.214
64.0773	-70.275	-8.15212
63.1545	-70.2543	-2.68142
63.5411	-72.9097	-9.95877
64.9811	-67.8217	-8.83634
79.3412	-5.65462	-0.0770964
78.2617	-13.0012	2.57119
80.1956	-6.33401	-2.64594
80.3576	2.22639	-3.54828
78.2661	-4.74906	4.19882
64.7705	-73.0767	-21.4738
64.2527	-75.2652	-23.1266
65.4837	-68.7675	-21.996
64.0794	-75.3295	-16.7049
62.0192	-108.438	-26.6171
62.1983	-116.971	-28.1065
60.5396	-104.877	-34.3485
61.8977	-99.4435	-26.5072
62.1555	-110.953	-20.4568
27.2356	-58.7173	82.8191
27.3662	-58.8667	82.7632
25.7988	-59.2469	84.3346
27.5748	-59.1143	82.696
23.3586	-60.9305	87.3293
23.4691	-60.3787	87.1193
20.5675	-61.8397	90.0194
27.5838	-97.1063	63.2334
31.4308	-94.7788	58.3794
27.6071	-95.7863	65.945
48.7559	-60.2287	-65.984
47.491	-56.4282	-70.0742
51.363	-59.2239	-62.2464
47.8171	-63.327	-65.7588
56.1295	80.7641	34.7886
58.0154	82.6241	27.7023
52.1823	84.0152	37.5238
56.9916	76.7378	37.7222
89.4619	-19.2933	-33.5205
90.8559	-14.2615	-36.3641
89.9818	-18.518	-32.5252
88.2357	-23.4725	-30.9491
88.8553	-19.3193	-34.7434
84.382	0.230328	-9.10194
83.4534	-4.10487	-7.97649
85.3679	0.156935	-9.76068
85.2723	4.56798	-10.681
83.1127	0.387201	-8.37835
81.5965	-21.0411	-8.49999
81.1283	-21.7579	-7.44877
81.9965	-23.5912	-9.71936
81.9549	-21.2244	-10.0355
81.6058	-19.3886	-8.18829
81.3414	-27.4131	-8.8421
80.9187	-24.6652	-7.62573
82.1952	-27.0743	-10.1851
91.9349	-8.52285	-38.7754
91.1652	-8.50982	-39.5799
92.6488	-2.37962	-39.8166
92.3972	-8.545	-37.9271
90.1517	-8.36786	-40.2379
89.289	-13.8992	-38.3017
89.0988	-8.12875	-40.6111
90.6791	-2.37145	-41.1026
82.0053	4.43019	-9.59973
82.3015	6.70372	-11.3139
81.8098	5.45957	-9.31314
82.0121	2.75437	-8.46176
86.1458	-17.4617	-37.6619
84.4568	-16.9007	-38.4252
86.9051	-13.0835	-39.4581
87.2033	-18.0696	-36.9686
85.0202	-21.3569	-35.7726
88.1781	-24.9634	-26.1536
88.8147	-21.8547	-28.5761
87.7425	-26.9664	-24.0282
88.0479	-25.8677	-27.3304
85.4252	-33.5205	-24.1176
84.7573	-35.385	-21.2961
84.0608	-34.8689	-25.1342
86.465	-30.3279	-26.8021
86.8257	-30.9097	-22.7403
86.099	-31.983	-17.597
85.5301	-33.6544	-17.9145
86.6495	-30.8489	-19.1804
85.6813	-31.3527	-16.3112
75.2173	-42.3504	-13.4768
74.6623	-43.2673	-13.939
76.3365	-41.4141	-15.1735
75.2101	-41.5625	-9.2492
80.1559	-38.8868	-14.6075
80.5239	-39.5644	-16.9136
81.4176	-37.5559	-14.243
79.6864	-37.2141	-11.6734
79.0741	-39.7171	-14.8228
88.2003	6.83489	-11.8294
88.2648	8.33799	-11.9247
86.7663	3.32011	-11.0461
88.497	6.80876	-12.177
88.2583	9.2716	-12.1492
89.635	12.6062	-14.0013
87.9056	9.25751	-12.1578
92.6215	-8.39183	-37.1949
91.6462	-13.061	-34.7154
93.2855	-2.75683	-38.5509
93.9193	5.76767	-35.2171
93.6954	4.75039	-34.9539
94.0345	5.12841	-36.0811
93.8994	7.28251	-33.7062
89.188	7.89622	-13.8741
89.052	7.65193	-13.3381
88.709	6.33277	-14.1386
89.7062	9.50985	-14.8187
88.6776	6.76701	-12.5432
87.7953	3.59675	-12.4974
89.8044	11.0354	-13.925
91.8729	-9.48423	-31.5854
92.5712	-6.55688	-31.8718
90.527	-13.0349	-30.5617
88.3535	4.78696	-15.6503
88.801	6.40603	-16.1516
88.2656	4.6227	-15.1923
88.604	3.92283	-17.384
89.1864	7.22903	-17.3013
89.638	6.86746	-19.2241
87.9167	-14.3504	-26.5828
88.52	-16.0985	-27.6459
84.1372	-9.68129	-11.4889
85.3448	-5.31098	-11.5743
83.9709	-9.6994	-10.4237
82.931	-14.3391	-11.4994
87.5833	0.497745	-15.4539
87.8724	2.22599	-14.8645
53.0429	-57.2608	-60.3501
53.336	-52.7172	-62.9956
54.4362	-57.4612	-57.6345
26.7875	-27.7506	81.7249
28.1196	-31.1769	81.7512
27.4072	-26.3089	81.257
24.9135	-27.429	82.698
22.0495	-25.7398	84.9573
22.5104	-26.7828	84.3828
22.7257	-23.127	84.8154
20.8998	-26.1277	86.3985
52.5035	37.2043	69.4589
52.606	35.1017	70.1871
58.0657	33.154	63.8917
52.6093	39.1516	68.2589
46.6306	39.1612	73.5242
9.24979	-30.9925	96.3237
8.54766	-30.4493	97.6963
9.00903	-31.7621	96.1221
10.5283	-30.9482	95.089
11.1332	-27.0955	99.675
9.5601	-27.7308	100.733
12.3809	-27.9041	96.8193
11.8778	-25.7333	100.675
45.3587	15.9222	65.9488
45.1205	16.6176	66.2741
17.8882	-17.9521	97.7507
17.961	-18.9187	97.5231
18.3774	-17.9538	96.6329
16.7005	-17.0769	99.9952
83.8704	-25.3662	-33.6406
82.7011	-27.907	-32.2172
82.5657	-23.7744	-35.0468
84.8887	-26.4912	-32.5461
65.9892	77.3084	14.792
63.5486	80.8697	16.0256
66.7273	72.7287	19.3094
67.9775	77.8636	5.05997
28.5331	-63.2118	76.2501
29.0619	-61.4439	75.7893
28.717	-64.1256	75.1418
27.6893	-63.031	77.8004
28.4762	-52.9751	76.5782
27.3319	-53.3436	78.2733
28.5542	-51.5541	75.7022
29.0274	-54.7704	76.0749
-16.119	-100.331	70.0479
-16.5035	-99.2138	72.1109
-18.6424	-99.5874	67.1954
-13.3306	-101.361	70.1994
-67.4175	-8.40508	46.6257
-68.829	-4.93085	42.9961
-67.4457	-11.8922	46.0328
-65.5466	-7.01196	50.1604
-63.5399	-4.90982	52.8911
-60.8402	-5.93213	56.2756
-63.7548	-0.698792	51.6918
-10.2166	38.2512	85.4864
-11.9729	36.0197	84.5536
-8.50437	35.0519	85.1704
-7.77477	39.7653	86.1702
-12.9628	40.4857	85.3451
-9.21349	20.1318	80.2911
-8.60512	20.5484	81.2733
-9.80748	21.9079	79.3977
-10.0512	19.0153	79.2499
-13.2452	20.8761	74.4852
-15.1097	19.4402	72.0175
-12.6456	19.1626	75.2544
-11.7077	22.5883	76.9365
-14.0688	22.631	74.0663
-46.1447	15.5972	65.036
-42.8454	13.7858	67.2803
-47.9377	17.0113	63.6179
-15.8612	12.4104	73.4495
-17.4142	11.2435	72.7951
-15.4036	11.2718	74.7177
-15.6863	13.6972	73.0071
-27.909	-58.8875	80.4323
-27.8051	-58.775	80.7194
-27.8148	-58.8313	80.7743
-27.9918	-58.9961	79.9647
-26.6919	-57.5847	83.1267
-27.8904	-58.1073	81.9144
-24.8685	-57.1505	84.7725
-26.7606	-57.1252	83.7537
-30.8748	-56.3619	81.9541
-28.1671	-59.1607	79.0413
-28.0268	-59.4097	79.3996
-28.5142	-59.0535	77.4485
-27.8228	-58.4361	79.7414
-22.561	-62.4194	85.6692
-22.9362	-63.1343	85.1395
-19.1836	-63.9081	88.4307
-22.5052	-61.7682	85.8077
-25.8396	-60.784	82.9375
-20.3547	-51.6962	91.5763
-19.8199	-50.3092	92.1579
-22.9362	-53.6101	89.1378
-20.6468	-52.5277	91.2086
-17.0588	-50.0281	94.0663
-27.0291	-58.8899	81.6572
-25.3273	-58.9209	82.8231
-27.1618	-58.8926	81.531
-27.1251	-58.9247	81.6331
-78.1725	-36.8961	-9.40613
-78.8858	-35.9449	-9.32996
-77.644	-40.06	-12.4469
-77.5552	-37.256	-8.59552
-86.4854	-27.1618	-20.872
-87.0479	-25.2257	-23.4778
-86.9611	-28.4519	-21.5192
-85.963	-28.3987	-18.4549
-85.3586	-25.5929	-19.682
-82.0394	-33.7005	-11.2143
-82.7737	-34.7855	-12.8292
-81.5343	-33.9712	-10.5978
-81.7799	-31.1005	-10.4427
-81.6296	-21.2111	-14.3843
-81.5638	-20.1016	-15.2295
-82.0297	-22.6707	-14.7426
-81.8866	-21.7114	-13.0645
-81.6249	-19.3838	-14.1622
-87.2572	-1.20907	-15.2219
-87.3221	-0.67988	-14.3189
-87.5429	-0.379925	-15.7746
-86.7133	-3.19608	-15.9797
-90.7094	9.98807	-19.2011
-90.7535	10.5643	-18.2332
-91.8672	11.2218	-22.201
-90.3081	9.02397	-19.1767
-84.273	-11.4448	-18.9639
-86.7392	-7.46453	-22.0296
-83.6307	-13.8556	-19.3607
-83.5076	-12.6781	-16.0304
-85.3397	-7.67604	-18.0117
-89.8273	3.11568	-22.081
-89.428	1.55423	-21.8786
-88.6865	3.53831	-17.9903
-90.3848	4.76506	-22.8623
-91.4426	2.72638	-26.8367
-81.3321	-29.9665	-32.3288
-82.606	-28.473	-33.0487
-80.1278	-29.7913	-32.8239
-81.105	-32.3147	-30.7729
-92.1704	-10.0991	-33.3773
-92.5334	-8.94202	-34.3114
-91.3022	-13.2382	-32.9805
-92.067	-9.90243	-32.8123
-92.8335	-7.24604	-35.94
-93.0287	-5.12451	-34.8908
-93.108	-4.14904	-37.1588
-92.7396	-7.92363	-36.9792
-87.5222	-23.5236	-25.3918
-87.9946	-21.2228	-27.1673
-87.9513	-24.5305	-26.1944
-86.325	-21.6673	-23.8585
-89.8112	-9.72153	-29.3306
-88.7878	-11.7515	-28.2262
-89.8404	-8.3732	-29.0581
-91.0901	-9.94078	-31.1487
-87.8705	-14.8756	-27.3053
-88.4604	-16.6226	-28.3764
-86.463	-16.054	-24.9794
-79.6894	-28.9794	-7.21414
-79.411	-28.1905	-6.59174
-80.3264	-28.5209	-8.0758
-79.8836	-31.2055	-7.98233
-79.3186	-26.6056	-5.85119
-78.9247	-26.8124	-4.98253
-79.6832	-24.5483	-5.82662
-80.9575	-17.465	-6.15599
-81.4823	-14.2113	-6.34966
-81.2953	-17.7569	-7.03867
-80.6826	-18.0503	-5.728
-80.3498	-18.8777	-5.25933
-80.1209	-21.2906	-5.54937
-79.9939	-18.7908	-4.34012
-83.5942	-24.1575	-17.3175
-83.5793	-22.5423	-18.565
-83.4162	-25.2587	-15.5772
-83.6155	-12.2183	-14.5386
-82.468	-16.088	-14.2851
-84.0341	-11.1202	-13.3105
-84.7991	-8.33403	-14.7858
-81.9664	-17.9542	-13.7984
-82.2155	-17.9196	-12.9157
-93.0786	6.21687	-31.1328
-93.2895	5.06425	-32.8592
-92.9269	5.77251	-30.5745
-93.2092	6.97352	-31.3819
-93.2022	1.38193	-33.6776
-93.0254	0.237297	-32.2742
-93.024	3.14548	-31.7668
-93.3089	2.73743	-34.4935
-93.2185	-0.287845	-34.5714
-90.1091	8.39172	-19.3545
-89.5051	7.46895	-18.2632
-90.9267	8.57713	-21.9372
-91.8687	8.54632	-25.1763
-91.4455	7.44671	-24.495
-92.4358	9.87415	-26.022
-92.9431	8.36057	-29.1773
-90.8818	6.15569	-23.6176
-92.1702	5.74404	-27.7211
-89.7023	6.53544	-19.8216
-41.6356	27.1954	72.5191
-38.5379	27.8952	73.3605
-44.2315	26.1574	71.1407
-22.3883	-98.4649	63.1541
-24.6397	-97.0901	62.9037
-21.5552	-99.1746	60.2726
-48.8021	20.7354	65.1477
-49.6008	19.0691	63.5928
-47.7843	22.8761	67.3166
-52.613	23.2785	64.8212
-51.3237	26.2554	67.7015
-54.6659	24.32	63.9117
-52.7996	20.0408	62.5289
-50.8242	22.1954	65.244
-71.6975	-49.3456	-5.21136
-70.9426	-51.4301	-5.61392
-72.1082	-47.9472	-3.79444
-72.6619	-47.5296	-9.6824
-19.9637	18.3992	68.2103
-20.2355	17.6241	68.0754
-20.2094	19.3604	68.3696
-18.5813	21.179	69.729
-19.8775	22.885	70.3137
-18.0547	19.6733	69.5631
-7.80181	21.7764	82.3968
-7.93888	24.053	82.2841
-7.09913	21.7834	83.4398
-20.7762	-57.2376	86.7895
-17.4998	-56.462	89.4123
-21.2089	-56.7916	87.2532
-21.5495	-57.7567	85.3414
-64.1086	-70.3794	-9.95791
-65.0005	-67.9986	-10.6337
-63.5683	-72.9362	-11.6928
-63.2074	-70.3477	-4.65594
-79.6054	-6.35317	-0.635293
-78.4784	-13.8525	2.02205
-78.5777	-5.45867	3.71123
-80.6307	1.69749	-4.13099
-80.431	-7.02381	-3.24084
-64.575	-73.2027	-22.8659
-63.9964	-75.3596	-18.2263
-65.2775	-68.9955	-23.4023
-64.0399	-75.3711	-24.4686
-62.0735	-108.176	-27.4747
-62.2591	-116.712	-28.8305
-62.2584	-110.6	-21.3579
-61.9101	-99.2251	-27.5015
-60.5538	-104.708	-35.1363
-27.3778	-59.3126	81.6393
-25.5738	-59.7753	83.0838
-27.2233	-59.1565	81.6874
-27.5051	-59.4607	81.5836
-29.1729	-58.9961	80.9067
-28.23	-60.2664	81.2692
-22.2038	-61.3682	86.1069
-18.8714	-62.339	88.962
-22.3988	-60.8434	85.901
-26.4496	-95.6935	62.8092
-26.5409	-94.3974	65.2659
-30.2801	-93.4443	58.1947
-48.6386	-60.3979	-66.4845
-47.7061	-63.4825	-66.2538
-51.2475	-59.4221	-62.8103
-47.3587	-56.5863	-70.5099
-56.2345	81.054	33.891
-57.1981	77.0176	36.7459
-52.2413	84.2788	36.7106
-58.0427	82.9162	26.8645
-89.364	-19.7746	-34.2371
-90.7487	-14.675	-37.0257
-88.7514	-19.7941	-35.4562
-88.1459	-24.0096	-31.7187
-89.8891	-18.9988	-33.2402
-84.5606	-0.276071	-9.70276
-83.6255	-4.69412	-8.58997
-83.3072	-0.128441	-8.97654
-85.4502	4.14471	-11.2742
-85.5322	-0.342028	-10.3621
-81.6635	-21.8536	-9.27199
-81.2008	-22.5917	-8.22597
-81.6839	-20.1877	-8.93813
-82.0097	-22.0159	-10.819
-82.0445	-24.4056	-10.5285
-81.4425	-28.2797	-9.66392
-80.986	-25.526	-8.44544
-82.2753	-27.9165	-11.013
-91.8217	-8.86581	-39.3879
-92.2882	-8.89166	-38.543
-92.5328	-2.6609	-40.3891
-91.0461	-8.85099	-40.192
-90.0273	-8.70908	-40.8503
-89.1709	-14.3034	-38.9584
-90.5527	-2.65063	-41.6766
-88.9696	-8.46948	-41.2248
-82.1991	3.97518	-10.2015
-82.2186	2.27369	-9.06171
-82.0139	5.0138	-9.92602
-82.4683	6.2838	-11.9069
-86.034	-17.9062	-38.3589
-84.3495	-17.3368	-39.1202
-84.9156	-21.8481	-36.5141
-87.0891	-18.524	-37.6692
-86.7872	-13.4778	-40.1145
-88.1079	-25.5555	-26.9619
-88.7365	-22.4021	-29.3435
-87.9717	-26.4544	-28.1419
-87.6796	-27.5933	-24.8642
-85.3586	-34.1827	-25.0382
-86.7669	-31.5735	-23.6291
-86.3879	-30.946	-27.6679
-83.9836	-35.5293	-26.0751
-84.72	-36.0947	-22.253
-86.0922	-32.7225	-18.5031
-85.7011	-32.1201	-17.1794
-86.6141	-31.5452	-20.0821
-85.5414	-34.4322	-18.8209
-75.183	-43.1474	-14.6854
-75.2089	-42.4308	-10.4554
-76.2999	-42.1923	-16.346
-74.625	-44.0471	-15.1688
-80.6181	-39.3809	-15.4709
-80.6363	-40.2793	-17.9235
-79.141	-40.4732	-15.8816
-80.4915	-37.8455	-12.9143
-82.1013	-38.1016	-15.2293
-88.3457	6.46297	-12.4141
-88.6359	6.43918	-12.7598
-86.9175	2.88468	-11.6376
-88.4167	7.98941	-12.5082
-88.4126	8.94172	-12.7337
-88.0682	8.92793	-12.7428
-89.7673	12.3378	-14.5776
-93.8319	5.53189	-35.7728
-93.8234	7.0511	-34.2613
-93.9406	4.89339	-36.6338
-93.6099	4.50261	-35.5168
-89.3103	7.55203	-14.4622
-89.8197	9.19604	-15.4038
-88.8272	5.965	-14.7325
-89.1791	7.3	-13.924
-88.8126	6.39827	-13.1283
-89.9247	10.7373	-14.4965
-87.9263	3.17804	-13.0922
-91.7982	-9.89575	-32.2413
-90.4523	-13.4925	-31.2519
-92.4974	-6.93188	-32.5037
-89.2734	6.89122	-17.8991
-88.8998	6.04968	-16.7499
-88.4558	4.4026	-16.2547
-88.3725	4.23368	-15.7963
-84.239	-10.3155	-12.1576
-85.4639	-5.88017	-12.2092
-83.0119	-15.0385	-12.213
-84.0815	-10.3433	-11.0814
-87.6796	0.0493652	-16.0757
-87.9785	1.80094	-15.4784
-87.8766	-0.194562	-17.8139
-52.9256	-57.4829	-60.9498
-54.3173	-57.6991	-58.28
-53.2036	-52.9428	-63.5526
-24.836	-27.282	82.7661
-22.6793	-26.9203	83.7482
-25.1697	-25.7162	82.4005
-26.9449	-30.974	82.5881
-19.6432	-25.2616	85.975
-18.6579	-25.7304	87.2334
-20.0955	-22.4621	86.0282
-20.1371	-26.2286	85.4148
-52.4037	40.724	69.0559
-52.571	38.9816	69.6933
-46.6634	42.4112	72.977
-52.6114	42.2532	67.7878
-57.9735	36.1245	63.548
-6.79779	-30.069	99.0231
-7.0373	-29.3641	99.7184
-7.50519	-30.5701	97.6315
-5.67328	-30.5031	99.9426
-7.31192	-28.41	100.964
-8.33331	-27.8089	100.544
-6.18279	-28.141	103.122
-48.539	17.8826	63.4176
-48.2497	18.7034	63.825
-15.8123	-18.1989	97.9736
-14.7851	-17.3289	100.033
-16.2292	-18.1719	96.9095
-15.8732	-19.1904	97.7966
-66.0082	77.5751	14.0033
-67.9257	78.0963	4.37944
-66.8285	73.0088	18.4338
-63.5326	81.1399	15.2538
-28.2996	-63.9175	75.2509
-27.5127	-63.6872	76.6964
-28.3275	-64.8468	74.2233
-28.9277	-62.1828	74.8285
-28.5413	-53.7179	75.9085
-29.1228	-55.5471	75.301
-28.421	-52.2393	75.3058
-27.4187	-54.0212	77.532
-9.72937	-27.254	99.6205
-10.3602	-25.9176	100.622
-10.8429	-28.1159	97.0078
8.41883	-28.4099	101.176
7.32578	-28.2218	103.28
8.04679	-29.387	99.8673
7.73329	-30.0946	99.1483
6.54012	-30.6231	100.083
-8.12737	-31.2211	96.2933
-9.24691	-31.1527	95.2161
-7.93218	-32.021	96.0402
80.5945	-34.8841	-27.2667
78.8571	-35.447	-27.0331
81.1943	-31.708	-29.8793
81.7678	-35.2489	-26.6494
79.442	-38.1837	-23.8778
70.7066	-48.1499	10.7452
69.509	-49.9436	18.4661
69.5072	-52.3971	9.74593
71.8104	-46.1027	4.03815
71.7585	-43.6168	11.7872
58.1406	-114.838	-6.26658
57.7361	-104.521	-5.74295
55.5628	-115.948	-1.73166
58.946	-125.234	-7.5282
60.1636	-113.545	-10.8983
59.752	-132.771	-8.92072
60.449	-138.728	-10.2578
61.4678	-130.938	-13.6728
57.3862	-134.672	-4.19504
51.8291	-99.027	4.82164
52.3813	-93.0572	5.82131
48.4611	-100.671	9.79981
51.8544	-106.733	3.86737
55.0828	-97.925	-0.472198
61.2049	-96.0439	-14.2633
61.1827	-102.992	-14.7181
62.1145	-94.7791	-19.5435
61.4066	-90.6436	-13.9537
59.715	-96.5751	-9.7634
62.5848	-66.4802	22.6088
64.1105	-63.0549	24.1572
60.3593	-68.1838	30.6197
60.8471	-69.9437	20.4363
64.0064	-65.2132	14.5871
73.6557	31.8019	23.2715
74.368	39.8695	19.0795
69.7436	35.0074	34.3234
73.1739	24.0156	25.9798
76.9023	30.1656	11.5379
79.0586	42.1792	-29.0812
78.4454	39.1488	-38.7305
77.4412	49.2697	-34.1264
79.488	43.9281	-18.5034
80.2237	34.7265	-24.3916
6.49012	-111.905	46.7332
3.40327	-111.774	47.5983
7.5364	-119.228	43.4448
10.4049	-111.89	45.3008
6.69228	-107.999	49.5481
8.97265	-130.652	38.1224
10.1531	-141.965	33.0481
12.7023	-129.808	36.6683
5.59485	-130.781	39.2529
3.36019	-150.256	31.4808
7.0779	-149.965	30.9695
2.96449	-142.525	34.5844
-0.223449	-150.212	31.6856
3.81109	-155.458	29.56
67.3098	-53.0099	-32.7004
69.81	-47.1313	-30.5631
66.8007	-59.2877	-27.4142
64.7357	-58.929	-34.8815
68.0897	-45.5393	-36.9563
68.9836	-40.1734	-40.0379
65.3467	-45.8289	-43.2862
69.8961	-35.4902	-42.5024
72.1097	-35.6736	-36.9867
62.3265	-123.986	-30.1019
62.3126	-130.702	-32.4465
60.7937	-121.2	-36.9029
62.8721	-127.074	-23.6515
2.45005	-131.025	39.822
1.65544	-119.436	45.1092
-0.549071	-130.947	40.0507
67.9755	-51.0423	26.7167
69.1065	-46.1192	26.8518
66.0526	-51.6055	34.4135
66.8399	-55.3296	26.0274
65.1554	-63.852	6.77088
63.4917	-67.4901	5.35059
65.9792	-63.093	-1.11175
66.7668	-60.066	7.80467
8.62142	-92.9035	84.3781
4.62056	-93.2483	85.7413
8.69361	-96.6053	82.1294
13.7337	-92.5132	82.0361
8.95554	-88.9149	85.6415
18.8391	-91.4346	79.3304
18.7393	-95.2958	77.148
23.7116	-89.6359	76.2142
18.901	-87.2266	80.8766
2.99653	-85.4748	87.8245
5.8921	-85.0887	87.2689
3.62536	-81.0308	87.733
0.548693	-85.4874	87.9688
2.30414	-89.483	87.5172
9.00091	-99.6449	79.0207
9.76299	-101.75	75.1768
13.8408	-99.2321	76.9393
5.17975	-99.862	80.3744
10.8192	-102.925	71.0013
6.83305	-103.322	71.813
11.2788	-103.389	66.6699
17.5464	1.47458	80.6017
18.4578	-3.25116	83.1917
20.263	-0.972219	78.6665
16.6346	5.90329	77.9869
14.8305	4.41354	83.0001
49.7676	-29.9226	69.3771
55.7683	-30.8598	63.4639
49.2127	-24.6863	69.3587
43.1027	-28.4605	74.1273
49.9477	-34.7547	69.4608
60.4569	-20.5537	57.3348
64.3025	-19.8781	51.1738
59.2874	-14.9023	58.4063
54.9699	-19.8928	63.7169
60.7584	-26.0439	57.0384
68.9669	0.525182	40.2478
70.6972	-0.205974	35.3794
68.8551	8.625	39.8626
66.9691	2.04592	44.4295
50.0293	-39.2387	69.1151
49.7985	-43.8958	68.8286
55.2497	-40.4509	63.0692
44.3535	-37.9276	74.0795
2.19999	4.32162	102.306
2.09229	9.54136	97.7939
0.483657	4.66053	102.386
2.40789	-0.506299	106.483
4.26433	3.58459	101.604
29.7111	71.7715	69.7307
24.6878	72.629	71.902
28.2309	65.6143	73.7562
35.2611	70.3033	66.852
31.2151	77.3246	65.5879
3.60428	-104.251	63.1971
2.90009	-104.531	58.3218
6.9008	-104.13	62.7364
3.68764	-104.027	67.861
0.508099	-104.207	63.31
63.7121	-51.8627	41.6985
60.8354	-51.8358	48.94
62.0793	-57.0102	41.6775
64.9288	-46.7858	41.9526
2.48675	-100.072	80.9234
2.19831	-97.2428	83.9565
0.501803	-100.093	81.0372
3.08152	-102.321	76.5573
3.53415	-103.498	72.2059
0.589236	-103.478	72.279
38.2888	-86.6615	58.7513
33.1791	-90.2855	63.5807
37.3676	-89.3316	56.1948
43.1611	-82.3048	54.88
38.6865	-83.3771	61.9026
43.22	-89.0033	36.7518
40.7767	-93.127	32.5931
47.4306	-85.6835	31.3054
45.273	-85.6875	40.6095
38.2881	-92.6699	41.8023
1.67532	-105.444	53.9321
4.55958	-105.671	53.3285
-1.05787	-105.292	54.0464
0.437793	-107.485	50.729
7.75094	-6.55074	107.749
8.28947	-10.0593	110.836
10.8425	-7.93715	104.321
7.34303	-2.36259	103.879
4.95846	-5.57275	109.698
27.5038	-23.8184	81.1068
30.7172	-25.2481	79.687
26.4201	-18.8609	81.1449
24.4564	-21.0606	82.9829
29.7772	-59.2479	81.638
31.6482	-58.7626	80.95
13.5286	-28.9388	94.1987
15.1941	-27.1669	94.4073
12.8455	-30.1022	93.6145
15.3828	-29.0658	91.9883
13.0439	-33.4588	91.7465
13.5476	-34.8283	91.566
15.439	-33.4078	89.5584
12.8941	-32.5224	91.9696
10.9053	-33.1556	93.8381
2.0289	-31.2532	103.63
2.13967	-29.9123	105.924
0.52631	-31.281	103.887
2.08072	-32.5501	101.896
3.7745	-31.1107	102.657
17.8956	-32.5997	87.7411
20.311	-31.0125	86.0875
17.4864	-31.5804	88.1751
18.4069	-33.9792	87.6231
8.90969	-19.3625	113.55
6.00679	-19.774	116.453
8.60136	-21.4474	112.217
11.7803	-19.1518	109.081
9.05167	-17.6004	114.137
26.5221	-71.2538	80.7045
29.7356	-68.8388	79.1886
25.6665	-68.462	82.5788
22.623	-73.2705	82.6594
27.2934	-74.6558	78.778
30.3356	-52.7566	84.1044
29.5847	-49.1121	85.1455
28.1718	-52.1408	85.9017
32.1916	-53.2305	82.7506
2.49995	-36.8467	99.2638
2.73917	-38.6421	98.9115
4.25041	-36.4273	98.8362
2.28262	-35.1237	99.9248
0.48101	-37.0056	99.419
6.81017	2.26068	100.038
9.79182	0.280748	97.2936
6.57243	7.09592	95.8303
20.4733	-20.9475	89.9263
19.7175	-18.6841	92.4924
19.8682	-19.7591	92.3597
20.5309	-22.5963	89.01
20.9216	-20.755	88.4268
5.44023	-32.9502	99.254
5.3184	-34.5516	98.6827
7.01518	-32.8941	97.8227
5.41253	-31.9075	100.018
3.93193	-33.3416	100.176
5.26071	-30.9346	101.331
5.33172	-29.7397	103.242
18.9399	-18.4126	94.9351
18.6964	-17.5056	95.3447
19.3965	-20.2955	93.6849
20.0871	-25.3515	88.2005
19.6427	-23.7055	90.5482
18.9665	-28.0105	88.1955
3.34934	-45.1163	99.3653
3.62679	-47.0952	99.7441
5.77981	-44.4242	98.993
3.17669	-42.5784	98.9498
0.855575	-45.68	99.5488
24.6833	-35.5149	84.4943
22.1074	-35.8252	86.0323
26.4407	-39.7903	85.0953
27.0545	-35.4325	83.2936
23.2574	-31.8284	84.2824
11.6463	-70.6125	89.299
11.6708	-68.7081	90.8294
7.8081	-71.0861	89.7192
11.5225	-72.9609	87.9296
15.4082	-70.1375	88.4046
26.0637	-54.6749	86.9493
26.4192	-55.3846	86.3242
28.3421	-56.0149	84.0307
25.9887	-53.0177	87.6485
18.4726	-16.8428	95.2354
18.6576	-16.1792	93.6256
16.8078	-15.382	98.5031
18.6398	-69.5039	87.2572
18.7509	-71.6511	85.8192
21.8011	-68.36	85.8373
18.4986	-67.7726	88.6663
4.53341	-71.4809	89.7664
1.38544	-71.6568	89.7376
4.50479	-73.475	88.7282
4.42693	-69.7591	91.1643
61.7511	28.0136	57.6127
60.6878	26.9807	59.5961
63.573	22.1685	52.2756
62.5768	29.4166	55.4153
39.2553	56.1482	70.6562
32.9162	57.8904	74.6542
39.0175	50.0262	73.9922
46.1258	53.4133	66.0839
40.214	62.4867	66.8333
53.1666	49.7103	60.4916
52.6832	44.5027	64.4303
59.7181	45.2978	53.2956
54.1451	55.5119	56.0691
40.1822	40.5104	77.2743
39.5851	43.486	76.6251
33.6856	41.628	81.2827
40.9162	37.7487	77.3609
63.8648	31.0376	51.7636
64.5819	34.3389	48.503
58.8193	36.8704	60.4508
66.6613	24.4437	45.0896
20.314	30.3737	81.8512
21.4963	29.3833	79.8448
24.4236	30.7157	81.1766
19.7621	31.944	84.0882
17.8519	29.9956	81.7335
7.17271	17.7379	86.9493
9.86141	15.4742	83.9475
7.34083	20.0412	85.7051
4.43297	19.441	88.8239
6.97786	15.1062	88.7697
30.9261	-6.81825	74.4344
32.705	-11.4928	75.385
37.3418	-8.15948	72.2551
29.0692	-2.66252	73.6429
25.7338	-4.91423	76.3668
58.8177	5.08838	55.035
61.5174	3.57066	52.313
59.8953	9.64449	54.0059
56.0056	6.9513	57.5324
56.4788	1.42587	57.8437
6.71689	11.5799	91.7442
9.55059	9.25969	89.2414
4.10086	13.2412	93.2992
41.5622	35.5132	77.2725
47.2971	34.7831	74.3357
35.3552	35.4411	80.1397
41.6195	33.4146	77.085
52.4028	33.1977	70.724
51.8186	31.2076	71.1822
56.8138	29.8511	66.0352
55.7192	14.9065	59.3895
55.9889	19.0406	61.4302
53.0785	15.1777	61.5615
55.0439	11.351	58.7076
57.8376	14.8596	57.4022
41.9865	20.679	70.4718
43.6068	19.2684	68.8639
40.1901	21.8658	71.7881
38.2021	22.9054	72.6155
35.9154	23.7046	72.974
38.3595	23.7159	73.1601
35.6657	24.5017	73.5102
40.6202	22.6992	72.2987
33.0284	24.1829	72.9989
30.0368	24.1466	72.7033
32.6475	24.9098	73.4933
29.4191	24.8108	73.1014
27.0688	23.7199	71.898
24.4218	22.8287	71.0298
21.8418	21.6803	70.2421
19.7661	20.4216	69.6095
20.8006	22.3392	70.6744
18.9257	21.0117	70.059
23.2667	23.4642	71.3942
18.4224	19.2129	69.2341
19.791	22.8309	71.1936
22.3296	24.1602	72.0266
32.3674	25.7348	74.1822
28.8467	25.5991	73.7476
46.9031	14.5773	65.0257
47.4296	15.6164	65.0933
45.6718	13.6522	65.4854
29.982	31.1893	80.0433
35.7597	31.5455	78.5361
29.6385	32.651	81.3139
30.363	29.8527	78.5654
47.8122	25.3352	71.5431
45.7845	23.8081	71.6183
49.5055	27.1982	71.5477
44.0765	26.651	73.9375
36.0538	6.02541	69.6261
41.5807	6.72861	67.6948
29.6399	6.47291	70.8802
36.8384	4.33064	69.5325
24.5438	8.05711	71.0922
20.9075	10.298	70.9221
25.0614	6.31411	71.5563
17.5445	14.416	70.2213
17.1447	15.4543	69.9446
18.3201	13.3296	70.3364
34.8916	9.22548	69.7781
39.8908	10.1501	68.5347
29.1069	9.51672	70.5122
19.4047	13.9886	69.3661
21.08	12.8002	69.7091
18.7272	14.6848	69.1017
18.2505	15.2322	68.9833
17.823	15.9105	68.9493
15.4889	23.6739	74.668
14.7184	25.8043	77.327
16.0888	21.3842	71.9474
16.548	25.1055	75.129
16.8731	16.9417	69.8455
25.3883	25.076	72.855
16.5311	20.4239	70.9048
16.1361	19.0047	70.7681
17.3254	21.9932	71.3543
34.7036	10.6136	69.8163
28.963	10.8604	70.3497
19.3822	14.8368	68.782
18.7593	15.2206	68.6826
20.914	14.0418	69.1444
18.3228	15.7232	68.5922
44.5992	17.8392	67.3279
3.45285	33.3997	86.8583
0.444099	33.7133	86.8067
3.15042	31.0308	86.6161
6.12112	32.4935	86.4841
3.73735	35.9326	87.2529
19.9571	4.88557	74.3966
19.4286	7.15207	73.2945
18.0511	6.79424	74.961
21.0507	1.65216	75.8209
22.8713	2.80067	73.7941
16.2434	8.72133	76.0505
14.3732	10.8417	77.8589
16.0173	14.2579	72.307
14.7835	15.1601	74.0229
16.0968	15.9324	71.2603
11.9315	23.7108	79.0654
12.9089	25.4917	78.8729
11.1075	24.7557	80.5814
19.2113	11.9546	70.6309
19.0475	10.7528	71.4272
19.1186	9.11746	72.2638
21.5447	6.93903	72.2072
22.5125	-57.4111	85.9375
22.3865	-57.3396	85.686
25.3811	-57.6269	83.5318
19.1482	-56.8084	88.152
26.9442	-57.8228	82.2981
26.6728	-57.7107	82.2468
3.93881	-50.4773	99.7074
6.76751	-50.0052	99.2195
3.8527	-49.2381	99.9119
0.823318	-50.9078	99.9134
3.93294	-51.6896	99.3005
9.65113	-52.494	97.2043
9.54018	-51.2879	97.9244
6.93771	-52.4876	98.0854
9.56792	-53.6139	96.3068
12.3902	-52.6502	96.0683
15.2031	-52.9186	94.6333
15.1613	-51.741	95.3414
15.3294	-54.1769	93.5611
18.407	-53.7278	92.4773
9.33415	-49.9669	98.4638
12.1315	-50.1264	97.3346
9.2098	-48.6793	98.7605
13.8633	-48.3171	96.6967
14.6732	-49.3961	96.2688
13.3691	-47.2722	96.8253
10.9981	-47.9911	98.103
22.2022	-55.4045	89.0178
21.899	-54.1374	90.3074
9.18693	-54.6529	95.1772
6.31597	-54.5973	96.1055
8.88513	-55.2033	94.2225
12.4302	-54.8708	93.8696
15.7172	-55.3796	92.0543
15.7729	-55.9845	91.0027
27.7133	-56.7013	83.9318
22.7715	-58.4205	86.4645
22.7047	-58.3477	86.2576
19.2983	-58.1705	89.0301
22.8269	-58.6164	86.7147
23.3329	-59.8807	87.0959
23.1181	-59.4186	87.0823
20.2077	-60.4254	90.0145
17.1038	-60.6143	92.4132
16.8442	-59.799	92.2724
14.0456	-60.5377	94.0905
17.5189	-61.454	92.3179
9.54803	-58.3457	95.076
10.0384	-59.4555	95.314
13.1694	-58.537	93.7429
9.13215	-57.3693	94.7198
6.18624	-58.3565	95.8028
3.74698	-61.3791	96.4202
3.86737	-62.5843	96.3427
6.87787	-60.7822	96.1567
3.59116	-60.1072	96.3516
0.998309	-61.6867	96.4581
27.1095	-59.1504	81.3337
27.04	-58.6322	82.0792
26.9196	-60.38	80.4305
25.4219	-59.1605	82.8924
3.13661	-57.5994	92.0142
3.15353	-56.9259	93.5159
5.53253	-57.651	91.704
3.10826	-59.0203	90.3325
0.957684	-57.6258	92.0671
3.98412	-63.7846	96.1026
1.03225	-64.1308	96.1034
4.07911	-64.8398	95.7073
7.44355	-63.0461	95.9304
4.29269	-68.1252	92.849
7.82999	-67.4993	92.8953
4.21765	-66.7346	94.3068
1.21818	-68.3768	92.7682
8.86832	-47.7635	98.8742
8.08927	-46.4406	98.9402
6.49693	-47.6412	99.4793
3.42097	-58.7923	96.1241
0.977874	-59.0033	96.1793
3.27207	-57.6242	95.7573
3.203	-57.1252	95.4548
5.73888	-56.9344	95.1968
3.2573	-56.8921	95.1379
0.998758	-57.291	95.4805
8.92468	-56.9326	94.4168
12.4338	-57.2238	93.1018
8.80469	-56.7625	94.1302
3.2789	-56.781	94.5509
5.63015	-56.692	94.273
0.97761	-56.8868	94.5224
15.8423	-57.6813	91.3345
15.7332	-57.5093	90.9631
16.1115	-58.085	91.6414
18.1177	-64.109	91.5601
18.2891	-65.041	90.9058
17.9501	-63.2561	91.9562
15.1795	-64.3291	93.0972
11.5943	-64.46	94.3749
11.7198	-65.5469	93.5913
11.4329	-63.5352	94.8499
7.81263	-64.9487	95.0835
4.14388	-65.7475	95.1627
1.1178	-66.0769	95.1216
15.6739	-56.1649	90.2979
12.2285	-55.662	92.0743
15.4946	-56.0735	89.7152
29.7666	-58.045	81.9293
28.7529	-58.3866	82.0747
27.0528	-58.4289	82.8239
25.5783	-58.6707	84.2852
8.57816	-57.7781	91.0743
8.56023	-57.0098	92.4484
12.0082	-57.9672	90.0688
8.72114	-59.1419	89.6087
8.63882	-56.739	93.5114
12.1139	-57.0249	92.1663
11.6644	-66.9953	92.3762
15.3543	-66.6779	91.2999
17.7205	-62.364	92.2286
14.7544	-62.4853	93.8551
18.408	-66.3169	89.9018
21.2508	-65.4607	88.1757
15.132	-55.7148	89.3414
12.008	-55.147	90.6316
14.4496	-54.4637	88.6501
18.2581	-56.2823	87.6942
8.75126	-54.8436	91.6665
6.07235	-54.6329	92.069
9.10627	-53.6545	90.3677
8.64303	-55.2691	92.5645
13.6741	-51.6487	87.5367
11.2083	-51.2508	88.3801
13.2951	-47.938	86.4583
16.2604	-52.1119	86.4264
26.5103	-63.2028	79.2038
