1931
86.4501	9.87087	-0.865192
87.789	6.62081	-3.55699
5.05458	12.5724	74.0948
5.72239	12.4267	73.9458
4.53096	13.234	74.2791
2.80629	13.3311	75.2233
2.47578	15.534	75.9431
3.56874	12.1385	74.8738
-4.56942	4.15321	80.7118
-5.15481	3.5501	81.182
-5.93521	5.63772	80.7116
50.7533	-43.1169	83.8814
51.5008	-42.7289	82.3379
50.7633	-42.5983	84.4302
48.3235	-45.3689	86.3272
94.3871	-12.4488	-13.0687
93.6796	-14.0627	-7.88185
95.516	-14.5134	-15.471
93.5927	-9.80972	-13.0514
64.5681	46.1975	9.67664
68.6661	39.3548	11.315
65.6883	46.6459	6.96612
60.0859	53.5019	7.21141
63.1177	45.4987	14.1994
96.5541	-11.6407	-26.4062
97.4916	-13.3458	-28.4653
94.4476	-7.76925	-25.9827
97.3812	-14.7272	-22.361
116.566	-39.2163	-37.3171
122.199	-45.1616	-39.7437
113.275	-35.9955	-44.2602
110.743	-32.5905	-35.9936
118.167	-42.2036	-31.8988
55.7668	-39.3303	78.6212
55.9645	-39.3419	78.555
55.0568	-41.1603	79.9532
56.291	-39.372	78.4689
54.7639	-45.2622	82.8392
54.4055	-44.632	82.6714
54.2786	-49.1509	85.4623
81.5878	-65.7243	50.1797
83.3249	-60.9963	45.4867
80.7867	-65.0841	53.6067
76.1034	-3.62804	-68.9563
72.6974	-0.786114	-72.4219
77.4726	-1.90795	-64.9225
77.3549	-6.61962	-69.3162
-8.44737	90.6733	50.2517
-8.49225	94.5035	43.9682
-13.4127	90.0951	52.6838
-5.05107	87.7055	52.6811
81.17	47.6997	-25.613
78.9377	52.9215	-27.5386
81.068	48.4617	-24.4172
82.9797	43.2796	-23.8219
80.7112	47.4938	-26.9315
64.5	55.3979	1.67953
66.6719	51.2897	2.13961
65.2957	56.0669	1.10921
62.3155	59.5531	0.740563
63.434	54.6047	2.29644
76.5103	37.1231	-1.18934
76.6381	36.0913	-0.269408
78.4813	35.6106	-2.8238
76.8931	37.4728	-2.77688
75.4284	38.3545	-0.5981
80.5287	32.0923	-2.6555
78.4042	33.74	-0.970327
80.9322	33.1257	-3.88613
76.0146	58.4053	-28.9747
75.4122	58.0574	-29.8739
72.5551	63.725	-29.036
76.3869	58.5439	-28.0647
74.5414	57.6271	-30.6355
77.4893	52.5223	-29.6243
73.5852	57.2061	-31.0964
71.0401	62.6873	-30.5621
59.9011	57.2298	1.40921
58.6167	59.4227	-0.00932402
59.079	57.8414	1.8084
61.0255	55.7511	2.37747
77.4159	47.7038	-29.8975
75.7577	47.2062	-30.7773
75.1374	51.8453	-30.941
78.6193	47.7813	-29.1717
79.1033	43.6824	-28.7421
83.9402	41.2908	-19.1886
82.3781	44.4943	-21.0752
84.9312	39.1099	-17.401
84.4277	40.7105	-20.5569
87.4369	32.5844	-18.8999
88.1755	30.2357	-16.426
87.2427	30.8263	-20.3582
86.1261	36.1701	-20.9579
86.8257	35.265	-16.8683
87.0198	33.0967	-11.8658
87.6836	31.4948	-12.552
86.6792	34.5935	-13.2258
86.3002	33.0939	-10.4852
85.5666	17.4241	-10.9567
85.7199	16.441	-11.6788
85.7883	19.1642	-12.3583
85.1627	17.3039	-6.44456
87.0553	23.4482	-10.7824
87.7358	23.5346	-13.2535
87.151	25.23	-9.96916
85.6724	23.9417	-7.50771
86.7827	22.1417	-11.3233
63.0548	63.3123	0.187243
62.1124	64.5205	0.294213
64.2713	59.5828	0.372582
63.3058	63.5368	-0.141915
61.4955	65.2653	0.187346
60.3657	68.9765	-1.11529
61.249	65.0492	0.140079
76.4603	58.6832	-27.2765
78.7664	54.0726	-25.5937
73.2918	63.6384	-27.7319
68.2158	69.9822	-23.0959
68.708	69.0214	-22.9997
68.7241	69.7117	-24.0437
67.2093	70.8724	-21.3625
63.132	65.0924	-1.66926
63.1871	64.7283	-1.16912
63.7965	63.6376	-2.20311
62.471	66.8073	-2.36488
63.4788	63.6815	-0.510121
64.8962	60.6878	-0.98508
61.5352	67.8761	-1.23366
76.6103	56.4243	-21.8693
75.2241	59.1511	-21.6384
77.9098	52.6796	-21.5303
64.5465	62.4767	-4.00716
63.8238	64.08	-4.24819
64.5846	62.2207	-3.56651
65.3121	62.2545	-5.86947
63.5817	65.1432	-5.26987
64.1745	65.4647	-7.23346
76.8078	49.3428	-18.0252
78.4046	48.5641	-19.2938
70.9016	47.9999	-2.24719
68.9261	52.1484	-1.55316
70.7868	47.7033	-1.14717
73.0727	43.6434	-3.11235
66.7863	58.6702	-4.48153
65.8639	60.0801	-3.60224
77.5164	0.298575	-62.6028
74.831	4.42806	-64.3946
78.7181	0.523225	-59.8633
37.6199	-18.2392	84.7699
40.3102	-19.5032	84.5135
37.2716	-16.9468	84.6417
36.195	-19.408	85.4381
33.1786	-20.4808	87.2696
34.1567	-20.8161	86.7167
32.0132	-18.5259	87.5522
32.5683	-21.6912	88.4163
14.3861	49.3518	79.5804
15.5568	47.4907	80.3118
20.9171	50.9373	74.8302
13.7307	51.2746	78.3648
9.98135	47.273	82.1662
26.1376	-33.448	93.8727
25.2929	-33.5561	94.7305
26.3481	-34.0876	93.5934
27.1488	-32.5886	93.3493
25.7907	-30.528	96.6689
24.8121	-31.7793	97.0144
27.1813	-29.9916	95.1027
25.7049	-29.5429	97.463
23.6856	32.923	74.0429
23.0627	33.201	74.3581
25.9104	-20.8129	96.9939
26.6528	-21.5393	96.8256
26.2174	-20.3349	96.3081
24.3994	-21.1546	98.3197
80.8492	39.5096	-27.3767
81.6218	36.5728	-26.4985
78.8112	40.1615	-28.6896
82.3615	39.0886	-26.3365
0.653973	97.8591	31.9606
-3.44562	98.7473	33.2477
4.18528	94.1493	35.9217
1.72499	101.197	22.8112
60.3977	-41.5548	71.3433
59.5776	-39.657	71.2531
61.3973	-42.3652	70.1121
59.4596	-42.0787	72.9212
53.4715	-33.5354	73.987
52.7003	-34.6133	75.4635
52.8219	-32.6505	73.5669
55.1406	-34.4653	73.07
50.227	-97.5689	54.5603
48.6628	-97.492	57.344
48.4101	-97.9051	51.3208
52.9195	-96.7236	54.6112
-46.4355	-55.1118	41.2439
-49.5151	-52.7841	37.5636
-44.4037	-57.7932	40.1602
-45.7807	-53.5604	45.3423
-45.558	-51.3503	48.4276
-42.8285	-51.2785	52.146
-48.4256	-48.0488	47.2955
-33.8716	4.45265	82.8708
-33.8056	1.78806	81.8717
-29.15	3.5078	82.3332
-32.4637	7.15645	83.6528
-38.2888	3.9375	82.6729
-17.5538	-8.7252	76.8873
-17.2485	-8.19606	77.3739
-18.8899	-7.76378	76.4056
-17.6898	-9.75681	76.4307
-21.9349	-9.68911	73.6936
-23.5419	-11.4758	71.8195
-20.4294	-10.6597	74.1679
-20.9991	-7.99005	75.139
-23.6784	-8.88562	73.3908
-45.8279	-28.2091	62.9765
-42.4234	-27.9267	65.0884
-47.942	-28.0102	61.7835
-20.5055	-16.5188	72.6186
-21.3803	-17.9125	71.9453
-19.1668	-17.0956	73.6448
-21.1264	-15.5472	72.288
14.4752	-72.6468	71.4354
14.4712	-72.5548	71.7239
14.4903	-72.6158	71.7755
14.5034	-72.6935	70.9333
14.5465	-71.5749	74.4889
13.9561	-72.2871	73.0227
15.6	-70.824	76.4574
14.173	-71.3857	75.1598
10.6447	-72.7075	72.9522
14.5088	-72.8192	69.9442
14.8007	-73.0051	70.298
14.2246	-72.833	68.2689
14.2585	-72.1558	70.782
20.6422	-75.0427	77.0954
20.7705	-75.6684	76.4029
23.7848	-75.7922	79.9717
20.2316	-74.4514	77.2847
17.1892	-73.8354	74.0589
15.3515	-66.0466	84.1467
14.7824	-64.7578	84.9342
14.6407	-68.2594	81.318
15.6784	-66.8147	83.6612
16.5386	-63.2089	87.1017
15.0981	-72.4339	72.7708
16.4041	-71.9068	74.1692
14.9871	-72.4777	72.6203
15.0547	-72.503	72.7375
-35.7675	-75.6551	-21.0413
-36.9268	-75.3947	-20.9126
-33.2966	-77.1802	-24.466
-35.0643	-75.6854	-20.2049
-48.4296	-71.429	-32.2152
-50.1189	-69.8557	-34.6516
-47.9617	-72.599	-33.0874
-47.2266	-72.466	-29.8834
-48.5785	-69.7302	-30.6936
-40.7855	-75.3233	-22.8465
-40.6456	-76.3211	-24.696
-40.2224	-75.3216	-22.2014
-42.2703	-73.31	-21.7037
-48.5344	-64.9423	-24.3281
-49.2105	-63.8908	-25.0508
-47.8949	-66.2615	-24.9426
-48.3999	-65.7133	-23.1089
-49.7025	-63.5695	-23.8719
-65.6553	-53.0085	-23.2414
-66.035	-52.7925	-22.2704
-66.41	-52.4645	-23.725
-63.9728	-54.0573	-24.1954
-75.511	-46.0225	-26.2515
-75.9046	-45.7662	-25.2066
-77.2203	-45.3439	-29.2594
-74.5849	-46.5035	-26.3013
-56.848	-58.3312	-27.9929
-61.3089	-56.3389	-30.8566
-54.8133	-59.7039	-28.6402
-55.4562	-59.2853	-25.0939
-60.0718	-56.2805	-26.6633
-70.4554	-50.2259	-29.9137
-69.146	-51.1928	-29.8604
-69.8146	-49.8388	-25.6004
-71.9482	-49.1994	-30.5585
-71.4805	-50.7726	-34.9434
-42.6714	-68.3089	-43.5867
-44.6218	-67.8546	-44.2553
-41.8612	-67.3383	-43.9285
-40.9712	-70.2141	-42.3078
-63.832	-59.9021	-43.252
-64.8588	-59.0951	-44.0855
-61.1435	-61.8049	-43.1555
-63.8769	-59.7821	-42.6431
-66.1871	-57.7242	-45.5384
-67.6983	-56.4134	-44.234
-68.3973	-55.3456	-46.3962
-65.6818	-58.0037	-46.6617
-51.5878	-68.5293	-36.4152
-53.4413	-66.7715	-37.9599
-51.2675	-69.4283	-37.4012
-51.8688	-66.623	-34.5004
-62.2512	-58.7966	-38.8595
-60.1587	-59.8785	-37.896
-63.1379	-57.8339	-38.4132
-63.096	-59.4705	-40.8587
-57.4424	-61.835	-37.2679
-56.7708	-63.3586	-38.6366
-55.5991	-62.2377	-34.917
-42.0296	-70.9385	-17.9431
-42.3229	-70.266	-17.1818
-42.8129	-70.8346	-18.8177
-40.7456	-72.6344	-19.03
-43.2657	-69.1179	-16.2163
-42.828	-69.1821	-15.3259
-44.8608	-67.766	-15.9569
-50.3618	-63.043	-15.4895
-52.8404	-60.8248	-15.3139
-50.4402	-63.332	-16.4538
-49.7754	-63.3944	-15.1058
-48.99	-63.9037	-14.7073
-47.2759	-65.5749	-15.2937
-48.7658	-63.7685	-13.731
-48.1479	-67.9336	-27.9277
-49.1864	-66.469	-28.9818
-47.2919	-68.9646	-26.2857
-55.8183	-59.2564	-23.5421
-52.4591	-61.5468	-23.6598
-56.8267	-58.8858	-22.2225
-59.2127	-56.9834	-23.4262
-50.8741	-62.7479	-23.3637
-51.0767	-63.0293	-22.5098
-75.0107	-48.463	-39.0175
-74.4426	-49.1874	-40.9241
-74.6059	-48.7957	-38.4944
-75.5985	-47.9315	-39.188
-72.0128	-51.7895	-42.2057
-71.1342	-52.779	-40.9204
-73	-50.6548	-40.0389
-72.9705	-50.6942	-42.8637
-70.9558	-52.9182	-43.319
-74.0298	-46.8296	-26.5345
-72.9656	-47.3216	-25.4745
-74.8016	-46.7951	-29.2099
-75.5338	-46.8958	-32.5875
-74.4991	-47.5712	-31.9882
-76.8273	-46.1135	-33.3425
-76.2704	-47.0714	-36.7648
-73.2296	-48.3357	-31.2017
-73.9865	-48.802	-35.5374
-72.5339	-47.9079	-27.1884
-48.3754	-19.7212	71.4695
-46.8021	-17.8977	72.4323
-49.4887	-21.5504	69.9337
45.6248	-98.4808	46.4474
43.0172	-98.8321	46.3703
47.2726	-97.8282	42.7427
-50.4334	-26.387	63.5619
-50.2894	-27.6235	61.9201
-50.5467	-24.9772	65.7554
-53.9793	-26.953	63.1617
-53.7706	-25.0461	66.0888
-55.6964	-27.237	62.246
-53.0487	-28.6998	60.7125
-52.4802	-26.6861	63.6331
-22.695	-81.7559	-17.7686
-20.7368	-82.7583	-18.3776
-23.9369	-81.2308	-16.1977
-24.5949	-80.1679	-22.1449
-28.0321	-14.0969	68.0164
-27.8725	-14.6757	67.8402
-28.7513	-13.571	68.2209
-28.1872	-11.7165	69.6956
-30.1578	-11.2444	70.2771
-26.9429	-12.4516	69.5153
-17.3258	-6.99348	78.0444
-18.6093	-5.40764	78.1081
-16.8502	-6.64193	78.683
18.5834	-69.7215	78.8969
20.5591	-68.1992	81.8404
18.0265	-69.6966	79.3435
18.4342	-70.1301	77.3108
-2.60989	-91.5403	-24.8489
-4.94725	-90.2405	-25.2458
-0.427727	-92.7527	-26.9471
-1.9443	-91.8732	-19.3816
-56.351	-54.4882	-8.30399
-50.6833	-60.0562	-6.4992
-56.0736	-53.8597	-3.68724
-62.3091	-48.3479	-10.9079
-56.5888	-55.1012	-11.1192
-1.15737	-91.6606	-38.3805
0.801486	-93.6718	-33.9548
-4.53855	-88.9115	-38.3654
0.690296	-92.6504	-40.2792
23.6887	-115.424	-48.1153
28.9443	-121.775	-50.7542
25.2953	-118.358	-42.4246
18.0451	-108.567	-46.7669
22.419	-110.589	-55.0855
15.1069	-72.9606	72.6676
16.7732	-72.8162	74.3566
15.1261	-72.7632	72.7559
15.1034	-73.1385	72.5772
13.5809	-73.47	71.7016
15.0924	-74.1151	72.1028
20.1663	-74.0276	77.6175
23.0068	-74.5436	80.6358
19.6603	-73.4804	77.4167
40.7104	-98.9399	46.3977
39.2628	-98.5358	49.7112
37.115	-98.8894	40.9728
2.10791	-64.6283	-78.8153
4.83379	-66.3922	-78.9333
-0.483897	-66.166	-75.2761
0.561176	-60.2746	-82.153
-95.1591	19.2938	36.9394
-93.2361	15.1745	39.1451
-94.3248	23.5602	40.2417
-97.6895	20.901	30.3137
-55.439	-65.3223	-45.0639
-59.8007	-61.852	-47.3671
-54.9586	-64.7359	-46.2307
-51.7623	-68.2001	-42.9414
-56.3423	-65.2399	-44.0116
-64.1169	-51.4728	-17.2342
-60.5719	-54.4607	-16.5709
-63.2501	-50.6818	-16.3486
-67.6324	-48.3949	-18.3626
-64.8219	-52.0337	-18.0135
-48.1165	-66.3415	-19.2831
-47.2829	-66.7985	-18.2766
-49.1971	-65.1293	-18.7302
-48.2865	-66.4177	-20.9057
-46.7751	-68.3261	-20.9262
-43.826	-71.0719	-20.5071
-45.2395	-68.8823	-18.8635
-44.6991	-71.0804	-21.9077
-64.377	-57.725	-49.1142
-64.7159	-58.1858	-48.3175
-68.9224	-53.3055	-49.4058
-63.7956	-57.0853	-49.8338
-63.1115	-56.2212	-50.362
-58.8389	-60.2379	-49.0873
-67.4215	-51.8332	-50.4745
-62.4656	-55.3164	-50.5865
-65.0488	-46.6355	-16.9567
-63.9562	-48.1354	-16.0177
-65.5637	-45.765	-16.5069
-66.7605	-44.7625	-18.4281
-54.104	-61.0956	-48.598
-53.1765	-59.4745	-49.1032
-50.6921	-63.6932	-47.1304
-54.5143	-62.3436	-48.1033
-57.5476	-57.9182	-49.8724
-50.7269	-70.1745	-38.3326
-53.2523	-67.7654	-40.3899
-50.0422	-70.5661	-39.6308
-49.076	-71.8164	-36.4366
-43.0215	-75.3207	-37.2355
-45.7961	-74.4809	-35.6177
-45.914	-73.0529	-39.5747
-41.0868	-75.2821	-38.3208
-41.2889	-76.8646	-34.6013
-44.5307	-75.8377	-30.5123
-44.6191	-75.3649	-29.0514
-45.6947	-74.9901	-32.0108
-43.0012	-76.7346	-30.9992
-29.383	-77.545	-26.8765
-29.8892	-77.7949	-22.5096
-30.8625	-77.2321	-28.5434
-28.3627	-77.7821	-27.4265
-36.0085	-77.9826	-27.718
-35.4245	-78.2366	-30.3229
-34.1627	-77.8116	-28.1315
-36.9145	-77.2004	-24.9289
-37.9732	-77.9877	-27.462
-71.3568	-48.2855	-19.5593
-71.5737	-48.4359	-19.9518
-67.9592	-50.237	-19.0566
-72.382	-47.1485	-19.4702
-72.984	-46.385	-19.5762
-72.713	-46.177	-19.5489
-76.2178	-44.37	-21.1762
-75.1756	-48.6961	-43.859
-76.1365	-47.7893	-42.1445
-74.8537	-49.1077	-44.8211
-74.3416	-49.3779	-43.7036
-72.8282	-47.744	-21.6055
-74.2806	-46.6639	-22.4105
-71.4457	-48.6038	-22.0198
-72.5596	-47.9383	-21.0831
-71.6911	-48.5206	-20.3523
-75.334	-45.7044	-21.3271
-68.9515	-50.4255	-20.617
-63.6719	-59.7019	-42.0335
-60.3217	-61.7512	-41.3483
-66.1153	-57.8489	-41.9981
-72.4137	-47.6724	-25.1506
-71.576	-48.2599	-24.0529
-70.1767	-49.3137	-23.7095
-70.0001	-49.4636	-23.2563
-57.4862	-58.5922	-20.982
-61.2628	-55.9495	-20.5963
-53.5229	-61.4402	-21.5172
-57.3371	-58.6953	-19.8767
-66.7933	-52.1738	-23.9885
-68.1371	-51.1218	-23.1969
-66.8013	-52.1997	-25.7998
-3.01517	-66.0872	-73.3081
-3.91216	-67.5832	-70.8075
-6.21854	-62.4152	-75.2902
-2.75677	-52.1055	78.3624
-1.37633	-50.9215	79.5444
-3.86235	-51.273	78.1819
-2.13394	-55.199	77.662
0.140038	-48.298	82.2288
1.26566	-48.1625	83.5918
-1.61823	-46.6668	82.4397
0.25417	-49.1764	81.5435
-62.4309	-15.9045	67.9239
-61.1225	-17.6253	68.3545
-60.3224	-11.6727	71.9155
-64.0221	-14.367	66.7457
-64.0476	-20.9829	62.0518
13.1591	-42.9861	93.9884
12.6377	-42.8613	94.4976
12.9005	-43.6983	92.9536
14.3084	-42.3921	94.7487
12.0482	-42.6624	95.3672
11.0026	-43.1259	95.0391
12.7761	-41.7987	96.9397
-48.8746	-27.711	61.7018
-49.0892	-27.068	62.1891
0.424627	-42.3736	93.1741
0.791369	-41.1062	94.6805
0.00341955	-42.5043	92.3783
1.01804	-43.215	93.0253
-100.163	14.4108	16.6796
-101.998	15.2967	7.17893
-97.7666	9.76184	20.453
-100.635	18.3401	18.4884
18.0319	-76.9616	65.2225
18.317	-76.3473	66.9833
18.836	-77.9449	63.9066
16.361	-75.7281	64.927
10.9619	-68.7593	67.564
11.7177	-70.4743	66.5125
10.3736	-67.9499	67.0805
11.8304	-68.4175	69.3529
9.71562	-43.8812	94.325
8.69446	-43.6853	94.9969
9.20545	-45.0787	92.392
24.1799	-32.7591	97.0675
23.15	-33.3051	98.4006
24.3596	-33.3288	96.1434
24.4594	-33.7757	95.6007
23.751	-34.7291	96.0271
12.8054	-44.4767	91.9003
11.8923	-45.315	91.0643
13.3968	-44.7575	91.667
84.5939	29.0055	-22.9383
83.6423	27.4385	-23.012
82.963	32.2883	-24.9593
85.7192	29.3457	-22.2387
85.8954	25.1414	-20.2348
86.3455	5.81766	12.6802
86.6834	2.30174	20.5107
88.1569	1.89755	10.3077
85.7555	9.28117	6.08221
84.1877	9.81827	15.0716
117.259	-50.3281	-19.7963
110.224	-43.1017	-18.0922
115.861	-53.6281	-16.1194
124.71	-57.1905	-21.9187
118.098	-47.219	-23.6429
130.299	-61.9186	-23.775
134.728	-65.55	-25.4072
130.48	-58.6309	-27.8366
129.657	-65.6472	-19.8261
101.576	-44.9196	-8.46922
98.2211	-40.3848	-6.41999
99.731	-49.2396	-4.73863
106.671	-50.3231	-10.4803
103.703	-40.9592	-12.6532
107.817	-32.8678	-24.2021
112.201	-38.0077	-25.6715
107.843	-30.298	-28.7765
104.607	-28.716	-22.9915
106.862	-35.1212	-20.3196
91.6381	-15.5933	17.5591
90.9267	-12.071	20.5865
91.0722	-19.3903	24.8761
92.0303	-19.2541	14.1329
91.7694	-12.4777	10.387
35.0834	67.5923	36.8307
30.5828	74.6928	33.4675
29.8365	65.7772	47.3838
39.6599	61.0471	38.8718
38.8398	70.2438	25.3754
33.1167	87.1801	-13.8306
34.6637	86.0973	-23.9138
27.3354	92.3337	-18.1506
32.2451	87.0398	-2.99413
38.7964	81.5225	-9.93485
78.8842	-87.6217	23.1048
76.9468	-89.3871	23.8164
83.444	-92.223	20.0199
81.2011	-85.2168	21.9109
76.2969	-84.5951	26.2704
91.3255	-99.115	14.7435
99.239	-106.065	9.62959
93.3935	-96.0312	13.6239
89.0443	-101.415	15.6076
99.522	-116.221	7.29738
102.055	-113.627	7.10554
94.4061	-111.121	10.5598
96.877	-118.425	7.22963
103.11	-119.532	5.27233
85.9182	7.51958	-33.277
84.1391	13.2634	-29.7861
89.5344	1.40093	-29.2871
87.6558	1.72654	-36.8052
81.7337	14.5383	-36.0665
78.952	19.7821	-38.0818
79.7546	13.7096	-42.6955
76.6192	24.3959	-39.6226
78.4835	24.6911	-33.8971
126.86	-49.8854	-42.4004
131.214	-54.3939	-45.3134
123.97	-47.4989	-48.6655
129.185	-53.0471	-36.6125
86.979	-103.59	15.9564
79.6361	-96.1037	21.2962
84.8263	-105.374	15.9979
86.3913	-1.01784	28.2144
83.8932	3.41472	30.1422
85.3121	-3.97667	35.3106
88.3689	-4.90835	25.8165
91.6924	-9.37324	3.37538
92.4357	-13.0881	0.720668
91.6745	-6.87323	-4.16273
90.7262	-5.53906	5.73227
66.4567	-77.3615	72.4738
63.7035	-80.5874	73.2515
68.7398	-79.6074	69.3629
69.1289	-73.7392	71.1151
63.5117	-74.6882	75.1854
71.4933	-69.6866	69.3331
73.5869	-72.2154	66.4357
74.0924	-64.7441	66.3626
69.1844	-66.8823	71.6227
55.2673	-77.4695	78.2035
57.8035	-74.8818	77.9998
52.6175	-74.2227	79.7258
52.776	-79.5793	78.0232
58.1296	-80.507	76.2218
70.3227	-81.1991	65.9383
71.5606	-82.0826	61.6987
72.9033	-77.917	64.694
67.6715	-84.0526	66.7305
72.5547	-82.1748	56.7432
69.845	-85.1652	57.2644
73.1883	-81.7967	51.2976
12.24	-2.08346	82.9936
15.4079	-5.84917	85.6832
15.494	-1.52497	82.3099
9.39877	1.23819	80.6094
8.86519	-2.4733	83.8304
53.7993	-3.35404	76.8802
59.3197	0.618139	71.7947
50.045	0.465699	77.6343
48.2151	-7.05187	80.4451
57.2908	-7.05215	75.9134
56.3868	12.9467	68.1139
59.5886	16.873	62.22
51.9632	16.7593	69.3722
51.3391	9.01229	73.739
60.3205	8.66849	67.0586
51.1221	38.151	51.9192
53.4471	39.2488	46.7476
45.8581	44.4644	51.7173
48.2055	37.5533	56.2265
60.6846	-10.4425	74.256
63.9493	-13.9984	72.4998
65.8891	-7.14064	68.6795
55.6129	-13.6001	78.4951
0.746206	-14.0151	95.1565
-2.45611	-10.1981	91.1845
-0.855839	-15.027	94.9831
3.73968	-17.6861	98.9997
2.66207	-12.9943	94.841
-19.0873	61.206	77.8322
-23.8672	58.1635	79.182
-15.1	55.2602	80.603
-13.7536	64.1517	75.7966
-22.6696	66.8759	74.9675
68.6461	-87.0085	46.0765
69.341	-86.6207	39.1991
70.9204	-84.7346	45.6789
68.0052	-87.3404	52.2122
66.4111	-88.93	46.1075
83.3886	-7.00829	42.5033
80.5341	-10.0456	49.9216
85.6752	-11.9323	40.3801
80.6384	-2.32254	44.7139
65.056	-86.6598	66.9136
63.4723	-85.4256	70.2013
62.4172	-88.8985	66.743
66.3947	-87.4457	62.4207
67.3458	-87.5758	57.4539
64.8476	-89.6762	57.3867
84.1783	-50.8298	47.9032
82.1045	-57.2065	52.2401
84.9338	-53.0088	44.5094
85.7301	-44.1711	44.6757
82.6448	-48.7457	51.9798
88.6211	-47.4201	23.2435
88.8843	-51.4499	17.5133
89.869	-41.6238	18.8948
88.6706	-44.0962	28.3293
87.0717	-53.7719	27.2024
70.3326	-86.6466	32.3354
72.3414	-84.8991	31.8031
68.4552	-88.2159	32.3538
72.2906	-88.0687	27.2339
10.7593	-18.9166	101.203
13.0869	-21.5141	103.906
13.6892	-17.6699	99.2193
8.05923	-15.4374	97.5466
8.35962	-20.1491	102.364
35.8069	-15.3589	84.8899
38.6062	-13.6471	83.942
31.6121	-12.6149	85.5051
31.8442	-15.7797	86.5106
58.1599	-37.7995	77.6486
59.4161	-36.1548	77.316
28.5485	-29.5705	93.5598
29.0282	-27.6683	94.0529
28.5626	-30.6233	92.932
30.0195	-28.2328	92.3846
30.4614	-32.5774	91.1583
31.7044	-33.2048	90.9153
32.3605	-30.7846	89.894
29.8015	-32.0547	91.4519
28.611	-33.7877	92.2638
20.6731	-37.8534	98.1643
20.0141	-37.3319	99.7612
19.492	-38.936	98.226
21.4194	-38.3671	96.8344
21.8817	-36.5718	97.6243
33.8477	-28.2561	88.772
34.8659	-25.2077	87.6834
32.9833	-27.8567	89.2412
35.0512	-28.8215	88.4811
19.0958	-28.2242	105.966
17.0025	-30.0044	107.754
20.2588	-29.6843	104.736
21.5395	-26.254	103.263
18.0231	-26.8845	106.557
64.7017	-50.6762	74.5275
65.6239	-46.3571	73.3551
61.9714	-49.1661	76.9708
63.0585	-54.9726	76.3277
67.6258	-52.5005	71.9621
54.2903	-33.0882	81.9557
51.2778	-30.8514	83.9803
52.2272	-34.2431	83.672
56.3151	-32.1094	80.5352
24.1743	-41.0028	94.5142
25.2967	-42.4685	94.2737
25.2303	-39.7384	94.393
23.024	-39.7681	95.11
22.7133	-42.3647	94.4281
5.08251	-11.9389	94.0101
8.0704	-11.0521	92.7701
2.24831	-8.37238	90.433
29.2065	-19.526	91.6377
27.324	-19.0923	93.5686
28.2048	-19.7385	93.4522
30.2724	-20.343	90.8064
29.2938	-18.7712	90.5591
24.0942	-36.6799	95.1034
25.0059	-37.6918	94.4627
25.3593	-35.8859	94.2705
23.5276	-36.0021	95.7505
23.1903	-37.6725	95.5857
22.9126	-35.5944	96.7601
22.3341	-35.0595	98.2023
26.8839	-20.0132	95.2134
26.0042	-19.4801	95.4295
28.3596	-20.8075	94.3228
31.5592	-22.0941	89.9254
30.3922	-22.0247	91.8929
32.1916	-24.4214	89.7787
29.1034	-47.8141	94.8761
30.5327	-49.198	95.1996
30.7314	-45.6365	94.9742
27.6079	-45.8355	94.495
27.2414	-49.9841	94.5921
40.5188	-24.9775	85.8657
38.8569	-27.0745	86.9583
44.0881	-26.6983	85.6952
42.1598	-23.2198	85.0353
37.4616	-23.4781	86.142
53.1207	-61.5621	83.9063
51.9992	-60.5036	85.6119
50.1724	-64.6463	84.4173
54.4895	-62.9871	82.191
55.7481	-58.5822	82.8927
52.3631	-37.9454	83.6275
53.0876	-38.1134	82.7608
54.8885	-36.7858	80.4859
51.2052	-36.8208	84.921
25.3052	-19.0361	95.2565
24.7786	-18.0041	94.0495
23.1981	-19.4813	97.2262
57.7172	-55.7064	81.6961
59.0782	-56.8701	80.0281
59.1422	-52.2904	80.3687
56.5859	-54.8565	83.2776
47.4956	-67.3904	84.2961
44.7508	-69.8406	83.9388
48.5195	-68.617	82.9488
46.5692	-66.5003	85.7982
27.0343	51.2522	68.9259
26.8193	49.3978	70.7154
32.3499	49.5746	63.7252
26.9131	53.2899	66.88
-2.02167	55.8847	78.7128
-7.33012	52.692	81.5411
0.587958	50.9327	81.5351
4.01411	58.6607	75.3613
-4.36237	61.5076	75.6566
10.0462	61.0325	71.0189
11.9397	56.1233	74.6829
16.3046	63.2651	65.0496
7.41474	66.7749	67.3552
5.51766	44.4426	84.5499
3.91717	46.3061	83.8988
1.15904	41.0797	87.1611
7.39532	42.8249	84.7456
27.0304	56.0959	63.4754
25.8209	59.6132	60.4534
19.7537	54.999	71.5817
33.6646	54.4147	56.9224
-0.651192	25.68	85.2562
0.53246	25.3574	84.0461
1.94852	28.6138	85.6196
-1.96657	26.5671	86.7231
-2.79545	22.96	84.6003
-3.93326	-0.0948882	83.1982
-0.602852	0.889444	82.0833
-5.21394	1.41297	82.3629
-7.18636	-1.19693	83.8577
-2.4177	-2.08373	84.6377
27.1469	2.33032	80.6546
31.1892	-0.690871	81.7054
32.4991	6.12488	79.6462
23.4088	4.84913	79.6245
22.006	-0.286774	81.5233
39.6437	34.3574	65.6289
42.6344	34.725	63.44
37.346	38.7531	64.8699
36.4394	34.0293	67.6442
40.3286	29.3027	68.2613
-0.342238	-4.83004	87.024
2.8115	-4.04802	86.145
-3.18986	-5.78257	87.5977
9.00496	41.4761	84.7275
12.3978	43.8004	83.1579
5.53568	37.8079	86.42
10.2118	39.833	84.6289
16.4785	45.6782	80.8238
17.3172	43.7089	81.1182
21.9247	47.0445	76.7551
31.1485	39.3986	69.5222
28.6828	41.5632	71.5606
29.3651	37.8142	71.0614
32.8548	36.7629	68.7346
32.6218	40.7851	67.9414
18.4213	33.0161	78.0559
20.3391	33.4319	76.7194
16.4923	32.4128	79.2689
14.5757	31.6411	80.1053
12.6868	30.5658	80.4538
14.2574	32.2282	80.7271
12.103	30.8931	81.0232
16.3089	33.1193	79.872
10.4882	29.0299	80.4083
8.59618	27.0716	79.9937
9.81842	29.2621	80.929
7.86731	27.1167	80.3788
7.22025	24.8025	79.0439
6.20409	22.3506	77.9095
5.17851	19.5825	76.6938
4.46774	16.8326	75.5601
3.95118	19.0743	76.9058
3.4286	16.3409	75.7852
5.01421	21.9364	78.1192
4.24362	14.6517	74.7395
2.84879	18.4263	77.1511
3.87959	21.634	78.523
9.13419	29.6001	81.6109
7.06266	27.2882	80.96
25.6891	33.0929	73.3106
25.3889	34.1174	73.4861
25.4061	31.6359	73.5618
4.83709	31.7852	85.6313
8.02791	35.2174	85.1866
3.91416	32.6727	86.5237
5.84547	31.095	84.6617
18.7929	38.2299	80.4299
18.7803	36.6518	79.9951
18.4969	39.9597	80.8605
15.7203	37.0079	82.1861
23.5759	19.2077	76.6588
26.9202	23.6695	75.3921
18.7472	15.0342	77.1166
25.1444	18.1631	76.7578
14.4528	12.1911	76.6636
10.8275	10.6092	75.9639
15.7132	10.8883	77.0527
6.38857	10.3522	75.058
5.51938	10.6621	74.8642
7.45945	10.3585	75.2031
20.6847	21.0776	76.5793
23.4104	25.1817	75.8255
16.4964	17.3929	76.8081
7.9837	12.3957	74.5942
9.70335	13.0676	75.172
7.0981	12.1636	74.3055
6.43373	12.0074	74.1898
5.74349	11.9369	74.186
-1.21021	12.7902	77.897
-3.30778	13.1066	79.2579
0.7877	12.5802	76.4389
-1.29672	15.3977	78.5874
4.40938	11.1755	74.8693
5.34648	24.6233	79.7991
1.77064	12.7886	75.7925
2.4637	11.3781	75.5894
1.39646	14.7464	76.3679
19.6576	21.9371	76.6043
15.5821	18.2964	76.7305
7.49933	13.0724	74.1522
6.82609	12.6559	73.9936
8.92375	13.9702	74.7462
6.20557	12.4922	73.8971
21.9112	33.4858	75.3675
-17.3511	9.73128	84.1059
-19.8369	7.55964	83.636
-16.0797	7.00823	83.1264
-15.0067	11.2939	84.1823
-18.6745	12.9799	85.4049
12.5819	4.35435	78.4901
11.0669	5.962	77.5574
10.1267	3.97406	78.6195
14.9908	2.25236	79.8865
15.9195	5.23671	78.5202
7.68497	3.45315	79.0518
5.08147	2.81356	79.7929
5.11395	8.04791	76.4037
3.41165	6.87154	77.3828
4.32456	9.42151	75.768
-3.89911	8.11697	79.4041
-4.53693	10.5287	79.6152
-5.25925	7.96674	80.0375
8.7561	10.2187	75.5202
9.17184	8.89174	76.0989
9.93567	7.48588	76.7317
12.8086	8.00935	77.0201
51.6084	-42.592	81.717
51.487	-42.5455	81.4477
53.6552	-40.0471	79.3329
49.2022	-45.2174	84.1805
54.9534	-38.745	78.1803
54.6952	-38.8432	78.1443
32.9649	-51.666	94.9509
34.9953	-49.3384	94.9191
32.0764	-50.7211	95.243
30.6408	-54.1826	94.6316
33.8248	-52.7118	94.4429
39.058	-49.4774	93.1173
38.0648	-48.5519	93.9211
36.8666	-51.3008	93.6562
39.8447	-50.4644	92.1351
41.3374	-47.6898	92.2891
43.7578	-45.7322	91.0561
42.8851	-44.8495	91.9097
44.7506	-46.585	89.8698
46.6823	-43.8706	89.0568
36.9521	-47.5763	94.5512
39.2482	-45.8755	93.7867
35.985	-46.6723	94.9401
39.3925	-43.194	93.5876
40.791	-43.3776	93.1029
38.3254	-42.7212	93.801
36.8974	-44.9771	94.6331
50.2732	-41.942	85.4514
49.3107	-41.3727	87.0431
40.3328	-51.4871	90.9688
37.9161	-53.4676	91.5793
40.4548	-52.0278	90.1237
43.0479	-49.2503	89.9526
45.9125	-47.13	88.1632
46.399	-47.4475	87.0249
54.8297	-37.6762	80.122
52.5233	-43.2706	82.079
52.4351	-43.1771	81.8414
50.4165	-46.4111	84.817
52.7166	-43.4938	82.3687
53.9612	-44.3054	82.689
53.4946	-44.0651	82.7101
52.9397	-48.1043	85.6147
51.0522	-50.9142	87.9551
50.2787	-50.3194	87.8878
48.7243	-53.2579	89.8055
51.9701	-51.3118	87.7357
43.467	-54.6462	90.9642
44.711	-55.3595	91.1846
46.476	-52.0877	89.6969
42.399	-53.9856	90.6244
40.8134	-57.1712	91.4016
41.014	-61.7195	91.5717
41.9273	-62.6191	91.3983
43.1427	-58.9184	91.7118
39.9614	-60.7323	91.5766
38.8967	-63.9394	91.2396
56.0405	-39.513	77.0803
55.6048	-39.2637	77.8866
56.8033	-40.5367	75.9831
54.791	-41.0192	78.5095
37.5118	-57.6078	87.3101
37.083	-57.3609	88.7714
39.5342	-55.901	87.2436
38.401	-58.4585	85.5637
35.7007	-59.1298	87.0898
42.8039	-63.4437	91.0504
40.581	-65.8392	90.6477
43.5361	-64.134	90.5461
45.0671	-60.2593	91.3424
45.6135	-65.7415	87.5369
48.1667	-62.6542	87.8655
44.7918	-65.11	89.0219
43.1485	-68.1498	87.0862
35.128	-46.1867	95.0848
33.6795	-45.6489	95.1579
33.2271	-47.6692	95.3407
38.8394	-59.6435	91.3962
36.9004	-61.4939	91.122
37.8248	-58.6216	91.0463
37.3024	-58.0309	90.6766
39.2586	-56.0065	90.7193
37.1415	-57.6295	90.2982
35.5476	-59.6056	90.4028
41.8653	-53.6321	90.2846
44.8074	-51.1722	89.0783
41.6166	-53.475	89.9448
37.0899	-57.3719	89.7444
38.982	-55.5945	89.7667
35.2263	-59.0112	89.4131
47.7745	-48.8879	87.1319
47.5331	-48.7353	86.7673
48.342	-49.1263	87.4092
54.147	-52.9348	86.614
54.8228	-53.4133	85.8424
53.505	-52.4354	87.1172
52.0238	-55.3869	88.2979
49.2587	-58.0665	89.7742
50.0332	-58.6598	88.8257
48.5304	-57.58	90.3809
46.6086	-61.2017	90.3148
44.1682	-64.636	89.9237
41.8938	-67.0194	89.4959
46.4636	-47.4968	86.3595
43.4803	-49.7166	88.2506
46.2729	-47.4252	85.7961
57.3727	-36.9397	78.1105
56.7475	-37.8687	78.062
55.4397	-39.2264	78.6432
54.5069	-40.8372	79.9554
42.0982	-53.7361	86.7973
41.5775	-53.4399	88.2427
44.9526	-51.3247	85.8298
43.1051	-54.4468	85.179
41.4644	-53.4094	89.3115
44.4008	-50.986	88.1194
50.9422	-59.5418	87.3647
53.6456	-56.7037	86.1046
52.7449	-51.911	87.5176
50.5912	-54.315	89.3024
55.6557	-54.0929	84.68
56.9689	-50.9915	83.0996
45.7376	-47.2861	85.4402
42.9656	-49.1447	86.7546
44.2384	-46.5152	84.8463
48.2841	-45.2416	83.7412
40.1722	-51.3207	87.6639
37.8455	-53.0461	87.8393
39.5584	-49.7445	86.3766
40.3843	-51.9398	88.6013
41.6441	-44.439	84.1109
39.5122	-45.9193	84.8338
38.92	-41.4892	83.6557
43.8443	-42.8359	83.0928
58.5899	-43.1697	74.299
60.5838	-46.6212	72.7612
57.2818	-44.7517	75.869
40.1903	-60.3997	83.4565
42.2213	-58.6238	83.4886
42.8187	-62.7686	81.5967
38.4664	-61.8543	83.2448
37.4787	-47.3954	85.2634
35.3737	-48.933	85.4509
34.7476	-44.541	84.6898
44.8196	-56.3466	83.1364
47.336	-58.9991	81.0812
47.6402	-54.0089	82.2713
57.7952	-36.5747	71.2953
58.1322	-36.4282	70.3733
1.03834	5.48552	78.6523
1.44026	3.61015	79.7413
67.5875	52.3224	-35.4566
69.8684	48.3544	-35.4671
65.7592	52.2025	-38.8934
65.1091	56.2467	-34.6857
69.0689	52.5898	-33.6472
55.5659	59.9225	4.47043
53.9563	63.1315	0.673293
53.4171	60.1009	9.5822
52.6173	65.7047	-4.24166
48.822	69.949	-4.77549
56.2103	62.3004	-6.00226
53.3041	66.9294	-11.2796
78.636	28.2086	-30.811
79.0945	31.2092	-28.5267
80.5451	23.8794	-29.0721
77.0398	32.2805	-31.8419
75.4508	36.102	-33.1839
74.6932	33.4366	-36.6305
73.7629	40.1964	-34.2238
76.4573	38.127	-30.8736
70.1837	53.4148	-32.5753
71.0357	54.7087	-31.9569
72.416	49.685	-32.3734
67.2444	57.5255	-31.9648
83.4873	38.7764	-25.3438
81.738	42.974	-26.624
84.344	38.6789	-24.1073
85.1492	34.4772	-23.6398
80.6843	49.2067	-23.3429
80.319	49.4937	-22.488
86.7301	23.0623	-17.5523
87.2502	23.0326	-16.827
86.8761	21.8869	-15.7004
85.4715	23.5773	-19.5681
83.1678	26.9583	-3.62612
83.322	26.26	-3.72771
83.6309	25.2498	-4.17493
80.0374	49.6721	-22.0302
80.037	48.7189	-21.235
72.8101	63.4292	-23.2947
72.4372	64.2451	-24.7074
73.5777	62.0428	-21.8511
66.4208	71.0376	-19.3167
65.7528	72.2739	-19.1988
64.4993	73.7869	-17.8577
64.1896	72.889	-15.7328
64.3389	74.3282	-18.1689
62.9033	74.6254	-14.5167
70.6425	46.8699	0.0999535
68.0192	52.0617	0.502653
69.7724	46.8775	1.50368
72.5961	43.0003	-0.0671449
77.4232	29.7289	3.97445
77.0983	28.2698	6.59584
79.4623	26.5764	2.75894
74.985	33.318	5.28261
76.8904	37.7002	-3.88183
78.4532	36.435	-4.69244
75.5996	39.2349	-3.69601
56.5309	61.9205	-6.08473
55.9742	63.7217	-9.35744
56.5587	61.9033	-5.86227
57.9338	73.0406	-4.52973
57.565	75.4659	-7.30092
57.0111	73.0222	-5.7463
58.8561	69.2447	-2.17179
58.9842	72.8089	-3.54549
56.762	76.5403	-12.3178
56.3269	75.3643	-9.43952
56.8928	76.745	-11.7547
57.9479	76.4857	-16.1147
56.8138	75.4548	-13.9516
67.2957	67.6598	-28.7113
66.99	66.8267	-29.0544
63.699	71.9792	-24.9615
67.9574	68.4325	-28.0139
65.7044	56.3748	0.714551
66.7464	55.7001	-0.114093
69.8748	68.4634	-25.4131
66.9177	72.3122	-22.3803
71.4424	66.1366	-26.0515
69.9751	68.4837	-25.7815
61.9321	74.2978	-10.4808
61.5772	72.5953	-6.66794
62.645	73.2368	-11.4285
61.3677	75.0178	-9.71475
66.3128	58.4179	-1.83432
67.0486	56.5835	-1.57884
65.2177	60.7143	-2.15227
69.0921	68.2296	-22.6696
70.4831	67.035	-24.8119
65.3859	66.5552	-11.0184
65.8939	65.0626	-10.4855
66.701	67.7423	-15.098
69.271	52.1602	-4.32612
69.2015	52.6023	-4.98182
68.6254	53.5437	-2.90662
72.2494	58.3249	-17.693
72.0746	61.975	-18.9699
71.7648	58.3947	-17.0345
72.8678	57.4319	-18.0287
72.7432	36.7289	5.98159
70.2472	40.9223	5.95723
72.3117	35.536	8.45554
64.0524	61.4448	-29.6967
63.5394	60.4687	-31.0575
60.9515	64.5815	-26.9178
63.1868	63.8342	-28.2725
61.8105	68.6862	-24.5996
59.2011	70.8903	-20.8702
60.6225	73.4266	-21.7503
64.5326	66.1372	-28.0671
66.8049	65.4089	-29.2937
69.4671	60.5619	-31.0338
72.3759	56.3815	-31.4622
77.4324	39.5917	-29.7043
78.6968	36.2347	-28.5125
75.9887	42.91	-30.7682
74.325	46.2334	-31.7351
73.1709	45.1727	-32.9924
79.573	48.2186	-20.2827
79.814	33.0352	-27.4065
81.305	29.1129	-25.814
80.5876	33.9633	-26.7593
83.8995	25.3962	-21.8728
83.5499	25.1692	-22.2779
85.6243	21.487	-17.9593
86.5833	21.4687	-12.841
86.3664	20.9191	-12.7746
86.0747	20.3653	-12.5872
73.5075	57.0742	-18.5915
74.0864	59.755	-20.3379
68.9272	46.7706	2.64327
68.119	46.3969	3.86799
76.1769	34.4665	1.73698
76.5185	34.6673	1.06756
81.1494	34.0208	-4.93778
83.1319	33.3719	-6.76226
80.558	35.1431	-5.56952
74.1259	40.1926	-0.125404
74.5168	40.7583	-2.32564
57.7982	71.5509	-17.4505
58.3481	67.6888	-21.0647
56.6685	70.8578	-14.128
58.6455	66.2231	-23.2067
58.5097	65.9122	-24.4036
56.7838	66.7265	-18.7269
74.1929	41.0386	-5.26734
74.3619	41.0605	-4.34977
67.7848	67.7897	-17.5283
68.6261	66.4527	-17.4268
69.0563	53.6771	-6.27884
70.0604	51.6709	-7.77826
68.9968	55.7342	-8.65697
71.1978	58.935	-16.4085
70.199	63.0389	-16.8542
70.7337	58.3737	-15.0832
-49.9159	59.0074	72.9924
-45.2521	52.5156	76.9386
-43.104	63.4067	73.4816
-54.4316	65.9478	67.5864
-56.4803	54.001	72.1712
-40.7031	46.1007	79.9593
-47.1125	40.8837	79.2244
-35.4589	39.6764	82.5388
-34.2735	50.885	80.2057
-11.9271	49.2348	83.4625
-9.02826	44.7637	85.8627
-15.6446	46.512	84.3688
19.2291	-36.8102	101.605
18.5138	-35.8632	103.545
17.9631	-37.8671	101.764
20.8188	-35.4435	100.653
12.8071	-29.2154	109.197
14.7815	-27.5715	108.437
11.5964	-27.7843	108.717
10.9663	-30.7362	109.246
13.955	-30.4301	109.162
15.1274	-31.7089	108.606
13.2972	-33.3156	108.704
16.3334	-33.0388	107.482
22.1584	-38.9456	95.8859
20.9063	-40.2064	95.8622
26.4731	-44.1283	94.2867
27.812	-42.4306	94.338
24.7325	-45.8084	94.0372
17.525	-34.4704	105.706
19.3356	-32.9787	104.688
15.763	-35.9303	105.904
10.3143	-26.326	107.756
12.35	-24.914	107.138
8.66219	-24.2975	105.907
8.42515	-27.7225	107.718
-24.498	24.6597	86.8488
-30.333	19.8762	86.5679
-22.6872	21.619	87.1188
-19.0694	28.8677	87.2119
-26.9514	28.0536	86.1836
-9.36553	-2.16641	83.9023
-7.56399	-4.05847	85.3159
-10.8283	-0.522875	83.05
-10.8875	-3.15667	83.6665
-12.1418	1.11915	82.561
-9.87164	1.96348	82.523
-13.387	2.82923	82.4039
-13.696	0.0504719	82.349
35.6179	-54.7303	87.6677
33.5354	-56.5215	87.4267
34.9055	-53.1454	86.5215
35.9061	-55.8715	89.0258
35.9731	-56.207	89.9807
34.2043	-57.8518	89.6941
37.9089	-54.3986	89.9472
35.9237	-56.13	90.6197
34.6079	-53.5988	93.7716
35.2937	-54.525	92.8689
32.1478	-55.9297	93.4945
35.6941	-55.4353	91.7975
33.5957	-57.4348	91.4285
31.4364	-49.9792	95.3037
29.2808	-52.5522	94.973
33.0752	-50.6727	85.383
30.5521	-47.7435	84.6589
30.7051	-52.5314	85.0748
-37.2511	66.8576	73.4014
-33.1004	60.8531	77.0431
-31.5228	69.7314	72.8301
-41.3062	73.4644	68.2635
-13.8056	33.7773	87.7849
-12.2519	31.3698	88.2232
-9.72754	37.9472	88.2398
-17.0371	36.7981	86.7242
-9.44293	29.8102	88.4795
-5.98406	28.3052	88.3291
-6.11483	33.542	88.8661
-2.9839	27.6917	87.6696
-5.94155	24.5871	87.5166
-0.521254	30.8663	88.002
4.39623	24.4676	80.3038
3.36877	24.7403	81.2485
2.70827	21.2416	78.9893
6.30708	27.4132	81.5542
6.30738	24.6609	79.3351
2.00344	24.8428	82.4191
4.26315	27.7526	83.2436
0.18005	21.8652	81.3567
-20.2545	88.6687	55.7372
-22.9714	95.0695	47.0009
-26.9986	87.2085	57.9469
-16.8483	82.8538	61.8099
-26.1853	72.3392	71.5561
-29.6214	78.3869	66.7312
-20.3036	74.9033	69.464
-6.19896	41.2128	87.8232
-4.6861	39.9544	88.3554
-2.42271	44.5824	86.1784
1.57776	34.1157	88.0571
0.751902	35.316	88.3711
-2.46268	37.7669	88.5747
6.67709	30.4649	83.7371
7.71183	30.2488	82.9799
9.9686	33.1064	83.6447
-13.8881	77.5276	66.2925
-7.44146	80.1951	62.0058
-10.911	72.336	69.8584
2.5297	48.2316	82.9761
7.78136	50.9885	80.1692
13.8804	33.7187	82.0017
13.3837	34.3421	82.5985
11.3271	32.0255	82.3644
16.3006	34.8473	81.0048
11.2474	38.3107	84.3209
12.0651	36.7349	83.8534
14.3434	40.2702	83.1622
12.8381	35.3096	83.204
-7.75797	66.9597	72.861
-1.5568	69.7306	68.9667
-1.77407	83.1914	56.2431
1.28254	77.8782	60.3516
3.27291	86.0997	49.1277
18.3973	33.7435	78.5763
20.387	34.1015	77.1341
18.8138	35.6205	79.4642
21.0153	35.9644	77.8169
18.5155	34.5302	79.041
17.934	41.8812	81.137
22.3711	43.0331	77.7085
-4.25184	19.9035	83.315
-5.03625	16.5842	81.6928
-2.79974	19.3712	81.8047
-5.72261	20.0991	84.4681
-7.52176	20.1909	85.5791
-8.50144	16.8504	84.0616
-0.889287	18.584	79.9062
0.584586	18.3307	78.6192
-19.846	17.8617	86.8219
-25.0691	14.8711	86.1777
92.2988	-5.86953	-11.8157
90.583	-1.24465	-8.92176
92.5514	-4.77916	-18.1638
46.3925	75.0516	-24.7681
48.6891	72.859	-31.0201
41.8662	79.4164	-28.8088
45.2253	75.7012	-16.2692
51.0218	70.5937	-20.3114
63.6661	51.9155	-44.9093
66.7845	46.4597	-44.4372
62.0186	51.3454	-50.7055
60.6495	56.9777	-43.9563
57.1222	62.0377	-42.5922
54.4284	63.2183	-48.9476
54.0182	66.3054	-39.8725
60.0732	60.6932	-36.4897
74.3236	29.1867	-41.6336
74.0165	25.3073	-46.3162
71.9145	35.0752	-42.9223
-31.0172	33.4834	84.5972
-36.9973	27.917	84.1442
-25.1623	37.9978	84.8896
-20.3259	42.1363	84.8457
-24.2043	48.6463	82.5132
79.509	-72.6359	40.5788
79.5381	-74.0697	33.6097
82.663	-66.0009	36.0677
76.1317	-78.066	43.3961
88.6016	-41.2504	32.7718
87.0438	-48.4116	36.7598
89.8414	-34.8549	28.8583
88.0747	-39.3339	37.1451
4.49775	72.4134	63.8017
10.2379	74.8483	57.4789
-28.89	54.8905	79.9165
8.30085	89.0997	40.2704
12.5683	91.7714	30.81
12.3385	83.2172	45.0796
-46.0781	81.1288	60.4556
-39.7246	83.5185	60.3005
-50.6424	88.7548	50.4369
-52.5176	77.8625	60.334
23.4906	64.7833	56.6634
19.842	70.8772	53.1883
22.671	35.7315	76.1359
26.6757	47.5695	72.0626
30.719	45.4377	68.3615
26.3713	45.3317	73.3183
26.0036	43.3485	74.1828
75.0567	-91.1076	24.1588
73.2205	-92.5888	24.1975
89.8632	-24.2431	32.1148
88.8027	-21.2427	35.732
88.3304	-30.2773	37.8788
90.6212	-26.9846	27.7739
32.1315	-44.5098	94.9268
33.7256	-43.496	94.6911
30.4683	-42.9673	94.575
49.4244	-35.5684	85.9683
46.4683	-33.4147	87.2944
46.2459	-36.7501	88.6527
32.6764	-39.5744	93.5105
30.4312	-40.7022	94.0477
34.3389	-40.7522	93.7801
35.1644	-37.898	92.5022
30.9317	-38.3078	93.1993
57.9348	-31.2388	79.4733
59.7915	-33.6983	77.7192
60.2059	-30.5263	77.8443
55.2473	-28.8472	81.3381
37.5749	46.027	60.3304
36.0482	44.1502	63.2291
42.0482	41.3198	59.2043
38.7394	48.14	57.0464
39.8878	50.3894	53.1118
41.793	52.4141	47.6976
27.8967	36.5539	72.1436
29.2075	35.0967	71.2831
34.5987	42.3941	65.6128
57.1123	66.0257	-26.4406
59.4282	63.6128	-30.1931
54.6814	67.356	-30.3354
55.5731	67.3524	-22.1021
71.8932	44.157	-35.171
70.6046	42.9791	-38.6189
87.7009	8.37907	-17.5081
86.5532	12.4119	-14.2419
88.6838	5.29394	-11.7836
89.4655	3.27898	-21.1778
85.9041	12.4289	-22.667
62.2189	60.1987	-32.9172
77.0565	26.3755	9.60376
79.2901	22.8129	8.20231
74.6031	30.1205	10.7792
76.9782	24.1857	13.8736
56.3314	40.8928	38.8429
50.7744	47.9362	38.6945
61.341	34.1355	39.0144
58.95	42.7475	29.9387
34.1651	33.8127	68.9315
31.8414	33.6435	70.1677
34.2915	30.3431	70.4134
29.7582	33.343	71.271
29.4307	31.1322	72.0883
76.5326	21.8423	20.2459
75.8152	19.5543	27.161
79.2875	17.8042	18.6326
73.4922	26.3593	21.272
26.8925	-9.17582	85.2285
30.6304	-7.47676	83.919
22.4933	-5.11102	83.9403
22.9774	-9.43884	86.5613
35.5185	-4.15195	82.3975
40.658	-0.262641	80.7288
39.0949	-7.44502	82.7468
18.9599	-9.81823	88.0289
14.9307	-9.91656	89.6259
21.9852	-12.9617	89.8163
29.6709	-17.1068	88.7434
27.0376	-16.2949	90.0389
27.7401	-22.7285	96.1748
26.145	-23.4572	98.0135
28.5963	-24.0924	95.4267
28.7532	-22.3573	94.7911
29.5575	-22.1222	93.3958
30.3605	-23.8104	92.7046
50.5647	-16.4189	81.2886
46.8466	-19.144	83.1147
54.5806	-19.6738	80.2067
46.8216	-13.4721	82.1278
42.6131	-10.5404	82.6285
26.2199	-38.921	94.1297
27.6182	-40.1888	94.0695
27.3593	-38.1014	93.7105
76.6775	-12.9866	57.3782
73.681	-8.20519	59.7294
72.0467	-15.6341	64.4604
79.2774	-17.8809	55.1589
47.763	-28.6004	85.1092
45.7085	-30.008	86.39
49.7768	-27.2828	84.0132
58.0815	-23.1358	78.6594
61.122	-26.7079	77.036
62.2384	-20.9785	75.3599
54.6515	-24.9109	81.1519
28.9422	-41.4564	94.2531
81.4034	-23.0975	52.9922
84.8694	-20.8811	45.6873
76.6744	-24.8204	60.7108
82.1171	-28.572	52.6658
63.9112	4.28569	65.7046
67.3757	0.114643	63.9593
67.835	7.75256	58.5762
79.711	-63.4805	57.0534
78.4565	-61.2928	59.8579
77.2452	-69.4253	60.6869
80.3564	-46.5867	56.3407
81.3781	-40.6082	54.6274
77.0604	-45.1458	61.2831
78.7564	-52.768	59.0669
47.5833	19.9618	70.2182
42.9629	22.8146	70.8882
43.2322	15.2508	74.6865
28.6875	27.9782	73.5008
30.9737	27.1252	73.0985
39.3596	24.5963	71.4352
36.213	19.9105	74.7582
36.1155	25.5142	72.1759
24.8541	29.0692	74.4123
61.2047	-83.3949	73.3249
58.6506	-85.6326	73.1152
71.886	-26.6298	66.9749
73.1843	-30.6375	65.9011
69.7907	-22.6447	68.6593
67.1892	-28.4969	72.0207
73.5646	-44.0016	65.5654
73.8141	-39.3325	65.3183
69.5125	-43.2882	69.7631
72.4657	-49.2837	66.9244
37.962	10.5618	77.7499
41.9731	7.34391	78.1153
34.2293	13.1883	77.4367
67.0614	-18.13	70.4532
46.0152	4.18371	77.9594
60.6065	-71.7776	77.243
58.1632	-68.4668	78.8608
63.4978	-68.0814	75.8874
66.4384	-64.0121	73.796
68.8571	-59.4908	71.4429
63.6211	-61.1314	75.911
31.4184	15.0352	77.1129
29.0466	16.2091	76.9889
26.149	10.4095	78.3414
33.5014	26.3523	72.6152
31.1865	21.9877	75.0536
26.9897	17.262	76.8251
21.8816	12.8058	77.5846
11.3542	-10.4965	91.3577
14.3101	-13.758	94.1576
8.50735	-6.87281	88.1985
20.3959	-20.447	100.146
19.186	-19.1208	99.0137
17.5222	-21.6891	103.009
21.403	-21.2829	100.517
2.36645	1.84998	80.887
3.73769	-0.342777	82.5483
18.6615	-1.29533	81.949
-5.19813	-6.71783	87.7534
-6.72518	-7.62192	87.5334
45.5846	35.6358	60.492
5.88802	-3.33671	85.068
87.415	-17.554	38.6588
89.0793	-12.5019	30.8638
61.9425	21.7387	54.6562
66.6803	16.2138	52.6741
64.0242	25.177	46.6373
77.5839	2.18162	46.8717
74.2358	6.75219	48.8984
74.4744	-0.70489	54.558
79.7097	5.03341	39.3783
70.6144	11.4587	50.7806
72.9519	14.2599	42.8745
75.0834	-74.1461	63.2559
56.1202	-65.3092	80.4701
53.1445	-68.29	81.1434
58.7866	-62.0417	79.4166
61.1178	-58.7178	77.9678
11.8223	16.0054	75.7905
20.8775	6.89817	78.6387
18.8115	8.51121	77.9702
17.2328	9.73446	77.4415
50.2699	-71.0005	81.2736
47.6176	-73.1871	81.0739
-11.0198	6.85158	82.2177
-9.02398	7.46928	81.6451
-12.0176	9.37859	82.8255
-12.8641	5.80849	82.5133
-9.29677	4.61395	81.9249
4.86773	12.0867	74.3334
4.0432	12.7414	74.5326
3.39728	10.2907	75.597
-6.96843	7.77793	80.8413
-7.91462	10.4303	81.3872
-14.7609	4.81771	82.5828
-16.537	3.46629	82.3661
22.0206	-34.1304	99.7581
21.7535	-32.9995	101.203
16.9408	-25.7602	106.717
15.9288	-24.521	106.317
19.6061	-23.8429	103.893
32.089	-26.9568	90.0277
31.1913	-26.5829	91.202
30.9617	-29.7935	90.7947
14.631	-23.349	105.619
-6.63469	2.71703	81.8975
-12.7577	12.4491	83.9649
-10.6426	13.1383	83.3868
3.41839	14.0373	74.9851
-8.55719	13.5256	82.5261
-6.63617	13.5431	81.4127
-4.99433	13.4097	80.4116
37.3509	-29.3788	88.1243
35.4157	-31.8401	89.5447
40.075	-30.3236	88.0236
43.4425	-31.667	87.6927
40.58	-33.6851	89.464
53.9214	-39.0452	78.3671
53.044	-38.3233	78.0296
52.5813	-40.7051	79.8195
53.4361	-38.3324	82.0986
51.399	-39.4775	84.8927
50.817	-36.3138	77.6138
48.4466	-38.7678	79.8888
48.0782	-34.1976	77.6359
33.5598	-33.9556	90.8487
31.4266	-35.7624	92.0685
35.5639	-34.9045	91.0008
37.9847	-35.8048	91.0151
40.258	-36.9392	91.0777
50.8168	-42.7893	81.597
48.8705	-42.7734	81.9319
46.1201	-40.982	81.6971
43.3962	-38.0064	81.2866
29.2501	-37.1066	93.0566
27.8002	-35.9881	93.0807
36.6257	-41.8564	93.8133
39.6423	-39.8795	92.5026
23.7711	-15.5876	91.5224
20.445	-16.1446	94.2493
6.40881	-21.3741	102.879
4.67115	-22.5062	102.742
16.9818	-16.8521	96.9569
21.1162	-31.3061	103.172
23.1259	-29.6147	100.999
25.3869	-27.9332	98.6588
24.8119	-26.1558	99.6942
27.6013	-26.4594	96.3566
29.0786	-25.7352	94.6644
29.9981	-25.7282	93.3544
30.6253	-26.0763	92.1942
22.1574	-22.2169	100.844
22.9641	-23.3254	100.9
23.9562	-24.7241	100.495
121.52	-86.1166	-4.24604
119.025	-90.5837	-1.79137
126.341	-89.5836	-5.63264
123.596	-81.7949	-6.78384
115.026	-81.3559	-2.27912
106.434	-74.5302	0.445017
108.454	-70.1765	-2.516
99.3169	-68.239	2.99379
104.142	-78.9323	3.43766
90.0705	-55.4864	11.9324
91.4611	-50.4995	8.28616
88.5169	-60.561	15.4946
92.3786	-59.1032	7.44478
95.0697	-63.2269	5.00871
93.1426	-68.017	8.59368
96.69	-58.6514	1.78698
73.9924	-34.7446	65.1106
78.1816	-34.4254	59.5886
69.4464	-35.4811	69.9989
82.2331	-34.1949	52.9492
85.053	-35.3089	47.0988
86.9797	-37.0889	41.8304
65.7798	-35.6632	73.2503
64.7214	-32.7349	74.2451
62.7459	-35.6674	75.4713
66.0437	-38.889	72.8734
60.8428	-35.8548	76.6453
61.1264	-37.9528	76.2699
92.6164	-45.655	4.96986
91.3285	-41.6728	9.26764
94.9905	-49.5541	1.16668
94.0704	-40.7767	0.816634
90.8691	-37.3559	14.1328
91.88	-33.2836	8.63765
90.8731	-33.2371	18.7483
90.8738	-29.8772	23.5139
91.6602	-25.9135	17.0782
110.207	-65.7876	-5.53098
118.837	-72.8385	-7.7783
112.113	-61.6703	-8.73975
102.954	-59.2315	-3.42958
125.409	-77.7274	-9.48386
130.561	-81.1524	-10.9032
127.065	-73.7458	-12.4917
98.1517	-53.9681	-1.37213
74.5597	17.0989	34.9368
77.9704	12.4314	33.3722
70.6891	22.2405	36.44
92.2691	-22.6124	10.777
92.4452	-25.883	6.91107
92.6916	-19.4686	4.34069
44.6601	54.9146	39.2868
48.5086	56.83	28.5014
89.8785	-8.66186	23.3578
89.9891	-5.25352	15.6249
81.0399	7.88278	31.9346
81.7888	10.6536	24.3907
66.032	28.0075	38.2912
68.2901	29.7922	29.8092
81.8749	13.6686	17.1004
81.6226	16.7821	10.7264
99.2259	-29.8227	-12.8707
102.03	-33.5983	-14.9006
100.705	-27.2397	-17.1661
97.0001	-26.3824	-10.572
97.5552	-32.816	-8.52467
105.409	-37.8064	-16.4469
95.2723	-23.0716	-7.5965
94.1245	-26.0069	-2.60359
96.3504	-20.3682	-12.7254
93.9965	-19.8382	-4.76333
61.0547	44.6279	21.1792
56.2341	51.732	19.6987
65.8543	37.3761	22.3331
51.1316	59.1002	17.8336
46.2599	65.8497	16.2833
41.2856	72.6751	14.0886
42.9128	74.5256	3.38307
36.3226	79.4243	11.3881
89.5995	-1.85782	8.06428
89.213	1.02592	0.557935
69.8914	31.4418	22.33
71.2011	32.8316	15.8917
113.983	-57.4497	-12.2984
122.294	-64.7252	-14.3289
93.0467	-29.4202	3.0395
94.0702	-32.9469	-0.725764
128.531	-69.6979	-15.9466
133.4	-73.0287	-17.5103
118.556	-44.7829	-27.4463
125.187	-51.2208	-29.7791
101.778	-24.8225	-21.4697
101.684	-21.7847	-25.9141
99.3536	-21.1622	-19.7458
97.1876	-17.4568	-17.6789
130.244	-55.8438	-31.9545
134.248	-59.3112	-34.3723
89.1091	3.0156	-6.34365
81.3453	19.3585	6.54979
80.9216	22.0512	3.72769
83.1592	16.3533	4.29202
71.8999	34.093	11.7324
106.04	-26.5733	-34.7631
102.553	-22.8317	-40.7798
102.487	-21.6614	-32.706
99.4884	-16.7642	-30.7715
95.2608	-11.0026	-35.6329
91.8152	-2.3561	-24.2399
85.968	14.9276	-12.3975
85.1543	18.9957	-18.2758
120.215	-45.6356	-55.8534
125.355	-51.0156	-58.1108
116.087	-44.3508	-62.5796
114.817	-39.8119	-53.3909
83.4532	17.7599	-26.3985
83.027	21.7942	-23.8682
83.2629	24.0443	-22.7103
116.259	-94.9607	0.472225
109.977	-90.1925	2.89058
113.399	-99.225	2.45679
120.974	-98.2043	-1.32051
90.5032	-73.0909	12.6553
87.4017	-77.8697	16.5493
94.3097	-77.4976	10.075
88.2205	-69.4015	15.3045
85.1589	-59.733	31.7474
85.2726	-62.7583	25.6907
85.2494	-57.2622	36.8456
86.3137	-66.0305	19.7648
83.5086	-71.2597	23.9154
101.307	-83.3376	6.58484
98.6022	-87.9704	9.39831
66.1742	-42.4747	72.7262
63.1721	-41.3529	75.0245
85.2224	-55.1683	41.0705
61.1377	-40.5422	76.324
60.7224	-43.8105	77.1105
59.5104	-40.0468	77.2162
58.1169	-39.5633	77.8294
57.7824	-42.2812	78.8015
70.9898	-54.4987	68.8618
74.0051	-56.6389	65.8152
76.742	-58.9353	62.4871
52.9806	-43.9982	82.7796
51.4068	-47.1361	85.4347
52.3346	-43.2706	81.6002
54.2855	-40.5272	79.3939
52.502	-43.2452	81.0607
50.0723	-46.2508	83.9598
52.7708	-43.534	80.5241
53.5781	-44.538	79.4423
50.4315	-46.4525	82.5672
55.2431	-47.158	77.7783
57.2206	-50.5329	76.22
52.8239	-49.6641	79.5807
84.1488	-82.0199	19.7486
82.0294	-78.6447	22.7404
88.2602	-86.2581	16.5255
110.508	-103.505	4.16602
104.429	-98.889	7.12562
107.471	-107.473	5.57026
114.928	-106.51	2.11367
95.8548	-92.2621	11.8527
74.3817	-82.9742	31.1776
76.975	-80.2971	29.7338
73.588	-82.1698	38.0156
104.704	-110.787	6.52382
108.882	-113.713	4.38957
73.4014	-81.8451	45.1868
47.3251	-48.7216	86.1853
47.3558	-48.7968	85.3543
47.623	-49.0892	84.4648
48.615	-49.7092	82.994
50.3213	-51.8697	81.0529
52.4558	-54.7765	79.2341
26.0305	81.4864	29.6203
29.2213	83.86	18.8798
21.2541	88.0505	25.3194
21.6843	79.1866	39.9143
44.0141	75.4931	-6.67892
69.4034	40.7283	-44.1399
68.4402	38.3855	-49.5342
100.089	-29.6475	-62.6904
94.0804	-21.7476	-60.1476
104.256	-31.1262	-57.5574
106.543	-37.2146	-65.1981
96.3157	-28.9993	-67.3951
112.422	-43.5947	-67.6229
118.241	-49.4897	-69.8197
108.954	-43.489	-72.2377
97.4997	-18.5836	-47.184
103.033	-26.157	-49.1528
92.7576	-15.6665	-52.9187
93.2053	-11.5731	-44.4439
-54.9119	95.8934	38.1243
-47.8199	98.1743	38.355
-57.9676	101.991	24.0503
-61.7132	92.7718	37.7753
-48.2885	104.977	-61.59
-53.4252	109.201	-44.7483
-41.5518	107.633	-59.1873
-41.8567	98.5621	-76.0635
-54.9062	101.565	-63.6508
-34.5174	90.9242	-87.071
-28.2043	93.6881	-84.5497
-26.2347	82.0374	-95.9192
-40.353	87.3603	-89.3357
