1885
56.653	-126.669	-47.4192
53.2674	-116.295	-53.0431
56.061	-110.86	-44.6097
71.0232	-44.4074	-28.491
73.5156	-40.7641	-26.8255
75.2521	-39.0688	-26.1512
28.4844	-144.414	19.0213
26.853	-135.727	20.8
23.9029	-145.414	21.71
29.9476	-150.589	17.648
23.9416	-105.175	28.2152
19.41	-105.779	32.6976
23.5536	-112.203	26.1371
25.0775	-101.03	30.3066
31.774	-94.2542	45.2362
28.682	-95.7224	39.3504
34.5241	-93.0281	50.3643
26.2986	-98.1473	33.9084
21.7327	-99.101	38.8639
24.8533	-123.099	23.5395
20.3529	-124.297	27.1164
32.7925	-64.6007	78.0477
31.2865	-61.5055	78.9744
36.457	-91.9253	54.5016
30.3507	-59.4448	79.3651
28.1848	-61.387	81.1804
29.4712	-57.9139	79.6794
28.6393	-56.608	79.9261
26.96	-58.1368	81.5538
29.0389	-77.4259	81.0059
29.7097	-81.8088	79.5683
29.9836	-86.3508	77.5108
22.1551	-55.3245	85.5114
18.7111	-55.425	89.0948
21.997	-54.6859	84.1252
25.272	-54.5558	81.209
22.1334	-54.8861	83.6003
18.1384	-54.5266	87.289
22.173	-55.3174	83.217
22.1685	-56.647	82.6379
18.2669	-55.1926	86.0452
21.7537	-59.7735	82.2371
20.8382	-63.4887	82.462
18.1142	-59.2236	84.6284
14.8229	-106.312	36.2878
15.8573	-102.499	38.7623
14.6116	-113.651	33.821
19.2638	-146.488	24.1019
17.8219	-137.944	26.4524
14.6739	-147.296	26.1167
20.5751	-152.345	22.4433
15.9806	-125.367	30.2369
8.58039	-100.352	47.0344
12.0328	-100.337	45.4092
9.84719	-99.688	54.4993
10.6409	-147.871	27.5555
11.7586	-153.505	25.8286
11.2	-100.045	62.995
14.5102	-54.1181	89.9116
14.4135	-54.3745	89.117
14.3878	-54.9119	88.4029
14.7457	-56.0504	87.4075
14.6269	-58.7291	86.5189
14.3811	-62.5574	85.931
76.0351	47.7991	13.607
78.5172	46.1717	2.75668
75.9825	55.4202	8.51697
72.7127	50.2263	24.1514
81.1368	27.0727	-20.5749
73.5579	-20.2182	-50.3822
70.7541	-22.0337	-55.2391
50.2586	-95.0122	-55.7437
50.9002	-84.9343	-54.6068
53.0176	-98.1251	-50.3132
50.1798	-105.147	-56.9209
47.3176	-92.7147	-60.6024
50.4288	-114.038	-58.238
50.9655	-122.51	-59.4117
47.376	-112.338	-62.8935
56.7702	-83.1709	-42.1552
56.0345	-92.5816	-42.7629
54.4324	-78.657	-48.4436
58.1696	-74.8792	-40.6991
23.755	113.036	21.6699
30.7586	110.198	21.4122
23.4204	117.588	6.4472
16.4296	115.034	21.9442
22.6715	102.019	-78.8727
23.3322	110.748	-63.0028
29.807	100.001	-76.9777
21.888	91.1267	-92.0179
15.1888	103.432	-80.3018
21.4219	79.1924	-101.534
28.3024	77.5491	-99.535
21.1349	65.9964	-108.705
14.4332	79.957	-103.142
23.475	116.663	-45.909
30.727	114.173	-44.2884
15.9128	118.474	-46.9757
23.4616	119.713	-28.0467
8.12023	123.261	-11.0837
0.0712616	123.683	-11.2235
8.20189	120.967	6.21982
15.9005	122.023	-10.7822
8.08445	122.854	-29.2627
20.865	52.996	-113.609
27.3032	51.6414	-111.567
20.5433	39.5289	-116.875
14.3436	53.7574	-115.07
20.0331	25.4615	-118.676
26.3666	24.496	-116.486
19.526	11.5811	-118.848
13.7174	26.3989	-120.188
17.3731	-27.0079	-107.983
23.1512	-27.7634	-105.832
16.9531	-38.7123	-100.772
11.8221	-26.9005	-109.141
18.2476	-14.402	-113.778
6.53809	-0.450249	-120.021
0.14919	-0.378649	-120.354
6.75743	12.7103	-121.441
12.7771	-0.875099	-119.001
6.22751	-13.3093	-116.464
14.6957	-85.3348	-83.7558
15.0594	-75.8492	-84.6699
19.8616	-86.1132	-82.4189
14.4607	-94.7574	-83.4281
9.71425	-84.887	-84.5251
4.65092	-103.274	-84.1282
9.5174	-103.731	-83.8221
4.76366	-112.913	-83.9286
-0.0353732	-103.046	-84.2306
4.76153	-93.6296	-84.4416
16.9992	-47.9239	-94.8398
22.2246	-48.5124	-93.2852
16.53	-56.1449	-90.3985
11.3414	-47.449	-95.8484
15.6731	-65.5818	-86.8826
21.1782	-66.7019	-85.1587
10.48	-64.7722	-87.8736
5.25276	-64.465	-88.3311
5.53631	-55.2049	-91.8781
4.94788	-74.9199	-86.0016
0.000457444	-64.6338	-88.3923
49.663	97.9811	18.23
55.5534	92.435	16.8367
50.1524	101.658	4.68424
43.6536	102.645	19.6941
47.3859	70.5036	-89.5408
52.8776	67.3761	-85.3221
47.019	58.5268	-96.3111
41.5159	73.1616	-93.35
47.7952	81.3807	-80.3916
48.1683	90.8747	-68.4068
42.4448	94.4887	-71.6363
48.8629	97.9194	-54.307
53.7481	86.4608	-64.8507
49.645	102.215	-39.6095
55.4825	96.5427	-37.8923
43.7488	106.902	-41.1814
50.5597	103.762	-24.8078
50.484	103.731	-9.91387
44.2868	108.814	-9.72316
56.4101	97.8777	-10.0866
46.375	46.3887	-101.207
45.6931	33.784	-104.45
40.477	48.2949	-105.12
51.8123	44.1584	-96.9232
44.7207	21.0166	-106.271
50.0395	19.5621	-101.956
43.7254	8.08556	-106.386
39.0825	22.1504	-110.081
42.3822	-4.43191	-104.957
40.972	-17.3168	-101.486
37.1731	-4.08569	-108.576
47.1496	-5.19423	-100.801
39.9883	-29.9029	-95.7269
44.6324	-29.6626	-91.9328
39.2001	-40.8319	-89.4678
34.7534	-29.2717	-99.6102
38.3929	-50.3029	-83.9159
37.481	-59.7344	-79.139
33.3109	-50.0721	-87.594
42.8572	-50.5441	-79.6869
35.0641	-88.0065	-74.4601
34.1841	-97.9056	-75.3869
30.1716	-87.5488	-77.8262
36.0183	-78.4743	-74.3302
39.4742	-89.0071	-70.4969
24.1899	-105.32	-80.8845
24.3895	-114.147	-81.0867
19.2214	-104.606	-82.3136
24.4682	-96.2788	-80.6544
29.2097	-106.248	-78.7996
36.6996	-69.2113	-75.8528
41.2006	-69.6103	-71.37
31.95	-68.5329	-79.5643
67.9483	70.0258	-51.6315
69.1919	73.954	-40.2016
72.0188	63.2244	-45.9019
67.0239	63.877	-62.0569
63.569	76.0066	-56.7834
70.1613	76.1828	-28.8797
74.0822	68.3332	-23.8523
65.7328	83.5263	-32.8985
70.7741	77.134	-17.7111
70.1997	77.894	-6.94037
73.2379	70.4384	-2.32529
66.3428	84.8677	-9.11568
56.5974	41.8947	-92.4225
57.305	53.1218	-87.4872
60.9399	39.2198	-87.6283
55.8469	30.0265	-95.6496
57.6867	64.0952	-80.8739
58.1508	73.6335	-72.2056
62.2014	60.178	-75.9892
51.841	-5.92054	-95.8854
53.6903	6.07075	-97.2046
56.326	-6.78712	-90.3948
49.9892	-17.9668	-92.8289
54.8658	17.9084	-97.2695
59.3234	16.5081	-92.2119
48.7613	-29.2176	-87.8384
52.7728	-29.2262	-82.7738
47.9783	-40.2977	-81.1988
46.8298	-49.9473	-75.4638
50.4072	-48.3918	-71.467
45.66	-70.3212	-65.7717
49.3745	-72.8798	-59.3369
44.5929	-80.2687	-64.9969
77.7582	34.74	-47.5519
76.791	28.7836	-54.9954
75.7462	40.2171	-53.1377
60.8598	86.309	16.0426
61.2635	89.9626	3.11867
79.6984	44.9983	-7.99081
78.8437	52.7596	-12.9347
66.6792	-7.68581	-74.6618
63.6033	-7.73615	-79.779
68.2892	1.77437	-76.0487
69.5216	-8.07747	-69.1332
64.6622	-17.5581	-71.904
69.2153	11.331	-76.663
66.2929	13.1382	-82.0836
70.1602	20.4054	-75.1608
71.9865	9.19698	-70.6405
71.0867	29.6044	-71.7845
68.0812	33.1045	-77.399
72.1245	38.0144	-66.3006
73.7486	25.7219	-65.9082
58.4982	-42.6927	-60.7731
55.8759	-44.888	-64.2986
60.4034	-35.021	-64.6053
61.1278	-40.5728	-56.9981
56.797	-50.4836	-57.0904
68.0321	-23.6261	-59.8745
65.9321	-30.981	-56.6486
65.3951	-25.1982	-64.0088
70.1172	-16.1256	-62.2032
52.2003	-75.5517	-53.7631
53.7041	-66.6074	-53.7309
74.6812	-39.3714	-6.13546
75.4198	-35.765	-4.14223
72.8026	-42.5033	-3.91951
75.4523	-34.0216	-2.71777
80.8418	-7.75068	-4.18395
81.8832	-2.34397	-6.23827
93.1817	3.57399	-39.0519
93.4782	9.46043	-36.6169
93.8037	3.16473	-38.3493
81.6663	-36.7632	-25.9027
80.2366	-39.6956	-22.5614
93.2196	14.2161	-33.0736
92.2572	14.5383	-33.5649
92.6753	17.3803	-28.9592
94.0928	13.5322	-32.523
87.1198	9.04884	-12.7598
85.7738	9.03899	-13.433
92.0335	18.6861	-24.7406
92.9471	17.9627	-24.0076
87.5561	-19.7494	-35.9625
82.8922	-37.6668	-18.5771
82.1743	-37.6149	-15.9632
81.0786	-39.8006	-19.0622
82.4015	0.339089	-7.92714
88.7844	16.9134	-20.4001
86.8559	13.7626	-17.8088
87.6491	16.0199	-21.9549
84.4264	9.32456	-14.8362
83.5132	9.76598	-16.3942
91.5886	14.3761	-33.7924
82.7311	9.51954	-17.811
83.9889	11.5475	-20.3988
85.5205	13.5027	-23.9044
83.2846	11.3214	-24.9777
86.4355	-28.4368	-28.8919
86.2799	-30.2141	-21.3818
79.4366	-41.0334	-19.5314
81.398	-36.8104	-13.7289
82.7373	-33.8498	-13.6956
83.8496	-31.4037	-14.551
84.4437	-29.7828	-15.4645
93.9847	2.85095	-37.9467
94.5641	8.53105	-35.599
91.6183	15.2157	-16.7357
91.7688	14.5611	-16.442
92.7585	16.9112	-19.7204
91.7213	13.9296	-16.3009
92.9408	15.708	-19.2447
91.5131	12.8227	-16.4872
94.4607	12.9727	-32.174
94.0351	15.8914	-28.0649
94.5644	12.452	-32.0486
93.4954	17.2432	-23.5361
93.7087	16.6308	-23.4226
93.7102	16.0241	-23.1742
94.1631	14.8108	-27.7243
94.5168	12.0621	-31.7431
93.3111	-1.5949	-36.958
91.1956	11.4847	-17.0437
88.417	4.05364	-14.7051
92.9577	11.2763	-25.3642
92.7082	-4.81161	-31.9104
92.8197	-2.90072	-31.5959
92.804	-1.00744	-31.0009
92.6492	0.501962	-30.0957
92.3441	1.72629	-28.8536
91.4833	2.5565	-26.3429
82.4982	-26.2304	-13.2467
83.6768	-27.8293	-14.8809
86.2435	-2.76654	-11.8272
81.7521	-18.033	-11.3189
84.5909	-29.0423	-15.9481
35.869	25.9135	73.7032
36.7553	94.8616	44.9219
37.2056	101.111	33.8041
9.16706	102.635	48.0912
8.82905	109.986	36.0033
0.550582	103.118	48.1555
37.2706	106.839	20.6132
37.4018	111.033	6.08575
8.45738	116.304	22.0693
0.177105	116.796	21.9621
23.2884	119.98	-10.3752
30.6022	117.053	-9.98199
37.5018	113.383	-9.86264
37.6461	113.362	-26.173
68.6681	53.5118	33.8116
75.0499	62.8395	2.9738
76.6658	61.5496	-7.66545
61.5532	91.7839	-10.1671
61.6577	91.5838	-23.0155
8.05474	119.591	-47.5324
7.96936	113.407	-65.0089
0.0878405	119.97	-47.6944
37.2836	111.059	-42.5138
36.9181	105.702	-59.1185
76.8502	60.487	-18.3774
76.3758	59.0142	-29.2066
60.6516	90.5235	-35.8569
59.6699	87.2629	-48.5186
75.2559	56.361	-39.9541
74.1518	52.0109	-50.1601
73.0841	45.9527	-58.9599
69.9596	51.0515	-64.8901
43.726	-90.9036	-65.6764
43.1463	-100.934	-66.9711
43.3286	-110.313	-67.94
43.6541	-118.952	-69.0706
38.6381	-108.436	-72.5227
7.67028	104.373	-80.9613
7.40697	92.8764	-94.4044
0.135653	104.565	-81.3496
7.38288	80.3812	-104.062
7.42712	67.2242	-111.062
0.155556	80.4958	-104.372
7.44664	54.1902	-115.948
7.30653	41.0051	-119.217
0.162012	54.3769	-116.225
7.01733	27.0411	-121.113
0.16833	27.0681	-121.439
18.9524	-1.55515	-117.309
25.1114	-2.50351	-114.952
5.8696	-26.6984	-109.932
5.76981	-38.8382	-101.967
0.118886	-26.8151	-110.077
5.6876	-47.5448	-96.126
0.0426704	-47.7475	-96.0955
4.85704	-84.3829	-84.9341
-0.0245129	-84.1498	-85.0681
34.9951	75.5516	-96.7982
35.5562	87.2242	-87.3209
34.5455	62.8898	-103.757
36.1919	97.4854	-74.7219
33.9571	50.1346	-108.663
33.4358	36.9627	-111.866
32.7838	23.4624	-113.583
32.1514	9.73819	-113.624
31.3018	-3.36305	-111.979
30.2175	-16.1222	-108.495
29.0257	-28.5093	-103.056
28.0987	-39.8054	-96.6356
27.8128	-49.3137	-90.8444
27.491	-58.2852	-86.0857
26.6399	-67.6117	-82.7758
25.8587	-77.3575	-80.9143
25.1791	-86.7712	-80.4275
34.1081	-107.168	-76.0053
34.4285	-116.003	-76.5857
58.7081	81.7333	-61.0284
66.2717	56.1563	-70.4632
65.5651	46.4599	-77.4958
64.6702	36.5319	-82.6939
63.8493	25.7964	-85.9528
62.9864	15.001	-87.3025
61.9426	3.82262	-86.7496
60.1207	-7.50092	-85.0625
58.0986	-18.3621	-82.1587
56.2199	-28.4021	-78.2033
59.4557	-27.8512	-73.1732
54.6614	-38.2261	-72.9095
53.2331	-46.6596	-67.9723
55.3765	-58.5765	-54.2906
57.4579	-57.1371	-50.9102
75.7851	22.46	-60.4746
74.9923	15.0347	-63.6334
77.6814	18.5968	-54.5087
71.8431	-8.20016	-64.1885
73.2517	-0.26669	-65.0463
62.4441	-26.6384	-68.616
74.1674	7.68387	-65.1831
63.8161	-38.2484	-53.3299
61.9457	-45.4672	-50.1731
16.7418	-99.973	42.8676
59.4039	-73.9619	3.06843
48.6697	-89.7776	4.63554
13.7555	-48.0123	94.9015
17.2433	-48.4859	92.6694
20.614	-49.8962	89.6434
9.11217	-57.034	95.9895
9.4897	-57.8951	96.0636
9.78526	-58.9148	96.0392
25.1703	-63.5413	84.2399
24.669	-61.8203	84.6029
24.1513	-60.2814	85.0074
18.2928	-44.3925	91.6983
38.8682	-53.0127	76.1106
29.6173	-33.6588	82.4373
31.4664	-37.8366	82.2244
32.7677	-42.1893	81.5945
60.6293	-38.2217	57.1958
19.8215	21.1264	73.0919
79.399	14.7999	-48.1609
82.3521	13.2568	-29.1992
83.0041	11.2337	-26.8725
71.1595	-45.5644	-0.47838
27.0707	8.71507	72.1046
55.9375	41.608	63.767
8.19368	-33.5132	96.1389
49.4337	17.9364	65.9705
12.3273	-31.2128	93.3379
82.9004	11.0251	-25.8163
55.8582	-101.926	-43.7016
60.5628	-66.7369	-38.7385
59.9352	-60.0342	-43.8492
60.1147	-54.0892	-47.5068
22.6807	-27.4577	84.6052
15.3457	-55.3068	91.848
26.8792	-54.4735	79.9367
7.24292	-52.7021	93.4341
-68.3628	-49.8271	10.2735
-69.2752	-45.058	11.5396
-69.6885	-47.7054	3.38212
-67.3538	-54.2743	8.9807
-67.1289	-51.7652	18.3292
-55.2066	-114.977	-9.6107
-54.5858	-104.832	-9.28252
-57.3958	-113.889	-14.0185
-56.3827	-125.331	-10.4807
-52.4406	-115.814	-5.32794
-57.509	-132.886	-11.5117
-55.0974	-134.61	-6.9022
-59.2786	-131.178	-16.1494
-58.4704	-138.789	-12.535
-47.9758	-98.8204	0.63004
-51.6265	-98.1732	-4.30636
-48.0998	-106.239	-0.333713
-44.1622	-99.7991	5.2208
-48.6472	-93.3673	1.7685
-58.4512	-96.8315	-17.3016
-56.7862	-97.2574	-13.0299
-58.7089	-91.5845	-16.9092
-59.5238	-95.6281	-22.3177
-58.4361	-103.64	-17.7677
-61.7071	-69.3193	20.471
-62.5291	-67.8086	12.739
-59.7737	-72.8919	18.0829
-60.1917	-71.1921	28.2682
-63.1693	-65.7475	22.5489
-74.8422	31.7793	22.5125
-77.7748	30.0643	10.9262
-74.3746	23.9352	25.3462
-71.2899	35.0337	33.357
-75.5322	39.9031	18.2675
-79.3198	42.0747	-29.4777
-80.5058	34.5625	-24.8142
-79.9038	43.8516	-18.9693
-77.6457	49.2091	-34.4856
-78.5778	39.0201	-39.0744
-6.37656	-106.879	39.4958
-6.46507	-102.636	41.9487
-9.1303	-106.748	38.2452
-6.71223	-114.852	37.7418
-4.16497	-106.909	40.3316
-8.15203	-127.368	33.8753
-9.50907	-139.657	29.8336
-5.14473	-127.516	35.0894
-11.4416	-126.475	32.255
-3.27012	-148.538	29.0102
-3.74243	-154.037	27.4809
-2.85074	-140.275	31.5411
-6.77652	-148.211	28.4287
-65.7095	-54.286	-34.0416
-66.7875	-46.6944	-38.0716
-63.0034	-60.1358	-36.4312
-64.9482	-60.6249	-28.9888
-68.3666	-48.3961	-31.7147
-67.866	-41.2424	-41.0099
-71.0582	-36.7562	-37.8568
-68.9103	-36.4822	-43.3741
-64.1539	-46.8543	-44.3842
-60.4069	-124.415	-32.2556
-60.837	-127.465	-25.9159
-59.0123	-121.633	-38.9271
-60.6058	-131.026	-34.3612
-2.33039	-127.829	35.748
-1.81933	-115.249	39.5229
-65.8636	-53.5745	26.9072
-64.9811	-58.4318	26.0196
-64.4077	-54.6783	34.5499
-66.8288	-48.0112	27.1432
-63.3708	-66.0554	5.04182
-64.9192	-62.2345	6.41789
-64.0507	-65.003	-2.87207
-61.6461	-69.6786	3.29912
-10.7886	-89.1214	94.1065
-10.6411	-85.4234	94.962
-14.9279	-88.6499	91.2877
-10.8894	-92.8047	91.9624
-6.93184	-89.7456	95.789
-19.5181	-87.7415	87.3096
-19.6955	-83.8424	88.1654
-24.0849	-86.8673	82.2962
-19.2405	-91.6329	85.2681
-3.47812	-81.9948	97.2863
-3.34437	-86.4459	97.5339
-3.509	-77.4002	96.1821
-6.90107	-81.6418	96.3559
-10.704	-95.9372	88.6479
-6.93527	-96.4301	90.3005
-14.7113	-95.4466	85.8588
-10.5009	-98.3922	83.5546
-10.4566	-99.7341	76.9909
-10.0545	-99.9346	69.8994
-6.33258	-100.294	78.2198
-17.1032	-1.00693	81.806
-14.2374	1.57826	83.6494
-16.439	2.85359	79.3781
-20.1295	-2.86345	79.966
-17.9087	-5.04158	84.141
-50.604	-29.3977	73.4884
-51.1486	-34.2269	72.6279
-44.9589	-28.0487	77.3512
-50.269	-24.3682	73.6815
-56.2403	-29.8659	68.0008
-61.6302	-19.0059	61.955
-61.6289	-24.5716	61.5135
-55.985	-19.3579	68.4657
-61.1896	-13.4335	62.274
-66.4441	-18.4958	53.7515
-71.4864	0.235763	40.5519
-69.7654	2.1021	45.1227
-70.9834	8.43835	39.9085
-72.6775	-0.616297	35.5083
-51.2129	-39.0129	71.294
-45.9136	-37.836	76.1521
-56.1129	-39.9652	65.0973
-50.7226	-44.108	70.1067
-1.25333	1.48451	100.595
-3.17714	1.01629	99.8921
-1.25292	-3.25797	104.656
-1.33229	6.64059	96.1797
-32.7353	72.5133	70.1887
-33.7104	77.9057	65.7027
-38.7458	70.7812	67.0072
-31.3836	66.1287	74.9833
-27.0451	73.511	72.5522
-1.93243	-100.543	64.0341
-2.42054	-100.852	71.9388
-5.21078	-100.269	63.2348
-1.41841	-100.031	55.8943
-62.551	-54.9138	41.7218
-63.9285	-48.6233	42.1185
-61.0155	-61.079	41.4239
-60.1661	-54.4611	48.8712
-3.09971	-97.0395	90.9912
-2.93397	-99.4692	85.4989
-3.15818	-94.0775	94.434
-2.72127	-100.657	78.8693
-37.6364	-88.7888	58.76
-38.3247	-85.7963	62.2106
-42.6405	-85.9171	53.7878
-36.4631	-90.8311	55.8832
-32.7509	-90.8003	64.6208
-40.001	-90.4016	33.0997
-35.501	-92.5572	38.1413
-43.3257	-88.2645	37.9646
-44.2784	-87.8984	27.8835
-36.7328	-92.7108	27.8667
-1.4248	-100.25	48.2095
-2.0304	-102.485	43.2172
-3.92123	-100.283	47.3839
-6.60756	-8.84226	105.883
-3.8881	-8.12624	107.755
-6.09008	-4.59952	102.16
-9.74308	-9.97704	102.745
-7.13323	-12.1901	108.832
-28.2612	-22.8088	83.3221
-24.5962	-19.6894	84.9541
-26.5328	-17.738	83.1712
-32.3695	-24.9624	82.0436
-33.1637	-56.5807	77.3698
-31.2281	-56.7926	77.7941
-31.9189	-55.7874	77.7614
-14.2398	-29.4519	95.4098
-16.3203	-29.368	93.3787
-13.6526	-30.5444	94.944
-15.7084	-27.8614	95.4465
-14.0705	-33.6754	93.0856
-11.906	-33.6628	94.8601
-13.9169	-32.776	93.3468
-16.6496	-33.4482	91.0704
-14.5732	-34.9565	92.8056
-2.16113	-32.7932	103.236
-4.14289	-32.4269	102.402
-2.43748	-33.9625	101.702
-2.03375	-31.4786	105.335
-19.3614	-32.4834	89.1493
-19.9054	-33.8772	88.924
-18.8966	-31.4911	89.619
-21.7467	-30.701	87.5567
-7.6267	-21.0363	111.979
-7.71537	-19.3515	112.409
-10.8084	-20.7857	107.688
-7.42928	-23.1094	110.844
-4.60305	-21.5816	114.627
-27.1235	-69.4722	81.3547
-27.8624	-73.103	80.5806
-23.2762	-70.7934	84.8648
-26.2676	-66.4206	82.1512
-30.4654	-67.6054	78.4769
-31.9574	-50.5475	81.0981
-33.8204	-51.2734	79.7409
-29.7564	-49.7531	82.9887
-31.2728	-46.7115	83.0749
-3.09627	-37.9224	99.0723
-2.84909	-36.3628	99.7872
-5.10729	-37.3738	98.7525
-3.30155	-39.4168	98.6411
-5.71212	-0.0115939	98.3322
-5.79258	4.51602	94.2211
-8.83091	-1.79745	95.7577
-20.439	-20.9378	91.3683
-20.8842	-20.3778	90.0159
-20.7738	-22.4042	90.5418
-19.597	-20.3235	93.4839
-19.3372	-19.3256	93.5176
-6.36172	-33.8729	99.3062
-4.66209	-34.4649	100.128
-6.24907	-32.8784	100.024
-8.03357	-33.7388	98.058
-6.30869	-35.4224	98.7228
-5.89848	-31.9867	101.242
-5.67001	-30.8669	103.007
-18.5109	-19.4461	95.5346
-19.1428	-21.0869	94.6086
-18.1527	-18.556	95.7799
-20.7736	-25.1274	89.7825
-20.1005	-27.8256	89.6384
-19.9258	-23.91	91.9997
-3.73992	-43.8984	98.4563
-3.65002	-42.1073	98.3433
-6.36743	-43.4263	98.2025
-4.05293	-45.5867	98.6634
-26.345	-35.1928	85.5948
-24.7165	-31.5839	85.84
-28.8213	-35.0555	84.474
-28.2391	-38.7287	85.2264
-23.7923	-35.5397	87.0041
-11.0593	-67.3712	92.9223
-15.1781	-67.1801	91.0418
-11.2784	-69.4481	92.6515
-6.90987	-67.4907	94.1805
-10.7499	-65.7013	93.4483
-27.2628	-52.2975	83.5965
-27.0001	-50.6931	84.9436
-29.836	-53.6303	80.103
-27.7182	-52.9806	82.659
-17.8818	-17.9027	95.6418
-16.0783	-16.8926	98.3696
-18.0632	-17.1194	94.2023
-18.9336	-66.8254	88.6391
-18.5943	-65.1366	89.2368
-22.2232	-65.727	86.0265
-19.1367	-68.8061	88.2822
-3.30387	-67.4517	94.7602
-3.26544	-66.0638	95.126
-3.35239	-69.5028	94.621
-64.0356	28.3147	55.5925
-64.7799	29.6598	53.5985
-65.7962	22.2389	51.0873
-63.0966	27.2448	57.4391
-43.629	56.7673	70.1245
-44.3926	62.8	66.4489
-50.1713	53.7395	64.9089
-43.0416	51.2334	73.1796
-37.5528	58.8147	74.7211
-56.6931	50.0615	58.801
-57.5198	55.8373	54.6666
-62.4495	45.6387	51.6203
-56.081	45.044	62.4521
-43.5444	42.7533	75.3494
-43.1086	45.5526	75.0903
-44.1397	39.6725	75.1528
-38.1266	44.5719	79.8046
-65.9283	31.1344	50.2092
-68.4687	24.4202	44.155
-61.4921	37.2948	58.2377
-66.6476	34.3765	47.0189
-25.065	33.0451	79.8586
-21.3708	31.8088	80.1861
-24.3931	34.6887	80.8406
-29.4039	33.7146	79.0998
-25.9719	31.0584	78.4602
-6.34354	14.4812	85.9219
-6.31645	12.0822	87.4253
-3.54661	16.2408	87.5001
-6.46019	16.4144	84.8481
-9.02075	12.0427	83.6165
-32.3812	-7.64044	76.7584
-26.2608	-6.1338	78.2021
-30.5186	-3.96054	75.8671
-40.0509	-8.34476	74.8823
-34.2478	-11.9221	77.9123
-63.1415	5.79428	55.1404
-60.819	2.43517	58.805
-60.9343	7.41109	57.2243
-63.9376	10.1307	53.4003
-65.1152	4.36557	53.0174
-6.00932	8.71225	90.3566
-3.37745	10.4027	91.6675
-8.77818	6.3772	88.423
-44.7482	37.2269	74.8042
-44.7406	35.1039	74.547
-38.9987	38.9157	78.734
-50.4815	36.1493	71.3065
-55.6323	34.404	67.3994
-59.5527	30.6701	63.2387
-55.049	32.3612	67.9252
-60.2469	15.193	57.8274
-61.884	15.163	56.0386
-59.9829	11.7507	57.6657
-58.4771	15.2243	59.5154
-60.0052	19.2571	59.3031
-48.3167	20.3724	68.8647
-46.4155	21.4877	70.3934
-50.0458	18.9034	67.0947
-44.2577	22.4121	71.6185
-41.6296	23.037	72.5331
-44.3022	23.3757	72.0086
-46.7382	22.4198	70.6934
-41.3865	24.0344	72.9352
-38.6269	23.4334	73.0514
-35.5772	23.2328	73.2063
-38.2456	24.3239	73.4106
-34.9548	24.0342	73.5052
-32.6298	22.4769	73.1089
-29.8961	21.1941	72.8278
-27.0515	19.4545	72.2459
-24.4624	17.618	71.5279
-25.6155	20.1275	72.4513
-28.6351	21.802	73.0411
-22.9687	18.2169	71.8047
-22.7559	15.9986	70.9434
-24.0616	20.632	72.7697
-27.3723	22.58	73.4271
-37.8688	25.3211	73.8264
-34.2865	24.976	73.9435
-54.0223	13.9588	62.743
-52.9443	13.0118	63.5375
-34.2291	33.7435	78.1877
-34.7019	31.7226	77.0435
-33.9178	35.8482	79.1731
-39.438	33.2345	76.6609
-52.235	25.9399	68.8067
-50.9032	24.0486	69.1119
-48.9183	27.338	71.2279
-53.3954	28.173	68.5642
-42.1381	5.26902	71.544
-34.6054	5.02414	73.3317
-48.1705	6.32869	68.5606
-42.5201	3.70304	71.5334
-28.3464	5.93672	73.4563
-28.1225	4.31792	73.7843
-24.1177	7.20184	73.0471
-19.8607	10.7922	72.277
-20.7809	9.5743	72.5483
-19.3425	11.744	72.0851
-41.4347	8.26797	71.5577
-35.0817	8.08833	73.0034
-46.9153	9.46081	68.9429
-23.6756	10.731	71.4361
-22.7073	11.3177	71.1127
-25.6051	9.84665	72.0218
-21.922	11.8042	70.9994
-21.2062	12.4484	70.9959
-15.3755	20.4066	75.7784
-14.3331	22.6782	77.5586
-17.4129	22.65	75.8087
-16.7723	18.034	73.8224
-18.9313	13.269	72.0085
-30.7014	24.0327	73.7968
-17.8687	17.1104	72.8494
-19.3682	19.023	72.9477
-17.2695	15.4202	72.9056
-41.3681	9.59656	71.5311
-35.0862	9.35802	72.8988
-23.9674	11.6359	70.8556
-25.7809	11.1007	71.4658
-23.0042	11.9195	70.6587
-22.4513	12.3072	70.4919
-51.3198	17.4461	65.3726
-3.41362	30.9194	85.1264
-4.08101	34.2479	85.3507
-6.30827	30.5484	84.493
-2.55417	27.9466	85.1259
-20.6457	1.90834	76.2536
-23.9304	0.462993	75.6459
-21.49	-0.704965	77.4081
-18.372	3.48518	76.8843
-20.3204	3.877	75.3584
-16.0443	5.35601	77.8972
-13.7884	7.56171	79.245
-16.5175	10.4318	74.5477
-16.8635	12.0983	73.6541
-14.521	11.4051	76.0892
-10.7766	19.6008	79.3492
-9.97653	20.736	80.4182
-11.8957	21.8322	78.9754
-21.8441	8.43038	72.8132
-20.9484	7.18806	73.6136
-20.3775	5.62925	74.4728
-23.2452	4.07661	74.2772
-23.2438	-54.8795	82.8315
-19.5665	-54.2933	86.2276
-26.5247	-55.1866	79.6631
-23.1544	-54.8012	82.542
-28.2775	-55.3778	78.312
-27.9679	-55.2766	78.3216
-4.35027	-48.924	98.6084
-4.30145	-50.1565	98.2554
-4.28584	-47.6623	98.7791
-7.25475	-48.6709	98.1507
-9.91965	-51.0022	96.3582
-12.8924	-50.81	95.2266
-9.78511	-51.8251	95.6899
-7.26733	-50.9885	97.2089
-9.93461	-49.9028	96.9712
-15.956	-50.9023	93.4683
-19.1786	-51.6369	90.8878
-15.9197	-51.9832	92.484
-15.9556	-49.9123	94.1154
-9.82649	-48.6329	97.4495
-9.72171	-47.3469	97.7431
-12.6748	-48.7053	96.3182
-14.5983	-46.9211	95.5852
-15.4593	-47.8825	95.0623
-11.564	-46.6303	97.104
-14.0699	-45.8597	95.8133
-22.7911	-53.0734	86.7213
-22.5608	-51.9201	88.2883
-9.30099	-52.5729	94.8555
-12.7144	-52.5818	93.3499
-8.91854	-52.9725	94.0704
-6.38612	-52.5754	95.768
-16.234	-52.9919	90.9808
-16.1728	-53.5334	89.8978
-29.1689	-54.2623	79.8965
-30.3355	-55.5417	78.1389
-23.453	-55.8408	83.4127
-23.4738	-56.0148	83.7344
-19.6537	-55.5503	87.2202
-23.426	-55.7807	83.1432
-23.8584	-57.1614	84.2791
-20.32	-57.4082	88.3878
-23.7139	-56.7338	84.1837
-17.1024	-57.6217	91.366
-17.4881	-58.4006	91.2629
-13.6057	-57.6418	93.8462
-16.9183	-56.9142	91.201
-9.09659	-55.8665	95.276
-5.87171	-55.8682	96.1752
-8.94672	-55.0312	94.7779
-13.0009	-55.9046	93.4477
-9.31302	-56.7474	95.6169
-3.36514	-58.0951	97.2327
-3.27519	-57.0284	96.9874
-6.11215	-57.8268	96.8206
-3.43598	-59.1698	97.3332
-28.4421	-56.8065	77.5481
-28.3841	-56.2323	78.1773
-26.5979	-56.7758	79.219
-28.2	-58.1622	76.9353
-2.97669	-55.0498	92.1778
-3.00452	-54.4051	93.4784
-2.87571	-56.2038	91.0283
-5.48598	-55.1778	91.7342
-3.46001	-60.2827	97.2956
-6.30644	-59.893	96.9111
-3.48449	-61.3265	97.1185
-3.31207	-64.6656	95.7106
-3.40824	-63.3535	96.3495
-6.4418	-64.2612	95.3686
-9.39948	-46.5063	97.8639
-7.01714	-46.3326	98.4207
-8.66327	-45.2015	97.9757
-3.23445	-55.9461	96.5708
-3.12387	-55.0342	96.0539
-3.03516	-54.5745	95.6342
-3.09306	-54.3424	95.1925
-5.65237	-54.5911	95.2921
-8.86533	-54.6126	94.3638
-8.79799	-54.4219	93.9704
-12.5996	-54.726	92.6632
-3.12901	-54.2433	94.5002
-5.57459	-54.3044	94.1318
-16.181	-55.0673	90.2208
-16.3647	-55.4012	90.5363
-16.1227	-54.9292	89.8236
-18.0359	-61.1714	90.7836
-18.2291	-62.2146	90.3601
-14.6304	-61.3964	93.119
-17.8887	-60.2316	91.0315
-10.2799	-61.4159	95.3021
-10.4522	-62.519	94.8072
-6.36486	-61.8055	96.5001
-10.0714	-60.4939	95.6316
-3.45326	-62.3092	96.8098
-16.0508	-53.692	89.1354
-15.9148	-53.5986	88.4979
-12.4334	-53.2256	91.5512
-28.4004	-55.9828	78.843
-26.7061	-56.2199	80.4466
-8.65944	-55.3108	90.8717
-8.61719	-54.6103	92.1551
-8.76128	-56.4397	89.7653
-12.2778	-55.4615	89.4437
-8.67121	-54.3727	93.2492
-12.3498	-54.5392	91.6
-10.5218	-63.9679	94.1761
-14.8588	-63.8802	92.1254
-17.6631	-59.2816	91.2287
-14.2592	-59.4987	93.6468
-18.3929	-63.6083	89.8194
-21.4936	-62.6417	87.2437
-15.6212	-53.2509	88.109
-18.8426	-53.8112	85.7934
-15.0846	-52.095	87.4521
-12.3295	-52.6878	89.8485
-8.91434	-52.4838	91.1862
-8.71377	-52.9482	92.2472
-9.49102	-51.3256	89.7406
-6.16788	-52.3046	91.7154
-14.4892	-49.5545	86.4652
-17.1457	-49.9412	84.9886
-14.2642	-46.2363	85.5167
-11.9426	-49.2066	87.5711
-27.5206	-61.2478	76.5144
-25.6445	-61.1137	78.3744
-26.2099	-64.6719	76.9502
-2.62232	-58.4671	89.9075
-2.67825	-61.8422	89.128
-5.15511	-58.5366	89.5464
-9.45476	-48.9676	88.3509
-9.14598	-45.7236	87.2849
-6.86258	-48.7703	88.8813
-8.42622	-58.7036	88.6961
-8.28794	-62.2331	87.7153
-12.0572	-59.0235	87.2964
-30.7656	-56.5977	72.1805
-30.7634	-56.7877	71.9541
-12.1003	12.9662	78.3425
-11.5648	11.5114	79.8413
-80.4993	-9.18429	-44.4473
-81.9735	-9.72349	-42.7429
-81.24	-4.53596	-44.4034
-78.6746	-8.50429	-47.7534
-79.6605	-13.6463	-43.742
-80.9486	9.03341	-7.5685
-80.0824	11.1508	-2.7467
-81.3657	12.0475	-11.6958
-81.4541	14.2912	-16.8086
-81.9363	13.9304	-23.7397
-81.7375	9.17846	-17.9167
-81.2793	19.8939	-18.0025
-73.7299	-33.8475	-35.5215
-75.0537	-29.8997	-37.2794
-72.5414	-38.0902	-33.0214
-76.2167	-31.616	-33.8692
-76.1964	-26.175	-39.2873
-78.4793	-25.0212	-37.4228
-77.4623	-22.141	-41.0503
-73.5641	-28.105	-42.1383
-83.4618	-9.68754	-41.8411
-83.9588	-4.63635	-41.9953
-82.7538	-13.9037	-40.9739
-85.0162	-9.17318	-41.4614
-83.0431	-26.3518	-34.2595
-84.0237	-27.5034	-33.1656
-81.793	-24.7195	-35.6642
-84.7765	-28.3273	-32.1401
-86.051	-24.2083	-34.1477
-83.4066	-32.4112	-29.6957
-85.4771	-28.788	-30.9287
-89.6329	-18.439	-32.1363
-91.1189	-13.8136	-35.1784
-89.6327	-17.8871	-31.3692
-77.6924	-41.2137	-21.6964
-78.1861	-39.4661	-24.6907
-76.908	-40.2695	-23.7757
-77.1893	-41.9293	-19.7167
-78.1353	-41.467	-20.9973
-79.5915	-34.2248	-9.48466
-79.2506	-34.7905	-9.46671
-78.561	-35.9932	-9.74922
-89.5841	-17.5181	-30.9644
-89.0437	-18.14	-30.0325
-92.946	-2.64781	-34.6396
-93.0321	-1.97208	-36.1434
-92.7927	-4.00326	-33.0066
-93.5044	7.68799	-32.1459
-93.814	9.06817	-32.2455
-94.002	11.1786	-31.2163
-93.736	13.241	-28.1486
-94.193	11.6574	-31.6066
-93.4421	10.9581	-29.0216
-83.0118	-10.8773	-9.5023
-84.5751	-5.27129	-10.0245
-81.8426	-15.0343	-8.97223
-82.524	-10.1498	-8.19109
-76.8125	-27.4631	-2.7309
-77.5691	-23.0862	-2.19665
-76.1149	-31.2759	-3.22553
-75.7816	-27.9859	-0.0251164
-81.097	-22.2193	-11.5537
-81.1836	-20.2035	-11.668
-81.3558	-24.2743	-12.085
-81.7199	8.66049	-17.8959
-81.7572	8.65761	-17.6925
-82.0933	10.0169	-21.3209
-90.1981	16.4354	-18.3415
-91.1519	18.1753	-21.4026
-90.9606	15.7037	-17.3623
-88.6978	13.235	-15.4568
-89.3369	16.8631	-19.5024
-90.6325	18.9095	-26.3681
-89.8956	18.6351	-23.4294
-89.769	17.8458	-27.7529
-91.0287	17.6606	-29.9879
-90.9224	19.0449	-25.864
-90.9176	3.4637	-40.6014
-91.995	3.70731	-40.0609
-91.4162	9.50026	-37.7283
-90.1036	2.98123	-40.7916
-85.7418	-0.533738	-10.5607
-85.9667	-1.80262	-11.22
-93.746	2.78702	-37.5661
-94.3463	7.96811	-35.3138
-93.7942	2.69539	-37.9274
-93.352	-0.0567082	-37.7687
-93.2739	14.0953	-24.2206
-92.3645	13.4833	-20.2836
-93.4054	15.0981	-23.6088
-93.0142	12.7241	-24.9495
-87.2333	0.307082	-13.2986
-87.8895	2.69903	-13.9873
-86.6037	-1.5112	-12.7461
-93.3167	3.44073	-34.8837
-93.3488	1.38121	-36.7355
-85.0245	-6.60488	-14.5828
-85.6183	-4.96971	-13.4781
-85.1953	-6.31004	-15.2799
-89.8313	-5.47634	-28.3697
-91.9417	-2.75762	-30.2283
-89.6758	-6.5881	-28.5331
-89.5843	-5.03671	-27.7513
-78.3169	-19.0426	-2.18131
-77.4334	-19.3272	0.323753
-79.3349	-14.3567	-2.95268
-84.3392	0.654005	-40.5039
-85.3981	3.193	-39.5438
-84.3411	5.35334	-38.3803
-83.1701	0.0889216	-41.649
-87.9153	8.22163	-36.8282
-87.928	4.12963	-39.7307
-90.4	12.9384	-34.8926
-87.8084	12.0122	-33.6182
-89.0209	1.9814	-40.7783
-87.7115	-3.60953	-41.6028
-87.1577	-8.68931	-41.274
-80.2754	-24.3954	-36.5543
-81.2343	-21.0997	-38.19
-79.1661	-27.5829	-34.7834
-82.0296	-17.6498	-39.7311
-80.344	-17.8694	-40.7659
-88.4602	-18.1068	-29.0272
-78.0391	-30.5653	-33.1233
-76.7695	-34.2657	-30.8528
-76.9382	-41.6739	-16.9276
-76.4214	-41.9331	-16.7833
-75.8395	-42.1377	-16.4821
-75.7977	-41.7088	-21.8497
-89.8639	-7.3349	-29.0094
-91.8616	-5.88785	-31.1567
-81.9493	-9.55927	-7.09426
-81.2285	-9.18479	-5.86774
-78.9163	-23.4562	-5.70035
-79.2463	-23.6097	-6.36149
-81.7857	-27.8288	-11.8304
-82.0158	-26.6809	-12.6723
-82.7363	-29.8314	-13.3604
-81.0806	-18.1141	-8.51434
-81.5366	-18.1997	-10.6862
-87.5834	13.8233	-30.4457
-86.6853	14.4143	-27.1391
-85.0787	10.0928	-33.2592
-84.0914	8.53251	-35.0817
-83.5344	10.6506	-30.8439
-83.6499	8.24167	-36.1803
-92.6401	4.56848	-29.869
-92.4224	3.03151	-29.5405
-85.656	-5.56602	-16.6956
-86.7092	-4.26499	-19.3096
-89.5809	-4.19035	-27.2489
-89.0133	-4.15944	-25.8861
-91.4642	-0.500432	-28.39
-7.28249	88.17	65.4645
-7.80745	95.1315	58.0901
-15.4719	87.3639	65.03
-6.89126	81.3403	71.2802
-6.15916	74.5825	75.9614
-14.209	74.4361	75.2848
-5.42967	67.3112	79.8705
-31.3031	60.0486	78.0732
-25.4289	60.2537	80.2933
-31.4163	54.3713	80.6765
-1.74815	-30.027	107.944
-4.01001	-29.871	106.467
-1.79741	-28.3	110.458
-1.76539	-18.3118	116.314
-1.7624	-20.0853	116.439
-1.82543	-16.3159	115.594
-4.62749	-18.1761	114.993
-1.79695	-21.9216	115.988
-1.83316	-23.8694	114.913
-2.67987	-35.0901	100.627
-3.49149	-40.9353	98.386
-5.78972	-40.258	98.1909
-1.83719	-26.0297	113.035
-4.38492	-25.9404	111.407
-1.75138	-14.1792	114.319
-1.68975	-11.3557	112.018
-4.51702	-14.3358	113.107
-5.89117	47.2282	85.7673
-5.7648	52.0947	85.0913
-12.6007	48.0857	85.0237
-5.95378	43.2761	85.8694
-1.37408	17.032	88.1146
-1.35117	19.0897	87.0797
-1.44089	14.6123	89.6173
-1.38356	21.0441	86.3158
-1.60233	23.1025	85.7349
-3.60186	20.2006	85.7825
-3.48781	-52.1145	91.8996
-3.15232	-52.8895	93.4173
-3.86164	-50.8895	90.6038
-3.15079	-53.1012	94.5359
-3.26478	-52.9993	95.379
-5.58988	-53.1033	94.1592
-4.26335	-51.1303	97.7594
-4.05482	-51.9543	97.1049
-3.63665	-52.5548	96.3607
-4.26738	-46.709	98.768
-3.9726	-48.5906	89.1824
-3.80148	-45.4024	87.9352
-22.2665	86.3148	64.1346
-22.9926	92.6524	57.143
-28.5673	84.8102	62.8022
-21.7114	80.2711	69.5599
-18.7633	49.6811	84.2715
-18.8822	53.2591	83.8289
-25.01	50.8573	83.2116
-19.3049	45.2065	84.1921
-20.7975	41.7248	83.547
-22.7606	38.4182	82.5075
-26.506	42.8521	82.6076
-23.7755	36.4059	81.6924
-28.4201	37.4029	80.9144
-19.3826	34.9404	82.2291
-29.5931	24.93	74.3365
-33.5874	25.9666	74.4289
-25.858	23.4403	74.0034
-28.6372	26.4343	75.232
-31.6956	23.1892	73.391
-27.2737	28.3376	76.587
-23.5265	27.0566	76.5961
-31.4831	29.2106	76.2832
-47.9856	88.2388	40.3407
-47.6087	82.917	47.7092
-42.015	91.8922	43.1118
-48.8962	93.2609	30.2511
-34.3572	83.1683	60.7058
-40.4733	80.9328	57.6838
-35.195	88.7038	54.236
-31.2772	51.3011	81.5694
-37.0509	49.9888	79.7535
-31.4818	47.266	81.9093
-33.6958	38.0587	80.0698
-32.9811	40.6077	80.8847
-31.9946	44.0241	81.638
-35.4895	29.4552	75.9044
-40.2898	28.8673	74.8124
-36.745	27.6494	74.8762
-46.9508	78.0913	53.4526
-46.1848	73.2971	58.2599
-53.3669	74.9089	48.0217
-42.9807	47.9241	74.4849
-48.9918	45.4531	69.9297
-44.7904	25.2451	72.5509
-47.7967	24.1994	70.9616
-41.2348	26.0062	73.6927
-44.7743	26.5648	72.9156
-44.9189	32.7809	74.1517
-50.1946	32.1002	71.3773
-44.7984	30.4511	73.7261
-44.8169	28.2578	73.3003
-45.2428	68.2694	62.5433
-51.9532	65.0121	57.065
-59.1661	72.0877	41.1349
-64.0358	69.5443	33.0227
-58.7142	66.9334	46.1433
-48.7543	21.1806	69.0842
-50.496	19.5716	67.2315
-50.2502	22.7797	69.038
-51.9202	20.956	67.1543
-49.307	21.942	69.192
-54.3388	30.412	68.2987
-57.387	27.1451	64.9324
-18.2845	29.744	79.9394
-17.2523	31.2962	81.2073
-19.2231	27.7958	78.3688
-15.8516	27.2537	79.406
-15.8158	32.8069	82.3539
-13.6429	30.26	82.0228
-20.2115	25.0674	76.2258
-21.4588	23.081	74.6039
-5.48356	39.0676	85.6549
-64.366	-65.5425	-10.5193
-64.5776	-65.6972	-16.9129
-66.0888	-60.652	-8.66689
-80.3286	22.9579	-38.0752
-81.4903	17.1175	-33.0297
-80.88	25.2207	-29.9844
-79.2055	28.703	-42.7135
-79.9172	19.0649	-43.749
-76.2496	-8.0977	-53.5413
-77.315	-2.21943	-53.5165
-74.0004	-8.17421	-59.0818
-75.16	-14.1625	-52.1018
-78.039	4.0401	-53.0861
-80.0964	1.86107	-46.9339
-78.7293	9.59627	-51.1922
-76.0331	5.89232	-59.4717
-70.0542	-31.6639	-46.2229
-71.8842	-25.8503	-48.5589
-66.8694	-34.9488	-50.0788
-5.76303	59.3286	83.077
-12.5478	59.6071	82.5927
-19.1812	60.0274	81.6102
-20.325	67.5233	78.1474
-18.7704	-97.9592	55.7241
-13.1213	-99.0705	59.8372
-25.062	-96.2121	49.5266
-16.4613	-98.5324	48.1251
-45.7771	-86.2815	41.9955
-46.9676	-84.4646	45.6826
-50.1993	-82.972	36.7916
-40.2884	-89.6886	47.067
-58.2617	61.391	50.425
-63.6386	57.6839	42.9322
-20.9939	74.1705	74.1097
-68.648	66.9742	23.4277
-68.7228	60.4689	29.005
-72.3065	64.7555	13.4934
-23.4493	99.9378	47.3183
-16.2989	101.561	47.919
-23.6563	106.889	35.4756
-29.9385	97.6651	46.5809
-67.452	39.8247	42.7822
-67.9535	46.8863	38.6046
-53.2419	18.9666	65.1549
-62.1275	26.0936	58.8743
-60.806	24.8107	60.3651
-63.1273	20.6923	55.7287
-59.3437	23.5348	61.6721
-1.96798	-107.037	40.8753
-57.2616	-73.7906	36.9798
-55.8292	-77.0637	33.4589
-52.6199	-77.7515	44.2804
-58.3311	-70.44	39.4795
-8.18742	-43.4417	97.8564
-7.78079	-41.6504	97.7823
-10.0761	-43.6895	97.308
-26.4329	-48.4669	86.0468
-23.4103	-46.7985	89.2661
-25.621	-44.7162	87.4029
-11.6109	-40.2908	96.0445
-10.9139	-38.6051	96.088
-14.5444	-40.4141	94.357
-12.2807	-42.0236	96.03
-9.07528	-40.2396	97.2368
-35.3882	-51.7907	78.791
-35.2648	-48.2848	80.2957
-37.1801	-52.987	77.381
-34.98	-54.9884	77.4443
-67.1712	15.5322	47.9724
-68.5724	16.1312	44.8133
-67.73	9.04321	47.6505
-65.5437	15.2716	50.958
-70.0282	16.9281	40.8581
-71.8451	16.8888	35.2572
-56.6693	15.2972	61.0577
-56.7863	13.2085	60.5384
-63.8968	14.9998	53.4681
-82.4332	8.99517	-38.1561
-82.6254	11.5058	-34.2032
-80.9981	11.1128	-42.1408
-82.1959	5.22827	-41.3594
-78.5117	-18.0747	-42.6925
-76.4265	-18.5435	-45.8198
-69.0574	-52.7411	-18.8844
-69.8093	-49.2391	-24.6501
-66.8755	-58.1329	-21.438
-68.3581	-54.9273	-12.7595
-70.987	-48.5702	-16.529
-81.7993	0.525247	-43.3946
-74.6685	-28.9362	3.09651
-73.4159	-29.8912	7.42091
-75.5755	-24.454	3.45791
-73.7721	-33.1844	2.51715
-74.1414	-1.525	27.84
-75.6102	-2.856	19.0596
-73.4045	-9.6545	28.9046
-74.4296	7.01991	26.758
-59.3226	8.70083	58.5364
-57.536	6.48144	60.7715
-57.8258	10.128	59.687
-56.5906	11.349	60.653
-55.1754	9.97974	62.0695
-72.0323	-30.4461	13.6879
-73.2008	-25.0737	13.7316
-71.0699	-35.3983	13.0494
-70.856	-30.7994	20.4786
-25.3774	-13.5224	82.32
-22.2311	-11.5587	83.8975
-24.2475	-8.99776	80.8184
-29.396	-15.0876	80.857
-35.8652	-16.8161	78.9605
-37.1467	-21.6463	79.8041
-43.2464	-17.9743	76.5093
-18.7474	-9.41091	86.4024
-19.0354	-12.8504	88.5428
-15.2161	-6.63913	89.5064
-22.1879	-19.1963	87.5704
-20.6472	-17.3121	88.8903
-17.5727	-21.9379	97.2607
-18.5792	-22.4745	95.3879
-17.4276	-23.8002	96.5673
-16.0467	-21.319	99.7358
-19.2813	-23.1104	93.7196
-18.9597	-25.3477	93.0571
-40.2889	-36.3803	79.5222
-39.5214	-31.6033	80.0873
-40.984	-41.4401	78.6424
-35.4597	-35.675	81.8465
-38.1737	-26.4478	80.1599
-6.61759	-37.0384	98.2421
-8.26238	-36.8344	97.4163
-7.0109	-38.6867	97.945
-57.1532	-53.2707	56.1803
-55.3306	-59.4425	55.7501
-53.5534	-51.5333	63.1375
-58.7593	-47.0029	56.89
-30.0454	-42.5808	84.3373
-32.4495	-43.313	83.0339
-27.4519	-41.863	85.988
-41.0261	-46.2906	77.4199
-37.4385	-45.1422	79.9715
-45.1977	-47.8283	73.9528
-40.5159	-50.9348	76.2859
-7.43394	-40.0862	97.8136
-53.2674	-65.581	55.4499
-50.2346	-70.7626	56.9012
-50.0343	-62.4305	62.4077
-56.152	-67.1915	48.4542
-61.547	-29.9226	60.2654
-65.3932	-30.2669	51.8768
-61.0844	-35.3995	58.9776
-27.8837	-92.2461	71.3418
-22.885	-93.3828	77.8554
-28.5646	-89.4455	73.9404
-38.5426	-81.9725	65.5976
-33.8589	-84.1157	70.481
-37.6241	-77.6566	69.4389
-42.6865	-78.9498	62.1631
-60.3302	-7.97467	62.3368
-54.5381	-8.61447	67.7465
-58.5665	-3.04194	62.8489
-52.5312	8.26057	64.8255
-53.3472	6.39405	64.5947
-57.0834	0.171972	63.2714
-55.4508	2.5763	63.9582
-51.789	-1.12222	67.8319
-50.6771	11.4109	65.7451
-3.15556	-90.5083	96.6088
-46.5904	-59.5294	68.0189
-43.0266	-56.8984	72.3417
-48.1042	-54.8649	68.4343
-44.5776	-63.6196	68.2894
-36.4562	-73.3902	72.3293
-32.7265	-75.6149	75.4484
-34.6402	-69.1717	74.9665
-39.4973	-70.5564	70.3926
-48.1507	-8.63161	71.6801
-46.6595	-4.6198	71.4254
-49.3522	-13.5573	72.3525
-49.6248	-49.6572	69.0051
-49.9225	-18.9701	73.1144
-10.7647	-81.2221	94.6835
-15.1095	-80.4788	91.9834
-11.0203	-76.6598	93.676
-19.6968	-79.6944	88.3543
-19.609	-75.47	88.1407
-24.1133	-78.6482	84.1071
-45.2867	-1.88042	71.3299
-37.1156	-1.99369	73.8416
-44.1124	0.230353	71.406
-54.3216	4.54036	64.3008
-49.707	2.9239	68.1989
-43.2848	2.08186	71.4272
-35.2043	1.77865	73.5318
-11.8938	-4.10305	92.8806
-11.7119	0.0253497	89.3068
-12.417	-8.11223	95.9285
-13.4656	-15.7565	102.478
-13.7742	-16.8956	102.878
-10.5617	-14.9042	106.88
-13.2641	-14.197	101.158
-11.4594	9.73179	81.1817
-11.4863	7.32483	83.0624
-22.8108	-4.67644	79.1002
-1.39317	11.209	92.2276
-67.3509	2.99647	49.9028
-11.5983	3.89437	85.9229
-59.2139	-66.8704	41.2807
-62.4432	-64.1462	32.6305
-69.7117	-17.79	45.0184
-71.2657	-17.2563	37.0263
-68.7384	-24.5092	44.3369
-65.2267	-42.5639	42.5223
-66.6446	-42.7875	35.0422
-63.1598	-42.0093	50.0091
-66.4478	-36.6718	43.0383
-67.6837	-30.5765	43.5825
-68.9635	-30.932	35.615
-18.7398	-94.5251	82.6054
-11.3034	-72.6682	92.8546
-15.377	-72.3118	90.7814
-7.17879	-72.9109	94.2796
-19.3085	-71.8686	88.1427
-29.5612	10.1437	72.5221
-29.5074	-1.25652	75.0195
-28.7524	0.901441	74.5167
-28.3508	2.63633	74.0945
-3.45192	-73.0188	95.0516
-6.05557	24.385	83.9705
-5.64517	21.6551	84.2612
-4.21101	24.9762	84.771
-7.28515	27.109	83.6859
-7.63822	23.5252	82.9623
-20.5663	13.4332	71.1035
-20.5234	14.7382	71.151
-17.0491	13.6485	73.146
-8.93628	22.1152	81.7207
-10.2056	24.7131	81.4683
-2.00469	25.4449	85.3229
-6.0656	-29.4007	104.868
-6.47833	-27.802	106.712
-7.64463	-17.8796	112.408
-10.898	-17.6692	108.052
-7.6726	-16.2549	111.73
-18.6727	-29.9587	90.3409
-16.1737	-31.5511	91.9467
-18.216	-28.846	91.5221
-7.35545	-14.5469	110.842
-6.20685	18.404	84.3367
-8.62738	29.8635	83.7157
-10.3844	28.8191	82.7929
-21.1525	16.336	71.3363
-11.8556	27.6445	81.6344
-12.9462	26.1128	80.3037
-13.5948	24.507	79.0212
-21.2812	-36.0508	88.571
-22.7318	-38.5556	88.3912
-18.2898	-36.4638	90.6125
-24.5034	-41.4387	87.7903
-21.2213	-40.8471	90.0429
-27.2233	-54.8554	78.6486
-25.2257	-54.7822	80.3856
-27.0091	-53.7982	78.2481
-27.7953	-53.4501	82.0311
-25.396	-52.4555	85.4185
-26.5266	-50.9596	77.6942
-25.5401	-47.7413	77.7796
-23.2224	-50.7103	80.5648
-15.5114	-36.6998	92.5943
-16.5577	-38.6094	92.4963
-12.8126	-36.8223	94.4989
-18.0468	-40.6612	92.1428
-19.2117	-42.7811	91.9648
-22.4415	-54.4596	82.8209
-20.9652	-53.1118	83.3804
-20.0143	-50.3458	83.0338
-19.7784	-46.8946	82.2557
-10.3846	-36.7917	96.1541
-9.97388	-35.1478	96.3022
-13.2719	-44.275	95.9402
-17.049	-44.5569	93.8124
-18.759	-15.2445	90.9219
-15.9142	-13.4254	94.6943
-1.46514	-7.65352	108.657
-12.8075	-11.6092	99.0228
-7.03849	-25.4181	109.069
-9.76201	-25.0938	105.631
-12.6979	-24.9067	101.871
-15.2399	-25.2284	98.369
-13.4152	-22.8097	102.645
-16.7721	-25.787	96.0097
-17.6144	-26.7384	94.1216
-17.9657	-27.8094	92.6651
-13.8041	-17.9979	103.366
-13.754	-19.2909	103.604
-13.715	-20.9241	103.283
-37.6045	-141.934	12.3471
-35.692	-133.311	13.569
-41.6452	-140.487	9.02647
-39.0711	-148.217	11.4985
-33.1458	-143.233	15.6025
-33.435	-121.295	15.2186
-29.1524	-122.403	19.0412
-31.9486	-110.754	16.7861
-37.4898	-120.086	11.4083
-34.3354	-95.684	23.2693
-33.1316	-99.1873	19.8367
-30.0723	-97.2439	27.8236
-38.3676	-94.0229	18.5401
-32.172	-103.749	18.0827
-36.2144	-102.519	13.7844
-27.7398	-104.798	22.8014
-42.4071	-67.4138	68.844
-39.5665	-63.7759	72.5536
-44.7695	-71.1657	64.462
-46.9846	-75.1864	58.7614
-47.7975	-78.9701	53.7088
-47.8317	-81.9496	49.4014
-37.3876	-60.836	74.7959
-35.3813	-63.3079	75.413
-35.5573	-58.544	76.1637
-38.6042	-58.036	74.8818
-34.2818	-57.3526	76.9052
-33.1445	-59.0121	77.0289
-42.2575	-92.198	14.1343
-46.1822	-90.3433	9.00789
-41.0323	-96.0262	11.2987
-44.5462	-88.7848	17.5706
-47.6976	-85.7538	22.1075
-51.0167	-82.7985	26.406
-50.6146	-83.6349	15.4768
-53.8182	-79.9637	30.2141
-56.1693	-77.7168	22.7399
-41.3776	-118.706	7.54985
-43.4435	-130.503	6.50348
-40.1414	-108.4	8.46891
-45.1803	-117.688	3.54827
-45.314	-139.093	5.59202
-48.7785	-137.713	1.86807
-47.0308	-145.498	4.71713
-40.1757	-101.137	9.60328
-69.8938	-30.9164	27.9961
-71.1517	-24.6125	28.2878
-68.7529	-36.7675	27.7635
-57.6866	-75.9911	15.5993
-58.7912	-74.4125	8.39266
-55.348	-78.8578	12.3529
-74.3021	16.0932	26.4808
-76.8055	13.9413	15.7644
-64.168	-62.2784	24.4325
-65.2783	-60.3278	15.8743
-67.7375	-42.4585	27.5713
-68.8377	-41.5669	19.8071
-72.4093	-17.1813	29.0979
-73.386	-18.1994	20.9701
-70.1227	-40.3601	12.5317
-71.5904	-38.7844	6.05851
-55.2253	-87.5714	-6.69825
-52.6788	-88.1185	-1.81592
-55.9399	-83.4667	-5.10876
-57.3722	-87.193	-11.4449
-54.7319	-92.2738	-7.96305
-54.461	-97.6592	-8.67345
-57.0363	-79.6981	-2.83918
-58.3316	-76.2587	-0.677844
-58.7869	-78.9349	-8.43985
-55.1162	-80.631	2.72204
-77.0323	-3.87341	10.5651
-75.7351	-12.0552	12.7805
-77.9926	4.24494	8.1038
-78.7752	12.8005	5.24678
-79.307	20.869	2.77433
-79.7001	29.0422	-0.330079
-79.9477	37.1165	-3.92552
-80.769	28.1541	-10.8997
-66.2142	-58.3917	7.76403
-67.0977	-56.8637	-0.0508213
-74.4418	-18.945	13.7728
-75.5372	-19.6061	7.63493
-48.9624	-116.609	-0.804929
-50.5705	-127.997	-1.53173
-53.1096	-82.0224	9.03214
-51.0919	-85.3066	5.91354
-52.0889	-136.239	-2.31181
-53.6019	-142.309	-3.33296
-58.8577	-113.005	-18.2601
-59.6524	-122.47	-19.4078
-59.1215	-86.7248	-16.1658
-59.7066	-82.2996	-15.1854
-60.3429	-85.065	-21.1182
-60.5432	-77.9459	-13.8921
-60.397	-129.566	-20.7596
-61.0376	-135.124	-22.581
-67.7076	-56.1804	-7.07729
-72.8737	-37.2948	1.69506
-72.1261	-41.0018	0.22247
-74.1935	-35.421	-1.45415
-76.4665	-19.6874	3.5973
-59.7327	-92.5396	-28.9821
-60.233	-86.3752	-27.8833
-58.6956	-88.3465	-35.6906
-61.1197	-80.6208	-26.9182
-60.9004	-74.2845	-32.8879
-64.8528	-64.2196	-23.3246
-72.2756	-46.0963	-15.2474
-73.7999	-43.3192	-21.6616
-56.5339	-118.794	-46.4239
-56.3003	-110.587	-45.0161
-53.4622	-116.087	-53.3607
-56.861	-126.482	-47.7151
-71.0467	-44.1803	-29.2766
-73.5295	-40.5906	-27.5891
-75.2536	-38.9228	-26.8985
-76.234	-38.2039	-26.6983
-28.524	-144.331	18.6526
-30.0159	-150.496	17.3399
-23.8772	-145.349	21.3856
-26.8006	-135.679	20.3525
-22.825	-105.612	27.838
-23.9538	-101.622	29.6916
-22.7365	-112.465	25.7019
-17.6467	-106.311	32.4826
-30.5453	-94.536	43.7368
-33.0963	-93.3618	48.6473
-27.6101	-96.093	38.1039
-25.2139	-98.6582	32.9755
-19.9575	-99.649	37.9466
-24.5115	-123.165	23.0218
-19.8526	-124.384	26.6552
-33.2584	-65.7262	76.485
-32.183	-62.7425	77.3649
-35.0039	-92.2852	52.7447
-31.4426	-60.8777	77.8085
-30.7951	-59.3298	78.102
-29.0422	-62.5432	79.5535
-30.0979	-58.0472	78.359
-28.0821	-59.4802	80.0334
-28.6115	-77.4632	79.4292
-28.9832	-81.6717	78.0975
-29.029	-85.7469	76.1687
-23.3353	-56.346	84.2709
-19.8819	-56.3232	88.0441
-23.2366	-55.8304	82.9295
-19.4538	-55.4655	86.2897
-23.3482	-56.065	82.3603
-26.63	-55.9901	79.8599
-23.3558	-56.5252	81.9411
-23.2534	-57.8171	81.3276
-19.535	-56.1693	84.9391
-22.5659	-60.7322	80.8772
-19.0293	-60.0609	83.4141
-21.2869	-64.1964	81.009
-12.8247	-106.632	36.0619
-13.3615	-113.888	33.4932
-13.5931	-102.853	38.408
-19.1854	-146.438	23.8319
-20.558	-152.282	22.2104
-14.5506	-147.258	25.9033
-17.6035	-137.925	26.1237
-15.3934	-125.441	29.8516
-6.48749	-100.346	46.4512
-7.33318	-99.6196	53.9918
-9.83904	-100.39	44.7773
-10.4885	-147.845	27.3988
-11.68	-153.469	25.6843
-8.92603	-99.8255	62.3035
-15.935	-54.933	89.2195
-15.8164	-55.1815	88.3913
-15.7331	-55.7432	87.5939
-15.9703	-56.9321	86.478
-15.5863	-59.5027	85.5195
-14.8679	-63.1187	84.8711
-75.9079	47.7194	13.591
-72.5888	50.2231	24.1467
-75.8521	55.3819	8.48145
-78.3826	46.0789	2.71578
-80.9914	26.989	-20.7164
-73.4936	-20.1296	-50.7752
-70.6946	-21.9312	-55.6078
-50.4258	-94.7671	-56.1353
-47.4668	-92.5006	-60.9503
-50.3587	-104.932	-57.2577
-53.2036	-97.845	-50.7455
-51.032	-84.6626	-55.051
-50.5992	-113.849	-58.5281
-47.5274	-112.168	-63.1517
-51.124	-122.353	-59.6569
-56.8372	-82.8067	-42.8074
-58.154	-74.5005	-41.4369
-54.5106	-78.3337	-48.9884
-56.1918	-92.2244	-43.3166
-23.4197	113.1	21.6195
-16.09	115.075	21.9097
-23.2235	117.61	6.37554
-30.4248	110.28	21.3576
-22.4115	102.043	-78.8786
-14.923	103.447	-80.3051
-21.6236	91.1728	-91.998
-29.5565	100.033	-76.9845
-23.121	110.765	-63.0189
-21.244	79.3067	-101.446
-14.316	79.9663	-103.094
-21.0159	66.0193	-108.655
-28.0236	77.6194	-99.5244
-23.3057	116.671	-45.9426
-23.3221	119.715	-28.0989
-15.7389	118.48	-46.9983
-30.5655	114.184	-44.3313
-7.97773	123.262	-11.1086
-7.94071	122.854	-29.2817
-15.7579	122.025	-10.8321
-8.00413	120.973	6.19347
-20.6641	52.9221	-113.609
-14.208	53.7715	-115.022
-20.2383	39.5371	-116.875
-26.9989	51.6605	-111.58
-19.7047	25.4972	-118.679
-13.385	26.4227	-120.188
-19.2131	11.6169	-118.853
-26.0425	24.5431	-116.492
-17.1485	-26.9827	-108.002
-17.9758	-14.3732	-113.789
-11.5902	-26.8834	-109.152
-16.8028	-38.6856	-100.806
-22.9434	-27.7292	-105.86
-6.2395	-0.438549	-120.023
-5.94802	-13.2991	-116.467
-12.4803	-0.851449	-119.005
-6.44038	12.7224	-121.442
-14.7471	-85.2961	-83.8272
-9.76231	-84.8614	-84.5716
-14.5225	-94.7181	-83.4945
-19.9218	-86.0587	-82.5178
-15.0943	-75.8101	-84.7436
-14.3887	-104.022	-83.317
-9.58728	-103.707	-83.8604
-14.5168	-113.225	-83.2088
-19.2966	-104.556	-82.3936
-16.9138	-47.8927	-94.893
-11.252	-47.4273	-95.8823
-16.4942	-56.1088	-90.4643
-22.1466	-48.4719	-93.3583
-15.6768	-65.544	-86.9548
-10.4773	-64.7476	-87.9205
-21.1922	-66.6486	-85.2607
-5.25062	-64.4523	-88.3542
-4.9776	-74.9066	-86.025
-5.49556	-55.1925	-91.8993
-49.3861	98.0965	18.1706
-43.3506	102.754	19.6383
-49.986	101.702	4.60723
-55.3058	92.5492	16.7786
-47.1166	70.5721	-89.5445
-47.5485	81.4429	-80.3971
-41.2307	73.224	-93.3538
-46.7358	58.5993	-96.3174
-52.6264	67.4505	-85.3295
-47.9547	90.9252	-68.4221
-53.5448	86.5166	-64.8708
-48.6877	97.9573	-54.34
-42.2205	94.5341	-71.6451
-49.5046	102.241	-39.6633
-50.4392	103.783	-24.8903
-43.6014	106.924	-41.2344
-55.3436	96.5716	-37.9503
-50.3572	103.759	-10.0165
-56.2856	97.9117	-10.1847
-44.154	108.837	-9.82164
-46.0857	46.4639	-101.215
-51.5425	44.2411	-96.9376
-40.1696	48.3608	-105.127
-45.4056	33.8598	-104.462
-44.4407	21.0942	-106.29
-38.7845	22.2174	-110.094
-43.4636	8.16205	-106.412
-49.7805	19.6481	-101.984
-42.1468	-4.35771	-104.993
-46.9351	-5.11089	-100.852
-36.916	-4.02186	-108.602
-40.7748	-17.2467	-101.54
-39.8476	-29.8332	-95.8156
-34.5897	-29.2136	-99.6742
-39.1175	-40.7566	-89.5975
-44.5081	-29.5802	-92.0469
-38.3626	-50.2174	-84.0851
-42.8427	-50.4409	-79.8978
-33.2652	-50.0027	-87.7263
-37.497	-59.6337	-79.3413
-35.1591	-87.8878	-74.6633
-39.5858	-88.8612	-70.7428
-36.0973	-78.352	-74.5518
-30.2526	-87.4538	-77.9904
-34.2856	-97.7959	-75.5633
-24.2714	-105.256	-80.9864
-29.3021	-106.167	-78.925
-24.5449	-96.2088	-80.7713
-24.4708	-114.09	-81.1763
-36.7524	-69.0955	-76.0745
-31.9891	-68.4403	-79.7413
-41.2677	-69.4673	-71.6466
-67.7127	70.1048	-51.7277
-63.3617	76.0705	-56.8299
-66.8096	63.9492	-62.11
-71.7834	63.3068	-45.9927
-68.9605	74.0455	-40.2828
-69.9652	76.2511	-28.9249
-70.613	77.1718	-17.7753
-65.5633	83.5727	-32.9552
