1831
23.4239	-61.8989		77.6225
6.49237	-42.3017		86.0817
11.0015	-60.4473		83.7893
5.4183	-60.113		85.4564
30.1216	-57.4649		72.1479
82.7495	-12.5936		-40.4923
79.2799	-12.3822		-45.5118
80.6009	-2.44664		-46.4925
83.8228	-3.77021		-41.434
81.3681	3.10101		-4.69563
82.3982	10.2422		-12.4838
79.6854	21.1248		-6.45891
78.9153	5.77286		2.67122
81.1809	20.2434		-25.0771
82.085	12.3612		-20.8735
79.7896	-26.742		-33.7687
77.9598	-33.7166		-29.5127
77.0436	-22.1582		-42.4881
81.4443	-20.0363		-37.5278
86.5219	-1.83828		-40.1209
86.0549	-12.386		-38.9133
85.0265	-29.8177		-28.8921
87.3134	-21.6523		-33.6352
82.2906	-37.5891		-21.8376
79.9252	-39.4117		-18.5746
82.5801	-34.1348		-9.84102
91.9478	-12.1346		-30.2794
94.0237	2.08384		-34.5758
87.2101	-21.8828		-19.7184
78.9752	-20.0518		2.59061
78.2005	-28.4111		1.64924
83.1286	-17.5193		-8.51834
83.5273	-21.5558		-8.98687
82.006	11.6852		-19.5149
90.5143	-1.95329		-40.3932
91.6643	19.1751		-19.0952
89.9521	20.2149		-21.2279
88.6981	19.2097		-23.4508
94.9495	9.52961		-34.4579
89.1898	9.33654		-14.2568
87.1074	3.71027		-10.2787
92.9009	-2.6485		-29.3025
92.5542	0.1363		-27.9888
84.1125	6.09222		-38.2123
86.0244	8.69993		-35.1067
82.853	-26.0051		-32.259
88.4455	-8.04178		-23.35
84.4606	12.8999		-28.1341
83.652	11.8525		-30.6484
91.5249	11.4377		-20.8767
-0.894407	78.1124		71.1413
13.8733	77.8162		70.2391
15.077	92.2116		57.784
-0.63155	93.5253		58.0292
-1.23735	62.904		80.2502
12.4787	63.0931		79.1988
22.4682	50.7943		83.9045
4.6726	-21.328		104.529
0.905393	-21.3013		106.421
5.62222	-11.0695		109.47
0.664123	-10.9856		110.89
0.603268	-14.7325		111.494
0.693228	-18.1679		110.061
0.609598	-6.59755		108.243
-1.00076	48.1716		88.1031
-0.537673	41.959		90.1491
11.5011	40.5084		89.1769
11.3888	49.0109		86.4869
0.0090674	16.3855		92.4835
-0.292976	20.3885		90.6195
3.84857	23.4579		88.8859
-0.425739	24.0487		89.6502
1.37143	-50.4396		90.5458
1.43068	-48.4368		88.234
1.33051	-50.6581		92.401
1.46143	-49.7841		94.8938
1.41041	-42.1589		86.2562
27.481	89.121		56.172
23.1077	44.162		86.8895
24.8818	36.6104		87.0492
29.2997	28.7736		76.7055
22.3409	26.627		76.3155
41.0304	97.1243		32.6716
38.6648	84.8371		51.875
36.8951	29.3853		75.9092
48.8141	69.1808		53.4972
43.7434	30.6908		74.9337
59.9501	64.1974		39.3609
49.5028	26.6524		68.9461
14.3521	27.7336		84.4489
71.2005	-58.087		-12.1431
81.5576	15.6		-36.9991
78.6166	24.6824		-48.8425
74.0956	-14.479		-56.2134
76.2769	-0.561377		-58.6883
77.4892	13.0575		-56.9861
81.2819	7.8531		-43.9553
70.8824	-27.6662		-51.4189
13.4947	-109.172		56.3179
27.2454	-104.12		48.257
55.4508	-77.6055		42.4073
69.5575	58.777		20.2696
29.1222	103.72		35.019
15.6579	108.077		35.7669
56.123	-69.6915		49.7985
9.75922	-37.9356		95.5575
21.8208	-40.7963		89.2712
8.25955	-32.0717		95.4452
15.3607	-38.8819		93.1519
13.0495	-33.3939		93.1086
36.2657	-53.2246		76.8796
36.5997	-46.2474		79.2365
75.8819	-43.2756		-20.1961
76.2647	-30.2032		9.18931
77.1011	-20.9701		10.0229
74.6404	8.91545		19.6992
74.4916	-6.57155		22.9827
49.0031	10.5618		62.4834
74.3634	-19.6824		23.1326
73.7474	-30.7761		22.3706
14.6906	-5.8556		91.3135
14.6418	-17.76		96.5864
16.5182	-18.9639		92.7006
34.8211	-36.9192		81.3442
52.8995	-53.3327		63.7392
43.9635	-49.1849		73.7306
49.5621	-63.1709		63.6878
63.4186	-32.9075		53.0428
43.0613	-70.7296		66.8799
34.4127	-76.2648		72.58
47.1402	-1.49227		67.6868
44.6583	4.13019		67.7974
42.08	-57.052		72.7489
37.9135	-63.2523		73.4372
14.3378	-75.0579		86.1658
32.3944	4.6359		73.3208
10.9483	-11.2907		104.121
69.8152	-20.4139		38.757
69.6339	-32.4591		37.5926
8.81366	25.9814		86.5776
18.6668	-33.9412		89.6654
22.9201	-50.9748		80.0787
21.7708	-44.3362		79.694
35.6602	-139.497		21.8523
37.7826	-152.754		18.647
46.9534	-149.551		12.2774
44.7728	-135.519		14.7523
45.8753	-100.871		20.7206
36.8483	-106.997		29.4797
34.4101	-119.078		26.4881
43.7204	-114.454		17.8396
33.7318	-57.9024		76.4593
55.6604	-86.591		16.758
59.4002	-78.9555		22.8733
52.4423	-131.797		7.14565
54.6192	-145.978		4.78332
62.9499	-75.9591		9.52188
64.0684	-82.4322		-6.16852
60.4752	-83.8177		4.5159
63.2055	-97.0808		-32.7096
77.4174	-35.009		-0.597839
64.5602	-80.8537		-31.1774
57.3935	-125.39		-51.0941
56.9456	-108.393		-48.8474
25.2861	-142.822		28.4063
27.6459	-155.484		24.0685
23.9677	-113.169		40.1919
22.4115	-123.689		35.8658
27.6256	-58.2663		79.1278
18.2024	-52.9158		83.9171
18.3334	-54.5678		82.5405
17.5184	-157.539		28.2812
17.4362	-61.1834		81.026
75.8108	55.0441		-1.29982
51.4093	-82.7379		-57.4697
57.5174	-88.5093		-46.7967
50.3454	-103.883		-59.3494
50.4329	-121.71		-62.0047
60.0868	-67.2847		-45.9175
29.7155	114.715		6.10981
15.475	119.675		5.85844
15.7512	112.343		-65.151
30.4376	108.515		-61.8912
29.0902	89.1903		-90.6489
14.8052	91.9541		-94.3231
28.119	64.2072		-107.187
14.7067	66.322		-110.822
30.3787	117.103		-27.6569
15.7511	121.789		-29.5728
0.0361907	123.324		-30.2106
-0.133681	121.358		5.47917
27.285	37.7622		-115.141
14.5473	39.825		-118.761
26.3074	10.0103		-116.678
13.6869	11.5991		-120.644
24.7457	-15.9587		-111.259
23.2056	-39.7905		-98.4806
12.1288	-39.4161		-101.007
12.8363	-14.5054		-115.332
0.618702	-13.9615		-116.751
0.587283	12		-121.99
10.9124	-76.4534		-83.9261
21.815	-77.7531		-81.471
20.8484	-96.7833		-80.373
10.6279	-95.7182		-82.151
10.638	-114.665		-81.5216
0.66747	-114.615		-81.8865
0.626604	-94.9118		-82.6137
23.1041	-58.0624		-87.3868
11.9007	-56.2388		-90.3333
0.595822	-56.3958		-90.7235
0.597244	-76.2571		-84.4761
54.4246	96.3091		3.95658
42.7349	106.778		5.48206
53.2747	77.6669		-76.8059
52.7354	55.7417		-92.3057
41.3841	60.5022		-100.665
42.039	84.4133		-84.5757
42.8719	102.253		-57.3659
54.1556	93.04		-51.9084
55.59	98.2251		-24.2388
43.7832	109.108		-25.8528
51.4963	31.6558		-100.303
40.2935	34.9418		-108.594
49.4143	6.78926		-101.993
38.7582	8.26487		-110.183
46.3795	-18.0336		-97.0708
36.6111	-17.3822		-104.786
45.368	-41.0856		-84.3499
34.9015	-41.0213		-92.4853
34.3672	-59.828		-81.4752
41.1716	-99.9924		-69.5136
31.3203	-98.3741		-76.347
33.0173	-78.943		-76.1814
43.0392	-79.7795		-68.0845
31.2706	-116.268		-77.0257
20.7996	-115.095		-80.2161
64.0958	81.1479		-44.9263
72.3173	67.0699		-34.5962
70.623	58.4103		-56.0767
62.6408	69.0774		-67.7087
72.6092	70.061		-12.5223
65.404	85.023		-20.8896
61.8954	49.887		-82.763
60.6176	27.8527		-90.793
58.8995	4.78352		-91.5928
55.3918	-18.4758		-86.7855
53.3064	-39.5198		-75.7993
74.8563	33.7467		-60.1243
62.8501	-17.9831		-76.0978
66.0744	2.85317		-81.0614
71.9497	1.0119		-69.7018
68.9872	-16.4156		-66.0328
67.6498	23.2896		-80.533
73.369	17.811		-68.8165
69.2092	42.546		-71.9737
59.5042	-36.5886		-67.5406
65.3165	-32.4639		-59.3006
62.0352	-47.7005		-52.1885
94.5812	10.2594		-35.0988
92.7741	10.9286		-36.323
91.4883	19.1369		-28.5864
93.3994	18.003		-27.4411
87.3338	15.5056		-15.1138
89.0833	14.6349		-13.1565
85.2585	14.8654		-18.0792
91.0494	9.3491		-37.229
90.3063	17.7307		-29.8436
94.0548	-1.69307		-37.1077
92.464	17.9726		-18.3184
94.0388	16.7539		-26.9829
-0.355379	109.734		35.7231
0.197719	113.652		-66.1415
41.5499	-118.544		-70.8734
0.343946	92.7117		-95.5613
0.429452	66.8389		-112.033
0.525997	40.5064		-120.004
0.613374	-39.8525		-101.342
-72.6952	-41.3599		20.6813
-75.0802	-39.2545		6.64789
-71.4442	-51.6188		18.5047
-62.4406	-108.279		-9.00384
-57.9901	-110.761		0.149817
-59.8109	-144.55		-3.86518
-58.4968	-131.471		-1.41947
-62.8138	-127.859		-10.6999
-63.5185	-140.591		-13.6435
-58.7326	-97.1954		1.43187
-51.0958	-114.263		10.1104
-52.5701	-100.747		12.3622
-62.8779	-95.302		-8.22484
-64.9686	-92.7833		-17.992
-64.3501	-105.807		-18.5762
-69.4421	-61.0127		16.0141
-66.3224	-70.3235		12.8589
-63.3576	-73.1683		26.2254
-65.9423	-63.9071		30.7659
-75.1938	39.4708		8.30666
-74.1468	24.029		15.7416
-65.2005	28.8408		39.6691
-67.4975	43.9994		30.2678
-78.8996	32.6849		-33.7755
-78.7076	37.021		-13.9577
-76.801	51.8535		-23.5786
-75.6512	45.7713		-44.393
-8.61853	-118.3		49.4676
-15.2148	-117.539		47.0784
-14.0842	-127.712		42.3821
-7.48257	-128.49		45.1707
-15.6461	-146.699		33.3033
-7.46967	-147.648		35.8112
-8.36347	-159.166		30.8615
-72.451	-41.1119		-33.633
-66.4332	-52.8565		-39.0732
-70.9769	-53.9382		-24.963
-74.2235	-31.7793		-38.4423
-67.508	-40.8985		-45.4236
-64.4337	-136.434		-24.6283
-61.8179	-131.732		-37.7132
-67.2607	-55.1779		33.6383
-68.6665	-42.8684		35.1632
-70.8678	-58.8722		0.668049
-6.30334	-86.5512		88.214
-14.4732	-85.6842		84.8533
-14.8816	-95.1242		81.6981
-6.61105	-94.8385		85.4334
-23.8033	-83.3343		78.7906
-23.8083	-92.4149		76.0426
-6.1699	-76.7441		88.3321
-7.30822	-101.564		78.9593
-7.85945	-106.353		70.1304
-12.7149	1.70282		86.1558
-12.6331	9.32967		81.1146
-16.5626	6.03598		77.9671
-17.7938	-1.87027		81.1908
-53.0905	-31.4679		65.4183
-41.6531	-28.8587		75.0203
-39.5765	-19.3267		75.3113
-51.1922	-22.0177		67.401
-62.3568	-21.9052		52.9679
-48.9605	-11.3301		67.3088
-62.9453	11.6077		45.6477
-67.5247	10.9248		37.2071
-42.5412	-38.3936		73.8047
-53.6055	-41.0782		63.1407
-3.03157	8.41654		95.8083
-3.0417	-0.674369		102.343
-26.7914	76.4067		67.0899
-37.1672	73.9084		61.7793
-35.225	62.3364		70.3332
-25.4073	63.5634		75.855
-8.35289	-111.377		58.9968
-62.7938	-42.6596		49.0527
-61.0093	-55.6652		47.4804
-35.2529	-86.9249		65.6494
-45.8407	-80.2349		56.3598
-45.3609	-87.817		50.2602
-39.2831	-101.571		37.9788
-43.2609	-93.942		44.6769
-53.0398	-87.1051		34.2553
-48.162	-96.3521		28.0737
-3.7761	-7.10459		107.073
-8.05418	-2.70029		98.031
-8.91555	-8.47458		102.18
-18.7047	-10.6354		83.702
-26.0333	-14.9288		79.8635
-28.6543	-55.0454		77.7869
-12.708	-21.8865		91.3251
-12.2547	-23.9399		89.8816
-9.09941	-28.3427		91.9853
-12.5223	-26.0514		88.6924
-13.4663	-28.3129		88.3234
-2.61726	-23.009		101.142
-2.83582	-24.5476		98.4806
-18.14	-26.7794		84.9296
-4.0289	-14.4503		110.004
-9.16557	-13.7187		104.243
-8.53193	-17.0131		102.93
-3.74069	-17.8201		108.396
-30.5762	-69.1428		75.4417
-22.3912	-73.4472		80.8608
-20.2537	-65.5746		83.2623
-26.9199	-61.7965		78.6425
-29.3159	-44.6724		81.6334
-24.5342	-43.153		84.7584
-3.03519	-26.8828		96.8615
-3.33883	-31.6516		96.0641
-7.81726	5.2734		92.2204
-15.7733	-13.3782		89.5321
-15.7547	-16.2036		89.9992
-15.2979	-13.9145		91.4184
-5.55465	-27.3382		95.005
-15.1031	-20.4652		88.7965
-3.57791	-37.6531		96.0894
-3.88566	-42.8231		96.4934
-26.9424	-35.4583		82.8171
-21.8744	-34.5012		85.3082
-11.9947	-62.9509		89.1094
-12.602	-68.0108		87.2088
-5.26101	-69.0199		89.0582
-4.36125	-64.2311		90.8856
-20.9274	-49.2245		85.8941
-25.6313	-51.3124		80.1576
-13.1825	-10.5449		94.4811
-18.7817	-61.1344		85.1962
-54.4917	35.9358		62.3788
-61.1121	25.3741		49.671
-58.2533	23.3418		55.0059
-46.7831	58.4535		60.8032
-44.8798	47.5193		68.9343
-34.2604	50.2027		78.8793
-57.635	52.0924		48.193
-55.7583	41.1782		56.8783
-34.7564	44.6402		81.6695
-44.3354	42.1772		72.6331
-20.8123	28.384		81.068
-18.8576	29.9362		84.356
-26.4715	31.684		82.6424
-27.6742	30.0536		80.0946
-8.36177	12.3819		86.8008
-3.46183	15.4215		91.5161
-4.05973	19.348		89.5521
-23.9518	-5.23065		78.2576
-21.2847	3.03477		76.3196
-33.8523	-0.109525		72.9982
-37.0723	-8.79333		73.9907
-51.1342	6.72994		59.7826
-54.1403	12.7519		56.399
-58.6542	11.4389		51.3893
-44.5751	33.618		74.6509
-35.7809	33.3773		80.078
-35.5675	38.1609		81.9326
-51.9457	29.4389		67.0186
-55.161	21.8768		59.0088
-35.9227	30.9055		77.9384
-47.2132	24.7252		68.4616
-43.1942	27.999		72.8465
-12.8102	22.2781		78.9309
-16.0884	25.862		79.9807
-17.9818	24.0752		74.1597
-7.861	32.1362		88.6679
-5.74023	27.3108		88.4295
-20.5477	7.98774		74.5097
-11.3584	24.0774		82.8863
-20.841	11.355		73.1351
-15.3588	-51.3952		84.4524
-22.2759	-52.3182		79.8637
-4.30104	-47.6125		95.5945
-4.27543	-45.1061		96.4329
-9.58232	-47.2271		93.7774
-9.31929	-49.1992		92.0979
-4.02063	-49.3993		94.0606
-15.342	-48.3774		90.0683
-9.36442	-44.9361		94.8047
-15.3396	-46.317		91.2046
-8.81595	-50.4856		89.7956
-2.93437	-50.4585		92.0406
-15.8447	-52.7219		86.0933
-15.6049	-52.4664		85.451
-16.3505	-53.641		86.7635
-10.5107	-55.5501		91.4567
-9.74833	-53.8615		91.1946
-2.89801	-53.8927		93.4674
-2.72914	-52.05		92.5158
-9.04245	-52.2749		90.3961
-3.05623	-55.9825		93.9358
-22.6894	-53.3957		79.7223
-2.60502	-51.7586		90.0939
-3.297	-58.1945		93.8088
-3.51072	-60.4389		92.9735
-7.87392	-42.9039		95.4983
-2.74319	-51.5502		91.8061
-8.73196	-51.767		89.6545
-11.6219	-59.5923		90.5862
-11.1441	-57.4876		91.2818
-8.60907	-50.4639		88.2544
-8.54384	-52.0334		88.1576
-13.9254	-49.9524		84.271
-8.67469	-49.0562		86.6817
-22.6224	-55.2844		78.7884
-2.70141	-53.6594		87.7063
-2.75706	-50.3318		90.1267
-3.76377	-48.617		87.8864
-8.88441	-53.8334		86.1559
-24.5183	-45.4134		75.2139
-27.8206	-49.9285		72.1614
-13.3584	-43.5039		82.7559
-8.41473	-42.8049		84.8751
-25.7673	-61.583		74.4715
-21.4932	-61.9806		78.0381
-3.26773	-60.0599		85.664
1.09049	-60.0282		86.0191
-3.66353	-42.3329		85.9256
-8.94492	-60.3736		84.1998
-28.0965	-57.4415		71.9215
-82.0315	-13.1488		-40.9385
-83.0909	-4.28832		-41.8798
-79.8486	-2.96026		-46.9203
-78.5382	-12.9467		-45.933
-78.2605	5.29908		2.51243
-79.0191	20.6139		-6.74482
-80.4974	19.7739		-25.468
-81.397	11.893		-21.2433
-79.1547	-27.3642		-34.2166
-77.3908	-34.3824		-29.9711
-80.7608	-20.6231		-37.9753
-76.3345	-22.7874		-42.8989
-85.7853	-2.3566		-40.5827
-85.335	-12.9457		-39.3789
-84.4171	-30.4606		-29.3793
-86.6387	-22.257		-34.1148
-81.803	-38.2381		-22.3638
-79.4906	-40.0269		-19.1163
-91.2601	-12.6704		-30.7741
-93.3029	1.56723		-35.0694
-78.5642	-20.3189		2.28166
-77.9068	-28.6344		1.21333
-82.5975	-17.8854		-8.92007
-83.02	-21.9223		-9.41911
-81.3205	11.2154		-19.8828
-89.7798	-2.48298		-40.8776
-89.2627	19.7121		-21.6555
-90.9758	18.6665		-19.5256
-88.0087	18.7153		-23.8765
-86.4359	3.2428		-10.6214
-94.2297	9.02122		-34.9558
-92.1979	-3.16049		-29.7855
-91.8526	-0.368004		-28.4637
-85.3054	8.21368		-35.5524
-83.3901	5.60783		-38.6489
-82.2103	-26.6158		-32.7305
-82.0879	-1.80457		-5.70029
-83.7572	12.4236		-28.5511
-82.9479	11.3787		-31.0615
-90.8324	10.9382		-21.3094
-87.7795	-8.525		-23.8012
-16.2423	92.0929		57.4293
-15.4976	77.7659		69.8869
-14.7919	63.3603		78.8356
-24.3482	50.3289		83.6291
-2.94319	-21.2248		104.504
-4.07751	-11.1098		109.483
-13.7172	48.4709		86.483
-12.6847	39.778		88.1482
-4.43993	23.1933		88.6663
-28.3868	88.9568		55.5365
-24.2489	42.4108		85.5036
-25.4736	34.8185		84.4204
-29.2448	28.7542		76.3055
-22.3576	26.7908		75.8176
-39.2055	84.6532		51.0359
-41.3843	96.8064		31.9817
-36.7176	29.3661		75.5446
-48.8517	69.0506		52.5553
-44.0454	30.2899		74.0158
-59.6601	63.7946		38.5821
-49.5554	26.5703		68.1821
-14.6904	27.6586		83.9948
-70.9575	-59.1465		-12.7592
-80.8438	15.1361		-37.4228
-77.8854	24.259		-49.2752
-75.4655	-1.04373		-59.0946
-73.2903	-15.0467		-56.5966
-80.5409	7.37604		-44.3846
-76.7044	12.6229		-57.4055
-70.1143	-28.3525		-51.7745
-16.0488	-110.301		56.066
-28.1405	-106.506		48.1495
-55.9674	-79.0863		40.2092
-69.1069	58.2361		19.7312
-16.3442	107.938		35.476
-29.6768	103.479		34.4996
-48.7683	20.6103		64.1358
-56.318	-70.1993		47.4374
-6.76894	-38.2165		95.3516
-18.7295	-40.851		88.786
-6.14666	-32.2506		94.9427
-10.5529	-33.5877		92.4843
-12.5002	-39.0349		92.6713
-33.9636	-45.9169		78.5276
-33.5295	-52.9643		76.7156
-75.4534	-43.985		-20.7177
-76.0865	-30.3302		8.80147
-76.7837	-21.2051		9.81748
-73.9373	8.28664		19.7703
-73.9403	-7.12569		23.0962
-48.8627	11.0669		61.5506
-74.0215	-19.9848		23.1568
-73.5537	-30.8329		22.1856
-13.1587	-5.93359		90.5138
-14.3398	-18.8626		91.7422
-12.611	-17.5245		95.7842
-32.7182	-36.5021		79.9052
-52.3133	-52.2183		61.6068
-42.1883	-48.5536		72.3437
-49.1408	-62.7433		61.5433
-63.158	-31.9347		50.9476
-34.0111	-78.3364		70.6038
-42.8035	-71.496		64.5936
-46.2124	-1.30431		66.6221
-43.916	4.34446		67.1241
-40.5645	-56.8188		71.5383
-36.6589	-63.4074		72.4491
-13.7636	-75.7996		85.7441
-31.7457	5.03685		72.7793
-9.29139	-11.2662		103.822
-69.4011	-19.8005		37.9628
-69.3699	-31.3771		36.6036
-9.3671	25.9267		86.1554
-16.1659	-34.0304		88.7381
-19.9711	-50.7679		80.5638
-19.0215	-44.2104		79.3336
-35.5939	-141.82		22.2056
-44.4173	-138.375		15.2247
-46.4131	-151.674		12.44
-37.4012	-154.511		18.7621
-45.1019	-105.881		22.0562
-36.5967	-110.76		30.7876
-43.3306	-118.546		18.9538
-34.5834	-122.375		27.3793
-31.1729	-57.689		76.6016
-55.3209	-91.0002		16.5822
-59.3891	-82.1055		21.6497
-51.9035	-134.934		7.63571
-53.9449	-148.339		4.97352
-63.1223	-78.3851		8.62239
-60.3795	-87.146		4.22572
-63.8519	-85.1689		-6.43559
-62.4387	-99.4119		-32.6451
-77.2026	-35.2748		-1.14168
-63.7637	-82.8962		-31.3331
-55.9947	-110.185		-48.7799
-56.2819	-127.002		-51.0373
-27.4259	-156.783		24.1274
-25.5875	-144.461		28.6051
-25.4261	-115.075		40.5755
-23.8108	-125.621		36.2013
-25.1064	-57.9814		79.7486
-15.4353	-52.7917		84.3347
-15.704	-54.3643		83.0747
-17.4289	-158.36		28.2951
-15.4716	-61.1708		81.542
-75.2887	54.5112		-1.77716
-50.4938	-84.0588		-57.4991
-49.307	-105.275		-59.3277
-56.671	-90.2524		-46.7741
-49.2445	-122.976		-61.9812
-59.2909	-68.6518		-46.0446
-15.7309	119.55		5.65369
-29.9219	114.481		5.72504
-15.3557	112.261		-65.2549
-14.1721	91.8909		-94.3856
-28.4232	89.078		-90.804
-30.0438	108.355		-62.0969
-14.1329	66.2578		-110.821
-27.2923	64.1136		-107.325
-30.2824	116.905		-27.9357
-15.6705	121.687		-29.7171
-13.5502	39.7768		-118.814
-26.2585	37.6706		-115.272
-12.5196	11.5599		-120.708
-25.159	9.93258		-116.806
-23.5295	-16.0362		-111.392
-11.6046	-14.5439		-115.396
-10.9068	-39.4933		-101.062
-22.0043	-39.9555		-98.5886
-9.71458	-76.6329		-83.9479
-9.36757	-95.9156		-82.1618
-19.5989	-97.197		-80.3916
-20.6419	-78.144		-81.5107
-9.30618	-114.869		-81.5255
-19.4781	-115.512		-80.2259
-10.7146	-56.3754		-90.373
-21.9407	-58.3549		-87.4642
-42.8441	106.448		4.9619
-54.3876	95.9083		3.3435
-52.6279	77.4285		-77.1146
-41.3798	84.234		-84.8097
-40.5269	60.3513		-100.876
-51.9071	55.5339		-92.5828
-53.731	92.75		-52.2829
-42.4725	102.028		-57.6623
-55.374	97.8684		-24.7228
-43.6422	108.827		-26.2495
-50.529	31.4659		-100.564
-39.2853	34.8084		-108.792
-37.6402	8.14215		-110.378
-48.3488	6.59972		-102.248
-45.2714	-18.2808		-97.304
-35.4423	-17.5371		-104.975
-33.752	-41.3198		-92.6406
-44.294	-41.5405		-84.543
-33.2595	-60.3222		-81.5801
-40.0313	-100.97		-69.5319
-42.014	-80.734		-68.1341
-31.9009	-79.5964		-76.2305
-30.1054	-99.0392		-76.3717
-29.9746	-116.925		-77.035
-63.5909	80.8123		-45.3762
-61.9878	68.7864		-68.0879
-69.9464	58.0625		-56.518
-71.7068	66.7228		-35.1108
-72.157	69.5991		-13.0586
-65.0637	84.6163		-21.4222
-59.6957	27.6024		-91.1128
-61.0971	49.6255		-83.1037
-54.3624	-18.8394		-87.0624
-57.8997	4.50851		-91.9006
-52.3172	-40.1046		-76.0252
-74.1066	33.3736		-60.5491
-61.9042	-18.4492		-76.4117
-68.1163	-16.9484		-66.3824
-71.0803	0.581425		-70.0838
-65.1401	2.49859		-81.4095
-72.5396	17.4328		-69.2162
-66.7732	22.9781		-80.8988
-68.4359	42.2298		-72.3668
-61.2619	-48.6256		-52.4457
-64.4856	-33.1595		-59.6099
-58.5964	-37.2531		-67.8054
-93.8599	9.75217		-35.598
-92.0535	10.4262		-36.8124
-92.7025	17.4986		-27.9181
-90.7929	18.638		-29.0571
-88.3878	14.1229		-13.5261
-86.6409	15.005		-15.4857
-84.5685	14.3797		-18.4539
-90.3285	8.85216		-37.7074
-89.61	17.2399		-30.3039
-93.3265	-2.22301		-37.6083
-91.7769	17.4601		-18.7506
-93.3408	16.2485		-27.4581
-40.2999	-119.487		-70.8707
18.3609	-99.7587		74.2075
15.3999	-101.161		74.375
20.9348	-99.4497		71.2134
19.0884	-97.7633		76.3321
64.7752	-5.7548		49.4126
62.6239	-4.83474		52.6941
65.3574	-9.16425		48.8923
66.0353	-1.79712		45.6486
60.5865	-3.25054		54.9459
60.561	0.810763		53.3496
58.0539	-4.61476		58.417
11.2749	34.1237		89.7827
13.8549	32.8102		89.1802
14.5529	37.0133		89.2666
8.59053	35.5813		90.1762
9.59349	30.9332		88.9596
9.83384	18.1781		82.5393
10.574	17.3803		81.431
10.3588	19.6255		81.8187
9.25662	18.4634		83.5782
13.5457	19.4834		76.456
15.0689	18.6292		73.8334
14.2232	20.9311		76.1186
12.0159	20.407		79.431
13.0547	18.0428		77.1308
43.467	16.5594		67.3528
40.4493	15.1612		69.7553
45.1425	17.7753		65.6806
16.0913	12.6497		74.9921
15.8819	13.7462		74.62
15.642	11.5858		76.1757
17.4471	11.893		74.3554
27.9777	-53.2826		77.4487
27.8658	-53.1662		77.6989
28.0895	-53.3952		77.0118
27.8755	-53.223		77.7547
26.816	-52.0628		80.0076
27.1463	-52.6662		78.6586
27.8797	-52.5093		78.9078
26.871	-51.6035		80.6676
25.0931	-51.6705		81.7023
30.8797	-53.29		77.8437
30.9757	-50.9233		79.3963
28.3868	-53.5975		76.1929
27.9856	-52.8244		76.8603
29.0045	-53.6179		74.8563
28.1778	-53.9021		76.5109
22.9409	-56.3526		83.0297
23.3065	-57.1268		82.6873
26.0327	-55.1542		79.9045
22.8622	-55.724		83.0516
19.6702	-57.0428		86.2221
21.1956	-47.1354		89.4175
20.785	-45.7397		90.1544
18.0976	-45.3765		92.0447
21.4365	-47.9323		88.9531
23.6827	-48.5692		86.7292
27.125	-53.291		78.5511
27.2163	-53.3251		78.5336
27.2569	-53.2925		78.4307
25.496	-53.3381		79.6371
80.0364	-34.176		-6.77897
79.4632	-34.5765		-5.93432
79.7541	-37.7477		-9.7542
80.572	-33.1954		-6.71874
87.9905	-25.204		-18.5984
88.4915	-23.4055		-21.2951
86.7984	-23.547		-17.4372
87.5015	-26.3138		-16.1162
88.5255	-26.566		-19.2409
83.0498	-31.1257		-8.59288
83.0786	-28.4748		-7.95351
82.4021	-31.3949		-7.85522
83.7927	-32.4357		-10.1858
82.7752	-18.7233		-12.048
82.683	-17.6979		-12.9308
82.6871	-16.9386		-11.8563
83.0454	-19.2119		-10.7106
83.2679	-20.2764		-12.4235
87.4538	0.906433		-13.292
87.0104	-1.08001		-14.0236
87.7195	1.69471		-13.8663
87.4722	1.4694		-12.3829
90.6401	11.7155		-17.5623
90.6325	12.3232		-16.5778
90.2655	10.7723		-17.5225
91.8732	12.8026		-20.6508
85.2601	-16.6775		-19.0409
84.2425	-15.1889		-17.6478
84.8775	-20.4067		-16.3579
87.635	-19.8461		-21.7593
87.5374	-14.2896		-22.9868
89.3628	2.16572		-19.7684
89.7187	3.30058		-20.1388
88.1022	1.7784		-15.9502
89.3655	0.836926		-20.8058
93.1327	-8.77867		-31.6866
93.0144	-8.55568		-31.1101
92.3696	-11.8841		-31.224
93.4678	-7.66167		-32.6575
93.7403	-6.02621		-34.3411
93.8548	-3.87831		-33.3076
93.6802	-6.74155		-35.3909
93.9451	-2.98196		-35.6272
88.9143	-21.8011		-23.2863
89.308	-19.5837		-25.1419
89.3871	-22.8696		-24.0884
90.6955	-8.20578		-27.5479
89.7284	-10.1667		-26.3822
92.0165	-8.5126		-29.4012
90.6698	-6.85209		-27.2908
81.1407	-26.0857		-4.67123
81.2865	-28.3719		-5.34922
81.7585	-25.6827		-5.56191
80.8566	-25.2274		-4.0224
80.6719	-23.5807		-3.29064
80.9212	-21.5229		-3.29798
80.2819	-23.7205		-2.39774
81.7774	-14.5216		-3.74994
81.529	-15.0652		-3.30458
82.1521	-14.8792		-4.64432
82.1159	-11.324		-3.99808
81.2367	-15.8448		-2.81416
80.8602	-15.6854		-1.87971
81.1574	-18.2581		-3.07102
84.9515	-21.9633		-15.0592
84.7879	-22.9745		-13.2292
84.3124	-9.87591		-12.3711
83.3593	-13.6845		-12.0446
84.2545	-10.4076		-13.861
85.3104	-6.06695		-12.6976
84.6461	-8.75503		-11.162
93.4986	7.52503		-29.6581
93.615	8.26466		-29.924
93.3461	7.10482		-29.083
93.7852	6.31964		-31.3988
93.8183	2.63204		-32.1778
93.6442	1.53983		-30.7351
93.9004	0.940153		-33.0613
93.9031	3.95486		-33.0244
93.5489	4.45175		-30.2601
90.0908	10.1446		-17.6829
90.9944	10.2176		-20.3181
89.4736	9.28809		-16.5375
92.0463	10.0566		-23.6209
91.6322	9.0062		-22.8996
93.2508	9.71557		-27.6995
92.6075	11.3267		-24.5215
39.83	27.4388		73.4995
42.1165	26.3955		72.2461
36.9842	27.9955		74.1802
24.938	-98.6755		66.8428
23.9649	-100.458		63.6237
27.4149	-96.8112		66.5807
46.1696	21.2271		66.8425
45.3781	23.2768		68.7618
46.8291	19.5431		65.3877
49.6724	22.763		66.0692
51.5401	23.9025		65.339
48.2027	25.3115		69.0372
47.9204	22.262		66.8576
50.2377	20.2853		63.9459
74.3218	-47.0541		-2.13061
75.1833	-45.4573		-6.75611
74.6785	-45.4118		-0.725584
73.6676	-49.3262		-2.49278
18.1246	17.8589		70.6545
18.4966	17.1479		70.5253
18.1987	18.8087		70.7422
17.3143	20.3697		71.8353
18.549	22.088		72.299
17.0062	19.003		71.6216
8.53013	19.5228		84.7457
7.87959	19.5154		85.7503
8.63784	21.3657		84.8388
21.1468	-51.7005		84.0518
21.8845	-52.1698		82.3267
21.6026	-51.3829		84.5145
17.9872	-51.0087		86.9104
67.3949	-70.4621		-6.90949
66.6404	-70.3989		-1.42354
66.8446	-73.2596		-8.75996
68.209	-67.8681		-7.55352
79.5833	-3.20623		1.70542
78.8944	-10.3257		4.51178
80.5248	-4.02843		-0.945618
80.2452	4.40297		-1.9829
78.378	-2.06849		6.11354
67.7273	-73.5488		-20.2836
67.184	-75.833		-21.9446
68.3438	-69.0946		-20.781
67.1961	-75.8251		-15.5226
64.7357	-109.595		-25.417
64.7641	-118.192		-26.8476
63.1129	-106.074		-33.1452
64.7238	-100.518		-25.342
64.9778	-112.099		-19.2881
27.4571	-53.6908		78.5618
27.5987	-53.8383		78.5147
25.702	-54.164		79.9693
27.8281	-54.0828		78.4657
22.5273	-55.2809		83.3164
22.716	-54.8468		83.0161
19.2401	-55.3482		86.5086
29.3421	-95.017		66.4424
33.4903	-93.4442		61.0251
29.3575	-92.7914		69.3496
50.3193	-61.1133		-65.083
48.93	-57.2739		-69.2117
53.0209	-60.0493		-61.3232
49.4022	-64.2742		-64.8376
54.9742	80.932		34.6319
56.8638	82.9514		27.5474
51.1562	83.9743		37.3302
55.7655	76.9089		37.5924
90.6553	-18.4953		-32.4181
91.892	-13.5037		-35.3451
91.1514	-17.6728		-31.4087
89.5779	-22.6387		-29.7763
90.0501	-18.5644		-33.6591
84.5083	2.1276		-7.65571
83.7724	-2.12875		-6.43756
85.5133	2.02362		-8.32503
85.2336	6.37095		-9.3359
83.2205	2.31794		-6.92197
82.7822	-19.1163		-6.8544
82.3436	-19.7702		-5.77608
83.307	-21.7636		-8.09455
83.161	-19.4032		-8.42916
82.7119	-17.4338		-6.54071
82.8484	-25.5662		-7.19809
82.283	-22.7117		-5.95555
83.6781	-25.3035		-8.57347
92.8126	-7.7937		-37.8424
92.049	-7.80732		-38.6562
93.3655	-1.65163		-38.9607
93.2714	-7.78757		-36.9816
91.0395	-7.68828		-39.3214
90.3291	-13.2005		-37.3078
89.9937	-7.45775		-39.7014
91.4109	-1.69027		-40.2607
81.9688	6.28996		-8.26397
82.2298	8.4849		-10.0556
81.7097	7.33476		-7.96346
82.0142	4.66146		-7.06422
87.3039	-16.7769		-36.6266
85.592	-16.2373		-37.4093
87.9305	-12.4114		-38.4879
88.378	-17.3688		-35.9188
86.3032	-20.6583		-34.6816
89.5885	-23.9566		-24.873
90.1084	-20.9015		-27.358
89.2296	-25.9055		-22.698
89.4872	-24.9256		-26.0768
87.1456	-32.5965		-22.791
86.5674	-34.3754		-19.9182
85.8231	-34.0205		-23.8271
88.0558	-29.4499		-25.5276
88.4615	-29.8658		-21.3857
87.7965	-30.7013		-16.131
87.3027	-32.4278		-16.4525
88.2944	-29.631		-17.7433
87.3505	-29.9877		-14.809
77.4748	-41.1864		-11.9666
76.9606	-42.1626		-12.4454
78.5374	-40.2931		-13.6759
77.4889	-40.1378		-7.64989
82.2324	-37.6268		-13.1161
82.607	-38.4522		-15.4966
83.4216	-36.2333		-12.7196
81.6989	-35.7447		-10.0881
81.188	-38.5027		-13.3341
88.1363	8.55759		-10.5678
88.1359	10.0493		-10.6886
86.8152	5.09954		-9.70103
88.4512	8.5128		-10.9327
88.0931	10.9643		-10.9286
89.4098	14.1934		-12.8794
87.7368	10.9532		-10.94
93.49	-7.60204		-36.236
92.6433	-12.2278		-33.6759
94.0072	-1.97932		-37.6671
94.376	6.67977		-34.3736
94.1755	5.66981		-34.0939
94.5203	6.01208		-35.2456
94.2963	8.23941		-32.8589
89.1516	9.53448		-12.6757
89.0097	9.30834		-12.1311
88.7327	7.97133		-12.919
89.6391	11.1011		-13.6644
88.646	8.45688		-11.3093
87.8819	5.30372		-11.2103
89.6649	12.6375		-12.7964
92.7376	-8.52042		-30.5227
93.339	-5.59526		-30.8481
91.509	-12.0577		-29.445
88.4609	6.37546		-14.4368
88.8627	7.96588		-14.9725
88.3683	6.23153		-13.9646
88.779	5.43844		-16.2
89.2477	8.74279		-16.1544
89.758	8.30674		-18.1158
88.9243	-13.2368		-25.3905
89.6008	-15.04		-26.4565
84.7864	-7.90668		-10.0122
85.7967	-3.53347		-10.1421
84.6115	-7.86477		-8.91194
83.8053	-12.5871		-9.98644
87.8487	2.10654		-14.1769
88.0568	3.85521		-13.598
54.7328	-58.0215		-59.4244
54.9205	-53.4093		-62.1032
56.1954	-58.1905		-56.691
25.6584	-21.8718		82.7532
27.7473	-26.0817		82.8273
25.9401	-20.2961		82.4307
23.5922	-21.3013		83.5144
20.4469	-19.413		85.4206
20.9948	-20.4292		84.9492
20.6292	-16.6287		85.5185
19.4546	-19.9071		86.6134
49.0683	38.5531		70.436
48.8196	36.4733		71.4371
54.3044	34.6262		64.5859
49.6598	40.322		68.843
45.0814	40.1197		73.9312
9.26676	-24.606		94.9391
8.59704	-24.0311		95.9373
9.05987	-25.2809		94.7712
10.4198	-24.6149		94.1121
10.6249	-21.7488		97.2346
9.2679	-22.0808		97.9846
11.786	-22.379		95.3032
11.1177	-20.8202		97.9144
45.7251	18.4889		65.3867
45.4837	19.2766		65.6862
16.104	-13.8204		95.6928
16.1938	-14.7374		95.5211
16.4874	-13.7177		94.8589
15.124	-13.2562		97.3402
85.2935	-24.6522		-32.4914
84.2185	-27.1863		-31.0339
83.9276	-23.0906		-33.9319
86.3505	-25.7564		-31.3707
64.7647	78.0133		14.7449
62.3952	81.4618		15.9273
65.3536	73.5227		19.3211
66.9114	78.602		5.00655
29.1469	-58.9968		73.399
29.7909	-57.1977		72.8505
29.1552	-60.0941		73.0061
28.1829	-58.5857		74.6301
29.1157	-48.4565		74.0358
27.9256	-48.5841		75.4038
28.9528	-47.332		73.9147
29.7949	-50.344		73.3302
-18.7381	-101.841		72.6592
-19.0474	-100.188		74.6696
-21.4149	-101.641		69.5669
-15.9524	-102.987		73.0215
-63.9758	-5.99822		48.4552
-65.1138	-2.03043		45.1751
-64.6465	-9.29749		47.816
-61.7384	-5.24306		51.6833
-59.4652	-3.64069		54.1593
-56.8937	-4.93977		57.496
-59.3538	0.527276		52.8101
-12.2916	33.9129		87.9183
-13.974	31.5119		86.8936
-10.3053	31.0176		87.8156
-9.69964	35.7464		88.6889
-15.1178	35.7642		87.4786
-9.41906	18.1546		82.3801
-8.91695	18.3674		83.3957
-10.0135	19.557		81.6588
-10.1609	17.5261		81.1711
-13.5001	20.228		76.1979
-15.4723	19.7995		73.4185
-12.8482	18.7993		76.8947
-11.8403	20.6206		79.1281
-14.3159	21.5612		75.848
-43.843	17.1872		66.5376
-40.7238	15.6467		69.1401
-45.5281	18.3887		64.8379
-15.7155	13.4624		74.7206
-17.1465	12.5433		74.0847
-15.0822	12.3197		75.9485
-15.6377	14.65		74.3176
-25.288	-53.062		77.9206
-25.1687	-52.9362		78.1959
-25.1807	-53.0018		78.25
-25.4008	-53.1766		77.4683
-24.0431	-51.8028		80.5242
-25.2116	-52.2693		79.3341
-22.2666	-51.4368		82.1915
-24.1169	-51.3464		81.1354
-28.3016	-50.6582		79.543
-25.725	-53.3856		76.5973
-25.5092	-53.6948		76.9763
-26.4082	-53.4151		75.1427
-25.2748	-52.5981		77.2928
-20.3863	-56.0903		83.8168
-20.8634	-56.9084		83.4087
-17.491	-56.9397		86.8924
-20.2577	-55.4873		83.8268
-23.3412	-54.8735		80.6088
-18.0184	-47.1917		89.1566
-17.6223	-45.767		89.8194
-20.4776	-48.6127		86.6782
-18.2421	-47.9742		88.7438
-15.0828	-45.3934		91.632
-24.3917	-53.0585		79.1074
-22.7167	-53.0999		80.2737
-24.5258	-53.0614		78.9815
-24.4856	-53.0939		79.0893
-79.8082	-34.6583		-7.21967
-80.4474	-33.6855		-7.16702
-79.4686	-38.2632		-10.283
-79.2445	-34.9605		-6.39983
-87.4314	-25.6838		-19.099
-87.9015	-23.908		-21.7912
-87.9689	-27.0614		-19.7508
-86.9708	-26.7662		-16.6234
-86.2438	-24.0143		-17.9249
-83.406	-31.5468		-9.14852
-84.2091	-32.8006		-10.7981
-82.9282	-31.7641		-8.51456
-82.9899	-28.8268		-8.39089
-82.2292	-19.0996		-12.4687
-82.1303	-18.0871		-13.3518
-82.7322	-20.6731		-12.8718
-82.5101	-19.592		-11.1317
-82.1334	-17.3171		-12.2639
-86.7861	0.446423		-13.6649
-86.8045	1.0087		-12.7488
-87.0471	1.23223		-14.2431
-86.3481	-1.53333		-14.4031
-89.95	11.2187		-17.9721
-89.9426	11.8247		-16.9824
-91.1807	12.3008		-21.0841
-89.5753	10.2778		-17.93
-84.3838	-9.80895		-17.2996
-86.6993	-6.0566		-20.5372
-83.8757	-12.2229		-17.6745
-83.6433	-10.8205		-14.2503
-85.2382	-6.03817		-16.3908
-89.3839	4.3431		-20.7977
-89.0329	2.81863		-20.5612
-88.0945	4.96046		-16.5934
-89.911	5.92957		-21.6288
-91.139	3.74085		-25.6824
-82.3737	-29.2933		-30.7536
-83.5857	-27.8077		-31.5126
-81.1624	-29.1391		-31.2542
-82.2648	-31.6142		-29.1306
-92.4331	-9.31064		-32.1861
-92.762	-8.19503		-33.1583
-91.6765	-12.4245		-31.7217
-92.3165	-9.08533		-31.6079
-93.0254	-6.56191		-34.8414
-93.141	-4.40545		-33.8056
-93.2233	-3.51176		-36.1265
-92.9618	-7.28158		-35.8924
-88.304	-22.3168		-23.7821
-88.6764	-20.1097		-25.6338
-88.775	-23.3977		-24.5902
-87.0298	-20.3433		-22.2411
-90.0118	-8.71566		-28.0222
-89.0559	-10.6723		-26.8529
-89.9844	-7.35897		-27.7616
-91.325	-9.03394		-29.8875
-88.2667	-13.7427		-25.8628
-88.9433	-15.5583		-26.9389
-86.8991	-14.7792		-23.4512
-80.775	-26.3868		-5.09141
-80.4382	-25.5344		-4.45683
-81.3701	-26.0064		-5.98194
-81.1114	-28.7063		-5.86165
-80.241	-23.8773		-3.70278
-79.859	-24.0019		-2.81009
-80.4587	-21.8273		-3.69222
-81.246	-14.8636		-4.08331
-81.5541	-11.6883		-4.31056
-81.619	-15.2252		-4.98887
-81.0058	-15.4012		-3.63785
-80.7254	-16.1735		-3.14813
-80.6678	-18.5764		-3.42928
-80.3548	-16.009		-2.20138
-84.4095	-22.3953		-15.541
-84.3195	-20.8526		-16.8277
-84.2557	-23.3805		-13.7058
-83.7029	-10.287		-12.75
-82.7787	-14.0797		-12.4365
-84.0327	-9.17081		-11.5373
-84.678	-6.49507		-13.07
-82.3788	-15.9139		-11.9229
-82.6103	-15.8655		-11.0391
-92.7907	7.02026		-30.1347
-93.0728	5.81191		-31.8823
-92.6397	6.60038		-29.5574
-92.9064	7.76018		-30.4018
-93.1044	2.119		-32.6664
-92.9348	1.02794		-31.2213
-92.84	3.94374		-30.7407
-93.1862	3.44352		-33.514
-93.1846	0.423538		-33.5539
-89.4013	9.65235		-18.0899
-88.7854	8.79913		-16.9331
-90.3024	9.7224		-20.7434
-91.3505	9.55788		-24.0677
-90.9374	8.51038		-23.3398
-91.9107	10.8256		-24.976
-92.548	9.21449		-28.1684
-90.3871	7.27288		-22.4229
-91.8072	6.68795		-26.6326
-89.0691	7.819		-18.5235
-39.8165	27.6341		73.0386
-36.948	28.2299		73.7871
-42.2229	26.6495		71.7571
-25.3565	-101.178		65.012
-27.6743	-99.5552		64.4342
-24.5998	-102.902		62.0168
-46.4467	21.8117		66.1904
-47.1114	20.2238		64.6824
-45.5544	23.7068		68.1823
-49.6645	23.3967		65.7215
-48.3335	25.6108		68.5032
-51.3424	23.9647		64.6742
-49.9567	20.7599		63.4544
-48.2324	22.8086		66.2356
-74.2583	-47.4711		-2.87081
-73.6239	-49.8218		-3.25265
-74.6184	-45.7721		-1.45138
-75.0109	-45.9701		-7.42232
-19.8786	19.1589		69.5819
-20.0911	18.4287		69.4941
-20.0774	20.0698		69.7367
-18.6741	21.6187		71.0983
-19.7591	23.1035		71.6572
-18.2141	20.3289		70.9161
-8.31361	19.2614		84.5557
-8.55395	21.1017		84.6344
-7.75686	19.2615		85.5332
-18.2316	-51.5779		84.46
-15.1232	-50.9244		87.063
-18.6055	-51.2737		84.8689
-18.9646	-52.0162		82.9323
-67.3136	-72.219		-7.49378
-68.1198	-69.4138		-8.17892
-66.6806	-75.2357		-9.24587
-66.7154	-72.1569		-2.13061
-78.9816	-3.61177		1.51337
-78.3765	-10.6742		4.32252
-77.7823	-2.49943		5.99276
-79.5882	3.95289		-2.20478
-79.9188	-4.42584		-1.18211
-67.1632	-75.4558		-20.5654
-66.7725	-77.8994		-15.8387
-67.7862	-70.7804		-21.1348
-66.5573	-77.8466		-22.1752
-64.0087	-112.281		-25.2457
-63.9668	-120.756		-26.6659
-64.2884	-115.027		-19.0657
-64.0377	-103.162		-25.2354
-62.3314	-108.455		-33.0177
-24.7398	-53.4725		79.1236
-22.9801	-53.9188		80.6512
-24.586	-53.3209		79.1606
-24.8699	-53.6161		79.0817
-26.4927	-53.1254		78.3871
-25.6442	-54.4005		78.8771
-19.9228	-55.0884		84.0709
-16.9962	-55.2927		87.1234
-20.0563	-54.6668		83.7561
-29.5062	-97.9522		64.0024
-29.3402	-95.9804		66.6362
-33.725	-96.3422		58.622
-49.3872	-62.019		-65.2237
-48.4595	-65.2135		-64.9556
-52.1348	-61.0215		-61.4759
-47.9595	-58.0669		-69.3608
-54.9785	80.5541		33.7786
-55.7217	76.5389		36.7204
-51.2862	83.6092		36.49
-56.8338	82.5351		26.7491
-89.9699	-19.0756		-32.9182
-91.1804	-14.073		-35.8446
-89.3582	-19.1525		-34.1537
-88.9236	-23.2258		-30.2809
-90.4702	-18.2399		-31.9107
-83.8447	1.67522		-7.96006
-83.1335	-2.55686		-6.73613
-82.5616	1.86999		-7.21471
-84.5511	5.89654		-9.65122
-84.846	1.56819		-8.63913
-82.2722	-19.4641		-7.25324
-81.8484	-20.1033		-6.1747
-82.1911	-17.7835		-6.92311
-82.6427	-19.7677		-8.8422
-82.8114	-22.1189		-8.52331
-82.4643	-25.9099		-7.61527
-81.8251	-23.0408		-6.38242
-83.2632	-25.6679		-9.00394
-92.085	-8.34621		-38.3422
-92.5464	-8.33781		-37.4851
-92.6307	-2.18651		-39.4609
-91.3186	-8.3613		-39.1516
-90.3084	-8.24306		-39.8104
-89.6115	-13.7747		-37.7947
-90.6749	-2.22305		-40.75
-89.2641	-8.00973		-40.1844
-81.3014	5.83977		-8.56472
-81.3512	4.21323		-7.35449
-81.0388	6.87748		-8.25206
-81.5558	8.02836		-10.3717
-86.6023	-17.3601		-37.0997
-84.8865	-16.8137		-37.8754
-85.6231	-21.2556		-35.1554
-87.6786	-17.9577		-36.3975
-87.211	-12.9768		-38.9625
-88.9763	-24.5035		-25.3828
-89.4656	-21.4542		-27.8597
-88.8704	-25.4946		-26.5904
-88.6432	-26.4439		-23.2137
-86.595	-33.2076		-23.329
-87.9111	-30.4264		-21.9205
-87.4619	-30.0551		-26.0513
-85.2632	-34.6658		-24.3584
-86.0771	-34.979		-20.4661
-87.3339	-31.2016		-16.6536
-86.9161	-30.4693		-15.283
-87.7828	-30.1304		-18.2799
-86.878	-32.9854		-16.9559
-77.1644	-41.7258		-12.5505
-77.2578	-40.5848		-8.2497
-78.1957	-40.8408		-14.244
-76.6552	-42.7226		-13.0339
-82.329	-37.8158		-13.4924
-82.3461	-38.9695		-16.0226
-80.9137	-38.9878		-13.8632
-82.1428	-35.9847		-10.8422
-83.716	-36.4737		-13.2568
-87.4487	8.07023		-10.9148
-87.7658	8.0254		-11.2878
-86.1357	4.627		-10.0327
-87.4445	9.5543		-11.0357
-87.3996	10.464		-11.2757
-87.0444	10.4541		-11.2854
-88.7142	13.6821		-13.25
-93.6547	6.17078		-34.867
-93.58	7.73218		-33.3485
-93.7964	5.5011		-35.7419
-93.4551	5.16053		-34.5858
-88.4653	9.04333		-13.0457
-88.9506	10.6061		-14.0444
-88.0488	7.48651		-13.2881
-88.3238	8.81758		-12.4988
-87.962	7.9701		-11.6704
-88.9756	12.1349		-13.1736
-87.2056	4.82979		-11.5667
-92.042	-9.04801		-31.0169
-90.8256	-12.5872		-29.9357
-92.6363	-6.11557		-31.344
-88.5599	8.25566		-16.5458
-88.1765	7.48229		-15.3553
-87.778	5.8971		-14.8149
-87.6857	5.75367		-14.3388
-84.1719	-8.32148		-10.3781
-85.1583	-3.96884		-10.4946
-83.2237	-12.9867		-10.3717
-84.0013	-8.2739		-9.2633
-87.1753	1.6431		-14.5555
-87.3789	3.38753		-13.9726
-87.4253	1.31217		-16.3426
-53.8761	-59.0047		-59.5954
-55.3646	-59.2192		-56.866
-54.0401	-54.2982		-62.293
-23.4922	-22.096		81.5342
-21.2871	-21.5068		82.3797
-23.818	-20.6209		81.2255
-25.6548	-26.0104		81.4337
-18.1226	-19.6773		84.444
-17.091	-20.0498		85.668
-18.4884	-17.0497		84.5084
-18.644	-20.6125		83.9241
-49.1297	37.901		69.585
-49.1801	35.9433		70.2569
-44.5322	39.8121		73.54
-49.4329	39.764		68.1911
-54.0536	34.198		63.976
-6.14362	-23.3024		96.2659
-6.32888	-22.8135		96.7868
-6.79053	-23.7611		95.1014
-5.15885	-23.5176		97.1334
-6.52735	-22.1756		97.7431
-7.42918	-21.8094		97.306
-5.51032	-21.9677		99.4924
-46.1109	19.1564		64.5654
-45.856	19.9914		64.9479
-14.1248	-13.7657		94.7806
-13.2092	-13.1676		96.5413
-14.4964	-13.7123		93.9001
-14.1706	-14.7056		94.611
-64.5461	77.5264		14.0558
-66.6525	78.1133		4.37671
-65.0977	73.0294		18.6252
-62.2376	80.9944		15.2193
-26.8669	-58.9321		73.6859
-25.7826	-58.4685		75.0793
-27.1985	-60.1567		72.9541
-27.4694	-57.0733		73.0399
-26.5537	-48.2015		73.8345
-27.2875	-50.0908		73.2097
-26.5339	-47.0635		73.4276
-25.2489	-48.3688		75.3654
-8.66355	-21.5		96.4575
-9.16914	-20.5558		97.1819
-9.71888	-22.1521		94.3466
8.2458	-22.4533		98.3416
7.17584	-22.2042		99.8731
8.04037	-23.0724		97.4833
7.81622	-23.5689		97.0019
6.65862	-23.7779		97.7575
-7.38441	-24.3608		93.9658
-8.39893	-24.4324		93.0331
-7.22844	-25.0049		93.7876
82.4036	-34.1145		-25.9831
80.6757	-34.6956		-25.7447
82.8608	-30.9762		-28.6447
83.591	-34.4573		-25.3524
81.4135	-37.3526		-22.5373
73.2682	-45.4802		12.6903
72.0348	-46.6862		20.4926
72.36	-50.2822		11.5547
74.3232	-43.9209		5.86305
74.0064	-40.4861		13.8763
61.1549	-116.132		-5.30778
61.0213	-105.75		-4.83317
58.6108	-117.341		-0.869765
61.6582	-126.578		-6.41506
63.1292	-114.765		-9.85745
62.2538	-134.125		-7.65757
62.7833	-140.099		-8.86263
63.9701	-132.23		-12.3877
59.8565	-136.115		-2.95384
55.4628	-100.439		5.50828
56.1742	-94.4181		6.61656
52.1199	-102.164		10.2901
55.2593	-108.185		4.51382
58.6413	-99.2103		0.367488
64.4012	-97.0659		-13.1987
64.2724	-104.087		-13.6507
65.1681	-95.7648		-18.4231
64.6599	-91.582		-12.8756
63.0435	-97.6639		-8.76187
65.9729	-66.886		23.6962
67.2792	-62.9086		25.3454
63.6106	-69.0575		31.3834
64.5178	-70.5803		21.5898
67.5465	-64.9393		15.9422
71.4985	34.1771		24.396
72.4108	41.8614		19.8881
67.0792	37.3037		35.1719
70.9803	26.7813		27.4768
75.3367	32.3277		12.6695
78.641	43.0435		-28.6928
78.2699	39.8248		-38.3837
77.0855	49.9719		-33.8939
78.8053	45.019		-18.0466
79.7843	35.7728		-23.8244
6.38215	-122.14		46.6339
3.18726	-122.512		47.5261
7.60179	-127.601		44.0257
10.4495	-121.346		45.1691
6.54018	-117.772		49.0457
9.37912	-136.861		39.3814
10.7206	-146.689		34.7221
13.3894	-135.726		37.8006
5.75371	-137.279		40.5861
3.61527	-154.457		33.4168
7.51261	-154.037		32.8603
3.10958	-147.601		36.3723
-0.143972	-154.549		33.6488
4.13945	-159.116		31.518
69.5788	-53.0685		-31.5141
71.9644	-46.9301		-29.3436
69.3269	-59.4072		-26.183
67.0824	-59.2394		-33.7249
70.1	-45.499		-35.8236
70.8089	-40.0708		-38.9523
67.2522	-45.9771		-42.2329
71.5638	-35.3467		-41.4582
73.8481	-35.3539		-35.8646
64.7377	-125.243		-28.7724
64.5635	-132.002		-31.0618
63.1178	-122.494		-35.5787
65.3334	-128.314		-22.3236
2.38216	-137.708		41.2268
1.27816	-128.429		45.7972
-0.834831	-137.815		41.491
70.1834	-48.6293		28.602
70.9277	-42.9245		29.0184
67.9823	-49.8063		36.1526
69.3978	-53.8107		27.6288
68.6214	-63.3284		8.22422
67.0856	-67.3906		6.6936
69.2783	-62.629		0.308699
70.0642	-59.0479		9.38321
10.2241	-88.854		86.8626
6.30998	-89.0874		88.0425
10.3673	-93.0294		85.1287
14.7249	-88.5998		84.8953
10.1445	-84.6884		87.6486
19.4428	-87.4995		82.4018
19.6233	-91.6086		80.7575
24.3306	-85.6581		79.1864
19.2806	-82.9424		83.3012
3.13411	-81.17		89.3138
6.33344	-80.7122		88.8288
3.30986	-76.5934		89.0238
0.074365	-81.4941		89.4162
2.98747	-85.5052		89.26
10.4375	-96.921		82.394
10.706	-100.031		78.8937
14.9963	-96.3655		80.6753
6.47861	-97.1318		83.5773
11.2563	-102.381		74.7864
6.99057	-103.145		75.4763
11.272	-104.447		69.9855
15.959	3.439		81.8711
16.5074	-0.511427		84.0838
18.3278	1.63677		80.2609
15.434	7.25739		79.5834
13.6434	5.6065		83.8448
48.0174	-25.483		73.292
53.7618	-26.3615		67.9393
47.1569	-20.2459		73.346
41.9922	-24.2676		77.2748
48.5526	-30.5009		73.0622
57.5547	-16.2502		62.2003
61.9555	-16.0412		55.8093
56.058	-10.6911		62.723
51.9678	-15.3431		68.2564
58.4487	-21.7707		61.8928
66.5822	3.93342		42.878
68.8663	3.26188		37.9986
66.0809	11.9158		42.0788
64.0552	5.38677		46.9339
49.0225	-35.4552		72.1844
49.2574	-40.6226		71.2031
54.2527	-36.8367		66.5598
43.6626	-34.1513		76.5617
2.40477	3.95309		99.9946
2.07381	9.26751		96.3885
0.677598	4.2653		100.095
2.59063	-0.309061		103.133
4.3307	3.42825		99.317
29.7581	69.5143		69.8136
24.5663	70.1543		71.998
28.6932	63.1247		74.0735
35.3746	68.3021		66.8873
30.9326	75.4535		65.54
2.36623	-108.434		65.6288
1.67471	-111.199		59.7212
6.15631	-107.918		65.1307
3.04119	-105.913		71.1549
-1.17558	-108.714		65.7727
65.3689	-50.3282		43.2945
62.2329	-50.1776		50.3271
64.161	-56.4503		42.8728
66.1276	-44.388		43.912
2.92913	-97.5149		84.0329
2.93757	-93.7639		86.7414
-0.304593	-97.9516		83.9377
3.10807	-101.019		80.0454
3.27805	-103.645		75.7547
-0.221434	-103.968		75.7307
40.417	-85.1041		60.7641
35.0418	-87.3886		66.3602
39.6744	-88.2237		58.2003
45.8098	-82.0692		55.6706
40.5899	-81.507		63.6404
46.5986	-90.758		36.626
44.3815	-94.8573		32.3815
51.0475	-87.5565		31.3055
48.5049	-87.2481		40.6488
41.1799	-94.2142		42.0857
0.618971	-114.421		54.1522
3.82404	-114.295		53.5123
-2.39946	-114.554		54.2836
0.00436167	-118.315		50.2498
7.32955	-4.73921		103.293
7.78015	-7.59455		105.393
9.99672	-5.6753		100.558
6.96484	-1.44887		100.785
4.85731	-4.08331		104.946
25.5499	-17.5317		82.4039
29.6985	-20.0401		81.303
23.8706	-12.631		82.343
22.0017	-14.5171		83.961
30.2085	-54.2734		77.7564
32.2537	-53.9429		77.5013
12.8588	-23.1233		93.5005
14.121	-21.8071		93.5585
12.3319	-24.0619		93.0839
14.4795	-23.1148		91.8758
12.7023	-27.2164		91.5752
13.3122	-28.7332		91.3515
14.9193	-27.1924		89.7738
12.4708	-26.2189		91.8163
10.8303	-26.8296		93.0815
2.24179	-24.082		100.687
2.32061	-23.2451		102.282
0.63097	-24.1446		100.845
2.26591	-24.9772		99.4408
3.95937	-23.9302		99.8825
17.2617	-26.3071		88.0366
19.5029	-24.7199		86.4184
16.7803	-25.2342		88.4379
17.9473	-27.8767		87.8842
8.0893	-15.7052		107.353
5.50885	-16.1599		109.471
7.81595	-17.5538		106.267
10.6711	-15.4918		104.128
8.23662	-14.0933		107.812
26.6709	-66.8906		79.5786
30.2163	-64.8469		77.4746
25.5829	-63.7512		80.5533
22.5974	-68.5675		82.1506
27.6383	-70.568		78.6153
30.7345	-48.0122		81.5757
29.7763	-44.163		83.7624
28.362	-47.3188		83.4436
32.8802	-48.6301		80.1625
2.71862	-29.2232		97.1124
3.09325	-31.6562		96.6846
4.55111	-29.0503		96.7481
2.43086	-27.233		97.7844
0.600368	-29.2911		97.169
6.54711	2.5781		97.881
9.10306	1.29703		95.4865
6.25578	7.16819		94.6522
18.3808	-15.3702		89.5953
17.5228	-13.7954		91.6829
17.7291	-14.7665		91.568
18.6239	-16.8398		88.8027
18.7762	-14.924		88.3791
5.64045	-25.5698		97.1984
5.56719	-27.0592		96.685
7.18316	-25.9217		96.0122
5.5956	-24.6189		97.8015
4.09501	-25.6931		98.0105
5.42304	-23.8788		98.7673
5.41639	-23.0429		100.121
16.939	-13.9902		93.6014
16.6864	-13.152		93.879
17.3766	-15.5443		92.6038
18.5885	-19.3914		88.1286
17.885	-18.2878		90.1017
17.8586	-21.8215		88.2964
4.20114	-41.4241		96.6314
4.5251	-43.655		96.8193
6.79305	-40.5595		96.3993
3.97501	-38.0068		96.4292
1.56571	-42.1197		96.7038
24.77	-30.3681		84.9649
22.1852	-30.4097		86.2911
26.8514	-34.9753		85.2341
27.1465	-30.5438		84.0046
22.6927	-25.9747		84.8083
10.0948	-65.9741		89.0656
10.1011	-63.8869		89.8958
6.63119	-66.3869		89.7467
10.0877	-68.6792		88.2973
13.9319	-65.2813		87.8205
26.1448	-49.8374		83.3404
26.5048	-50.512		82.4208
28.6462	-51.1317		80.1012
25.9827	-48.2479		84.7893
16.4711	-12.5401		93.7776
16.5543	-11.7569		92.5203
15.1219	-11.6076		96.2036
17.7922	-64.2036		86.021
18.0156	-66.699		85.2824
21.2766	-63.0083		83.8564
17.4957	-62.2285		86.7949
3.68667	-66.5977		90.0346
0.982054	-66.5667		90.178
3.68619	-69.007		89.3373
3.57741	-64.5608		90.9421
58.14	29.8956		58.1912
57.0887	28.7618		60.1891
60.1867	24.5902		53.1051
59.0106	31.3753		55.9601
39.5867	54.7707		70.9112
33.5436	56.1148		75.1615
39.4836	49.2891		74.2608
45.7577	52.6695		66.0323
40.5436	60.6374		66.8683
51.6865	49.9843		60.1541
50.74	45.0934		64.3539
57.1495	46.6611		53.1833
52.7969	55.6326		55.7583
40.4039	41.1528		77.5465
40.0322	43.7237		76.8417
34.6995	41.8564		82.1775
40.8396	38.6842		77.7539
60.4116	33.1171		52.3126
61.3604	36.3933		48.9369
55.5193	38.2366		60.6966
63.3918	27.0335		46.1928
22.5032	30.4709		83.8508
23.5403	29.6932		81.8081
26.5515	31.3755		82.8312
21.859	31.9587		86.0624
19.5362	29.5482		84.0563
6.56353	16.3822		88.4801
9.16445	14.61		85.396
6.65687	18.0974		87.7191
3.64473	17.6307		90.6415
6.38034	14.165		89.8157
29.6008	-3.00997		76.4528
31.3266	-7.36244		77.5031
36.2366	-4.43824		74.66
27.7836	0.751927		75.685
23.7747	-1.45146		78.1423
55.8535	7.54508		56.3806
58.2494	6.42698		54.1815
56.8358	11.8806		55.0083
53.5357	9.17109		58.3259
53.631	4.30233		59.613
6.23762	11.1566		91.8363
8.87485	9.34326		89.3894
3.78338	12.573		93.301
41.209	36.5623		77.7138
44.8161	35.996		75.2458
36.3038	36.3068		80.7827
41.0821	34.6498		77.5988
48.4068	34.5566		72.1745
47.7996	32.5818		72.6981
52.879	31.3151		67.0762
53.5162	17.0327		59.3931
53.5921	21.1884		61.5495
51.7308	17.3778		61.1131
52.89	13.3911		58.8649
55.1629	16.9893		57.7274
43.0671	23.871		69.8093
44.3433	22.3127		68.2629
41.4543	25.1323		71.2074
39.5667	26.1775		72.2826
37.3652	26.8021		72.8744
39.6586	26.7746		72.8274
37.0614	27.3522		73.4256
41.7414	25.7618		71.6982
34.5603	27.0987		73.1723
31.643	26.8427		73.2085
34.1764	27.5955		73.717
31.0567	27.2336		73.6878
28.6665	25.9599		72.9366
25.924	24.6707		72.4505
23.0621	23.1427		71.9029
20.6397	21.5826		71.3804
21.8958	23.5396		72.3665
19.6331	21.9825		71.8276
24.7708	24.9921		72.8932
18.9536	20.1484		70.9837
20.7805	23.7356		72.9137
23.8147	25.3898		73.5971
33.8625	28.1863		74.5174
30.4975	27.7303		74.4575
47.071	16.9487		64.4167
47.4839	17.9666		64.3687
46.0135	16.1635		65.1205
31.366	32.2492		81.2222
36.4874	32.9285		79.204
31.1171	33.4891		82.4985
31.7046	31.2176		79.7206
45.8914	27.6531		72.0558
45.3043	26.4159		71.4545
46.5664	29.184		72.5711
43.3988	29.1082		74.1537
36.9457	9.883		71.4217
41.9935	10.202		68.8535
30.4679	10.1583		73.0803
37.4254	8.07232		71.3446
25.0489	10.857		73.2501
21.2741	12.1712		72.8999
25.06	9.19109		73.6945
17.827	15.3125		72.0918
17.3578	16.2446		71.8239
18.6532	14.4242		72.2455
36.16	13.3151		71.5168
40.7544	13.6696		69.5478
30.4799	13.3435		72.6913
20.2672	15.3874		71.247
21.9863	14.6267		71.7345
19.4239	15.8544		70.9902
18.7996	16.263		70.8863
