1821
53.7969	18.7844		60.7865
28.8878	7.62154		70.7221
48.1608	34.1693		73.2903
57.0839	29.2167		63.9992
9.03005	-21.2788		94.8671
6.69771	-22.8829		95.693
9.32856	-23.8512		92.2504
8.10182	-18.6366		100.408
12.1013	-18.8691		94.5363
14.5858	-11.5205		97.1516
16.2817	-12.6974		92.9584
15.0733	-9.86471		95.6177
65.0651	82.6658		4.43722
70.171	70.6414		9.79793
28.907	-52.3751		74.3278
28.481	-48.6843		74.3999
-16.4882	-103.62		80.0979
-25.2222	-100.642		72.5234
-18.6801	-106.03		69.1416
-65.3735	-0.531442		46.9217
-69.7666	-5.27346		38.7796
-62.1551	-9.66958		53.0124
-58.1867	1.03633		55.1689
-11.8727	31.8986		86.0566
-16.1014	34.4204		86.1635
-49.3049	19.4437		62.783
-44.2806	8.05035		65.8964
-9.2262	19.346		82.946
-9.52896	22.9319		82.0224
-11.0485	21.1689		78.9788
-15.5661	21.9315		72.3269
-14.642	18.9469		73.1928
-18.0138	14.7669		71.3523
-17.5439	11.2662		73.2852
-13.9722	15.2227		75.7633
-27.5958	-49.8501		76.6853
-27.4143	-49.7892		75.8235
-24.635	-49.1744		78.5815
-27.7088	-48.9238		77.5563
-24.229	-47.6617		81.6018
-28.5189	-47.2887		78.6602
-32.1971	-48.3425		76.958
-27.5251	-50.2172		75.797
-20.7318	-56.5799		85.3111
-26.152	-52.5515		78.4817
-17.0089	-40.8267		90.4995
-22.348	-43.5321		85.9409
-25.0393	-50.1896		78.3198
-25.0494	-50.0673		78.0229
-81.1829	-27.5125		-5.03618
-81.4012	-35.8284		-11.4402
-79.5643	-37.1911		-10.2806
-87.5649	-20.8613		-20.7811
-89.3083	-23.6125		-23.01
-88.7954	-16.8689		-25.1351
-84.3372	-32.4855		-11.3239
-82.9706	-27.063		-7.49576
-84.1186	6.32907		-9.63474
-92.3839	14.284		-20.5798
-92.7162	16.5157		-19.083
-83.5813	-14.0708		-13.9992
-83.6437	-18.1363		-14.5758
-87.2149	-0.85956		-13.3151
-88.3722	3.64788		-13.7731
-88.1197	0.54849		-16.9536
-87.2423	-3.69659		-18.8816
-92.8667	-10.1459		-33.7924
-81.0597	-30.8853		-29.605
-81.1234	-35.4917		-24.4669
-93.6037	-4.66137		-32.5678
-93.8792	-1.82128		-35.4725
-90.127	-19.0587		-27.5987
-82.0007	-21.9371		-5.46808
-81.2457	-18.4409		-3.06701
-82.0801	-11.2748		-3.71104
-83.2184	-10.8945		-6.10385
-82.3393	-16.7506		-5.22759
-86.874	-23.5408		-16.2465
-85.7504	-5.8311		-14.8954
-93.9692	7.62093		-32.7663
-93.7188	6.00352		-31.6845
-93.8091	0.21977		-32.2526
-93.4938	3.75517		-30.4286
-90.6684	9.45675		-20.0225
-93.1399	9.01144		-28.1411
-93.6473	11.2356		-28.9824
-92.3785	6.0965		-26.5568
-31.5942	-100.643		56.1854
-75.2688	-46.4937		-9.2748
-74.7029	-46.802		2.03926
-76.9499	-41.3538		-6.8892
-7.58646	25.1779		85.1334
-18.0791	-48.7982		84.1166
-17.7043	-47.2782		86.9159
-69.2325	-65.5153		-2.9031
-68.4897	-69.7375		-16.1647
-66.5431	-73.3201		-5.52376
-78.5052	-8.90155		7.85186
-80.442	-10.1073		0.506575
-66.6216	-79.3876		-18.9093
-67.4492	-66.9556		-28.7904
-64.3569	-121.164		-23.1566
-62.3686	-114.347		-36.302
-25.3355	-51.5029		78.7988
-25.2062	-50.596		78.5009
-28.524	-49.9445		76.487
-29.3037	-50.4868		76.4175
-20.1613	-54.6537		85.763
-19.7161	-53.0099		85.6607
-35.1965	-96.017		60.3662
-43.7646	-59.6983		-73.4984
-53.4897	-63.3852		-59.0611
-51.6828	-54.5288		-66.278
-61.7309	74.3675		28.0255
-52.0232	76.8712		43.7842
-53.2464	86.3602		28.9582
-93.7237	-1.22244		-39.0647
-92.3136	-0.931295		-40.5721
-92.3264	-12.2308		-35.4335
-91.1584	-12.7394		-37.2681
-88.975	-22.0031		-32.2174
-90.2148	-20.7007		-29.4624
-85.2342	-2.05301		-8.32375
-83.5023	-20.9884		-8.1228
-89.2061	-11.8728		-38.9449
-82.9988	10.4197		-13.3095
-82.0798	3.35512		-5.60895
-84.903	-18.804		-36.6946
-85.3292	-35.1221		-21.8717
-88.3346	-30.3613		-19.976
-89.2924	-26.3329		-25.0481
-87.1059	-29.4125		-27.9948
-87.178	-30.8968		-15.3504
-88.2962	-26.947		-17.3815
-78.8972	-38.8881		-20.222
-84.7351	-35.7235		-16.2045
-82.0645	-37.7396		-17.4382
-86.2389	-24.5962		-13.4358
-85.2545	-27.7213		-11.0467
-89.9176	13.1103		-13.2707
-87.1351	6.98906		-10.6431
-94.6918	9.97097		-34.1499
-94.2442	4.44557		-36.4735
-90.2654	12.2187		-14.0333
-89.6702	9.55661		-15.1238
-88.9739	7.20392		-12.9694
-94.1039	15.935		-27.4379
-93.723	14.1951		-27.029
-92.6703	-5.4773		-30.5956
-89.6566	7.45978		-17.8548
-91.4234	2.6232		-25.4452
-90.9794	-10.6323		-29.2269
-83.4719	-16.3438		-11.6253
-84.0419	-19.968		-12.2451
-84.1697	-12.1193		-11.8465
-84.2786	-11.6576		-9.84823
-86.1464	-2.41433		-9.98876
-86.1342	-4.16428		-12.3661
-88.7372	4.06312		-16.128
-56.6249	-50.9038		-60.1584
-24.5564	-23.6865		80.8805
-22.4931	-15.4498		80.9011
-30.6146	-23.9283		78.7399
-18.1447	-21.3213		84.477
-19.101	-14.9062		84.5486
-54.361	14.8337		57.7241
-54.8946	20.2297		60.3644
-31.711	8.51388		70.6254
-57.3805	31.5925		64.4482
-47.7594	36.7178		73.9006
-5.66516	-20.7737		98.289
-8.91078	-20.9173		94.5808
-6.50963	-22.5276		95.5169
-7.43348	-18.1551		100.143
-14.0537	-10.9221		96.5707
-14.6234	-9.3523		94.9876
-16.0811	-12.1902		92.3791
-64.323	83.0218		3.72596
-69.5652	70.9878		9.12712
-28.2664	-52.3833		73.9024
-27.9485	-48.6853		74.0924
-11.9765	-18.3805		94.1865
6.20397	-21.0886		98.5273
-9.51707	-23.5612		92.0662
81.183	-36.7126		-24.1401
81.2609	-31.9914		-29.2662
73.0498	-40.6413		20.5417
71.9161	-51.299		18.4657
75.6458	-38.7011		6.33317
62.3332	-105.979		-11.8567
57.6962	-108.268		-3.13502
59.639	-142.608		-6.05606
63.4726	-138.598		-15.8129
62.7019	-125.667		-13.2964
58.2344	-129.265		-4.14648
58.5268	-94.9535		-1.62245
52.1397	-98.2487		8.56075
50.5677	-111.587		6.45319
64.4314	-103.653		-21.059
65.2327	-90.8361		-20.2259
62.893	-93.2508		-10.809
69.9571	-60.8777		15.8488
65.9412	-65.6874		32.0039
63.5367	-73.7154		27.1526
66.8103	-69.7692		12.1338
77.5812	38.9063		8.45902
70.3648	42.6026		30.7171
68.4552	28.145		38.9769
76.7059	23.8607		15.1421
80.4743	32.5322		-33.2305
77.1152	45.5679		-43.5653
78.5108	51.3977		-22.7852
80.5985	36.6911		-13.5719
3.14315	-115.558		50.3082
4.48931	-126.161		44.7759
11.5529	-125.185		41.8858
11.542	-115.152		47.929
6.44606	-146.519		34.5698
14.6287	-145.356		31.9648
7.80425	-158.242		29.4471
-0.590869	-146.771		35.3214
-0.507861	-158.514		30.2709
73.4337	-40.2675		-34.1608
71.8441	-52.9521		-25.7735
67.3709	-51.7483		-39.8847
68.5118	-39.9775		-45.9323
75.286	-31.0592		-38.7649
64.5421	-134.448		-26.6787
62.1048	-129.801		-39.5661
-1.41125	-126.371		45.584
68.9903	-43.1395		35.1916
67.8306	-55.5157		33.9851
71.4192	-58.2416		0.0885814
7.49547	-89.2746		93.6684
8.23256	-97.8373		91.1523
16.8771	-97.5368		87.3253
16.1105	-88.0767		90.1336
25.8388	-94.0575		80.9791
25.6133	-84.946		83.212
6.21256	-78.3894		92.5941
-0.860371	-78.8818		93.221
-0.231545	-89.543		94.5673
7.93724	-104.905		84.1462
7.60905	-108.566		73.8549
13.2763	3.62192		85.4107
18.2581	-1.01954		79.6625
16.2426	6.74		75.9417
12.3938	10.3201		79.9546
52.9812	-33.0365		65.0525
52.1166	-23.7416		65.2814
38.7354	-20.5253		74.6236
41.2642	-29.8986		74.7281
62.5874	-23.1529		51.8229
49.6733	-12.9351		65.1211
70.4337	11.1508		35.3248
66.0807	11.1834		43.6768
42.8899	-38.6576		73.744
53.9529	-41.6885		63.2353
4.0751	11.9582		95.8029
0.662654	13.1939		96.3918
1.3017	4.18809		103.806
4.92502	3.25134		102.963
26.9551	73.3769		69.3126
25.2647	60.0237		77.837
35.8532	57.9556		72.7243
37.9728	70.2952		64.2302
-0.864051	-111.363		60.7911
6.2816	-110.989		60.0576
-0.386688	-109.218		74.2478
63.1126	-43.2361		49.2187
61.7111	-56.0463		48.3708
0.199976	-98.6445		91.8174
-0.147913	-105.399		84.7368
36.4259	-87.9365		69.6086
46.572	-87.2662		52.6249
47.0939	-80.2163		59.0455
39.2277	-99.8238		36.4353
48.3464	-93.9904		25.1377
54.0391	-85.4789		34.1606
44.1373	-92.6344		45.9947
-3.24842	-115.324		50.5504
5.46427	-3.35495		108.677
10.4611	-4.99516		103.272
9.57316	0.741274		98.4445
26.5456	-13.5888		78.2232
19.7101	-9.12568		82.2158
31.529	-52.1151		76.6424
13.5671	-20.1307		91.1061
12.6714	-22.4841		89.7066
9.73437	-26.6547		91.6994
13.6967	-26.766		87.9968
12.8302	-24.6934		88.4122
3.73975	-21.1782		101.389
0.561947	-21.2644		102.712
0.456461	-23.4924		99.3308
3.78292	-23.1169		98.3849
18.4111	-25.3612		84.3184
5.83362	-10.7503		111.542
5.5618	-14.5162		109.711
10.0827	-14.2875		103.676
10.8143	-10.6856		105.185
32.7141	-68.7545		77.3539
29.8435	-60.3035		78.7935
22.7294	-65.1371		84.4278
24.2495	-73.8069		83.8084
31.2444	-41.9658		80.1783
26.355	-40.164		83.1618
0.150003	-30.0844		96.0382
4.23031	-29.6123		95.5791
3.83143	-25.5288		96.7072
0.391253	-25.898		97.4579
8.66695	8.3055		92.1884
17.1298	-11.3682		88.8896
16.7669	-11.7577		91.0633
17.1041	-14.3463		89.323
6.29392	-25.7639		94.936
16.0219	-18.9623		88.1665
-0.75579	-40.8701		95.8548
5.18838	-39.4756		95.4667
4.61995	-34.5751		95.1801
-0.485693	-35.6591		95.4794
22.7969	-32.1816		84.0795
27.7292	-33.2646		81.7353
14.3932	-62.5236		89.8889
6.08683	-63.9331		92.3444
5.93493	-69.2875		91.4764
14.263	-68.0699		89.1718
23.2355	-45.9629		84.3039
28.341	-48.2075		78.4131
14.641	-7.94222		94.7016
21.4934	-60.3823		85.4257
-0.559625	-64.4351		92.6888
-0.801847	-69.321		91.8119
61.1854	21.6011		54.2469
64.3289	24.2138		49.01
58.08	33.0644		61.665
35.0581	47.3477		79.4591
47.268	43.938		69.9357
48.3303	53.9014		63.5397
58.9203	38.1678		57.6013
60.2693	48.7375		49.9433
47.5889	38.9278		72.2322
35.4084	41.7055		82.0819
20.2769	27.9843		80.9618
27.5086	28.5992		80.1021
26.7947	30.6398		84.0228
19.3289	29.6076		84.8228
8.5137	14.7991		86.3306
4.23163	22.9355		88.6163
3.80208	18.8095		90.9242
24.0867	-4.64206		76.3857
36.0854	-10.108		72.7489
32.9965	-1.2546		70.9001
21.1584	3.39829		73.9049
61.1896	10.4533		49.9368
56.5159	11.593		54.6097
52.6053	5.18365		57.8402
47.774	30.1578		73.5914
37.2263	35.6969		81.0498
37.8423	31.3706		79.2378
55.13	25.8323		65.699
57.7221	19.9231		58.0598
46.999	17.9245		63.5279
37.402	28.9394		77.5236
48.2048	21.9433		67.414
43.6364	25.3884		72.5569
14.9807	26.449		79.5758
11.5952	23.3346		78.2936
14.8676	23.1367		73.3473
-0.22102	34.4994		89.2793
-0.00494437	30.8811		88.6812
5.2743	29.6422		88.0148
7.29514	33.2173		88.956
19.6489	8.05991		72.2007
10.8892	25.8594		82.2235
19.0645	10.8754		71.3001
17.8845	-48.9004		83.5762
25.1353	-49.3354		78.0652
5.77373	-44.6157		94.823
5.68064	-41.8307		95.4766
-0.783204	-43.0993		95.9514
-0.789807	-45.4262		95.4504
11.1392	-44.3015		93.0664
5.45144	-46.7195		93.5971
11.0652	-46.5606		91.607
17.2363	-45.0001		89.2137
10.7394	-41.9107		93.929
16.9484	-42.834		90.2797
4.25531	-48.0612		91.9908
10.8489	-48.0438		89.6272
29.385	-49.6316		76.9124
18.116	-50.2634		84.5712
18.4063	-50.7097		85.3451
19.0064	-52.019		86.1732
12.2274	-52.4399		91.357
13.0718	-54.4532		91.6984
4.84891	-52.7114		94.084
11.2427	-50.3949		90.4428
4.25542	-50.3467		92.8537
-0.37736	-55.3444		95.2576
5.44483	-55.0657		94.6429
-0.448605	-52.9854		94.671
25.6264	-50.3856		77.9643
-0.579742	-49.8234		90.6375
4.04812	-49.7968		90.222
-0.336065	-57.7552		95.1664
5.97815	-57.3838		94.5557
6.23164	-59.7993		93.8319
-0.371547	-60.3891		94.3221
9.21746	-39.7829		94.4991
-0.562646	-50.5728		93.3344
4.13282	-49.6104		91.9316
-0.605653	-49.7594		92.2809
10.8398	-49.6754		89.5777
14.1827	-58.769		90.9858
13.7332	-56.5567		91.5764
10.7263	-48.0945		88.0719
10.7194	-49.9135		88.0367
10.5778	-46.4285		86.1186
16.1864	-47.1886		83.3149
25.6977	-52.46		77.3288
4.26672	-51.8582		87.9733
-0.44406	-51.8461		88.2677
4.14975	-48.0322		90.1586
5.20971	-46.0339		87.4307
11.1706	-51.8853		86.0359
26.4731	-43.0134		73.9866
29.9625	-47.9813		71.4305
9.77	-39.9489		83.8899
14.969	-40.5953		81.6205
28.4956	-60.2119		74.7381
24.1964	-60.7293		78.2284
4.80148	-39.5439		84.9462
10.9458	-59.5904		84.6875
4.65003	-59.3764		86.4398
30.5919	-55.8849		71.9046
83.2414	-12.698		-40.8917
79.7366	-12.4647		-45.873
81.1148	-2.60655		-46.7128
84.3643	-3.95341		-41.7145
82.4123	2.80336		-5.37566
83.4381	9.85977		-12.9868
80.9728	20.5279		-6.85927
80.1146	5.44779		1.8796
82.1398	19.7374		-25.2531
83.0415	11.9412		-21.2249
80.2514	-26.7539		-34.4386
78.4103	-33.6985		-30.3336
77.4668	-22.1784		-43.026
81.9154	-20.0874		-38.0592
87.0962	-2.04955		-40.372
86.5548	-12.518		-39.3038
85.4534	-29.87		-29.5963
87.7594	-21.753		-34.1822
82.7299	-37.587		-22.7273
80.3998	-39.3799		-19.5232
83.0934	-34.0265		-10.7142
92.4727	-12.3149		-30.7206
94.6119	1.77141		-34.8091
87.758	-21.9416		-20.3932
79.6023	-19.8858		1.72459
78.7366	-28.1524		0.772293
83.7902	-17.517		-9.26611
84.1299	-21.5201		-9.75131
82.9728	11.28		-19.8737
91.015	-2.20177		-40.6214
92.6237	18.6082		-19.3087
90.9104	19.6507		-21.4149
89.6142	18.6745		-23.6487
95.5869	9.14364		-34.5935
90.1385	8.90841		-14.6886
88.048	3.38933		-10.8274
93.5121	-2.91956		-29.6499
93.2088	-0.166019		-28.3239
84.7614	5.79655		-38.4186
86.7353	8.36157		-35.2895
83.325	-26.0409		-32.9069
89.0976	-8.25537		-23.8545
85.3108	12.4928		-28.3536
84.4535	11.4675		-30.8851
92.3834	10.9931		-21.1755
0.0395231	76.0556		72.942
15.0729	75.2736		71.9617
16.1265	90.0584		59.2298
0.149708	91.6924		59.5263
-0.130781	60.8071		82.1183
13.7369	60.3064		80.9891
23.7182	48.1729		84.7112
4.46383	-18.69		105.368
0.799265	-18.4454		107.542
5.85104	-7.34912		111.101
0.874246	-7.1906		112.726
0.891346	-10.8278		113.298
0.91224	-14.4648		111.769
1.01141	-2.8529		109.913
-0.286444	47.6223		88.8964
0.00142317	42.6191		90.3127
12.2678	39.3866		88.931
12.2769	47.2467		87.1772
0.347476	19.8688		91.7368
0.496186	24.1947		89.5178
4.52594	26.6134		87.7893
0.33973	27.6773		88.6406
-0.596847	-48.1919		90.5802
-0.531665	-45.8652		87.7048
-0.635051	-48.3008		92.3612
-0.75473	-47.059		94.3401
-0.460437	-39.42		85.1671
28.7029	86.5988		57.5824
24.2296	41.8245		86.9357
26.0087	34.0662		86.4164
28.4939	27.2799		76.149
20.8067	26.0095		75.3823
42.2267	95.0284		33.7755
40.0353	81.9815		53.2359
36.6211	27.2958		75.5869
50.4027	65.4409		54.9746
46.2757	27.1927		73.2067
61.8583	61.1311		40.3986
52.3726	23.4274		66.5769
14.2687	28.3041		83.5098
71.6367	-58.2321		-13.6217
82.3115	15.2153		-37.0903
79.2696	24.307		-48.6929
74.4542	-14.4722		-56.4911
76.689	-0.639753		-58.7518
77.9896	12.8567		-56.9019
81.8952	7.58721		-44.0708
71.2072	-27.6019		-51.9617
14.9292	-109.487		57.237
28.2529	-105.028		48.3551
56.8632	-78.9069		41.5697
71.4388	56.8042		20.7097
30.1379	101.853		36.1519
16.4951	106.436		36.9114
57.3666	-70.2094		49.0777
7.90048	-35.045		94.3632
20.2408	-37.755		87.3602
6.92615	-29.9503		94.4208
13.5555	-36.1744		91.6817
11.3081	-31.2222		91.726
36.3189	-50.7166		75.8315
36.0433	-43.9228		77.42
76.3372	-43.2435		-21.2529
76.7083	-29.7794		8.31642
77.6485	-20.6786		9.11101
76.2051	8.53508		18.5438
75.4428	-6.55109		21.6632
49.9636	9.28008		59.7274
74.7094	-19.2756		22.1509
73.8892	-30.1095		21.6029
14.2892	-3.59203		90.3479
14.1012	-14.9887		95.9253
15.6409	-16.8472		91.3506
33.5816	-35.1331		79.1036
53.1577	-52.2547		62.3099
43.6341	-47.661		72.2991
50.2344	-62.6807		63.0936
63.2091	-32.8966		50.4771
44.0483	-71.4814		67.0241
35.6073	-78.9025		73.821
46.7533	-3.6607		64.5856
44.1252	2.18441		64.9917
42.2304	-55.8326		72.1289
38.6365	-62.4808		73.6264
14.8699	-76.9189		89.5594
30.579	3.94309		70.493
10.9356	-8.00453		104.87
69.8937	-20.0774		36.8878
69.6138	-31.5493		35.893
8.82673	27.7249		85.678
16.9269	-31.7099		87.7442
22.7446	-47.7921		78.8349
20.8606	-41.4261		78.026
34.8575	-139.956		20.1238
36.937	-152.993		16.9739
46.0345	-149.978		10.4618
43.833	-136.313		12.7377
44.7468	-103.373		17.7135
36.1391	-108.292		27.7336
33.6206	-119.668		24.8195
42.6079	-115.807		15.4617
34.1736	-55.4793		76.1402
55.2396	-88.952		13.4941
59.8309	-80.8695		20.5721
51.471	-132.764		4.92485
53.6666	-146.503		2.8549
63.376	-77.2439		7.08699
64.0188	-83.4715		-8.58748
60.3674	-85.3723		1.74837
62.8157	-97.4558		-34.6611
77.9591	-34.7496		-1.52299
64.4357	-81.1764		-32.9771
56.7503	-125.161		-52.6583
56.4548	-108.318		-50.5154
24.6759	-142.847		26.9688
26.8972	-155.471		22.5326
24.4343	-112.477		39.8069
22.2197	-122.982		35.0207
28.2666	-55.4228		78.7343
18.0632	-50.4932		83.4284
18.4612	-52.2013		82.2125
16.8661	-157.255		26.8386
17.9192	-60.1771		81.7634
77.3067	53.744		-1.03912
51.2029	-82.4625		-58.8103
57.2471	-88.5056		-48.4206
49.9239	-103.535		-60.7897
49.8608	-121.23		-63.3946
60.0995	-67.2243		-47.2543
30.5259	113.432		7.08727
16.1718	118.546		6.81691
16.4464	112.055		-64.1945
31.1135	108.109		-60.9358
29.6852	89.2033		-89.7323
15.4524	92.0788		-93.4094
28.5915	64.5644		-106.374
15.2474	66.7897		-110.011
31.0924	116.289		-26.7133
16.4363	121.099		-28.6339
0.703686	122.738		-29.2944
0.47007	120.352		6.4226
27.6306	38.3356		-114.465
14.9729	40.4787		-118.088
26.5149	10.7299		-116.173
13.971	12.4042		-120.14
24.8148	-15.1553		-110.974
23.1925	-38.953		-98.5802
12.1347	-38.4711		-101.089
12.9717	-13.6108		-115.028
0.816544	-12.9914		-116.467
0.940057	12.8819		-121.516
10.7564	-75.366		-84.7495
21.6389	-76.8145		-82.3307
20.5595	-95.7642		-81.3948
10.37	-94.547		-83.1609
10.2718	-113.424		-82.6376
0.34176	-113.232		-83.0277
0.405735	-93.5935		-83.6376
23.0253	-57.1926		-87.9208
11.8361	-55.2365		-90.8192
0.543256	-55.2578		-91.2349
0.461793	-75.0127		-85.3136
55.5343	94.7468		4.8466
43.6885	105.335		6.44537
53.8343	77.4081		-75.9719
53.1461	55.8032		-91.568
41.8089	60.7178		-99.8747
42.6029	84.2941		-83.6841
43.5516	101.727		-56.436
54.8641	92.3927		-51.0397
56.4596	97.1668		-23.3741
44.5625	108.163		-24.9269
51.7635	31.9604		-99.7008
40.5752	35.3993		-107.94
49.5637	7.25682		-101.57
38.9095	8.88287		-109.704
46.4436	-17.4771		-96.9188
36.6614	-16.6925		-104.554
45.3825	-40.5347		-84.6528
34.8864	-40.315		-92.6762
34.2903	-59.1178		-82.1113
40.8228	-99.3653		-70.7191
31.0008	-97.5317		-77.4296
32.8205	-78.1902		-77.1364
42.8429	-79.2489		-69.19
30.8136	-115.351		-78.1689
20.3902	-114.006		-81.3256
64.8732	80.3835		-44.1648
73.2309	66.1913		-34.0146
71.2947	57.8813		-55.4855
63.232	68.6839		-66.9671
73.8155	68.8061		-11.9731
66.3991	83.8695		-20.1415
62.3252	49.8018		-82.1097
60.9038	28.0053		-90.2737
59.0772	5.08647		-91.2748
55.4926	-18.0732		-86.7716
53.3728	-39.1118		-76.211
75.417	33.4229		-59.7708
63.0228	-17.7332		-76.2062
66.3115	3.0108		-80.858
72.2693	1.0365		-69.6314
69.2476	-16.2982		-66.2369
67.9822	23.3065		-80.1268
73.7739	17.7051		-68.5671
69.6896	42.3265		-71.4452
59.6396	-36.3058		-68.0394
65.5426	-32.298		-59.8432
62.2151	-47.5351		-53.103
95.2201	9.86995		-35.2152
93.4101	10.5445		-36.4316
92.2997	18.6288		-28.6822
94.2037	17.4961		-27.5541
88.3689	15.0045		-15.4646
90.1289	14.1332		-13.5337
86.2517	14.3882		-18.4108
91.6707	8.98194		-37.3615
91.0958	17.2369		-29.9682
94.5864	-1.96038		-37.3499
93.4046	17.4277		-18.5551
94.8325	16.2578		-27.1223
0.271972	108.282		36.8795
0.912183	113.464		-65.2076
41.0385	-117.832		-72.1133
1.03944	92.9296		-94.6743
1.04653	67.3916		-111.256
1.02574	41.2398		-119.362
0.646496	-38.8093		-101.455
-73.6958	-39.4592		20.7726
-76.1341	-37.2645		6.27206
-72.9386	-49.3934		18.4327
-62.2996	-104.991		-12.1959
-57.5732	-107.229		-3.45012
-59.8141	-141.981		-6.59801
-58.2289	-128.481		-4.61366
-62.6734	-124.911		-13.7219
-63.5557	-137.972		-16.3018
-58.6355	-93.7331		-1.93874
-50.2097	-110.436		6.20395
-51.9611	-97.0436		8.4036
-63.0146	-92.0568		-11.1364
-65.2012	-89.7458		-20.4846
-64.3508	-102.733		-21.3554
-71.2903	-58.5907		15.4629
-68.1435	-67.7168		11.5074
-65.5141	-71.4831		24.7705
-68.1366	-62.708		29.7802
-77.1232	39.0366		8.12092
-76.3608	23.7959		15.021
-68.4686	27.8858		38.9698
-70.2068	42.7007		30.3711
-79.6282	33.1093		-33.7804
-79.9385	37.091		-14.0434
-77.6068	51.8588		-23.3838
-76.019	46.137		-44.1836
-8.8002	-114.895		49.3311
-14.8471	-114.191		46.609
-13.5083	-124.781		41.4072
-7.1582	-125.935		44.5418
-15.6384	-145.086		31.6012
-7.59791	-146.398		34.3877
-8.78968	-158.128		29.2683
-73.2152	-39.1993		-34.436
-67.0549	-50.7643		-40.1337
-71.8336	-51.6833		-26.0101
-74.9163	-30.0803		-39.0949
-68.0782	-39.0776		-46.2292
-64.5146	-133.839		-27.1265
-61.9417	-129.238		-39.971
-69.1764	-53.9687		33.0868
-70.0326	-41.7124		34.7677
-72.2206	-56.3705		-0.20362
-7.34764	-89.3854		93.4244
-15.8152	-88.2361		89.064
-16.0932	-97.6196		86.2708
-7.15065	-97.9719		90.9908
-25.7655	-85.0903		80.8589
-25.7585	-94.3075		78.3272
-7.72522	-78.4247		91.9489
-7.85271	-105.003		83.5912
-8.22888	-108.736		72.8174
-14.183	3.39923		84.7913
-13.7283	10.5644		79.6286
-18.3697	6.73754		75.4104
-20.2114	-0.911361		78.4897
-53.9858	-30.8379		64.8975
-42.6213	-28.1673		74.164
-40.5018	-19.0486		74.1807
-52.099	-21.9305		66.6341
-63.7211	-21.1223		51.7197
-50.2618	-11.7936		66.0443
-66.3343	11.217		43.9467
-70.4442	10.7176		35.5425
-43.7835	-37.1436		72.9937
-54.8942	-39.8322		62.44
-3.01334	12.0116		95.7546
-2.75641	3.48562		102.895
-26.871	74.3931		68.983
-37.972	71.5736		63.622
-36.2364	59.9405		72.3569
-25.4215	61.6227		77.9079
-7.79951	-110.977		59.5178
-64.2274	-41.5592		48.4144
-62.8758	-55.1347		46.5544
-36.4353	-89.7435		65.4371
-47.0397	-82.6312		54.933
-46.163	-89.2915		48.5455
-38.8401	-99.5768		35.0336
-43.7664	-93.6894		42.6011
-54.3479	-85.5964		31.8086
-48.0123	-93.5713		24.3082
-3.67713	-3.32151		108.536
-8.58499	0.871782		98.1084
-9.32316	-4.82277		102.803
-20.8729	-8.44178		81.2763
-28.118	-12.7976		77.59
-30.9291	-52.14		76.1822
-13.7691	-19.7804		90.7595
-13.0697	-22.1758		89.4706
-10.0417	-26.4448		91.5688
-13.3123	-24.3689		88.2775
-14.3074	-26.5438		87.8072
-2.86136	-21.0165		101.278
-3.12449	-22.9669		98.3326
-19.485	-25.0841		83.8625
-4.10389	-10.5404		111.559
-9.60114	-10.1116		104.913
-9.08611	-13.6664		103.438
-3.9134	-14.252		109.75
-32.8507	-69.1574		75.3598
-24.6247	-73.8809		81.9245
-22.8478	-65.0209		83.105
-29.4263	-60.2257		77.7711
-31.3348	-42.0438		79.944
-26.5098	-40.4092		83.0785
-3.39505	-25.414		96.6573
-4.2947	-29.8335		95.4778
-8.51315	8.17333		91.845
-17.4098	-10.9038		88.2377
-17.2994	-13.7572		88.8452
-16.7805	-11.2446		90.4174
-6.34542	-25.5277		94.7287
-16.4607	-18.4885		87.7855
-5.64955	-34.9992		95.0503
-6.51022	-39.5299		95.2956
-28.5913	-33.4067		81.4292
-23.5369	-32.3623		83.9173
-14.7662	-62.4366		89.0872
-15.1318	-68.1041		88.0629
-7.3767	-69.2962		90.9109
-6.71862	-64.0285		91.9778
-23.2864	-46.0722		84.082
-27.8816	-48.2266		78.1426
-14.3176	-7.50226		93.9579
-21.5952	-59.8694		84.3237
-58.2746	34.7947		62.1842
-64.6818	24.3611		48.8078
-61.7993	22.4951		53.9718
-48.7887	55.5664		62.7202
-47.3226	45.9554		69.909
-35.3134	49.2644		80.2225
-60.5472	49.5213		49.3707
-59.3791	39.3794		57.3715
-35.8503	44.507		82.5472
-46.9943	41.2757		72.9059
-20.6317	29.8959		80.5441
-18.4541	31.7867		84.0004
-26.3039	33.0601		82.6835
-27.9032	30.9636		79.8456
-8.96856	14.9198		85.9909
-3.46042	18.8028		90.84
-3.70528	23.1168		88.6698
-26.2516	-4.22419		75.5524
-23.6927	3.67841		73.2339
-35.299	-0.323383		70.5628
-38.2117	-8.83795		72.2565
-54.1128	6.6232		57.7465
-57.6227	12.7761		54.5299
-62.1328	11.3225		49.72
-47.6762	32.9008		74.1017
-37.3159	33.6103		79.9599
-36.9204	38.4523		82.2196
-55.4509	28.5038		66.1606
-58.6319	21.1849		57.6113
-37.5818	30.9097		77.6358
-49.8992	23.9798		67.1078
-45.5299	27.3477		72.1079
-12.8796	24.4537		77.9323
-16.0298	27.6802		79.009
-17.7929	25.0201		73.2846
-7.63775	34.1247		87.9288
-5.58572	30.1068		87.5235
-22.1165	8.48808		71.857
-11.5669	26.6728		81.768
-21.6862	11.6032		71.0678
-18.0034	-48.8275		82.9384
-24.5426	-49.3285		77.7838
-7.03998	-44.5199		94.627
-6.98353	-41.7898		95.2762
-12.2357	-44.2467		92.6825
-12.0096	-46.5027		91.1982
-6.69509	-46.6925		93.368
-17.9661	-45.036		88.74
-11.9671	-41.8772		93.5391
-17.87	-42.9168		89.789
-11.5353	-48.079		89.1364
-5.40205	-48.1084		91.7515
-18.5765	-50.5184		84.6462
-18.2725	-50.1179		83.9109
-19.1489	-51.7146		85.3871
-13.4665	-54.297		91.041
-12.6294	-52.3776		90.8144
-5.50439	-52.848		93.9423
-5.26095	-50.431		92.6413
-11.8663	-50.3456		89.8859
-5.75921	-55.121		94.5261
-25.0047	-50.392		77.6905
-5.06634	-49.8248		90.0087
-5.99207	-57.4024		94.4795
-6.10587	-59.7946		93.7558
-10.4741	-39.7707		94.1802
-5.22334	-49.6601		91.7011
-11.5535	-49.7011		89.0937
-14.5346	-58.6248		90.224
-14.0797	-56.3706		90.865
-11.363	-48.13		87.5956
-11.3482	-49.9311		87.5111
-16.4781	-47.2179		82.7773
-11.2442	-46.485		85.6859
-25.0073	-52.468		76.9769
-5.05235	-51.8918		87.725
-5.21381	-48.0919		89.9593
-6.15596	-46.0963		87.2014
-11.6564	-51.854		85.4712
-26.4887	-42.9655		73.6243
-29.8277	-47.9226		70.8034
-15.4566	-40.6942		81.3276
-10.5078	-40.021		83.6396
-28.1146	-60.2613		73.6047
-23.9496	-60.6277		77.1851
-5.29312	-59.344		86.1465
-0.371711	-59.372		86.8872
-5.68031	-39.5854		84.8083
-11.3443	-59.4491		84.0641
-30.2728	-55.9584		70.9055
-82.6672	-11.8062		-41.3501
-83.7028	-3.11528		-42.2129
-80.3645	-1.80301		-47.2128
-79.0806	-11.6088		-46.3279
-79.7835	5.81295		1.74035
-80.5013	20.8905		-7.17224
-81.4964	20.3227		-25.708
-82.5042	12.5614		-21.6249
-79.9133	-25.7393		-34.7979
-78.2155	-32.5994		-30.6457
-81.453	-19.1355		-38.4706
-76.942	-21.2678		-43.4182
-86.4318	-1.20448		-40.9066
-85.9986	-11.5997		-39.8015
-85.2095	-28.7438		-30.0152
-87.3598	-20.7247		-34.6606
-82.7032	-36.3209		-23.0922
-80.4563	-38.0816		-19.8173
-92.0267	-11.3441		-31.2498
-93.9784	2.64118		-35.4252
-79.5962	-18.9749		1.64053
-78.9175	-27.0004		0.665995
-83.6925	-16.5513		-9.51596
-84.0803	-20.4727		-10.0067
-82.4555	11.8957		-20.258
-90.3483	-1.31995		-41.2161
-90.29	20.2862		-21.9625
-92.0343	19.25		-19.8565
-88.9777	19.32		-24.1923
-87.6645	4.04112		-11.1824
-94.8909	9.97206		-35.2404
-92.9896	-2.03342		-30.204
-92.6778	0.68933		-28.8751
-86.0513	9.12707		-35.8167
-84.0634	6.57065		-38.9275
-82.9967	-25.0043		-33.3009
-83.3695	-0.964568		-6.35276
-84.6767	13.1864		-28.827
-83.8025	12.1751		-31.3577
-91.8344	11.703		-21.697
-88.7123	-7.35805		-24.3086
-15.8447	90.3754		58.9879
-14.992	75.8834		71.751
-13.9503	61.4552		80.8539
-23.5666	50.1395		84.7609
-3.19204	-18.5384		105.229
-4.14519	-7.25125		111.019
-12.5827	48.4495		87.1811
-11.7511	40.8253		88.1197
-4.04369	26.854		87.7814
-28.447	87.1705		57.1249
-23.4211	43.1452		86.0314
-25.1141	36.2946		84.6184
-30.1719	29.0572		75.9921
-22.8221	27.5654		75.1658
-39.8246	82.7097		52.59
-41.7438	95.3968		33.1567
-38.319	29.1807		75.3373
-50.5072	66.5067		54.1941
-46.956	29.7819		73.3821
-61.8163	61.715		39.6786
-52.8575	25.8647		66.9773
-14.5259	29.7708		83.1846
-72.0017	-56.6849		-13.8803
-81.557	15.9031		-37.6047
-78.2943	24.9742		-49.2726
-75.7576	0.111842		-59.2853
-73.6584	-13.6794		-56.9558
-81.1032	8.33615		-44.5939
-76.9876	13.5681		-57.4726
-70.5826	-26.7681		-52.3393
-15.7823	-109.504		55.9884
-27.9644	-105.154		46.6704
-57.7037	-79.0584		38.4478
-71.061	57.0752		20.1638
-15.9795	106.577		36.6547
-29.6338	102.119		35.6915
-51.7401	19.8755		62.0617
-58.1377	-70.9519		46.0034
-9.02081	-35.3354		94.1332
-20.8752	-37.949		87.1582
-7.4283	-30.2135		94.2375
-11.991	-31.2183		91.5116
-14.5684	-36.1985		91.302
-35.9766	-43.6676		77.0589
-35.7222	-50.5826		75.3245
-76.4166	-41.9447		-21.5125
-76.9714	-28.6567		8.32381
-77.6717	-19.8721		9.15209
-75.9296	8.47628		18.5733
-75.2626	-6.3977		21.8775
-51.8607	10.735		59.382
-74.7281	-18.8451		22.5039
-74.2164	-29.3302		21.939
-14.6757	-3.52637		89.316
-15.7326	-16.3254		90.8568
-13.7086	-14.4103		95.4884
-34.3609	-34.837		78.6445
-53.9203	-51.5602		60.6391
-43.979	-47.0894		71.2941
-50.8061	-63.4133		60.4143
-64.3532	-30.8497		50.1756
-35.8731	-80.1832		70.6747
-44.3313	-73.1368		63.8384
-47.9452	-1.78081		64.802
-45.774	3.78117		65.0831
-42.4764	-55.789		70.6039
-38.5973	-62.9747		71.9017
-15.7399	-77.0306		88.2641
-33.2367	4.62766		70.2459
-9.67706	-7.60047		104.529
-70.4436	-18.9033		37.0044
-70.3535	-30.2236		35.9969
-9.37282	28.6293		85.2088
-17.5973	-31.5796		87.5311
-22.322	-47.8532		78.6053
-21.0594	-41.4952		77.7362
-35.2186	-139.324		19.5617
-43.9508	-135.565		12.1919
-46.4395	-149.422		9.86256
-37.5036	-152.521		16.409
-44.0862	-102.078		17.8423
-35.3598	-107.335		27.5732
-42.0887	-114.643		15.226
-33.2932	-118.714		24.4787
-33.478	-55.4848		75.4354
-55.6001	-87.8758		12.986
-60.9623	-79.5671		19.3357
-51.4857	-131.966		4.41655
-53.9398	-145.893		2.26537
-64.3824	-75.5507		6.46914
-60.8639	-83.9991		1.32096
-64.3611	-82.1044		-8.93041
-62.5728	-96.6451		-34.9108
-78.2735	-33.4197		-1.65991
-64.125	-80.2282		-33.2679
-56.0991	-107.738		-50.7981
-56.4392	-124.663		-53.0198
-27.6381	-155.111		22.0542
-25.3813	-142.389		26.4574
-24.6566	-111.789		38.9865
-22.869	-122.263		34.446
-27.6018	-55.3949		78.2217
-18.1327	-50.3711		82.793
-18.408	-52.0662		81.5813
-17.7581	-157.019		26.495
-17.9855	-59.9796		80.8856
-76.6611	54.0589		-1.58624
-50.6808	-81.8862		-59.0371
-49.437	-103.048		-61.0566
-56.858	-87.815		-48.6297
-49.4239	-120.804		-63.7142
-59.679	-66.4145		-47.4569
-15.2505	118.627		6.57865
-29.6379	113.595		6.64781
-14.6447	112.156		-64.3666
-13.4456	92.1803		-93.5455
-27.7034	89.4218		-90.0276
-29.384	108.307		-61.2678
-13.4542	66.8805		-110.094
-26.5968	64.7765		-106.665
-29.7612	116.458		-27.0986
-15.0452	121.184		-28.8377
-12.9908	40.582		-118.225
-25.6621	38.5331		-114.754
-12.1106	12.5065		-120.282
-24.7122	10.9306		-116.45
-23.2477	-14.9636		-111.231
-11.3575	-13.5144		-115.161
-10.8426	-38.3728		-101.198
-21.9288	-38.7546		-98.7879
-9.83761	-75.2733		-84.8189
-9.56792	-94.4587		-83.2284
-19.7845	-95.5896		-81.53
-20.7607	-76.6201		-82.4697
-9.59404	-113.345		-82.7061
-19.7313	-113.844		-81.4658
-10.7544	-55.1358		-90.9062
-21.989	-56.9862		-88.0877
-42.8416	105.575		5.86099
-54.7309	95.0603		4.16379
-52.1152	77.807		-76.4972
-40.7317	84.6044		-84.1069
-39.8757	61.0349		-100.297
-51.3631	56.2186		-92.0863
-53.3731	92.7574		-51.6018
-41.9276	102.012		-56.8973
-55.3004	97.4929		-24.0092
-43.3095	108.416		-25.4597
-50.0268	32.3756		-100.214
-38.6983	35.708		-108.358
-37.1881	9.18509		-110.11
-47.9627	7.66785		-102.062
-45.0701	-17.0659		-97.3515
-35.1819	-16.3879		-104.918
-33.7041	-40.0001		-92.9691
-44.311	-40.0977		-85.0008
-33.342	-58.7925		-82.3446
-40.1947	-98.9907		-70.9632
-42.1638	-78.8111		-69.4213
-32.0219	-77.8797		-77.3352
-30.2813	-97.2588		-77.6283
-30.1979	-115.102		-78.3771
-63.5097	80.8326		-44.8059
-61.6819	69.1619		-67.5685
-69.9445	58.423		-56.1321
-72.0289	66.7335		-34.7021
-72.9234	69.2182		-12.6302
-65.3334	84.2666		-20.8231
-59.329	28.517		-90.8484
-60.7159	50.304		-82.6971
-54.2701	-17.5471		-87.2345
-57.6393	5.60907		-91.8167
-52.4223	-38.563		-76.5748
-74.225	34.0559		-60.389
-61.9521	-17.102		-76.6783
-68.3171	-15.5779		-66.7081
-71.1702	1.72948		-70.1872
-65.0374	3.62627		-81.4188
-72.5768	18.3694		-69.1651
-66.5842	23.9008		-80.7289
-68.2766	42.9032		-72.0678
-61.6912	-46.7522		-53.3809
-64.8169	-31.5513		-60.2102
-58.8025	-35.6571		-68.4036
-94.5082	10.6911		-35.8698
-92.6809	11.3468		-37.0734
-93.5255	18.2221		-28.1786
-91.6052	19.3331		-29.3018
-89.6255	14.7073		-13.9704
-87.8395	15.5817		-15.9006
-85.706	14.9869		-18.8439
-90.9559	9.78185		-37.9815
-90.4053	17.9479		-30.5726
-93.9519	-1.05935		-37.972
-92.8266	18.0798		-19.0997
-94.1679	16.9978		-27.7383
-40.4989	-117.492		-72.3816
20.0093	-103.825		77.5685
16.9379	-105.123		77.9676
22.5609	-103.227		74.0623
20.7435	-102.069		79.8741
65.5869	-6.73824		46.4783
63.512	-6.18696		49.4867
65.9142	-9.98401		45.997
67.1726	-2.44576		43.0317
61.5782	-4.84622		51.6188
61.8355	-0.645528		50.3005
58.7472	-6.5015		54.9627
12.0609	34.157		88.884
14.9258	32.4922		88.153
15.6141	35.8651		88.6296
9.04915	35.9405		89.4263
9.95754	31.8873		88.1034
8.9606	20.0572		81.6259
9.49007	19.0445		80.4774
9.39017	21.3639		80.8935
8.56172	20.5365		82.6803
11.4222	20.253		75.7127
12.4352	18.95		72.97
12.1214	21.676		75.2834
10.5606	21.7171		78.5958
11.0443	18.861		76.3418
43.4267	15.1038		65.5894
39.743	13.6521		68.1978
45.584	16.3863		63.6931
14.0298	12.9855		73.4925
13.6248	14.0227		73.3162
13.8794	12.1129		74.5262
15.4169	12.1402		72.5923
28.1694	-49.9611		76.3032
28.0505	-49.824		76.5378
28.2867	-50.1072		75.878
28.0656	-49.8858		76.6002
26.8462	-48.7484		78.7021
27.2675	-49.316		77.4305
28.003	-49.1295		77.6611
26.8408	-48.3062		79.3019
24.9249	-48.4942		80.4094
31.0245	-49.9758		76.72
30.929	-47.6315		77.9445
28.6023	-50.4066		75.103
28.137	-49.5451		75.6735
29.2196	-50.6298		73.8218
28.419	-50.7022		75.4358
23.3914	-54.2319		82.6465
23.8326	-55.0755		82.4428
26.3146	-52.0767		78.9826
23.2223	-53.4862		82.5608
20.2546	-55.9153		86.5811
19.8964	-43.5854		88.0005
19.3663	-42.2102		88.653
16.5952	-41.9694		90.6796
20.2068	-44.397		87.5908
22.7072	-45.2146		85.1787
27.2906	-49.9512		77.3564
27.3814	-49.9851		77.3495
27.4291	-49.945		77.2441
25.5851	-50.1049		78.4287
80.5674	-34.0266		-7.68137
79.9995	-34.4146		-6.84742
80.2792	-37.6402		-10.6971
81.1014	-33.0512		-7.60719
88.503	-25.2373		-19.2974
89.0046	-23.4658		-21.9546
87.3424	-23.5795		-18.1469
88.0148	-26.3233		-16.8464
89.018	-26.5955		-19.9376
83.5714	-31.018		-9.43821
83.6183	-28.3746		-8.77932
82.927	-31.2725		-8.70931
84.3031	-32.3448		-11.0318
83.4147	-18.7339		-12.7979
83.3375	-17.7372		-13.6659
83.3532	-16.9667		-12.5843
83.6806	-19.212		-11.4603
83.8859	-20.2797		-13.1848
88.3187	0.614845		-13.8283
87.8453	-1.3429		-14.5726
88.5869	1.38897		-14.3873
88.3536	1.17078		-12.9254
91.5562	11.259		-17.9081
91.5686	11.8531		-16.9324
91.1769	10.3312		-17.8809
92.7424	12.3372		-20.9351
85.8787	-16.7683		-19.6892
84.8923	-15.2859		-18.303
85.4739	-20.4494		-17.0695
88.1882	-19.9319		-22.3948
88.135	-14.4288		-23.5597
90.1589	1.84768		-20.1975
90.5205	2.96642		-20.5491
88.9466	1.46803		-16.4412
90.1356	0.535601		-21.2363
93.6636	-8.99222		-32.0663
93.5534	-8.77038		-31.4955
92.8847	-12.0684		-31.649
93.9964	-7.88608		-33.0127
94.2656	-6.26379		-34.6626
94.4071	-4.13708		-33.6145
94.1913	-6.97058		-35.7088
94.482	-3.24408		-35.9043
89.4295	-21.8825		-23.9132
89.829	-19.6887		-25.729
89.8833	-22.9472		-24.7102
91.2929	-8.41856		-27.9869
90.3249	-10.36		-26.862
92.5824	-8.72464		-29.8146
91.2845	-7.07643		-27.7182
81.7101	-25.9534		-5.50605
81.8364	-28.2311		-6.19475
82.3289	-25.5668		-6.38692
81.434	-25.0937		-4.85778
81.2672	-23.4534		-4.1222
81.5403	-21.4188		-4.11983
80.874	-23.5779		-3.23697
82.4984	-14.5163		-4.53754
82.2427	-15.048		-4.1003
82.8637	-14.877		-5.42206
82.8898	-11.3696		-4.76904
81.9394	-15.811		-3.61871
81.5674	-15.6442		-2.69514
81.8215	-18.1928		-3.8813
85.5346	-21.9813		-15.797
85.3615	-22.9731		-13.9774
85.0567	-10.0033		-13.0333
84.061	-13.7561		-12.7429
84.9822	-10.5407		-14.5167
86.0991	-6.25097		-13.3195
85.4124	-8.89015		-11.8215
94.1923	7.1433		-29.8868
94.3096	7.87513		-30.1408
94.0433	6.72654		-29.3232
94.4455	5.95551		-31.6189
94.438	2.30867		-32.4263
94.2704	1.2256		-31.0089
94.4966	0.635616		-33.3182
94.5242	3.61987		-33.2527
94.2075	4.10561		-30.5117
90.9944	9.71169		-18.0496
91.8539	9.78581		-20.6458
90.389	8.8639		-16.9362
92.8501	9.63142		-23.9034
92.44	8.59108		-23.2087
93.9876	9.30358		-27.9286
93.4045	10.8903		-24.7701
39.2973	25.425		73.0292
41.8493	24.2675		71.5553
36.25	26.1825		73.9187
26.5088	-102.231		68.8151
25.5267	-103.346		65.3512
28.896	-100.557		68.3655
46.891	19.5153		65.039
45.7791	21.2785		67.4164
47.7389	18.0481		63.3538
51.5312	20.5952		64.1426
53.8615	21.3886		63.3006
50.3652	22.5274		67.0307
49.2335	20.2684		65.0259
51.8558	18.5256		61.8567
74.9162	-46.8916		-3.2798
75.7439	-45.3415		-7.88089
75.2755	-45.2025		-1.82893
74.2719	-49.2104		-3.7034
15.2696	17.8709		69.5336
15.6711	17.1451		69.3137
15.3446	18.8207		69.6687
14.4787	20.4254		70.8963
15.9698	22.0439		71.2829
14.1159	19.0813		70.6894
8.08186	21.7709		83.791
7.60689	21.9416		84.7536
8.31245	23.5686		83.8204
20.745	-48.8701		83.0422
21.6907	-49.3062		81.3648
21.1298	-48.4761		83.4245
17.3232	-48.3264		86.2052
67.7341	-71.0448		-8.87757
67.0868	-71.0808		-3.45848
67.0719	-73.9094		-10.807
68.5886	-68.3386		-9.40595
80.5681	-3.36188		0.867516
79.7231	-10.317		3.61632
81.4684	-4.1852		-1.73957
81.3527	4.0895		-2.70447
79.4305	-2.22118		5.19947
67.8187	-73.9808		-22.1247
67.2108	-76.2745		-23.8067
68.5078	-69.4289		-22.4928
67.2715	-76.394		-17.5166
64.1431	-110.164		-27.5576
64.0854	-118.655		-28.9085
62.6026	-106.434		-35.1224
64.2554	-101.109		-27.4829
64.3115	-112.841		-21.5611
27.647	-50.3577		77.4126
27.8033	-50.4991		77.3784
25.8771	-51.0237		78.8991
28.0551	-50.7397		77.3581
22.8277	-53.0442		82.8139
22.9454	-52.4439		82.3781
19.7195	-54.2		86.7342
30.706	-98.9767		68.0249
34.7702	-96.7216		61.8643
30.5612	-97.2793		71.1295
50.294	-60.7208		-66.0256
48.9184	-56.8352		-70.0124
53.0298	-59.7275		-62.3103
49.3494	-63.8722		-65.8275
56.5225	78.3432		35.6894
58.365	80.6453		28.5085
52.6334	81.3732		38.4509
57.3999	74.1162		38.6885
91.1201	-18.6273		-32.9074
92.3619	-13.6741		-35.7405
91.6272	-17.809		-31.895
90.0391	-22.739		-30.346
90.5058	-18.697		-34.1442
85.4806	1.84081		-8.28067
84.6859	-2.33961		-7.11767
86.4697	1.73741		-8.93656
86.2574	6.01026		-9.89296
84.2109	2.03108		-7.56132
83.424	-19.0816		-7.62794
82.9795	-19.7161		-6.56421
83.9093	-21.7147		-8.86972
83.7957	-19.381		-9.18852
83.3787	-17.416		-7.30885
83.4141	-25.4757		-8.00777
82.8819	-22.6292		-6.75812
84.2398	-25.2331		-9.36888
93.298	-8.00704		-38.143
92.5278	-8.01711		-38.9553
93.8816	-1.91342		-39.1773
93.7635	-8.0025		-37.2866
91.5137	-7.89583		-39.6211
90.7873	-13.3684		-37.6959
90.4674	-7.66205		-40.003
91.9153	-1.94313		-40.481
83.0125	5.94649		-8.85393
83.2745	8.10183		-10.5892
82.7816	6.96569		-8.56043
83.049	4.3422		-7.68466
87.7677	-16.8995		-37.0857
86.0752	-16.3444		-37.8645
88.4078	-12.5633		-38.8732
88.8301	-17.4992		-36.3848
86.7616	-20.7526		-35.2141
90.0711	-24.0329		-25.496
90.5962	-21.0044		-27.9257
89.7096	-25.9615		-23.3593
89.9565	-25.0029		-26.7035
87.5848	-32.6304		-23.5515
87.011	-34.3878		-20.725
86.2437	-34.0576		-24.615
88.4992	-29.5054		-26.2224
88.9229	-29.9005		-22.1094
88.2733	-30.691		-16.9018
87.7717	-32.4168		-17.2442
88.7705	-29.639		-18.4856
87.8381	-29.9661		-15.5818
77.9977	-41.0993		-12.9908
77.4836	-42.0824		-13.4928
79.0506	-40.2207		-14.6681
78.0413	-40.0023		-8.65403
82.7287	-37.5607		-14.0413
83.0827	-38.4181		-16.4361
83.9183	-36.1629		-13.6051
82.2135	-35.6412		-10.9868
81.6851	-38.4412		-14.2828
89.1359	8.15324		-11.0605
89.1592	9.62214		-11.1646
87.791	4.76025		-10.2512
89.439	8.10628		-11.4158
89.1302	10.5215		-11.3916
90.4436	13.6976		-13.2652
88.7818	10.5112		-11.4036
93.9887	-7.81986		-36.5496
93.1332	-12.4093		-34.073
94.5316	-2.24135		-37.899
94.9983	6.31913		-34.5533
94.7953	5.31989		-34.2907
95.1248	5.66021		-35.4205
94.95	7.85882		-33.0391
90.1227	9.10481		-13.1238
89.9863	8.88307		-12.5874
89.685	7.56684		-13.3842
90.6125	10.646		-14.0789
89.6253	8.04834		-11.7862
88.8254	4.94913		-11.7262
90.6662	12.1648		-13.196
93.287	-8.73409		-30.9177
93.904	-5.83497		-31.2006
92.0463	-12.2372		-29.8986
89.3766	5.99646		-14.9018
89.7884	7.56182		-15.4106
89.2883	5.85479		-14.4382
89.6593	5.07456		-16.6463
90.1638	8.3273		-16.5666
90.639	7.89907		-18.5029
89.5047	-13.396		-25.9174
90.1514	-15.1861		-26.9853
85.5713	-8.04525		-10.6736
86.6406	-3.74246		-10.7647
85.4052	-7.99575		-9.58686
84.5287	-12.658		-10.6861
88.7173	1.79293		-14.6911
88.9523	3.51574		-14.1015
54.7725	-57.7362		-60.4119
54.9827	-53.1025		-62.9661
56.249	-57.946		-57.7271
24.0974	-20.5212		80.2439
25.9332	-24.536		80.3984
24.4765	-19.0153		79.8583
22.1751	-19.9878		81.0604
19.1847	-18.2009		83.1372
19.6818	-19.2153		82.618
19.5735	-15.3883		83.1931
18.1263	-18.6744		84.497
52.8241	34.5219		68.603
52.7309	32.2524		69.2714
57.6416	31.1629		62.9471
53.0738	36.5156		67.5022
47.8272	36.5573		72.9293
8.21878	-22.6846		94.0125
7.69552	-22.099		95.1849
8.0073	-23.3992		93.7975
9.16733	-22.717		93.0378
9.82735	-19.4265		96.7189
8.5786	-19.8206		97.615
10.7544	-20.1981		94.4189
10.4194	-18.339		97.5164
46.417	17.0905		63.3593
46.0809	17.8262		63.7533
15.6604	-11.2324		94.9275
15.7281	-12.1297		94.6856
16.0427	-11.222		93.9322
14.7227	-10.4808		96.9369
85.7446	-24.7201		-33.1001
84.6701	-27.2351		-31.6964
84.3996	-23.1487		-34.5179
86.785	-25.8329		-31.9944
66.26	76.0882		15.486
63.8461	79.512		16.7283
66.9795	71.4485		20.0446
68.2826	76.942		5.69133
29.7573	-57.043		73.2592
30.2597	-54.9741		72.4046
29.8408	-58.7219		73.1535
28.7546	-56.3664		74.3755
28.8691	-45.7425		72.5257
27.6968	-45.6408		73.8686
28.5555	-44.8927		72.3938
29.7295	-47.6506		72.0264
-20.0139	-104.11		75.1885
-20.5505	-102.377		77.67
-22.5055	-103.609		71.2592
-17.027	-105.41		75.8375
-66.3916	-5.86597		46.4436
-67.738	-2.12558		43.1584
-66.7753	-9.00438		45.8954
-64.2657	-5.05358		49.6897
-62.1092	-3.4892		52.1646
-59.3454	-4.75722		55.5234
-62.343	0.496928		50.8291
-11.7131	35.7112		87.4876
-13.5021	33.498		86.3869
-10.0445	33.1067		87.0845
-9.16988	37.3247		88.2515
-14.3612	37.2921		87.2915
-9.67564	20.7173		81.3715
-9.15795	21.1385		82.4217
-10.2277	22.154		80.597
-10.4548	19.7938		80.145
-13.3158	21.5895		75.3172
-15.1004	20.53		72.4987
-12.7671	20.102		76.0041
-11.895	22.7635		78.1193
-14.1518	23.0736		74.939
-46.115	16.6137		64.8663
-42.4614	15.0648		67.8415
-48.2143	17.7568		62.8087
-16.0568	13.9223		73.329
-17.6304	12.8931		72.4306
-15.689	12.9016		74.4382
-15.8205	15.0997		73.0341
-27.5368	-50.0336		75.9745
-27.4198	-49.8944		76.2237
-27.4337	-49.9587		76.2796
-27.6496	-50.172		75.5489
-26.3183	-48.7632		78.4539
-27.4736	-49.1927		77.3221
-24.5962	-48.4754		80.1218
-26.3939	-48.3009		79.0526
-30.5233	-47.6504		77.6989
-27.9813	-50.4495		74.7421
-27.7734	-50.7561		75.0905
-28.6621	-50.6248		73.4097
-27.5196	-49.5956		75.3758
-23.01	-53.8523		82.1196
-23.4997	-54.7163		81.7966
-20.3888	-55.5394		85.6425
-22.8265	-53.118		82.0893
-25.7107	-51.9453		78.6318
-20.543	-43.7133		87.6032
-20.1229	-42.3127		88.2604
-22.886	-45.3525		84.9468
-20.7974	-44.5455		87.1841
-17.5608	-42.0712		90.2018
-26.6593	-50.0043		77.0734
-25.0047	-50.0803		78.1671
-26.7911	-50.005		76.96
-26.7537	-50.0369		77.056
-80.8678	-32.8425		-7.80302
-81.5015	-31.8981		-7.74942
-80.5257	-36.3509		-10.9043
-80.3114	-33.1288		-6.97708
-88.3587	-24.1112		-19.6829
-88.802	-22.3691		-22.3635
-88.8787	-25.4521		-20.3331
-87.9221	-25.1698		-17.2118
-87.198	-22.4755		-18.5123
-84.424	-29.8179		-9.72668
-85.2072	-31.0294		-11.388
-83.9526	-30.0234		-9.08709
-84.0237	-27.1766		-8.96924
-83.2897	-17.7229		-13.0585
-83.1911	-16.7445		-13.9425
-83.7669	-19.2271		-13.458
-83.581	-18.2023		-11.7263
-83.2068	-16.0005		-12.8477
-87.9388	1.33638		-14.206
-87.9761	1.87708		-13.2976
-88.1926	2.10794		-14.7759
-87.4765	-0.591325		-14.9457
-91.0378	11.9326		-18.3967
-91.0532	12.5126		-17.4178
-92.1845	13.0375		-21.4649
-90.6672	11.0092		-18.3602
-85.4287	-8.6599		-17.8536
-87.7005	-4.96596		-21.0516
-84.9091	-11.012		-18.2337
-84.7224	-9.67466		-14.8287
-86.3137	-4.98268		-16.9372
-90.3971	5.22687		-21.2408
-90.0493	3.73139		-21.0167
-89.208	5.77891		-17.08
-90.9067	6.78992		-22.0536
-92.0318	4.69244		-26.0841
-83.1792	-27.6187		-31.3607
-84.3687	-26.1623		-32.1092
-81.9757	-27.4749		-31.8513
-83.0865	-29.8821		-29.7655
-93.1673	-8.04225		-32.6295
-93.4754	-6.94451		-33.5889
-92.423	-11.0982		-32.191
-93.0632	-7.82464		-32.0534
-93.7058	-5.33513		-35.2553
-93.8409	-3.22546		-34.2075
-93.8774	-2.33646		-36.5137
-93.6229	-6.03573		-36.3056
-89.1819	-20.8064		-24.3447
-89.5334	-18.6434		-26.1799
-89.6333	-21.8615		-25.1503
-87.9479	-18.8797		-22.8026
-90.8475	-7.4957		-28.492
-89.9176	-9.42293		-27.3448
-90.8279	-6.16882		-28.2244
-92.1136	-7.78908		-30.3462
-89.1445	-12.428		-26.3764
-89.7917	-14.1933		-27.4553
-87.8246	-13.455		-23.9809
-81.8289	-24.8168		-5.66824
-81.4965	-23.9931		-5.0372
-82.4242	-24.4457		-6.55999
-82.1562	-27.063		-6.43492
-81.3047	-22.3909		-4.29191
-80.9177	-22.5142		-3.39941
-81.5321	-20.4058		-4.29383
-82.3751	-13.6549		-4.72547
-82.7136	-10.5738		-4.96918
-82.7425	-13.9982		-5.62154
-82.1294	-14.18		-4.28105
-81.8416	-14.9326		-3.79029
-81.7617	-17.2581		-4.05391
-81.4686	-14.7802		-2.85348
-85.4033	-20.8946		-16.13
-85.313	-19.3922		-17.4127
-85.2653	-21.8737		-14.2894
-84.8054	-9.15538		-13.3314
-83.8621	-12.8507		-13.0186
-85.1592	-8.06132		-12.1244
-85.8012	-5.45414		-13.6434
-83.461	-14.6316		-12.5091
-83.7009	-14.5768		-11.632
-93.5756	7.95265		-30.4806
-93.8172	6.7831		-32.2239
-93.4389	7.53508		-29.9097
-93.6839	8.68155		-30.7404
-93.832	3.16605		-33.0269
-93.6938	2.08589		-31.5948
-93.6115	4.94049		-31.1005
-93.8955	4.47176		-33.863
-93.893	1.50961		-33.9215
-90.4898	10.3944		-18.5264
-89.9035	9.53744		-17.3946
-91.3225	10.4959		-21.1538
-92.2847	10.3753		-24.448
-91.8927	9.33552		-23.7393
-92.8173	11.6365		-25.3305
-93.3778	10.086		-28.5142
-91.3647	8.11376		-22.8351
-92.6783	7.58991		-27.0089
-90.1465	8.59888		-18.9734
-41.5936	27.0492		72.5402
-38.4454	27.8581		73.6049
-44.2266	25.9293		70.983
-26.2428	-102.887		65.501
-28.5663	-101.412		64.6455
-25.1498	-104.072		62.1334
-49.0825	21.1073		64.3919
-49.935	19.5519		62.6198
-47.9324	22.9787		66.8229
-52.781	22.6402		64.0427
-51.354	24.8896		67.2065
-54.6857	23.1946		63.1118
-53.0464	20.0161		61.4428
-51.0926	22.0546		64.4875
-75.4664	-45.2566		-3.48471
-74.8516	-47.5474		-3.92045
-75.8187	-43.6005		-2.01276
-76.1658	-43.8173		-8.09592
-19.6846	19.4437		68.5854
-19.9604	18.7057		68.4356
-19.9209	20.3583		68.7433
-18.3745	22.0749		70.1649
-19.6345	23.523		70.7774
-17.868	20.7196		69.9598
-8.49774	22.3263		83.5586
-8.69605	24.2321		83.6472
-7.8764	22.4667		84.5962
-20.6966	-48.8235		82.6083
-17.7524	-48.2401		85.591
-21.0934	-48.4606		83.0287
-21.3498	-49.2411		81.0664
-68.2701	-69.4455		-9.21006
-69.1211	-66.6917		-9.72837
-67.5018	-72.4012		-11.1282
-67.8093	-69.3806		-3.84143
-80.3061	-2.82064		0.746217
-79.546	-9.67676		3.55186
-79.1635	-1.78974		5.13526
-81.0202	4.56533		-2.89732
-81.2092	-3.5771		-1.90265
-67.8006	-72.7241		-22.3596
-67.4155	-75.0529		-17.7812
-68.5049	-68.1449		-22.7409
-67.1217	-75.0972		-24.045
-64.0049	-109.379		-27.8614
-63.9574	-117.955		-29.2548
-64.2224	-112.023		-21.8981
-64.1094	-100.233		-27.755
-62.3931	-105.694		-35.3906
-27.0155	-50.4204		77.106
-25.3096	-50.9325		78.579
-26.8581	-50.2692		77.134
-27.1512	-50.5617		77.0754
-28.7395	-50.0606		76.4734
-27.9475	-51.3871		76.9856
-22.488	-52.69		82.3222
-19.9022	-53.8325		85.8069
-22.5641	-52.1119		81.9388
-30.4084	-99.981		64.0191
-30.5299	-98.2296		66.9909
-34.2416	-98.0931		57.8101
-49.6021	-60.1659		-66.2851
-48.6736	-63.33		-66.0808
-52.3942	-59.1187		-62.568
-48.1464	-56.3136		-70.2921
-56.202	78.8735		34.928
-57.1624	74.7019		37.9192
-52.3223	81.9001		37.7224
-57.9326	81.0915		27.762
-90.7045	-17.6059		-33.4265
-91.8562	-12.6949		-36.3023
-90.0729	-17.68		-34.6653
-89.7052	-21.6749		-30.8304
-91.2188	-16.7901		-32.4135
-85.1321	2.45399		-8.57532
-84.3851	-1.67906		-7.38218
-83.8689	2.62633		-7.83823
-85.8571	6.58613		-10.2192
-86.1127	2.36636		-9.24728
-83.3595	-18.0952		-7.85176
-82.9314	-18.7212		-6.7751
-83.2921	-16.4667		-7.5292
-83.7251	-18.3807		-9.43578
-83.8722	-20.6658		-9.10989
-83.5113	-24.3482		-8.19438
-82.8886	-21.5692		-6.97064
-84.3012	-24.1099		-9.58425
-92.7053	-7.06797		-38.7429
-93.1831	-7.06169		-37.887
-93.2201	-1.01583		-39.8047
-91.9243	-7.08239		-39.5508
-90.9004	-6.96701		-40.2072
-90.2513	-12.4005		-38.2506
-91.2387	-1.05736		-41.0895
-89.8528	-6.74137		-40.5755
-82.6363	6.51423		-9.14082
-82.6937	4.90837		-7.95529
-82.399	7.50612		-8.83285
-82.8644	8.66955		-10.9049
-87.2805	-15.9252		-37.5841
-85.5745	-15.3946		-38.3405
-86.3403	-19.7465		-35.6826
-88.3554	-16.5079		-36.8966
-87.8544	-11.6242		-39.398
-89.8202	-22.9352		-25.9463
-90.2791	-19.9484		-28.398
-89.6984	-23.8988		-27.1613
-89.511	-24.8333		-23.7906
-87.4703	-31.424		-23.9649
-88.7936	-28.7152		-22.5263
-88.299	-28.3498		-26.6615
-86.1284	-32.8427		-25.0269
-86.9907	-33.148		-21.1078
-88.2738	-29.478		-17.2542
-87.8709	-28.7676		-15.8785
-88.7042	-28.4344		-18.8761
-87.8203	-31.2105		-17.5668
-78.2311	-39.7135		-13.229
-78.3634	-38.5908		-8.86645
-79.233	-38.8653		-14.9247
-77.7251	-40.6886		-13.7322
-83.3489	-35.8837		-14.1003
-83.347	-37.0233		-16.6736
-81.9328	-37.0477		-14.4985
-83.1731	-34.1055		-11.43
-84.7173	-34.5777		-13.8553
-88.7036	8.75923		-11.447
-89.0064	8.72303		-11.8122
-87.3946	5.37894		-10.6003
-88.7131	10.2072		-11.5557
-88.6752	11.0935		-11.7851
-88.3271	11.0791		-11.7919
-89.9461	14.2775		-13.7045
-94.3276	7.15989		-35.1874
-94.2852	8.68356		-33.6663
-94.4487	6.5087		-36.0598
-94.1372	6.16578		-34.9166
-89.6671	9.73572		-13.5477
-90.1339	11.2787		-14.5236
-89.2427	8.21194		-13.7981
-89.5379	9.5109		-13.0057
