1831
4.98858	-43.841		86.3178
10.0512	-60.7583		84.9308
4.70137	-60.426		86.0752
28.2349	-57.8118		75.0584
81.8811	-13.3395		-40.8836
78.5292	-13.0757		-45.9297
79.9815	-3.05051		-46.9326
83.0855	-4.43675		-41.8509
79.5107	2.0504		-5.06482
81.013	9.30093		-12.8373
78.3333	20.2303		-6.92386
76.8193	4.60425		2.24456
80.3335	19.6111		-25.5119
80.9997	11.6058		-21.2655
78.5658	-27.6398		-34.0725
76.5383	-34.6914		-29.757
76.1059	-22.9542		-42.8687
80.4069	-20.8608		-37.8804
85.7899	-2.49515		-40.5273
85.1714	-13.1236		-39.2869
83.6918	-30.7391		-29.1346
86.2197	-22.478		-33.9379
80.6302	-38.6194		-21.9877
78.1049	-40.473		-18.7043
80.455	-35.212		-9.94544
90.9159	-12.9166		-30.6144
93.3162	1.42818		-34.9626
85.6322	-22.8156		-19.9515
76.2659	-21.2082		2.37672
75.505	-29.5442		1.54467
81.0864	-18.5333		-8.7957
81.4703	-22.5805		-9.22753
80.8736	10.9261		-19.9398
89.8777	-2.5819		-40.788
90.8207	18.4899		-19.5454
89.1474	19.5537		-21.6662
87.8943	18.5479		-23.861
94.3562	8.93589		-34.8792
87.9487	8.49479		-14.6548
85.5928	2.79528		-10.6927
91.9851	-3.37629		-29.6704
91.6334	-0.587576		-28.3626
83.4207	5.48414		-38.635
85.3044	8.0816		-35.5309
81.6017	-26.8932		-32.5558
87.1836	-8.87073		-23.6606
83.6173	12.2471		-28.5647
82.8354	11.2184		-31.0451
90.5695	10.7106		-21.2889
-0.531042	79.9358		72.2573
14.071	79.2302		71.2857
15.1727	93.463		58.4101
-0.495471	95.0504		58.692
-0.17463	65.0188		81.4704
12.9898	64.6715		80.3363
21.8759	52.2427		84.3458
5.08972	-25.731		107.079
1.51556	-25.7505		109.338
6.57097	-15.1891		112.852
2.00714	-15.0194		114.366
2.06114	-19.0497		114.996
1.98066	-22.5214		113.487
1.80108	-9.81052		111.366
-0.217792	50.8784		88.0289
0.202374	44.7742		89.4066
10.7998	42.6868		88.6363
11.497	50.8249		86.6661
0.752415	17.1668		90.6924
0.537923	21.8128		87.8925
3.97067	24.859		86.1134
0.484465	25.7291		86.8362
0.256159	-51.3636		90.9664
0.303895	-49.4583		88.6722
0.244425	-51.5465		92.8264
0.393583	-50.5579		95.4143
0.265143	-43.7786		86.5894
27.4531	90.0819		56.7972
21.8666	45.9267		86.8168
23.2402	38.3932		86.663
28.0335	28.2946		76.6783
21.0741	26.4725		76.1047
41.007	97.7542		32.8932
38.4534	85.4684		52.4829
35.8426	28.3915		75.7307
48.1478	69.2248		54.3665
44.9562	30.0556		72.6898
59.2804	63.673		39.7359
50.679	26.0058		66.3367
12.9903	29.562		82.9614
69.1913	-59.4053		-12.1463
80.9291	15.0636		-37.4497
78.3188	24.3318		-49.3345
73.5407	-15.1126		-56.6926
75.9045	-1.05845		-59.1912
77.2155	12.6632		-57.4932
80.7166	7.31563		-44.4073
70.0964	-28.4509		-51.8594
14.229	-106.311		56.3971
26.4651	-102.896		49.2005
53.7506	-77.4752		44.4958
68.7569	58.113		20.1643
29.2	104.594		35.2755
15.7801	109.146		36.0568
54.5156	-69.2387		52.0928
8.08608	-39.6667		95.5482
18.7995	-42.0928		89.5679
7.18247	-35.2273		95.3901
13.0713	-40.714		93.1566
11.5068	-36.0115		92.8375
33.4149	-53.8589		79.5358
33.7072	-46.9163		80.5027
74.0974	-44.3734		-20.3201
73.1972	-31.4073		9.14001
73.9546	-22.229		9.82377
72.1576	7.41615		19.2302
71.2883	-8.08738		22.6613
49.1232	10.6117		61.7537
70.8036	-21.1556		23.0171
70.3566	-32.1311		22.366
14.9511	-7.95493		91.5067
15.2208	-21.0772		97.0793
16.8969	-21.9607		92.4484
32.1716	-37.5423		81.1666
52.1041	-53.5181		64.1098
42.4521	-49.7988		74.6196
48.4883	-62.8514		65.8878
62.3023	-32.5002		51.2896
42.2895	-69.8492		70.4995
34.306	-75.2958		77.071
47.1475	-1.57177		66.3158
44.5927	3.63548		66.9547
40.4972	-57.6519		75.0935
36.6075	-63.4372		76.8413
15.2393	-74.0016		89.5896
31.5241	3.13223		72.5961
11.7448	-15.138		106.543
67.2454	-20.9785		37.6474
67.1161	-32.9375		36.8248
7.83963	27.7212		84.4066
16.6846	-36.1216		89.2695
20.107	-51.4414		82.2821
19.1046	-45.2901		80.6472
34.9786	-140.48		21.5987
37.3347	-153.775		18.4621
46.3445	-150.914		12.1561
43.8528	-137.11		14.645
43.7982	-104.033		20.9368
34.8561	-108.637		30.0044
33.0644	-120.323		26.5061
42.1828	-116.822		17.9983
31.3268	-58.448		79.7777
53.5794	-89.112		16.7437
57.2674	-80.5695		23.4532
51.3951	-133.766		7.08626
53.8945	-147.6		4.67334
60.7772	-77.7727		9.7281
62.18	-84.4618		-6.22056
58.4783	-86.0558		4.51281
62.0204	-98.9054		-33.097
74.8491	-36.1261		-0.626649
63.1947	-82.4936		-31.4923
56.7889	-126.992		-51.627
56.1547	-110.02		-49.4061
24.9421	-143.083		27.9266
27.3909	-156.132		23.7819
22.8029	-112.055		39.9564
21.728	-122.963		35.2006
25.2124	-58.7515		82.3889
16.0447	-53.6312		85.4111
16.2044	-55.1936		84.3057
17.4577	-157.857		27.8812
16.1701	-61.5581		83.051
75.1416	54.5623		-1.65586
50.6407	-84.0582		-58.0966
56.5523	-90.0333		-47.3162
49.6966	-105.335		-60.0078
49.9373	-123.178		-62.6397
59.0257	-68.5587		-46.3704
29.9391	115.515		6.12505
15.7101	120.608		5.91731
16.0546	113.054		-65.5711
30.7895	109.149		-62.3171
29.4375	89.6672		-91.2414
15.0899	92.4883		-94.9201
28.4525	64.5013		-107.861
14.9732	66.6611		-111.503
30.7034	117.837		-27.8692
16.0528	122.623		-29.7623
0.275557	124.236		-30.3746
0.0626655	122.398		5.57623
27.5797	37.8767		-115.844
14.7585	39.9778		-119.48
26.5392	9.93859		-117.379
13.8338	11.5615		-121.363
24.9272	-16.211		-111.925
23.1933	-40.2866		-99.1835
12.1054	-39.8617		-101.729
12.9315	-14.7232		-116.011
0.62863	-14.1513		-117.43
0.645107	11.9908		-122.708
10.7193	-77.251		-84.8819
21.5501	-78.645		-82.3428
20.5681	-97.8059		-81.2848
10.399	-96.6527		-83.1535
10.3928	-115.71		-82.5064
0.449474	-115.586		-82.9588
0.44568	-95.7659		-83.7077
22.93	-58.7591		-88.1757
11.7792	-56.8466		-91.174
0.502081	-56.9297		-91.6328
0.459229	-76.9717		-85.5183
54.4651	96.7002		3.85585
42.8944	107.401		5.4454
53.6284	77.9791		-77.3646
53.0867	55.9019		-92.934
41.75	60.736		-101.318
42.4114	84.8178		-85.154
43.23	102.794		-57.7933
54.4728	93.454		-52.3373
55.8093	98.6533		-24.523
44.082	109.71		-26.0969
51.8198	31.6536		-100.958
40.6375	35.0052		-109.271
49.665	6.61587		-102.649
39.0494	8.15374		-110.853
46.4691	-18.4137		-97.7194
36.7726	-17.6975		-105.448
45.1714	-41.7413		-85.0027
34.8286	-41.5925		-93.1692
34.0825	-60.6308		-82.2089
40.6834	-101.26		-70.2637
30.9586	-99.5064		-77.1735
32.6319	-79.9534		-76.9724
42.4828	-80.9251		-68.7979
30.9473	-117.486		-77.8394
20.5228	-116.22		-81.1149
64.3022	81.3917		-45.3554
72.2982	67.078		-35.0181
70.7402	58.444		-56.584
62.9186	69.2732		-68.2461
72.3771	69.9704		-12.8643
65.465	85.2314		-21.2112
62.1813	49.9586		-83.3634
60.8699	27.7748		-91.4215
59.0482	4.52967		-92.223
55.3428	-18.9418		-87.4054
52.9615	-40.2437		-76.4131
74.8152	33.5591		-60.6543
62.6373	-18.5223		-76.6744
66.0852	2.52247		-81.6576
71.7793	0.597629		-70.2539
68.6078	-17.0087		-66.559
67.7809	23.1238		-81.1305
73.3181	17.5325		-69.3701
69.368	42.5045		-72.5424
59.0137	-37.3541		-68.0982
64.6755	-33.2479		-59.7944
61.151	-48.6836		-52.6502
94.0106	9.68093		-35.5197
92.2346	10.3625		-36.7381
90.875	18.546		-29.0213
92.7498	17.4002		-27.8802
86.2028	14.6974		-15.5304
87.913	13.8126		-13.5789
84.1842	14.093		-18.4939
90.4806	8.77497		-37.6414
89.6716	17.1434		-30.258
93.3626	-2.35235		-37.4948
91.582	17.2744		-18.7628
93.365	16.1428		-27.4137
-0.243569	110.969		36.0621
0.425852	114.423		-66.5452
41.1526	-119.879		-71.5998
0.547366	93.2888		-96.1504
0.60268	67.21		-112.712
0.642637	40.6917		-120.721
0.561494	-40.2563		-102.09
-69.0356	-41.8279		20.7997
-71.7655	-39.2692		5.88378
-68.1371	-51.8043		17.7472
-61.4324	-108.04		-12.8163
-56.9815	-110.533		-4.02897
-59.4198	-144.759		-6.16336
-57.8477	-131.552		-4.53129
-62.1984	-127.935		-13.7708
-63.171	-140.825		-16.0147
-57.4084	-96.5856		-2.9891
-50.1011	-114.23		5.72866
-51.3867	-100.264		7.3449
-61.5583	-94.8137		-12.1262
-63.7083	-92.452		-21.4265
-63.38	-105.649		-21.9971
-66.6201	-60.4039		14.0276
-64.0299	-69.0368		9.81182
-61.3569	-71.7062		23.8352
-63.6624	-63.2057		29.4898
-73.9639	40.0473		8.6049
-72.2537	24.2908		16.109
-63.7311	29.0206		40.488
-66.4012	44.5694		31.0153
-78.2948	33.2063		-34.0781
-77.7998	37.5971		-14.0219
-76.3063	52.571		-23.6776
-75.357	46.3783		-44.7011
-6.72335	-114.199		46.7227
-12.69	-114.293		44.6631
-12.312	-125.301		40.1593
-5.97731	-125.715		43.0495
-14.8643	-146.037		31.86
-6.82006	-146.903		34.6366
-8.04643	-159.088		30.0714
-71.0211	-40.9189		-35.2142
-65.2242	-52.6937		-41.0024
-69.2624	-53.6752		-27.0104
-72.9925	-31.5995		-39.7567
-66.4849	-40.7661		-46.9811
-64.1425	-136.711		-26.9739
-61.6085	-132.091		-39.9324
-64.7181	-55.3726		33.4423
-65.8517	-43.8358		35.662
-68.2393	-58.4057		-1.4581
-6.70756	-85.264		92.9432
-14.7177	-84.4917		89.7164
-15.4104	-93.3586		86.768
-7.31937	-93.2413		90.3767
-23.1439	-82.4651		83.8079
-22.8019	-91.3221		81.3051
-6.24887	-75.9836		91.7827
-6.85218	-99.9482		83.4179
-6.21524	-104.117		72.9885
-12.6458	0.0898277		86.5959
-11.2758	8.25689		81.3985
-15.6159	4.4803		78.0244
-18.3803	-4.52789		81.4404
-53.0225	-32.3141		66.6419
-41.7754	-29.9783		76.277
-39.7017	-20.5688		76.0308
-51.3436	-22.6773		68.0337
-61.2871	-22.5825		53.9215
-49.1675	-12.0367		67.8035
-61.5209	11.5608		46.5969
-65.4361	10.8655		38.06
-42.677	-39.8025		75.7875
-53.3418	-42.3004		64.932
-2.06058	8.06206		96.7671
-2.18008	-2.40305		104.604
-26.7424	78.4899		68.297
-37.1664	75.8792		62.9441
-35.2459	64.6804		71.5595
-25.3255	66.0198		77.2707
-6.02617	-108.056		58.6636
-61.1177	-43.9181		50.6188
-59.2354	-56.355		49.02
-33.3489	-85.8139		71.0403
-43.6396	-79.2252		60.9302
-43.0026	-86.5144		53.7241
-37.1099	-101.068		36.1388
-40.9497	-92.6833		46.2767
-51.2935	-85.6132		32.8448
-46.5944	-95.6302		24.3371
-2.84105	-10.3223		110.119
-7.73808	-4.65575		99.7585
-8.66155	-11.6352		104.547
-19.9003	-14.1825		84.3548
-27.0946	-18.0578		80.5154
-28.5998	-56.9806		80.5862
-14.1415	-25.8594		92.0443
-13.6217	-27.9151		90.4901
-9.8294	-32.0734		92.6084
-13.8056	-29.9978		89.2396
-14.5974	-32.0153		88.8655
-2.49827	-27.5425		102.549
-2.83821	-29.1622		99.1877
-19.2953	-30.4122		85.6762
-3.02242	-18.8437		113.418
-9.04973	-18.0114		106.923
-8.54648	-21.3359		105.398
-2.90378	-22.291		111.649
-29.9841	-69.2978		79.5801
-21.9628	-73.3496		84.8678
-20.2316	-66.3994		85.8865
-26.9042	-63.163		81.6493
-29.0645	-46.4811		83.6163
-24.1913	-45.1445		86.3117
-3.1103	-31.3928		97.4135
-3.59573	-35.3541		96.4976
-7.27248	4.66276		92.7898
-17.147	-17.2869		90.4033
-17.2447	-20.2913		90.8157
-16.7095	-17.8786		92.3457
-5.98218	-31.4462		95.6338
-16.6328	-24.523		89.4383
-4.20228	-39.6081		96.5143
-4.83199	-43.7601		97.0147
-26.7767	-37.3326		84.1184
-21.9551	-36.8364		86.2557
-12.3851	-64.0495		90.1949
-13.2795	-68.1153		89.1244
-5.77755	-68.3971		90.7676
-5.13047	-64.5742		91.5698
-20.9719	-51.0442		87.4937
-25.6172	-53.2355		82.6463
-14.0766	-14.1356		95.7746
-18.883	-62.5109		87.0488
-54.4571	38.1525		62.5387
-59.9323	25.933		50.3316
-57.4172	24.7201		55.3809
-46.5176	60.1916		62.2015
-44.5117	49.807		69.9554
-34.0217	53.0518		79.8644
-57.1707	52.9371		49.4265
-55.5693	42.3766		57.7123
-34.3431	48.237		82.2366
-43.9039	45.0579		73.0894
-19.3649	31.1387		80.7308
-18.0531	34.2319		83.8765
-26.0119	36.037		82.5977
-26.6305	32.793		80.1456
-7.04649	12.4476		86.2846
-2.3968	16.1218		90.029
-2.7755	20.6431		87.1583
-24.542	-8.15785		78.6736
-20.8561	1.27741		76.1852
-33.2858	-1.93263		73.3174
-36.9926	-10.5945		74.501
-50.6701	7.281		60.9852
-53.4032	14.3139		57.389
-57.6089	12.3139		52.4969
-44.6422	36.8985		74.2411
-34.9028	36.8029		80.1896
-34.8005	42.2668		82.096
-52.1051	32.1526		66.6331
-54.4768	23.4543		59.3813
-34.798	32.8567		78.1836
-45.805	24.8925		69.1407
-41.6787	28.1966		73.4054
-9.49958	22.7578		78.6651
-13.428	27.3337		79.3136
-14.2934	23.6132		74.9458
-6.33313	35.1906		87.2115
-4.16353	29.7216		86.1842
-19.1062	6.21107		74.5578
-8.73773	25.4939		81.4539
-18.7288	9.48333		73.4906
-15.6908	-53.1059		85.9759
-22.4463	-54.1696		82.1733
-5.36014	-48.5172		96.2943
-5.25567	-46.0056		97.059
-10.1421	-48.7042		94.6791
-10.0537	-50.58		93.0781
-5.15068	-50.3621		94.7489
-15.4564	-50.0152		91.3614
-9.87267	-46.4519		95.5889
-15.3525	-48.0765		92.3825
-9.7006	-51.894		90.7542
-4.14976	-51.4805		92.5667
-16.1278	-54.4913		87.5604
-15.9095	-54.2042		86.9293
-16.5654	-55.4416		88.2078
-11.1512	-57.0759		92.1516
-10.5021	-55.3032		91.9131
-4.37579	-55.0937		93.5177
-4.04689	-53.1493		92.8258
-9.82044	-53.6923		91.2641
-4.62829	-57.2383		93.8213
-22.8133	-55.2601		82.091
-3.7099	-52.8201		90.6355
-4.83774	-59.4508		93.6613
-4.8545	-61.4944		92.969
-8.5278	-44.2072		96.1074
-3.94631	-52.6277		92.2744
-9.53012	-53.1751		90.6165
-12.0182	-61.0359		91.3695
-11.6352	-59.0199		92.0007
-9.37495	-51.8984		89.2473
-9.20966	-53.4218		89.1666
-14.2391	-51.6158		85.679
-9.27858	-50.5211		87.6752
-22.7349	-57.0818		81.1858
-3.63486	-54.7365		88.2327
-3.90246	-51.3887		90.6806
-4.68754	-49.8111		88.5476
-9.3645	-55.2582		87.1539
-24.494	-47.1883		77.2514
-27.6993	-51.4711		74.7789
-13.6921	-45.4052		83.8921
-9.00335	-44.6395		85.6786
-25.6227	-62.717		77.6234
-21.4794	-63.1311		80.6485
-3.90422	-60.6753		86.2588
0.413181	-60.4423		86.473
-4.51295	-44.0543		86.4648
-9.36185	-61.2841		85.2643
-27.8946	-58.6854		75.0836
-81.0543	-12.9178		-41.8253
-82.2383	-4.01171		-42.6276
-79.1287	-2.68872		-47.6886
-77.689	-12.7224		-46.8573
-75.9689	5.44243		2.50703
-77.5526	20.9872		-6.82184
-79.5241	20.172		-25.7852
-80.1726	12.1995		-21.5736
-77.8167	-27.1747		-35.365
-75.8459	-34.191		-31.2866
-79.6135	-20.4201		-38.9892
-75.3064	-22.5962		-44.0075
-84.9244	-2.04839		-41.2733
-84.3288	-12.6956		-40.232
-82.9365	-30.2619		-30.5266
-85.4054	-22.0396		-35.0919
-79.9753	-38.0242		-23.7185
-77.4807	-39.8289		-20.5068
-90.0703	-12.4209		-31.5174
-92.4432	1.88556		-35.622
-75.5238	-20.2902		1.90699
-74.8436	-28.6013		0.596054
-80.311	-17.7536		-9.53331
-80.6951	-21.7991		-10.1244
-80.0448	11.539		-20.2392
-89.0027	-2.20309		-41.5458
-88.3157	20.1317		-21.8833
-89.9743	19.0857		-19.755
-87.0585	19.1122		-24.1374
-84.737	3.49826		-10.9061
-93.4788	9.39763		-35.4291
-91.1158	-2.86966		-30.3676
-90.7632	-0.070989		-28.997
-84.4457	8.56227		-36.0779
-82.5739	5.93866		-39.2371
-80.8316	-26.4138		-33.8431
-79.9744	-1.64624		-5.96991
-82.7759	12.7803		-28.9798
-82.0001	11.725		-31.5071
-89.7158	11.2904		-21.6364
-86.3407	-8.31936		-24.4114
-16.1498	93.796		58.1749
-15.2671	79.8198		71.0767
-14.164	65.813		80.2261
-23.7922	53.5688		84.3961
-2.55092	-25.6686		107.112
-3.14228	-15.1534		112.839
-12.9976	51.833		86.7294
-11.7795	43.5767		87.6663
-3.02341	24.8922		86.0588
-28.3478	90.7128		56.3702
-23.5705	46.5206		85.6429
-25.2465	39.85		84.3312
-27.6048	29.3004		77.0201
-20.4217	27.2933		76.4202
-39.1621	86.3579		51.9304
-41.3201	98.2425		32.5111
-34.8587	29.4472		76.251
-48.6806	70.6593		53.7354
-43.7278	32.4841		73.8788
-59.2368	64.9335		39.5504
-49.4125	28.5453		68.0789
-12.5508	30.3229		82.783
-68.8451	-58.7528		-15.022
-80.1023	15.5201		-37.9069
-77.4631	24.6984		-49.7615
-75.0109	-0.785542		-59.8854
-72.6766	-14.8594		-57.5904
-79.8705	7.70981		-45.0052
-76.3238	12.9679		-58.0363
-69.2997	-28.2113		-53.0229
-13.6792	-107.405		55.6173
-25.9392	-104.838		47.534
-53.9768	-77.8197		40.6755
-68.3784	59.1448		20.2981
-16.2713	109.297		35.8791
-29.6295	104.904		34.9695
-47.421	20.6512		65.1012
-54.351	-69.4654		49.7447
-7.39258	-39.9932		95.7834
-18.5856	-42.9877		89.8089
-6.58537	-35.5787		95.4187
-11.0264	-36.4446		92.9706
-12.6763	-41.2637		93.3564
-33.9392	-47.5164		80.9216
-33.4044	-54.7116		79.7018
-73.5131	-43.7602		-22.3083
-72.5741	-30.3754		8.4277
-73.2558	-21.2371		9.69487
-71.2743	8.36548		20.2177
-70.461	-7.1265		23.7714
-48.038	11.3072		62.7689
-70.1057	-20.1204		23.7933
-69.6716	-31.0366		22.5977
-13.7413	-8.62435		91.4244
-15.8432	-22.8826		92.5502
-13.845	-21.4881		96.9927
-32.7035	-38.08		81.5456
-51.6212	-53.4797		64.2246
-42.1195	-49.9646		75.2518
-47.8257	-63.2171		65.4183
-61.7256	-32.882		52.2629
-32.602	-77.3751		75.8723
-41.2263	-70.9663		69.5768
-46.0741	-2.02418		67.4523
-43.3131	3.43086		68.1276
-40.0904	-58.0078		75.2515
-35.9611	-64.0683		76.5964
-14.0582	-75.3524		89.2724
-30.5364	3.23286		73.0677
-9.14552	-15.2016		106.451
-66.4947	-20.6964		39.0922
-66.3935	-32.3299		37.5474
-7.25592	28.0605		84.2343
-16.6631	-36.756		89.2899
-20.1791	-52.5323		82.5156
-19.1328	-46.0969		80.8915
-34.7624	-141.665		19.928
-43.6463	-138.399		12.5175
-45.9627	-151.822		10.549
-36.9443	-154.595		17.1599
-43.955	-106.211		16.9707
-34.7529	-110.895		27.3888
-42.1808	-118.696		14.9795
-32.9922	-122.096		24.3555
-31.1294	-59.3647		79.7014
-53.9274	-89.7523		11.8859
-57.7767	-80.339		18.0385
-51.1974	-135.014		4.63307
-53.5186	-148.525		2.84282
-61.1666	-77.0807		4.96916
-58.7428	-86.1523		0.0336585
-62.2345	-84.4932		-10.1388
-61.5875	-99.3838		-35.5694
-74.2755	-35.2039		-2.04039
-62.6143	-82.7036		-34.1671
-55.6074	-110.478		-51.1281
-56.1704	-127.462		-53.0546
-26.9885	-156.787		22.8327
-24.7225	-144.022		26.7681
-22.8875	-113.604		38.4354
-21.9371	-124.19		33.8202
-25.2122	-59.754		82.3601
-15.7465	-54.4919		85.8664
-15.9546	-56.0152		84.7122
-17.0401	-158.299		27.2837
-15.6264	-62.2819		83.3484
-74.5747	55.3295		-1.60074
-50.0119	-84.2811		-59.5794
-49.0531	-105.677		-61.3617
-56.0004	-90.3495		-49.2426
-49.2252	-123.534		-63.7783
-58.3917	-68.6038		-48.2491
-15.5986	120.669		5.79397
-29.8434	115.652		5.90264
-15.2126	113.075		-65.6311
-14.0554	92.5032		-94.9521
-28.3916	89.7169		-91.3331
-29.98	109.199		-62.4323
-14.0596	66.658		-111.48
-27.3059	64.5339		-107.952
-30.1971	117.908		-28.0293
-15.5112	122.653		-29.85
-13.5295	39.9861		-119.511
-26.326	37.8937		-115.937
-12.5504	11.5749		-121.406
-25.2771	9.96379		-117.468
-23.7022	-16.2042		-112.033
-11.6808	-14.7152		-116.059
-10.9857	-39.8629		-101.826
-22.1013	-40.2945		-99.3895
-9.81768	-77.2841		-85.0751
-9.5183	-96.6967		-83.3501
-19.7117	-97.9027		-81.692
-20.6759	-78.7163		-82.7599
-9.49778	-115.766		-82.6888
-19.6408	-116.333		-81.49
-10.7844	-56.8571		-91.3374
-21.9697	-58.7877		-88.5259
-42.7795	107.642		5.17215
-54.2763	97.0844		3.57741
-52.6865	78.0952		-77.544
-41.4116	84.8915		-85.2903
-40.6081	60.793		-101.46
-52.0123	55.9967		-93.123
-53.7372	93.603		-52.5299
-42.4618	102.885		-57.954
-55.3268	98.8767		-24.7539
-43.6012	109.845		-26.3082
-50.6784	31.7314		-101.162
-39.4254	35.0485		-109.413
-37.8322	8.1911		-111.005
-48.5182	6.68107		-102.884
-45.3794	-18.3672		-98.0431
-35.6149	-17.6728		-105.649
-33.8008	-41.5983		-93.5466
-44.2131	-41.7347		-85.5938
-33.1856	-60.6786		-82.8011
-39.9524	-101.49		-71.2129
-41.7455	-81.0884		-69.8446
-31.809	-80.0686		-77.6734
-30.1522	-99.6596		-77.8254
-30.0976	-117.665		-78.4309
-63.5501	81.6438		-45.5799
-62.0191	69.4518		-68.4709
-69.8671	58.7133		-56.8567
-71.5095	67.5133		-35.2605
-71.81	70.5227		-12.9937
-64.9315	85.5919		-21.4238
-59.7994	27.8964		-91.7039
-61.1742	50.1033		-83.61
-54.3223	-18.8531		-87.9128
-57.9757	4.63807		-92.5804
-52.0619	-40.2053		-77.2179
-73.9217	33.846		-61.0295
-61.6832	-18.3893		-77.3542
-67.7066	-16.8197		-67.3719
-70.8373	0.804939		-70.856
-65.0815	2.67506		-82.1376
-72.3759	17.7682		-69.8359
-66.7767	23.2964		-81.4994
-68.421	42.7137		-72.8532
-60.4612	-48.5704		-54.125
-63.8621	-33.0862		-60.9026
-58.1621	-37.263		-69.0821
-93.1337	10.1293		-36.0697
-91.3621	10.7957		-37.289
-91.8975	17.9197		-28.2516
-90.0299	19.0586		-29.389
-87.0692	14.4633		-13.7123
-85.3799	15.3399		-15.6807
-83.3533	14.7182		-18.7085
-89.6061	9.20174		-38.2177
-88.8201	17.642		-30.6581
-92.4864	-1.91627		-38.2323
-90.7351	17.8758		-18.9911
-92.5076	16.6649		-27.7969
-40.3621	-120.14		-72.4492
20.2697	-97.5806		78.527
17.4326	-99.0256		78.4726
22.4493	-97.3085		75.2177
21.1201	-95.3963		81.299
63.7564	-5.84254		47.8001
62.0328	-4.81988		51.0453
64.1431	-9.10197		47.1905
64.6787	-2.29913		44.3862
60.3288	-3.12534		53.2476
60.2413	0.793927		51.9095
58.048	-4.26832		56.5113
10.4595	36.9062		88.8166
12.8874	35.4071		88.2302
13.3968	39.455		88.5775
8.21026	38.1979		89.1767
8.78549	33.4193		87.4167
8.54771	18.5695		81.187
9.14384	17.5367		80.3975
8.856	20.0838		80.427
8.09525	18.991		82.0205
11.2007	19.0188		76.3067
12.5203	17.6184		74.0908
11.7957	20.5682		75.8642
10.0881	20.6561		78.4813
10.8438	17.4926		77.0351
43.2251	15.5333		67.1522
39.9971	13.727		69.7007
44.9795	16.9946		65.3474
14.2792	11.5276		74.9625
13.9393	12.6097		74.682
13.9807	10.5616		76.0572
15.7208	10.7001		74.1989
25.0085	-53.782		80.508
24.8878	-53.6558		80.7498
25.1294	-53.9109		80.0879
24.8963	-53.7141		80.8109
23.8522	-52.4987		82.8345
24.1835	-53.1201		81.6506
24.8696	-52.9736		81.8753
23.9215	-52.0584		83.3558
22.3281	-52.1441		84.1043
27.8454	-53.7977		80.866
27.7974	-51.4049		81.9914
25.4714	-54.1331		79.264
24.9836	-53.3452		79.8482
26.2041	-54.1975		77.8612
25.2641	-54.4396		79.6228
20.8463	-57.0786		85.298
21.2841	-57.8564		85.0436
23.3827	-55.616		82.8476
20.7018	-56.4369		85.2993
18.0156	-58.0211		87.7378
18.3511	-47.8301		90.1305
17.8638	-46.5184		90.7417
15.3629	-46.3396		92.54
18.6317	-48.5964		89.7201
20.8102	-49.3233		87.7996
24.1732	-53.7477		81.574
24.2673	-53.7836		81.5642
24.2885	-53.7531		81.4704
22.6818	-53.7659		82.4755
77.7587	-35.2535		-6.85631
77.1394	-35.6584		-6.00141
77.5922	-38.8223		-9.82431
78.3028	-34.2682		-6.8109
86.3593	-26.1585		-18.8305
86.9836	-24.328		-21.5462
85.1121	-24.5072		-17.6525
85.7597	-27.2942		-16.3277
86.9192	-27.5197		-19.4863
80.8969	-32.1897		-8.71461
80.9107	-29.5327		-8.09664
80.2077	-32.4671		-7.97163
81.7077	-33.4953		-10.3073
80.8583	-19.7335		-12.2657
80.8046	-18.6917		-13.1405
80.7811	-17.9447		-12.1156
81.0709	-20.2185		-10.9473
81.3443	-21.2674		-12.6092
85.991	0.0158607		-13.6749
85.5263	-1.97281		-14.3957
86.2959	0.813337		-14.2494
85.9881	0.570512		-12.7703
89.5782	10.9447		-17.9727
89.5506	11.5398		-16.9848
89.1795	9.99501		-17.933
90.9429	12.0822		-21.0647
83.6831	-17.5923		-19.3051
82.6173	-16.1099		-17.9178
83.1435	-21.3675		-16.5701
86.1602	-20.7499		-22.012
86.1721	-15.153		-23.274
88.1716	1.36613		-20.1563
88.5647	2.51205		-20.5303
86.7555	0.924554		-16.3313
88.1851	0.0409979		-21.1875
92.2028	-9.52356		-32.0414
92.0702	-9.30479		-31.4641
91.3751	-12.657		-31.5617
92.5841	-8.3915		-33.0176
92.9227	-6.73601		-34.7056
93.041	-4.57922		-33.6807
92.8792	-7.44894		-35.7556
93.1989	-3.66429		-36.0005
87.4963	-22.7011		-23.5488
87.9812	-20.4565		-25.4204
87.9967	-23.7663		-24.3627
89.6064	-8.98755		-27.8905
88.5589	-10.9734		-26.7066
91.0035	-9.27907		-29.748
89.5903	-7.62773		-27.6416
78.8056	-27.1644		-4.82774
78.9729	-29.4492		-5.48598
79.4792	-26.7537		-5.72625
78.4907	-26.3099		-4.18421
78.2777	-24.6688		-3.46819
78.548	-22.6093		-3.50115
77.8358	-24.8172		-2.57181
79.5255	-15.596		-4.03326
79.2404	-16.1466		-3.58052
79.9464	-15.9419		-4.92658
79.9295	-12.3912		-4.3154
78.9066	-16.9331		-3.0801
78.4745	-16.7864		-2.14714
78.8088	-19.3447		-3.3114
83.1482	-22.9405		-15.2526
82.907	-23.9679		-13.4365
82.5592	-10.8425		-12.6832
81.5173	-14.6733		-12.3332
82.5473	-11.3628		-14.1523
83.652	-7.00743		-13.0364
82.8726	-9.70854		-11.497
92.738	6.8664		-30.0584
92.8731	7.61347		-30.3256
92.563	6.43863		-29.483
93.0538	5.66953		-31.7982
93.0575	1.9665		-32.5719
92.8334	0.85814		-31.1313
93.14	0.270588		-33.4506
93.181	3.30164		-33.4178
92.7614	3.78173		-30.6592
88.992	9.36297		-18.0885
89.989	9.46969		-20.7205
88.3103	8.48074		-16.9358
91.1453	9.34867		-24.0218
90.6848	8.27881		-23.2906
92.4711	9.05132		-28.1016
91.7664	10.6427		-24.9334
38.9859	25.7848		73.5464
41.4265	24.7553		72.1639
36.014	26.4355		74.4059
25.8368	-96.8157		70.3525
24.6216	-98.5572		66.346
28.1618	-95.0498		70.353
46.0569	20.4471		66.4558
45.0428	22.0356		68.3915
46.7936	19.0549		64.9406
49.7661	22.3291		64.9033
51.7524	23.4998		63.6868
48.832	24.4865		67.1891
47.9187	21.6534		66.0494
50.2032	20.1326		63.0446
71.9069	-48.2143		-2.0482
72.9149	-46.6038		-6.73797
72.1998	-46.5604		-0.639096
71.2908	-50.5046		-2.39667
16.097	16.7524		70.7988
16.5746	16.0444		70.6132
16.1114	17.685		70.917
14.9116	19.2924		72.0555
16.5292	21.1497		72.3831
14.5804	17.8637		71.9166
7.52607	20.2196		82.8943
7.04063	20.3028		83.7241
7.57996	22.2231		82.7636
18.7812	-52.3584		85.6911
19.4936	-52.746		84.4146
19.1541	-52.0312		86.0919
15.7976	-51.7615		87.9475
65.3637	-72.0838		-6.87201
64.5077	-72.0201		-1.31252
64.8849	-74.9622		-8.76424
66.1631	-69.4179		-7.51267
77.2559	-4.37253		1.34267
76.2342	-11.5304		4.19198
78.3063	-5.1516		-1.29221
78.3043	3.31145		-2.37377
75.8802	-3.30869		5.71709
66.0365	-75.1714		-20.4299
65.5496	-77.4891		-22.1251
66.6336	-70.6148		-20.9237
65.4111	-77.55		-15.6212
63.5866	-111.608		-25.7397
63.7594	-120.157		-27.1852
62.0354	-107.944		-33.5474
63.439	-102.502		-25.6508
63.7694	-114.223		-19.543
24.5227	-54.1549		81.6228
24.6647	-54.3042		81.5942
22.992	-54.6114		82.8262
24.8943	-54.5548		81.5733
20.3835	-55.9975		85.4667
20.4957	-55.5203		85.2165
17.5452	-56.3655		87.8973
29.9456	-93.3389		70.4352
33.5376	-92.083		64.6597
30.1042	-90.8625		73.9835
49.705	-62.127		-65.7101
48.4009	-58.2078		-69.8514
52.3267	-61.0918		-61.9168
48.7747	-65.3201		-65.4719
54.6435	81.0491		34.9028
56.5872	83.0759		27.6849
50.8817	84.2376		37.6528
55.3438	76.9059		37.9382
89.5945	-19.2931		-32.7412
90.9902	-14.245		-35.6961
90.0753	-18.4757		-31.7339
88.3737	-23.4842		-30.0705
89.0214	-19.3524		-33.9808
82.8023	1.14574		-8.06189
81.9087	-3.14152		-6.82623
83.8497	1.05554		-8.73136
83.6927	5.41944		-9.76447
81.468	1.31988		-7.33621
80.6442	-20.1585		-7.10153
80.1389	-20.827		-6.00942
81.2064	-22.7986		-8.32483
81.0946	-20.4259		-8.68579
80.5771	-18.4767		-6.80179
80.6628	-26.6218		-7.369
80.0542	-23.7728		-6.15409
81.57	-26.3457		-8.75467
92.0565	-8.4769		-38.2186
91.3092	-8.48528		-39.0312
92.72	-2.28141		-39.3574
92.495	-8.47863		-37.3599
90.3131	-8.36162		-39.6968
89.4732	-13.9293		-37.6576
89.2672	-8.13361		-40.0774
90.7884	-2.31119		-40.6543
80.344	5.30408		-8.65124
80.7367	7.5458		-10.4744
80.0889	6.35147		-8.33123
80.306	3.66727		-7.46655
86.3405	-17.5536		-36.9664
84.6247	-17.0133		-37.7637
87.0733	-13.1425		-38.8481
87.41	-18.1463		-36.2481
85.2299	-21.4782		-34.9991
88.2147	-24.8507		-25.1476
88.8556	-21.759		-27.6554
87.7595	-26.8252		-22.9575
88.1402	-25.8151		-26.3454
85.599	-33.5562		-23.005
84.9004	-35.3684		-20.1059
84.2953	-34.9849		-24.032
86.6357	-30.3699		-25.7711
86.8999	-30.8168		-21.6091
86.032	-31.7034		-16.3156
85.5285	-33.4363		-16.6261
86.6059	-30.61		-17.9549
85.5332	-30.9955		-14.9891
75.3884	-42.2851		-12.0249
74.8906	-43.2687		-12.4997
76.5205	-41.3778		-13.7524
75.2277	-41.2412		-7.68138
80.2143	-38.7041		-13.2074
80.6875	-39.5163		-15.6027
81.4098	-37.3041		-12.8321
79.5656	-36.8198		-10.1785
79.1753	-39.5717		-13.4184
86.7532	7.66624		-10.9857
86.7852	9.16342		-11.108
85.2994	4.17378		-10.1202
87.0879	7.63072		-11.3521
86.7667	10.0841		-11.3497
88.2408	13.3736		-13.3091
86.3902	10.0626		-11.3603
92.6983	-8.30346		-36.6096
91.7174	-12.9808		-34.025
93.326	-2.62889		-38.0668
93.7323	6.05793		-34.7748
93.5072	5.03648		-34.4907
93.8917	5.39546		-35.6486
93.6353	7.61415		-33.2621
87.8691	8.6766		-13.0819
87.706	8.44694		-12.5416
87.4179	7.10687		-13.3204
88.4262	10.2681		-14.0723
87.2952	7.58182		-11.7247
86.448	4.41054		-11.62
88.4696	11.8143		-13.2241
91.7712	-9.27569		-30.8741
92.4363	-6.32363		-31.2199
90.4446	-12.847		-29.7755
87.1592	5.52099		-14.8283
87.6157	7.12877		-15.3686
87.0474	5.36795		-14.3565
87.5226	4.60753		-16.5936
88.0572	7.92397		-16.5493
88.6281	7.51511		-18.5099
87.6729	-14.0719		-25.696
88.3734	-15.8757		-26.7586
82.9862	-8.86611		-10.3667
84.0968	-4.47968		-10.5171
82.7621	-8.84241		-9.27108
81.909	-13.557		-10.3102
86.4445	1.22854		-14.5568
86.6722	2.97748		-13.9849
54.0009	-59.0607		-59.9943
54.2519	-54.3772		-62.6784
55.3985	-59.256		-57.2326
25.0065	-24.2805		81.7126
26.2853	-27.9952		81.9002
25.5011	-22.7202		81.3304
23.214	-23.9007		82.4832
20.478	-22.1491		84.4383
20.9654	-23.1824		83.9167
20.863	-19.2802		84.4739
19.4813	-22.7183		85.7449
50.6673	38.2035		67.7002
50.8452	36.0664		68.1327
54.9477	34.1706		62.457
50.6741	40.0037		66.8954
45.4054	40.409		72.5614
8.96067	-28.3909		94.7434
8.3456	-27.9698		95.969
8.70906	-29.0869		94.5314
10.1208	-28.2508		93.7437
10.7624	-25.4484		97.8291
9.34616	-25.9841		98.7366
11.8407	-25.8722		95.3413
11.4296	-24.4543		98.7245
45.663	17.8771		65.0103
45.3721	18.5423		65.381
16.8069	-17.1278		96.0159
16.8677	-18.0306		95.7917
17.1456	-16.9067		95.0393
15.8609	-16.6516		98.0718
84.1041	-25.5182		-32.7834
82.9466	-28.0829		-31.3086
82.7687	-23.9442		-34.2485
85.1413	-26.6289		-31.6458
64.4412	77.9473		14.6734
62.1319	81.491		15.8903
64.9068	73.3175		19.2952
66.6637	78.5782		4.83077
27.1071	-59.5101		76.7457
27.5851	-57.7259		76.06
27.456	-60.409		76.2381
25.9817	-59.1369		77.9636
26.3093	-49.0746		76.0614
24.9669	-49.2146		77.5299
26.362	-47.9347		75.4772
27.0801	-50.9045		75.6584
-17.5575	-100.224		77.018
-18.2133	-98.5428		79.457
-19.8733	-100.079		73.6169
-14.8213	-101.209		77.1791
-62.9758	-6.5228		49.4003
-63.764	-2.60933		46.0858
-63.3816	-9.87014		48.7866
-61.2143	-5.58938		52.6343
-59.3059	-3.82893		55.0457
-56.9662	-5.18261		58.2947
-59.0216	0.498225		53.7833
-10.9464	37.808		87.0332
-12.4422	35.4889		86.0152
-8.4731	34.3186		86.5096
-8.55178	39.1751		87.7102
-14.2397	40.2173		86.9123
-7.00738	18.6842		81.6444
-6.61283	19.0523		82.4088
-7.34111	20.1577		80.877
-7.61311	17.704		80.8211
-9.62306	19.468		77.117
-11.2277	18.2596		74.8225
-9.2113	17.8775		77.834
-8.5612	20.876		79.0056
-10.415	21.1269		76.5564
-42.3744	16.3141		67.9017
-39.1322	14.3433		70.5172
-44.137	17.8785		66.071
-12.8603	11.7823		75.6387
-14.5449	10.7863		74.7722
-12.6199	10.7416		76.7258
-12.5178	12.9538		75.323
-25.2983	-55.003		80.5019
-25.1851	-54.8815		80.7533
-25.1957	-54.9402		80.8134
-25.403	-55.1215		80.0763
-24.1321	-53.688		82.9099
-25.2391	-54.2176		81.8502
-22.4668	-53.2353		84.3376
-24.2003	-53.2279		83.4662
-28.1766	-52.5692		82.0794
-25.7015	-55.3167		79.2448
-25.5025	-55.6215		79.6051
-26.3413	-55.3118		77.8537
-25.257	-54.5438		79.8434
-20.639	-57.7652		85.7051
-21.1104	-58.5399		85.3558
-17.5993	-58.74		88.3374
-20.5204	-57.1667		85.7174
-23.4867	-56.7279		83.0241
-17.9685	-48.8546		90.4619
-17.534	-47.5055		91.0227
-20.4924	-50.4225		88.1601
-18.2146	-49.624		90.0898
-15.0902	-47.2585		92.7335
-24.4579	-54.9796		81.6088
-22.8761	-54.9637		82.6388
-24.5777	-54.9878		81.4934
-24.5546	-55.0178		81.5968
-77.2234	-34.542		-8.23309
-77.8774	-33.5734		-8.15555
-77.0378	-38.1099		-11.4817
-76.6105	-34.8496		-7.4125
-85.5922	-25.5061		-20.0039
-86.2052	-23.7135		-22.682
-86.1571	-26.8758		-20.7053
-85.0007	-26.6048		-17.5241
-84.3496	-23.8488		-18.7789
-80.9834	-31.419		-10.0704
-81.8727	-32.6571		-11.7817
-80.4632	-31.6362		-9.43352
-80.5406	-28.7155		-9.22207
-80.0774	-18.969		-13.1275
-80.0379	-17.9707		-13.993
-80.5723	-20.5333		-13.5736
-80.2903	-19.4623		-11.8006
-80.0042	-17.1889		-12.8978
-85.1382	0.684708		-14.025
-85.1356	1.24744		-13.0875
-85.4403	1.47625		-14.5977
-84.6749	-1.30612		-14.8017
-88.7279	11.5572		-18.253
-88.7014	12.1607		-17.2396
-90.0885	12.6634		-21.3918
-88.3285	10.6094		-18.2239
-82.6261	-9.62801		-17.8667
-85.1692	-5.83844		-21.0817
-82.089	-12.0538		-18.2962
-81.7268	-10.6682		-14.7709
-83.5286	-5.83747		-16.8823
-88.102	4.64387		-21.2
-87.7088	3.10771		-20.9813
-86.6655	5.24077		-16.932
-88.6932	6.24397		-22.0187
-90.0222	4.05914		-26.1434
-80.9113	-29.094		-31.9113
-82.1791	-27.6071		-32.6254
-79.7024	-28.9416		-32.4243
-80.7311	-31.4172		-30.3312
-91.3447	-9.04142		-32.8836
-91.7195	-7.91986		-33.843
-90.5253	-12.172		-32.4661
-91.2124	-8.81621		-32.2971
-92.0536	-6.28094		-35.5069
-92.1687	-4.11385		-34.4349
-92.3272	-3.2174		-36.7528
-92.0099	-7.00275		-36.5761
-86.7119	-22.1159		-24.6562
-87.1846	-19.9015		-26.4774
-87.2123	-23.19		-25.5016
-85.3813	-20.1561		-23.058
-88.7583	-8.46821		-28.6834
-87.7202	-10.4464		-27.5357
-88.7404	-7.10418		-28.4005
-90.151	-8.77413		-30.5625
-86.8474	-13.5316		-26.5924
-87.552	-15.3428		-27.7072
-85.3625	-14.5851		-24.1755
-78.1332	-26.3047		-5.80852
-77.7641	-25.4577		-5.1394
-78.792	-25.9153		-6.70499
-78.4952	-28.6114		-6.66011
-77.5408	-23.8066		-4.32412
-77.0994	-23.9377		-3.41287
-77.7876	-21.7536		-4.26385
-78.7277	-14.7679		-4.5164
-79.116	-11.5792		-4.69384
-79.1518	-15.1224		-5.44916
-78.4471	-15.3125		-4.07087
-78.1193	-16.0921		-3.58415
-78.034	-18.4983		-3.92162
-77.6891	-15.9356		-2.612
-82.3901	-22.2458		-16.3328
-82.3868	-20.7086		-17.6029
-82.1302	-23.2456		-14.4976
-81.7381	-10.1302		-13.2526
-80.7177	-13.9408		-13.0108
-82.0472	-8.99709		-12.0266
-82.8189	-6.31364		-13.5167
-80.2596	-15.7762		-12.5332
-80.4553	-15.7196		-11.6501
-91.8721	7.36537		-30.5863
-92.1862	6.15339		-32.3629
-91.6982	6.9427		-30.0101
-92.007	8.11009		-30.8464
-92.1876	2.44329		-33.2018
-91.963	1.34868		-31.765
-91.8949	4.27605		-31.2395
-92.3101	3.77266		-34.0349
-92.2697	0.739454		-34.1174
-88.1412	9.97595		-18.3896
-87.4596	9.10551		-17.2224
-89.1347	10.056		-21.0712
-90.2879	9.902		-24.4325
-89.8276	8.8377		-23.7048
-90.9073	11.1889		-25.3421
-91.608	9.56859		-28.5763
-89.2218	7.59317		-22.7989
-90.7751	7.02229		-27.0586
-87.7756	8.12354		-18.8463
-37.7972	26.875		74.2328
-34.8374	27.3699		75.0643
-40.2703	25.9547		72.9096
-23.5567	-99.6925		68.6957
-25.8304	-98.2021		68.4774
-22.6535	-101.1		64.7906
-44.9527	21.4393		67.3227
-45.7287	19.9651		65.8068
-43.8405	23.196		69.3132
-48.619	24.0757		66.2869
-47.6052	26.732		68.7656
-50.6195	25.2005		65.0037
-48.7273	21.0976		64.2968
-46.8713	22.9355		67.0629
-71.5138	-47.2624		-4.36623
-70.9411	-49.5728		-4.88407
-71.7863	-45.6017		-2.81641
-72.4809	-45.7572		-8.9394
-16.4986	17.4629		70.7509
-16.851	16.7577		70.585
-16.7362	18.4096		70.8662
-14.8529	20.12		72.2726
-16.3762	21.8467		72.7702
-14.3094	18.6399		72.1892
-6.14617	20.2073		83.1574
-6.19299	22.2311		83.1014
-5.68958	20.2812		83.9389
-18.5853	-53.3073		86.0837
-15.4126	-52.6035		88.45
-18.9347	-52.9953		86.4808
-19.3917	-53.7337		84.7376
-65.3308	-71.5755		-10.5061
-66.0704	-68.8192		-11.0272
-64.8205	-74.6101		-12.3976
-64.5946	-71.3682		-5.21115
-76.4156	-3.5302		1.40414
-75.4275	-10.6362		4.18971
-75.0361	-2.43008		6.00599
-77.4547	4.10293		-2.31326
-77.4716	-4.33709		-1.36974
-65.6151	-75.0652		-23.4767
-65.1399	-77.4241		-18.959
-66.1587	-70.4035		-23.8686
-65.0875	-77.4889		-25.1256
-63.26	-112.288		-28.3131
-63.3951	-120.876		-29.502
-63.5122	-115		-22.3014
-63.1091	-103.064		-28.4121
-61.6369	-108.519		-35.8752
-24.8095	-55.3951		81.6533
-23.1613	-55.7774		83.013
-24.6589	-55.2428		81.6768
-24.9374	-55.5397		81.6241
-26.4707	-55.0893		81.0275
-25.6824	-56.3441		81.4957
-20.2053	-56.7668		85.908
-17.1308	-57.1383		88.536
-20.3525	-56.348		85.6449
-27.6165	-96.7031		68.361
-27.5131	-94.8746		71.4288
-31.6392	-95.0596		62.5516
-48.9652	-62.18		-66.8972
-48.038	-65.3942		-66.6664
-51.6223	-61.134		-63.2255
-47.6077	-58.2451		-70.8834
-54.7841	81.9404		34.5094
-55.4913	77.9141		37.5406
-51.1434	85.0612		37.2284
-56.6183	83.8518		27.3481
-88.7601	-18.8343		-33.8169
-90.1293	-13.8114		-36.6601
-88.1803	-18.9107		-35.0617
-87.5716	-23.0014		-31.251
-89.2435	-17.9992		-32.7809
-81.9434	1.88381		-8.22405
-81.058	-2.38199		-7.03355
-80.6187	2.06053		-7.47882
-82.8394	6.13023		-9.90794
-82.985	1.79165		-8.91074
-79.8678	-19.3506		-7.85166
-79.3666	-20.0012		-6.76127
-79.7974	-17.6709		-7.47686
-80.3202	-19.6425		-9.4898
-80.4365	-21.9976		-9.21038
-79.9933	-25.8062		-8.36162
-79.3092	-22.9432		-7.03942
-80.8762	-25.5516		-9.77085
-91.1811	-8.06235		-39.072
-91.6223	-8.05161		-38.2106
-91.8354	-1.87562		-40.106
-90.4313	-8.08231		-39.886
-89.4372	-7.97192		-40.5489
-88.6105	-13.5207		-38.6138
-89.9068	-1.9302		-41.4076
-88.4003	-7.75034		-40.9231
-79.5102	6.03751		-8.78985
-79.4665	4.40745		-7.58558
-79.2561	7.07515		-8.43549
-79.8978	8.2665		-10.6315
-85.5088	-17.1305		-38.0003
-83.7962	-16.5813		-38.7899
-84.4185	-21.0387		-36.1291
-86.5722	-17.7254		-37.2944
-86.225	-12.7315		-39.7897
-87.4369	-24.2941		-26.3324
-88.0564	-21.2326		-28.7626
-87.3649	-25.284		-27.5753
-86.9954	-26.2417		-24.1918
-84.8746	-32.999		-24.5094
-86.1674	-30.228		-22.9909
-85.8789	-29.8448		-27.1605
-83.5622	-34.4477		-25.6051
-84.2238	-34.7749		-21.6735
-85.3474	-31.0271		-17.6695
-84.8598	-30.3013		-16.2566
-85.884	-29.9471		-19.2952
-84.8904	-32.8066		-18.029
-74.847	-41.5351		-13.9473
-74.7323	-40.4264		-9.524
-75.9551	-40.6527		-15.6076
-74.3664	-42.5227		-14.4789
-80.0827	-37.6383		-14.695
-80.2299	-38.7767		-17.3331
-78.6643	-38.8069		-15.1317
-79.7637	-35.824		-11.9333
-81.4916	-36.2945		-14.4078
-85.8913	8.3614		-11.1375
-86.2309	8.3175		-11.5191
-84.4332	4.88912		-10.2896
-85.9232	9.85702		-11.2432
-85.9061	10.7688		-11.4765
-85.5442	10.7469		-11.4856
-87.3819	14.0324		-13.4464
-92.855	6.51683		-35.3629
-92.7627	8.08646		-33.8153
-93.012	5.84459		-36.2555
-92.6316	5.49912		-35.0911
-87.0192	9.33895		-13.2806
-87.579	10.9189		-14.2753
-86.5673	7.76889		-13.5442
-86.8552	9.11396		-12.7343
-86.4422	8.26083		-11.9079
-87.6203	12.4738		-13.3919
-85.5939	5.09648		-11.8431
-90.9153	-8.78083		-31.7
-89.6022	-12.3425		-30.6703
-91.5695	-5.82605		-31.9897
-87.2051	8.55316		-16.8344
-86.7621	7.77111		-15.6401
-86.305	6.17063		-15.1117
-86.1916	6.02326		-14.6288
-82.1586	-8.14122		-10.8421
-83.2611	-3.76846		-10.8789
-81.1012	-12.8242		-10.9293
-81.9353	-8.09888		-9.70162
-85.5894	1.88787		-14.9053
-85.8139	3.64144		-14.2898
-85.8989	1.56589		-16.7264
-53.3106	-59.083		-61.3566
-54.7273	-59.2655		-58.6838
-53.5168	-54.3757		-63.9261
-24.5597	-25.3129		82.3646
-22.5644	-25.043		83.1603
-24.9729	-23.8167		82.0088
-26.2921	-28.7183		82.3947
-19.5623	-23.3851		85.1405
-18.6014	-23.9117		86.3154
-19.9082	-20.6662		85.2013
-20.0859	-24.346		84.6207
-49.3194	40.8953		69.3328
-49.4403	39.0651		69.8219
-44.1999	42.8886		73.67
-49.5296	42.4785		68.2611
-54.0245	36.7479		63.9824
-6.58868	-27.5721		97.2297
-6.76516	-27.0745		97.869
-7.38809	-27.9422		95.9826
-5.45765	-27.8895		98.0536
-6.92701	-26.4554		99.0129
-7.97954	-26.0029		98.6112
-5.70837	-26.3217		101.005
-44.7586	18.7849		65.7586
-44.4479	19.5541		66.1719
-15.3829	-17.7106		95.9554
-14.2188	-17.0748		97.9922
-15.8044	-17.5997		95.005
-15.4882	-18.6263		95.7528
-64.2221	78.6732		14.4821
-66.343	79.1979		4.66238
-64.6957	74.1567		19.1431
-61.9662	82.1805		15.6518
-26.7711	-60.422		76.7369
-25.7792	-60.0902		77.9414
-27.0073	-61.3152		76.1942
-27.3527	-58.6679		76.0685
-26.46	-50.0046		76.2483
-27.1606	-51.8601		75.8065
-26.4632	-48.7396		75.7365
-25.171	-50.2318		77.6738
-9.4379	-25.5893		97.7377
-9.96213	-24.6121		98.6131
-10.741	-26.1628		95.3561
8.28883	-26.5081		99.105
7.31503	-26.4406		101.008
7.94328	-27.1515		97.9285
7.64848	-27.6642		97.2583
6.55604	-28.0576		98.0862
-8.08172	-28.4899		94.7597
-9.25841	-28.4827		93.7932
-7.88739	-29.1543		94.5345
80.8985	-35.0971		-26.1903
79.1281	-35.685		-25.9595
81.4664	-31.9186		-28.8903
82.0872	-35.439		-25.5475
79.7627	-38.3805		-22.6989
70.422	-46.6772		12.9398
69.1637	-47.9713		20.838
69.6592	-51.4297		11.8621
71.6147	-45.0763		6.0085
71.0008	-41.7133		14.0395
59.8313	-118.483		-5.41355
59.4944	-108.216		-4.93611
57.2671	-119.74		-0.932503
60.5639	-128.723		-6.5429
61.833	-117.051		-10.0088
61.3242	-136.11		-7.80669
61.9727	-141.929		-9.03481
63.0425	-134.223		-12.5755
58.9405	-138.065		-3.06879
53.7497	-103.221		5.4662
54.3503	-97.1606		6.54355
50.3956	-105.093		10.3073
53.6906	-110.866		4.50415
56.9472	-101.819		0.29098
62.8469	-99.2752		-13.3648
62.8409	-106.336		-13.8338
63.6891	-97.844		-18.6413
63.0145	-93.7185		-13.0233
61.4266	-99.9887		-8.89395
63.7446	-67.6723		24.2538
65.0273	-63.4713		25.9144
61.6704	-69.4197		32.0225
62.2284	-71.8397		22.075
65.1349	-66.1692		16.3938
69.9206	32.7193		24.1003
71.1033	40.6957		19.6264
65.6756	35.712		35.0068
69.1481	25.1188		27.1213
73.816	31.1295		12.28
78.2198	42.6953		-29.1421
77.9741	39.5329		-38.8505
76.8513	49.7567		-34.3435
78.2301	44.5734		-18.4754
79.1626	35.2839		-24.2722
7.28763	-118.626		44.4862
4.27617	-118.781		45.18
8.18209	-125.107		42.427
11.0202	-118.162		43.348
7.40889	-114.06		46.8582
9.70333	-135.591		38.3082
10.8855	-146.223		33.9525
13.5076	-134.673		36.8422
6.25419	-135.836		39.4054
3.8742	-154.213		32.7034
7.68996	-153.862		32.2085
3.50557	-146.933		35.4558
0.192568	-154.256		32.8659
4.30538	-159.135		30.9526
68.1276	-54.2449		-31.7748
70.4515	-48.0318		-29.5801
67.7172	-60.7101		-26.3878
65.6833	-60.4941		-34.0171
68.7816	-46.553		-36.1224
69.6121	-41.0499		-39.2801
66.1105	-47.002		-42.5948
70.4614	-36.2623		-41.8105
72.5929	-36.3008		-36.1685
63.8631	-127.138		-29.1235
63.8062	-133.792		-31.4093
62.2848	-124.311		-35.9987
64.4345	-130.264		-22.6079
3.03485	-136.176		39.9518
2.27968	-125.652		43.927
-0.0345895	-136.227		40.1188
67.6391	-49.3697		28.7305
68.1925	-43.7759		29.059
65.8838	-50.1531		36.041
66.9931	-54.4029		27.8988
66.2341	-64.6425		8.53484
64.7852	-68.859		6.95792
67.0071	-64.0073		0.487914
67.5877	-60.244		9.71551
13.2204	-87.4309		91.7922
9.21915	-87.8802		92.9917
13.455	-91.2571		90.243
17.5857	-86.7827		89.8304
12.7022	-83.7305		92.287
21.5452	-85.3596		87.5605
21.8	-89.0563		86.2329
25.7435	-83.4829		84.3516
21.0791	-81.395		88.0262
4.21393	-80.4141		93.559
7.97362	-80.0047		93.0104
3.77899	-75.8224		92.4326
0.638798	-80.649		93.6685
4.82842	-84.682		93.9654
13.3437	-95.111		87.3782
13.2297	-98.1618		83.4866
17.7553	-94.1255		85.8124
9.23706	-95.5691		88.5535
13.2928	-100.408		78.6305
8.89439	-101.31		79.266
12.9925	-102.201		72.7708
15.1573	2.52975		81.4827
16.1335	-1.80676		83.6868
17.417	0.649557		79.6471
14.2618	6.4625		79.2179
13.0344	4.80264		83.5814
47.2677	-25.6709		71.3789
53.3209	-26.196		65.6777
46.4613	-20.4549		71.3145
40.7162	-24.666		75.7239
47.8586	-30.6711		71.2783
57.3819	-15.7116		59.569
61.3699	-15.4593		53.3244
56.0524	-10.2161		60.3602
51.8297	-15.0158		65.786
58.093	-21.2852		59.2772
65.0107	2.91664		41.9484
66.776	1.90822		37.3535
64.4456	10.4273		41.4122
62.9589	4.67406		45.9038
48.3869	-35.6191		70.7003
48.5444	-40.8146		70.2306
53.8064	-36.6738		64.8883
42.3277	-34.3925		75.4937
3.00576	2.94798		101.808
2.68945	8.76686		97.3492
1.43752	3.24694		101.959
3.33796	-2.02734		105.365
4.77992	2.37463		101.061
29.4149	70.3704		70.9465
24.4282	71.2062		73.1529
28.2792	63.986		75.2219
34.7894	68.9292		68.0179
30.6755	76.2867		66.5303
4.34253	-105.73		66.9517
3.52797	-107.798		59.6973
7.93235	-105.246		66.449
4.78347	-103.763		73.8384
0.924384	-106.007		67.0773
63.7194	-50.4668		43.0238
60.9335	-50.3452		50.0912
62.5557	-56.4797		43.0458
64.4292	-44.5401		43.2643
5.21429	-96.1398		88.9417
5.32356	-92.4972		91.7972
1.18009	-96.6294		88.7948
5.08443	-99.5053		84.5416
5.02032	-101.852		79.6003
1.31013	-102.179		79.595
40.1017	-83.8154		64.6719
35.2793	-85.7658		70.8445
39.3068	-87.0805		61.7583
44.8137	-81.082		59.2322
40.2822	-80.2058		67.7492
44.9041	-91.4103		38.2266
42.4077	-96.2604		33.4857
49.1575	-88.7127		32.5978
46.9383	-87.4147		42.5939
39.803	-94.33		43.7343
2.27926	-110.382		52.4742
5.18657	-110.369		51.9091
-0.520446	-110.487		52.4895
1.3322	-114.19		47.6555
7.96998	-7.36297		105.654
8.522	-10.9212		108.16
10.5674	-8.40153		102.507
7.44126	-3.1696		102.633
5.63103	-6.62223		107.497
25.4728	-19.9869		81.2325
28.7846	-21.9862		80.1657
24.1497	-15.0885		81.1938
22.3003	-17.0849		82.8361
27.2363	-54.7863		80.8975
29.2445	-54.5012		80.5325
12.844	-26.4399		93.0825
14.32	-24.9962		93.2213
12.1873	-27.405		92.5587
14.5427	-26.2659		91.1332
12.2609	-30.4226		90.7979
12.6413	-31.7626		90.6432
14.5419	-30.2097		88.8251
12.1797	-29.5076		91.0047
10.3435	-30.2869		92.5834
2.34265	-28.6104		101.622
2.49796	-27.7582		103.809
0.791968	-28.6587		101.881
2.35031	-29.552		99.952
4.01791	-28.4342		100.636
16.9409	-29.2778		87.0528
19.2035	-27.6735		85.4585
16.602	-28.2774		87.43
17.3651	-30.7367		86.9601
8.88527	-20.093		110.321
6.43769	-20.5975		112.79
8.52571	-21.8924		109.08
11.3849	-19.5814		106.446
9.0882	-18.4508		110.862
25.8677	-66.9016		83.1647
28.9545	-65.037		81.1949
24.3084	-64.0541		83.7357
22.1777	-68.358		85.4607
27.3913	-70.297		82.5944
27.3921	-48.619		83.4017
26.3431	-45.0085		84.7395
25.1563	-48.0154		84.8847
29.5878	-49.1996		82.1557
2.62112	-33.5045		97.2349
2.71785	-35.3965		96.8159
4.26518	-33.2145		96.8061
2.4884	-31.7829		97.953
0.643358	-33.6519		97.4085
6.90828	1.47413		99.3578
9.41791	-0.0179781		96.5507
6.5487	6.533		95.4177
18.6939	-18.0847		89.0904
17.9756	-16.6372		91.4069
18.1661	-17.6302		91.2672
18.8524	-19.5577		88.22
19.049	-17.5855		87.7218
5.46888	-29.9341		97.3174
5.34499	-31.4024		96.6942
6.88513	-30.0314		95.9826
5.5036	-29.0347		98.0222
4.09485	-30.214		98.1883
5.4191	-28.2994		99.2447
5.49548	-27.4672		101.107
17.5183	-17.0558		93.5667
17.2782	-16.2019		93.9302
17.8614	-18.5275		92.4282
18.6902	-22.2226		87.4115
18.1298	-21.1072		89.6257
17.8553	-24.8132		87.4307
3.05736	-42.4314		96.8893
3.32116	-44.4489		97.1512
5.40253	-41.7236		96.5426
2.8902	-39.7743		96.6285
0.603569	-42.9498		97.0662
22.9373	-32.4199		84.3345
20.6329	-32.7309		85.6188
24.0692	-36.5144		84.9979
25.094	-32.3375		83.3517
21.8385	-28.5859		83.936
10.0311	-65.4949		90.3211
9.71005	-63.9264		90.7646
6.5614	-65.9021		90.8725
10.4082	-67.492		90.065
13.6355	-65.0097		89.3144
23.1399	-50.4176		85.3205
23.5397	-51.0091		84.6733
25.5488	-51.5768		82.7976
22.9029	-48.9716		86.2234
17.0438	-15.5365		93.8653
17.0265	-14.5614		92.4867
15.807	-14.793		96.8034
17.0037	-64.3689		87.9344
17.6303	-66.4398		87.5946
20.1057	-63.4512		86.2221
16.4004	-62.751		88.3944
3.53439	-66.1408		91.1039
0.68068	-66.221		91.2026
3.71521	-68.0798		90.9337
3.27116	-64.6532		91.542
57.7136	29.3185		56.853
56.8895	28.3836		58.5299
59.1852	23.6555		52.0447
58.3913	30.5039		54.9564
38.5796	55.1824		71.8948
32.7589	56.7527		76.1378
38.4319	49.7644		74.8377
44.7702	52.603		67.0453
39.5437	60.9984		68.1024
50.9055	49.4818		60.9736
50.5575	44.775		64.193
56.5244	45.339		53.5406
51.9268	55.0406		56.7452
39.5368	41.7713		77.0563
39.0002	44.2541		76.7627
33.3154	42.9653		82.0618
40.1984	39.3268		76.8633
59.5453	31.8485		51.7438
60.3515	34.8795		48.7579
55.5788	37.5679		59.6028
61.994	25.5125		45.6276
20.8498	31.961		83.2101
21.9207	30.7381		81.19
24.8921	32.5249		82.3447
20.2689	33.7292		85.3708
17.9939	31.2586		83.2164
6.23976	16.9915		86.6909
8.41683	14.7398		84.2764
6.24008	18.9578		85.5318
3.91395	18.6489		88.2789
6.27755	14.521		88.4875
28.5464	-4.51262		75.553
30.4059	-8.84235		76.4204
35.3215	-5.4398		73.509
26.6351	-0.57779		74.8432
22.8696	-2.81421		77.3484
55.8641	7.95842		55.212
58.0315	6.48809		52.9965
56.6789	12.3783		53.7472
53.6725	9.7347		57.2528
53.8115	4.49758		58.4457
6.39901	11.0762		91.3937
8.77865	9.00734		89.0709
4.18277	12.5642		92.8691
40.8226	37.1911		76.5815
46.2094	36.171		72.7442
34.9705	37.1056		80.2726
40.9749	35.1797		76.2837
50.7337	34.1007		68.4968
50.2611	32.1041		68.9045
54.0538	30.9556		64.1248
53.4451	17.4897		58.3583
53.4846	21.1809		60.2119
51.6612	17.6334		60.2525
52.9997	14.1028		57.8604
54.9882	17.4156		56.545
42.301	22.0538		69.9638
43.8368	20.8603		68.2094
40.5901	23.1092		71.4682
38.6177	24.0646		72.6146
36.3638	24.7425		73.3064
38.7624	24.9094		73.0668
36.0937	25.5482		73.806
40.9705	23.9433		71.8281
33.5734	25.0938		73.6813
30.7002	24.9786		73.7212
33.193	25.8389		74.159
30.088	25.652		74.1481
27.8644	24.3749		73.4577
25.232	23.2937		72.9488
22.1706	21.8921		72.2378
19.1461	20.4363		71.5505
20.8273	22.4894		72.5881
17.9312	20.9294		71.9376
23.998	23.8744		73.2898
16.9805	19.0284		71.1194
19.5053	22.9005		73.0544
22.9055	24.5449		73.867
32.8713	26.7188		74.81
29.4856	26.4776		74.7989
47.0391	16.6102		63.903
47.4658	17.6572		63.8519
45.9345	15.6823		64.6565
29.8021	33.0058		80.8434
35.388	33.3637		78.617
29.4797	34.4858		82.0953
30.243	31.5864		79.3628
46.8745	26.5587		69.9331
45.3204	25.1839		70.3345
48.3732	28.2604		69.5226
43.6661	28.0444		72.7234
36.3802	8.27626		71.0593
41.7157	9.20778		68.4531
29.7974	8.3843		72.6621
36.8561	6.62786		70.8567
23.7968	9.42467		72.8354
19.7785	10.8959		72.5923
23.6902	7.77927		73.1507
15.8706	14.1562		72.1363
15.2666	15.107		71.9559
16.8706	13.2441		72.177
35.6009	11.3836		71.4049
40.3689	12.4184		69.3892
29.8937	11.4481		72.5369
18.6882	14.2023		71.1912
20.6318	13.3743		71.6111
17.7146	14.7092		70.9752
16.971	15.1451		70.9122
16.2728	15.7086		70.9515
