1846
9.32345	-54.4426		95.3564
13.0847	-54.0323		94.3874
16.5302	-54.7462		91.6258
16.5203	-55.4869		90.561
28.496	-54.668		81.0555
23.446	-57.1587		83.9298
23.4046	-57.0631		83.6552
20.0091	-57.6879		87.8404
23.4917	-57.4268		84.3031
23.9961	-58.875		84.9296
23.7865	-58.3642		84.8512
20.9737	-60.6702		89.2444
17.9308	-61.359		92.4672
17.7055	-60.3472		92.2127
14.4063	-61.6614		95.3271
18.3872	-62.326		92.3656
9.60885	-58.8541		96.9174
9.90975	-60.4476		97.422
13.5093	-59.0796		94.8444
9.35672	-57.4462		96.3157
6.15923	-58.9673		98.109
3.49892	-62.8554		99.4795
3.58398	-64.2903		99.5372
6.55992	-62.2356		98.9281
3.37775	-61.2372		99.2339
0.673559	-63.1375		99.677
27.9309	-57.2731		78.4732
27.8832	-56.6974		79.1573
27.6732	-58.7152		77.7431
26.2889	-57.4255		80.0696
3.2185	-57.3809		94.1009
3.2776	-56.6129		95.5311
5.8326	-57.442		93.5247
3.05821	-59.1307		92.4947
0.801835	-57.4055		94.3118
3.69892	-65.5863		99.4091
0.69644	-65.9362		99.5626
3.80594	-66.696		99.1048
7.02513	-64.7571		98.9297
4.15956	-70.1957		96.6268
7.63947	-69.4752		96.2711
4.01678	-68.7312		97.8766
0.989763	-70.4822		96.7573
10.2596	-44.8266		99.8631
9.50696	-43.3873		100.011
7.88331	-44.6037		100.586
3.28359	-59.4721		98.7687
0.730637	-59.6311		98.9844
3.22363	-57.837		98.144
3.22045	-57.0035		97.6229
5.89505	-56.758		97.0304
3.3402	-56.6246		97.1499
0.888594	-57.1431		97.8307
9.22625	-56.7768		95.8497
12.9143	-57.0798		93.8059
9.17832	-56.5284		95.4566
3.4099	-56.4665		96.5173
5.92991	-56.369		95.9871
0.899306	-56.5532		96.6576
16.6597	-57.4922		90.9642
16.5471	-57.2595		90.5581
16.9719	-58.0735		91.3365
18.9229	-65.3544		91.8677
19.0385	-66.3929		91.3436
18.8056	-64.4		92.1556
15.4962	-65.9687		94.4861
11.3288	-66.2371		96.8788
11.52	-67.3868		96.134
11.1152	-65.241		97.3354
7.46949	-66.7849		98.1983
3.89744	-67.6737		98.6351
0.825685	-68.0154		98.7599
16.521	-55.639		89.9678
12.8786	-55.0645		92.6517
16.3963	-55.5287		89.405
30.6157	-56.0441		79.0621
29.607	-56.346		79.1445
27.8904	-56.4674		79.8558
26.3486	-56.9147		81.3506
9.12226	-57.599		92.3881
9.06212	-56.7551		93.757
12.8148	-57.772		90.6052
9.20465	-59.2047		90.9625
9.09508	-56.4739		94.8234
12.7471	-56.7885		92.7632
11.6004	-68.9402		95.0245
15.7028	-68.4969		92.8998
18.5977	-63.3814		92.3459
15.1138	-63.9197		95.1589
19.0691	-67.736		90.6017
22.0374	-66.2034		88.0333
16.0581	-55.0922		89.0353
12.8259	-54.5037		91.0711
15.3533	-53.4889		88.364
19.1208	-55.5098		86.5644
9.38373	-54.1209		92.7346
6.51792	-53.8022		93.4726
9.79967	-52.5667		91.0897
9.2055	-54.6026		93.8094
14.5438	-50.0155		87.481
12.0238	-49.5429		88.7332
14.0563	-45.6236		86.9238
17.1205	-50.4804		85.911
27.0289	-62.094		77.1573
25.9284	-66.1204		77.2615
25.4017	-62.3205		78.919
2.87529	-62.6757		90.9311
5.51195	-62.594		90.5031
3.23062	-66.9497		89.9766
0.626985	-62.7313		91.0898
9.52787	-49.1701		89.6582
6.88742	-48.8529		90.3527
8.9954	-44.7937		88.9287
8.90675	-62.5253		89.5369
8.93491	-66.8773		88.4665
12.5751	-62.5801		87.9884
29.533	-56.8091		73.0092
29.5165	-56.8754		72.6437
12.9152	17.0852		78.7912
12.3049	15.8832		80.6312
79.5086	-9.13156		-43.9689
78.7138	-13.5806		-43.1947
77.7819	-8.48123		-47.3586
80.1824	-4.49331		-43.9755
80.9211	-9.65527		-42.2408
77.6317	9.14285		-6.6663
78.3036	12.1073		-10.9102
76.4142	11.2312		-1.83196
78.7016	14.3038		-16.1326
78.5969	19.8564		-17.4618
79.0827	9.25034		-17.1422
79.6158	13.9425		-23.139
72.9341	-33.7037		-34.5005
75.2941	-31.4431		-32.8474
71.7864	-37.9369		-31.8821
74.2098	-29.7667		-36.3596
75.3311	-26.0645		-38.4713
72.8356	-28.0281		-41.3622
76.5724	-22.0469		-40.3321
77.5107	-24.8932		-36.5942
82.3421	-9.60539		-41.3511
83.882	-9.07775		-40.9781
81.6779	-13.8083		-40.4133
82.7713	-4.5541		-41.5621
83.7412	-28.0431		-31.2472
84.9891	-23.9531		-33.3626
84.3887	-28.4982		-30.0312
82.4028	-32.0912		-28.6869
88.3776	-18.2049		-31.4191
88.3361	-17.648		-30.6301
76.657	-40.8613		-20.2662
77.0953	-41.0903		-19.5579
76.0967	-41.5594		-18.1962
75.878	-39.9536		-22.3981
76.9626	-33.6964		-7.62644
76.6254	-34.3235		-7.57217
76.1963	-35.3211		-7.77576
88.2619	-17.2761		-30.215
87.6913	-17.8877		-29.2448
91.5467	-2.50339		-34.1787
91.6882	-1.83556		-35.6972
91.3441	-3.84775		-32.5222
91.8669	7.78612		-31.7584
92.1721	9.15893		-31.8778
92.2935	11.2607		-30.8489
91.6185	11.0445		-28.631
92.5047	11.7358		-31.2541
91.8494	13.3171		-27.7561
80.4299	-10.5555		-8.35029
81.8318	-5.00314		-8.99683
79.8323	-9.82777		-7.01152
79.393	-14.6701		-7.71575
74.6656	-26.9387		-1.03164
73.6052	-27.4405		1.74253
74.1227	-30.7041		-1.47886
75.1935	-22.5939		-0.584436
79.0439	-21.8005		-10.2187
79.3959	-23.8439		-10.7262
79.0539	-19.8119		-10.3765
79.0698	8.72048		-17.1491
79.6486	10.07		-20.6558
79.0954	8.71775		-16.9474
87.5966	16.477		-17.787
88.799	18.2302		-20.9548
86.7886	16.8775		-18.944
85.9049	13.2785		-14.8035
88.3329	15.7659		-16.8075
88.5723	18.9277		-25.9898
87.6139	18.644		-22.9478
88.8545	19.0594		-25.5156
89.215	17.67		-29.6746
87.7582	17.8581		-27.3351
89.7295	3.52492		-40.2983
88.927	3.04989		-40.4773
90.0646	9.53633		-37.4517
90.7715	3.77298		-39.7681
82.896	-0.314129		-9.63114
83.2079	-1.56534		-10.2918
92.4207	2.88883		-37.2218
92.8733	8.05403		-34.9955
92.0649	0.0611708		-37.3917
92.4846	2.79284		-37.5969
91.157	14.1747		-23.7695
90.0044	13.5734		-19.7561
90.9479	12.8106		-24.5074
91.2498	15.1695		-23.1618
84.5652	0.525938		-12.4448
83.9336	-1.27424		-11.8509
85.2171	2.89362		-13.1839
91.8513	3.55104		-34.4826
91.9938	1.49662		-36.335
88.6606	6.08126		-22.8348
88.1072	4.70469		-22.0525
90.2034	5.64272		-27.0245
82.576	-6.32868		-13.5898
82.775	-6.03971		-14.3022
83.0676	-4.70028		-12.5186
88.1315	-5.27898		-27.7135
90.3239	-2.58974		-29.6692
87.8393	-4.83553		-27.0819
88.002	-6.38432		-27.8659
75.7283	-18.5911		-0.656012
76.5283	-13.9482		-1.54311
74.7638	-18.8719		1.9128
83.028	0.731136		-40.0941
81.9472	0.150081		-41.2237
82.874	5.42657		-37.9731
84.0012	3.24755		-39.1519
86.4235	8.27133		-36.4772
86.1136	12.0522		-33.2509
88.8388	12.9775		-34.5802
86.6119	4.18267		-39.38
87.809	2.05543		-40.4348
86.5917	-3.51901		-41.2004
86.088	-8.57191		-40.8076
79.2354	-24.2517		-35.7426
78.1367	-27.4208		-33.8744
80.1859	-20.9726		-37.4682
80.9749	-17.5395		-39.0944
79.3526	-17.7789		-40.1198
87.0589	-17.8401		-28.2051
77.0346	-30.3842		-32.1182
75.7926	-34.0644		-29.7254
78.2435	-30.0764		-31.6718
75.6535	-37.9282		-25.0611
75.2218	-37.9449		-25.4018
74.7418	-41.3951		-20.3725
75.7281	-41.2634		-15.3341
75.2163	-41.5271		-15.175
74.6395	-41.7353		-14.8496
88.2314	-7.13158		-28.3449
90.3402	-5.71134		-30.5722
79.1652	-9.23049		-5.89303
78.3478	-8.84401		-4.64453
76.6791	-22.9789		-4.17217
77.0413	-23.1371		-4.84763
79.9184	-27.3693		-10.4283
80.9411	-29.3608		-12.028
80.1612	-26.2533		-11.3058
78.7417	-17.7169		-7.17436
79.2914	-17.8291		-9.41157
85.6965	13.8608		-30.0367
83.3279	10.1382		-32.8574
84.5943	14.4505		-26.677
82.4259	8.60617		-34.6468
82.0754	8.30917		-35.7136
81.634	10.6924		-30.3491
79.0524	-17.8245		-12.2382
79.2581	-17.7643		-11.3652
90.9115	4.69276		-29.4062
90.6947	3.16489		-29.0571
83.2939	-5.30699		-15.7631
82.6619	-7.62977		-16.7938
84.4673	-4.03013		-18.463
87.7949	-3.99364		-26.5778
89.699	-0.332445		-27.8221
87.1487	-3.95499		-25.1785
9.38555	86.3108		65.298
9.48118	79.2188		70.716
16.8319	85.6537		64.6488
9.46313	93.5527		58.2329
1.65926	86.2658		65.7013
9.43998	72.2828		75.0948
2.12797	71.6675		75.841
9.67745	65.1554		78.9021
16.4571	72.3813		73.988
30.875	58.7354		76.6831
31.6512	54.3585		79.2518
27.1174	59.3795		78.2108
2.63301	-23.096		108.891
2.97469	-21.6474		111.069
1.15552	-23.0712		109.307
4.55087	-23.0796		107.507
3.97487	-11.9507		116.598
6.3579	-11.8785		115.472
3.896	-9.89215		115.952
1.66945	-12.0074		116.962
4.02014	-13.8027		116.685
3.96084	-15.6544		116.252
1.71546	-15.8033		116.651
3.81965	-17.5161		115.243
2.78138	-27.2727		102.584
1.05596	-27.4315		102.807
3.49044	-35.9353		100.37
5.72128	-35.5139		100.013
0.994929	-36.324		100.526
3.48414	-19.5943		113.443
5.65234	-19.5678		111.972
1.40618	-19.5969		113.961
3.70366	-7.79749		114.816
6.06026	-8.11189		113.885
3.4844	-5.19389		112.821
1.43727	-7.6887		115.081
8.34617	48.9229		86.22
1.40982	48.5679		87.4432
7.44965	46.2816		87.0093
15.1715	49.3718		85.1047
8.80747	52.4336		84.9295
1.78669	23.1876		88.7905
1.79979	20.5054		90.5837
1.86232	25.345		87.6437
0.158357	23.4987		88.8768
1.99371	27.3807		86.8463
4.02441	26.3962		86.3662
2.1374	29.3619		86.3537
0.18259	27.6311		87.0086
3.68276	-53.5849		93.8167
0.808442	-53.6092		94.0872
3.95503	-51.9469		92.3482
3.37719	-54.4996		95.4608
3.32344	-54.6684		96.5387
0.890881	-54.7843		96.723
5.90037	-54.5674		95.9117
3.40636	-54.472		97.1406
4.6314	-50.6023		100.172
4.4248	-51.9518		99.4245
0.94682	-50.8693		100.571
3.91124	-53.4046		98.3239
0.927427	-53.5887		98.5555
4.80805	-45.2677		101.188
0.993906	-46.0063		101.56
3.871	-48.6435		90.821
3.46802	-44.3454		89.8239
0.610481	-48.5633		91.0297
22.9384	84.7098		63.6281
22.6272	78.4493		68.528
28.5473	83.2786		62.2233
23.4519	91.2824		57.0278
22.1298	50.2407		84.1376
22.191	48.0779		84.8432
27.5866	50.7599		83.3921
21.4154	53.9452		82.6544
23.6832	45.6784		85.0655
25.3274	42.5527		84.8989
28.7078	46.2717		84.2346
26.7459	40.1447		84.105
22.3202	39.6085		85.0566
30.3914	40.8694		83.4305
27.1973	26.4738		74.7406
26.8335	28.2981		75.7707
23.5429	25.3996		74.5102
31.0807	26.9722		74.7207
28.8076	24.2696		73.6704
26.4146	30.6934		77.3212
30.2857	31.0717		76.9087
22.8004	29.8501		77.3873
46.2905	87.2918		40.4516
47.436	92.5075		30.4751
40.8407	90.8968		43.2046
45.6437	81.782		47.6189
33.6507	81.71		60.1548
34.4877	87.4467		54.0567
39.0443	79.5481		57.2154
31.7463	50.5624		82.0063
32.5219	49.1334		82.3575
36.2507	49.8019		79.017
33.5896	41.3076		82.2368
33.5081	42.8332		82.6775
33.153	46.3856		82.5989
33.8229	30.7772		76.2096
34.2723	28.4381		75.0955
37.7657	29.8189		75.009
44.7833	76.7873		53.1234
50.4995	73.7056		47.8847
43.8681	71.8278		57.671
41.4122	47.6056		74.0169
46.2665	44.7359		69.8685
40.7149	25.0147		72.792
40.7873	26.5671		73.2512
37.9508	26.1938		73.8397
43.108	23.7318		71.2978
41.9744	34.222		74.7186
41.4706	31.4079		74.2318
45.2674	32.6112		72.5299
41.0183	28.6071		73.7244
42.8775	66.659		61.7008
48.6328	63.4987		56.6194
55.7919	71.0887		41.2192
54.9092	65.7356		46.1462
60.4429	68.7062		33.3227
43.9476	20.5991		69.1598
45.3146	19.2948		67.3095
45.1686	22.3405		69.3834
46.7184	20.827		67.3629
44.4764	21.3893		69.3221
48.54	30.6265		69.6651
51.6389	27.348		65.5409
19.1656	33.6124		81.1622
16.0748	31.7286		80.5665
19.272	31.4194		79.3254
18.7902	35.4075		82.7376
17.8107	37.1019		84.2199
14.4197	35.1717		83.7001
19.4357	28.1887		77.0386
19.8587	25.6474		75.2771
6.75565	42.5161		87.2682
1.55481	43.3425		87.5579
64.0331	-65.5971		-8.39165
65.4214	-60.4795		-6.48295
64.5185	-65.8531		-15.0133
78.7676	22.8705		-37.8757
78.6319	18.9875		-43.602
77.8775	28.5857		-42.6432
78.9152	25.1279		-29.6797
79.6991	17.0794		-32.6604
75.5487	-8.12118		-53.286
74.4905	-14.1691		-51.7498
73.4798	-8.23514		-58.9452
76.5498	-2.25309		-53.3198
77.2056	3.99169		-52.9449
75.4106	5.81195		-59.4691
77.7882	9.53795		-51.074
79.0499	1.85343		-46.6405
69.5354	-31.6553		-45.5022
66.5351	-35.0098		-49.4184
71.3063	-25.8417		-47.9767
9.26152	58.4038		82.2571
2.02211	56.9689		83.5494
16.0197	58.8152		81.1429
21.5972	59.1452		79.8969
22.032	65.6692		76.3559
19.3976	-101.136		54.2173
17.8441	-102.888		47.863
25.5444	-98.8747		48.7742
13.8962	-102.591		57.523
44.9064	-84.3292		41.9698
39.6864	-88.2973		46.8338
49.0347	-80.9839		37.4363
45.4645	-81.8063		45.8201
54.0852	60.0157		50.3976
58.8797	56.5333		43.2861
22.2811	72.2577		72.5679
65.0666	66.3371		23.807
68.9816	64.2929		13.8516
64.4749	59.7457		29.4478
23.7163	98.8176		47.4892
29.743	96.5926		46.7036
23.7961	106.024		35.7549
17.0295	100.371		48.1548
61.298	38.7507		43.8262
62.3724	45.8645		39.3735
47.517	18.9436		65.3392
56.069	26.5096		58.8374
56.559	20.9552		55.2777
54.8259	25.1759		60.3465
53.5677	23.8013		61.5126
0.938673	-113.455		40.9756
-1.41939	-113.333		41.0864
53.9701	-72.3633		38.7724
54.764	-68.5594		41.4382
50.0669	-75.0045		45.0447
53.2686	-75.7471		35.2741
8.90823	-41.2998		99.8351
10.7844	-41.7318		99.2211
8.17698	-38.5399		99.6384
25.8927	-48.2424		87.6404
25.1718	-44.1754		89.088
23.4703	-46.5701		90.4972
11.6033	-37.2198		97.8628
8.94676	-36.1759		99.0137
12.6078	-39.8609		97.8964
14.49	-38.0597		96.2288
10.5212	-34.3806		97.807
34.131	-51.7907		79.936
34.0838	-55.1476		78.3598
35.8044	-52.8175		78.2836
33.2435	-47.8508		81.9688
59.7864	15.5836		47.6318
58.2053	15.2804		50.3141
59.949	9.19259		46.9949
61.2	16.1826		44.8792
62.7747	16.8625		41.5171
64.8885	16.8178		36.3734
50.7309	15.3947		60.3361
50.5384	13.0442		59.6928
56.6252	14.9244		52.7508
80.9486	9.00786		-37.7655
80.8998	5.24979		-40.9816
79.6757	11.0861		-41.8775
80.9318	11.5206		-33.7582
77.6029	-17.9963		-42.066
75.6262	-18.4922		-45.2609
68.4128	-52.5637		-17.1242
70.0698	-48.279		-14.7458
67.5851	-54.6804		-10.7657
66.5882	-58.1245		-19.7234
69.2131	-49.0967		-23.1333
80.6401	0.553695		-43.0017
72.5083	-28.3803		4.95296
71.8321	-32.5799		4.45397
73.139	-23.9544		5.22189
71.2775	-29.33		9.36802
68.1265	-1.34864		29.1441
68.2605	7.16705		28.0333
67.7756	-9.32889		30.3841
70.6653	-2.66427		20.4818
52.1683	8.43843		57.4022
50.9557	9.90808		58.792
50.4493	6.08565		59.7244
49.8895	11.2241		60.0776
48.5656	9.85964		61.5223
69.8492	-29.8667		15.6726
68.3717	-30.1761		22.432
69.2112	-34.6966		15.1091
70.5575	-24.6129		15.6426
24.4672	-11.5105		83.6982
27.7027	-13.5822		81.7481
23.4884	-6.70782		82.5525
21.8636	-9.08956		85.7271
32.5488	-16.0337		79.1069
38.1339	-17.9534		75.9217
33.2682	-21.1847		79.8942
18.7621	-6.34821		88.6537
15.6532	-2.95051		91.8713
19.3009	-9.8975		90.5614
21.9638	-17.5577		89.0925
20.8466	-15.0046		90.5351
18.1536	-17.3055		98.8346
16.6251	-16.0374		101.493
17.8147	-19.3593		98.0476
18.9642	-18.3892		96.9977
19.4353	-19.4238		95.2693
18.7067	-21.8128		94.6847
36.2211	-36.3503		79.828
32.2761	-35.1302		82.7911
37.166	-41.1448		79.2922
35.2751	-31.6115		80.2104
33.9539	-26.3315		80.2701
6.03013	-30.4858		99.9972
6.53078	-32.998		99.6983
7.4963	-30.8872		99.1302
52.9388	-51.431		56.9024
53.852	-46.2642		57.324
49.2329	-50.3347		63.3675
51.6924	-56.9608		56.5187
28.3754	-41.7453		86.3898
26.2877	-41.0853		87.9926
30.3667	-42.4353		84.984
37.6961	-45.7734		78.3355
37.9562	-50.3723		77.2124
41.2816	-47.3878		74.4422
34.5689	-44.5037		81.4373
7.27666	-35.5891		99.6142
50.1256	-62.5218		56.0935
52.8503	-63.9934		49.7978
46.9397	-60.2719		62.7219
47.6671	-67.4426		57.0671
55.2141	-31.3997		58.5811
54.8967	-36.4909		58.2502
58.9829	-31.2865		51.6936
26.6053	-92.6852		69.4955
27.302	-89.7578		71.7292
21.6719	-95.5903		73.4875
37.0586	-79.9307		64.5826
40.9469	-76.1752		61.5018
36.2898	-76.0158		68.4159
32.5735	-83.2787		68.8372
53.2815	-9.24751		60.2166
51.7885	-4.23743		60.7658
48.0859	-9.5483		65.9776
46.2165	8.2585		64.1838
46.943	6.1807		63.6513
50.4706	-0.742283		61.3276
46.1165	-1.79432		65.9486
48.9576	1.93439		62.316
44.7585	11.6648		65.4542
2.45805	-93.9112		87.8568
-0.778213	-94.5688		87.6399
43.6649	-58.2688		68.2987
42.2211	-62.1445		68.4544
44.5848	-53.8356		68.7474
40.3535	-56.2261		72.9724
35.2767	-72.4831		71.5416
37.9355	-69.2114		70.107
33.5884	-69.169		74.6472
31.6358	-75.5324		74.2574
42.2345	-8.98564		70.6555
43.1622	-13.9952		71.238
41.3026	-4.58287		70.2289
45.3105	-48.8605		69.2315
44.1068	-19.125		71.3977
10.3783	-84.785		88.8366
10.8064	-81.0358		89.5524
14.4474	-84.0323		86.8998
18.8419	-82.6969		84.2714
23.2774	-80.7877		81.0847
19.1154	-78.7574		85.2842
40.5628	-1.54084		69.9614
39.6696	0.886422		70.0688
34.3328	-0.479913		73.2445
47.8882	4.10025		62.9735
44.2413	2.92318		66.6315
38.9711	2.98363		70.1384
32.5898	3.78318		73.0651
12.557	0.17196		95.1264
13.189	-3.69472		98.1781
12.1988	4.32245		91.5707
14.2302	-10.4462		104.55
14.0661	-9.10776		103.304
11.5401	-9.33519		108.541
14.4743	-11.4532		104.922
12.0756	14.1712		82.4083
11.9569	11.9068		84.6736
22.5136	-2.107		80.8165
1.93585	16.9385		93.445
0.355888	17.3162		93.4758
59.2893	2.86826		48.9413
12.0035	8.48674		87.8509
55.7905	-64.124		43.2296
59.2201	-62.5252		35.176
62.5492	-17.8181		45.4163
62.4237	-24.6151		44.8816
65.1533	-16.7723		38.2502
60.9883	-41.4413		44.016
61.6497	-36.0962		44.1753
58.0727	-41.6004		50.8907
63.323	-41.2704		37.1051
62.1238	-30.4969		44.4858
64.5932	-30.278		37.2316
17.4019	-97.7732		76.4112
11.0279	-77.6066		90.4242
7.55029	-78.0098		91.4774
14.9754	-76.7448		88.7726
19.0828	-75.5561		86.4366
26.6183	12.8406		72.7176
28.2853	1.38519		75.4034
27.6125	3.76029		74.9263
27.0115	5.56061		74.507
4.38439	-78.2535		92.0685
1.34023	-78.352		92.3461
6.11433	30.2681		84.8877
7.8095	29.1388		83.8271
6.92901	32.5937		84.9527
4.28456	30.9615		85.6505
5.95858	27.6086		84.9646
18.3395	16.5464		72.1365
18.1379	17.7954		72.2551
16.5473	16.8746		73.761
9.24542	27.571		82.5114
10.2489	30.0809		82.5543
2.3282	31.5981		86.1018
0.184932	31.7678		86.2719
6.25464	-22.7832		106.133
6.98094	-21.4371		107.716
8.94289	-11.7977		113.23
8.90681	-10.2296		112.734
11.788	-11.9343		109.566
17.6739	-26.3752		92.174
17.3905	-25.0763		93.3669
15.3678	-27.4962		93.5769
8.58001	-8.58127		111.991
6.55467	24.23		85.0552
8.37359	35.2091		85.3785
10.2769	34.1223		84.3537
18.5368	19.2859		72.4542
11.9117	32.771		83.0428
12.9407	31.0771		81.5154
13.7017	29.2023		80.0518
20.1953	-33.2555		90.3884
17.5494	-33.2818		92.3448
21.9639	-36.6848		90.2255
23.8974	-40.4865		89.6415
20.9466	-39.6523		91.8464
26.7689	-55.3644		79.5455
26.4393	-54.254		79.1367
24.9135	-55.5365		81.1994
27.1801	-53.951		83.1301
25.1161	-52.9928		86.3041
25.6345	-51.1803		78.7696
22.7089	-51.0977		81.5336
24.4092	-47.5013		79.0896
14.9992	-33.1522		94.2456
12.2684	-32.631		96.1507
16.153	-35.9157		94.3299
17.8288	-38.9628		94.0115
19.1751	-41.8378		93.7404
22.4012	-55.7068		83.5056
20.9297	-54.2529		84.1059
19.8097	-50.8846		83.9358
19.2263	-46.5514		83.5698
9.73274	-31.7059		97.8421
9.20174	-29.4133		97.9175
13.817	-42.6812		97.6816
17.176	-43.6255		95.5755
19.1557	-12.0488		92.9661
16.5069	-9.31592		97.1214
3.18111	-1.67565		109.695
1.23241	-1.37074		109.803
13.6057	-6.81056		101.224
7.87247	-19.2809		109.922
10.3355	-19.085		106.864
13.0907	-19.2295		103.357
13.8772	-17.1088		104.371
15.6032	-20.1263		99.7948
17.0119	-21.2992		97.4034
17.3624	-22.758		95.6934
17.414	-23.9441		94.4171
14.4602	-12.4084		105.345
14.3928	-13.5867		105.472
14.2187	-15.2395		105.168
39.6708	-144.354		12.0421
35.0754	-145.761		15.1659
40.8668	-150.32		11.0365
43.8105	-142.794		8.84403
38.1039	-136.258		13.5218
36.3965	-125.151		15.637
40.5571	-123.635		11.9931
35.4586	-115.537		17.6852
31.9285	-126.514		19.2582
37.7627	-98.9822		24.6023
42.0525	-96.5277		20.0156
33.0939	-101.291		28.9448
36.7213	-103.703		21.1782
35.786	-108.913		19.2521
31.0911	-110.561		23.626
40.0208	-106.995		15.0855
40.4674	-65.8583		68.8132
42.714	-68.8047		64.1267
37.8662	-63.235		72.8055
44.832	-71.9347		58.5471
45.6675	-75.4984		53.7969
45.8496	-78.8054		49.6288
35.9974	-60.9054		75.2654
37.0324	-57.8301		75.4737
34.5788	-58.7974		76.8054
34.3521	-63.5237		75.7121
33.4651	-57.6309		77.7287
32.3723	-59.4469		77.8414
45.7062	-94.1634		15.5439
47.213	-89.8025		18.8941
44.726	-99.1318		12.6206
49.0125	-92.086		10.5013
49.065	-85.6745		23.2862
51.7658	-83.8828		17.0434
50.9861	-81.8626		27.4454
52.333	-78.6544		31.7166
55.0003	-76.976		24.6144
44.4498	-121.919		8.25016
46.0073	-133.094		6.70909
48.162	-120.517		4.31512
43.6798	-112.131		9.64426
47.5321	-141.273		5.51062
48.9796	-147.408		4.45321
51.0085	-139.753		1.87022
43.89	-104.893		10.9164
66.6097	-30.1985		29.9539
66.0296	-35.6967		29.6739
67.1411	-24.0037		30.1953
56.8193	-75.6939		17.8179
55.3665	-78.9111		14.3921
58.3013	-74.3736		10.7343
68.1343	16.0983		27.7107
71.6389	13.9838		16.9056
61.7281	-60.9891		27.1064
63.5519	-59.3648		18.6142
65.3046	-41.0827		29.6542
67.0154	-40.4981		21.8686
67.4297	-16.7053		30.8793
69.5159	-17.8793		22.8129
68.4606	-39.5359		14.6883
69.8874	-38.0846		8.17147
56.7815	-88.7922		-4.96563
56.637	-93.7743		-6.38007
58.759	-88.3055		-9.75614
57.1029	-84.3839		-3.22211
54.5053	-89.48		-0.0899029
56.6433	-99.3439		-7.25103
57.7315	-80.294		-0.767765
55.8816	-81.2438		4.79841
59.4524	-79.5648		-6.4604
58.5567	-76.5949		1.53517
72.8721	-3.62842		11.9669
73.6723	4.41501		9.31038
71.961	-11.7624		14.4012
74.4891	12.8602		6.25171
75.1854	20.8211		3.59803
75.8583	28.9094		0.301086
77.6702	28.0503		-10.4055
76.5167	36.9278		-3.45809
64.8696	-57.6724		10.377
65.9558	-56.3761		2.36416
71.2083	-18.5847		15.5743
72.6399	-19.1898		9.36641
51.7691	-119.043		-0.00595227
53.0416	-130.116		-1.18165
53.9939	-82.4853		11.0005
52.7522	-86.3241		7.74457
54.2923	-138.111		-2.23953
55.5876	-144.002		-3.44403
60.9094	-114.424		-17.4516
61.6622	-123.852		-18.9316
60.402	-87.7123		-14.5356
61.535	-85.9162		-19.6131
60.6962	-83.0945		-13.4395
61.1954	-78.5385		-12.0193
62.3074	-130.891		-20.519
62.841	-136.428		-22.532
66.7728	-55.8574		-4.87642
71.1164	-36.6467		3.70483
72.3788	-34.8157		0.445472
70.5158	-40.3477		2.28809
73.7159	-19.242		5.26227
61.1866	-93.5206		-27.8252
59.9846	-89.2033		-34.5992
61.5033	-87.212		-26.5738
62.1778	-81.2758		-25.4882
61.7494	-74.7882		-31.5101
64.9636	-64.3929		-21.6475
71.2091	-45.7289		-13.4709
72.8444	-43.0226		-20.1197
57.9598	-119.876		-46.1966
58.2588	-127.563		-47.688
54.7549	-117.131		-53.1919
57.7228	-111.655		-44.6
70.3936	-44.0307		-27.9601
72.6826	-40.3658		-26.2623
74.3035	-38.6696		-25.5796
30.2844	-146.944		18.0759
28.8446	-138.883		19.9647
25.4474	-148.029		20.6776
31.5568	-152.755		16.6589
25.7242	-111.786		28.3171
20.1008	-112.555		32.7431
25.6372	-118.004		26.0477
26.6382	-107.256		30.4414
31.2473	-96.4913		43.6534
29.3118	-99.5068		38.5553
32.9032	-94.0597		48.1282
27.7232	-103.263		33.8015
22.2235	-104.527		38.5168
27.0051	-127.487		22.9985
21.9765	-128.763		26.3696
32.3246	-66.2615		76.6563
31.4223	-63.3789		77.9437
34.3314	-91.886		51.9376
30.8194	-61.4354		78.5686
28.6696	-63.5674		80.2267
30.2067	-59.9238		79.0226
29.5603	-58.5601		79.3586
27.8347	-60.3446		80.8848
27.6998	-78.5395		77.4195
27.9167	-82.3417		75.6074
27.883	-86.3178		73.5328
23.4182	-57.9476		84.8962
20.3872	-58.8425		88.6977
23.2475	-57.1036		83.4559
26.2978	-56.604		80.7442
23.3615	-57.2608		82.9665
19.7773	-57.468		86.9118
23.3592	-57.7128		82.585
23.2488	-59.2081		81.947
19.8751	-58.0485		85.636
22.6174	-62.6791		81.3626
21.4675	-66.7931		81.4245
19.2903	-62.8413		83.9245
14.6735	-112.922		36.3192
15.4049	-108.865		38.8533
15.2129	-119.531		33.3498
20.5361	-149.147		22.9964
19.1108	-141.223		25.3735
15.6842	-149.988		24.9663
21.7759	-154.641		21.329
17.103	-129.827		29.3098
7.00127	-106.295		46.5799
10.8781	-106.224		45.0791
8.3421	-104.44		52.7596
11.4273	-150.577		26.3915
12.5723	-155.869		24.6678
9.75533	-103.461		59.6209
16.3665	-57.2007		90.01
16.3009	-57.3972		89.2495
16.2601	-57.9229		88.4901
16.4249	-59.3623		87.2437
16.0051	-62.748		86.0971
15.3973	-66.9098		85.4589
71.6416	47.3356		14.1215
74.7691	45.8146		3.13504
72.2763	55.034		8.86408
67.8559	49.6308		24.754
78.4874	26.8935		-20.3294
72.8779	-20.1307		-50.3224
70.2547	-21.9836		-55.2498
51.5059	-95.673		-55.6972
51.9793	-85.4597		-54.4745
54.4095	-98.7977		-50.2188
51.5214	-105.911		-56.9834
48.4445	-93.3779		-60.6096
51.7908	-114.863		-58.414
52.3042	-123.372		-59.7145
48.6253	-113.159		-63.1049
57.9181	-83.536		-41.8469
57.442	-93.1297		-42.5251
55.4036	-79.0171		-48.1892
59.02	-75.0673		-40.3346
23.5005	112.48		21.8778
30.2329	109.678		21.6121
23.2872	117.211		6.53385
16.4243	114.427		22.1655
22.6957	102.153		-79.3942
23.3453	110.831		-63.41
29.798	100.127		-77.4934
21.9217	91.3021		-92.6372
15.2375	103.568		-80.8249
21.4674	79.3928		-102.227
28.3493	77.7342		-100.221
21.1956	66.2046		-109.463
14.4679	80.1655		-103.841
23.4753	116.676		-46.1953
30.6487	114.178		-44.5698
15.9778	118.487		-47.2619
23.4402	119.629		-28.2089
8.30306	123.01		-11.1122
0.366135	123.39		-11.2417
8.41917	120.525		6.32233
15.9674	121.796		-10.8177
8.23503	122.748		-29.4178
20.9451	53.1831		-114.418
27.4063	51.8295		-112.36
20.6364	39.6524		-117.727
14.3927	53.9415		-115.886
20.138	25.5171		-119.559
26.5016	24.5488		-117.358
19.6426	11.567		-119.748
13.7894	26.4548		-121.073
17.535	-27.2346		-108.796
23.3369	-27.9934		-106.613
17.1832	-39.0508		-101.435
11.9616	-27.1309		-109.968
18.3841	-14.5442		-114.664
6.6016	-0.537		-120.93
0.180091	-0.471372		-121.259
6.80732	12.6919		-122.343
12.873	-0.958389		-119.911
6.30416	-13.4596		-117.364
15.2546	-86.1168		-84.0368
15.573	-76.5581		-84.9525
20.4769	-86.8816		-82.6945
15.051	-95.6016		-83.7326
10.2304	-85.686		-84.8014
5.1613	-104.205		-84.4414
10.0784	-104.647		-84.1519
5.27848	-113.881		-84.2863
0.425932	-103.99		-84.5267
5.26035	-94.5086		-84.7222
17.3066	-48.3595		-95.3552
22.5469	-48.9333		-93.7823
16.9093	-56.6718		-90.8007
11.6347	-47.9047		-96.3699
16.1221	-66.2		-87.2059
21.6671	-67.3078		-85.4611
10.9014	-65.4062		-88.2022
5.65635	-65.1295		-88.6528
5.88472	-55.7809		-92.28
5.39829	-75.6736		-86.2762
0.388458	-65.3287		-88.701
48.2113	97.5292		18.4078
53.7338	91.9954		17.0141
49.0633	101.316		4.76263
42.5306	102.173		19.8795
47.3489	70.6109		-90.1693
52.7741	67.4545		-85.9218
47.0407	58.632		-96.9942
41.5236	73.2967		-94.0021
47.6901	81.4747		-80.9516
47.9844	90.9345		-68.8746
42.3377	94.5758		-72.1234
48.5809	97.9297		-54.6694
53.464	86.4921		-65.2966
49.2334	102.163		-39.8658
54.9062	96.4693		-38.1383
43.4703	106.872		-41.4463
49.9718	103.635		-24.9574
49.6819	103.502		-9.94911
43.7038	108.591		-9.75826
55.3591	97.6453		-10.1198
46.4481	46.4798		-101.936
45.8073	33.8463		-105.215
40.5777	48.4138		-105.878
51.8389	44.2229		-97.6177
44.8639	21.0385		-107.063
50.1469	19.5663		-102.706
43.8852	8.05579		-107.189
39.2451	22.1914		-110.905
42.5508	-4.51928		-105.744
41.1544	-17.4722		-102.219
37.3536	-4.16757		-109.407
47.2941	-5.28777		-101.535
40.2056	-30.132		-96.3465
44.8346	-29.878		-92.4941
39.4825	-41.1322		-89.9491
34.9718	-29.5069		-100.292
38.7623	-50.6721		-84.2674
37.9654	-60.1841		-79.3778
33.6725	-50.4659		-88.0027
43.2271	-50.8846		-79.97
35.8851	-88.7161		-74.6502
35.0472	-98.6876		-75.6472
30.9196	-88.2816		-78.0579
36.7607	-79.0992		-74.479
40.3789	-89.6963		-70.6355
24.9231	-106.187		-81.2363
25.1401	-115.05		-81.4896
19.8908	-105.489		-82.6634
25.1776	-97.0932		-80.9571
30.017	-107.099		-79.1448
37.3202	-69.7485		-76.0199
41.8583	-70.1089		-71.4633
32.5278	-69.0987		-79.7873
67.1696	69.9536		-51.9592
68.175	73.8343		-40.4323
70.9899	63.118		-46.161
66.4426	63.8489		-62.4745
63.0019	75.9745		-57.1657
68.8361	76.0182		-29.0291
72.3898	68.1393		-23.932
64.7234	83.3984		-33.0968
69.1245	76.9313		-17.779
68.1953	77.6252		-6.91067
70.7549	70.1402		-2.21239
64.7143	84.6197		-9.12423
56.5593	41.9362		-93.0788
57.1961	53.1723		-88.1034
60.8183	39.2403		-88.2418
55.8626	30.0466		-96.3341
57.4973	64.1466		-81.4427
57.8645	73.6706		-72.7127
61.9017	60.2016		-76.52
51.9472	-6.01757		-96.5468
53.7714	6.02058		-97.8976
56.3782	-6.88192		-90.972
50.1257	-18.1163		-93.4261
54.9206	17.8975		-97.9687
59.3087	16.4865		-92.8531
48.9372	-29.4162		-88.3312
52.9112	-29.4029		-83.1791
48.2245	-40.5458		-81.5481
47.1803	-50.2478		-75.6784
50.7156	-48.6433		-71.6184
46.3662	-70.7725		-65.7749
50.1554	-73.2934		-59.238
45.4687	-80.8307		-65.0092
76.5055	34.6475		-47.7211
75.8082	28.7254		-55.235
74.7311	40.1374		-53.3969
58.6451	85.8616		16.2407
59.5618	89.6252		3.20859
76.5567	44.7152		-7.75746
76.2242	52.5121		-12.8296
66.4603	-7.73033		-75.0263
63.4892	-7.80161		-80.2125
68.0191	1.74139		-76.4717
69.1785	-8.09876		-69.4178
64.4998	-17.6162		-72.182
68.9057	11.3036		-77.1206
66.0965	13.11		-82.61
69.7838	20.3818		-75.6188
71.5377	9.17467		-71.0145
70.6122	29.5789		-72.2259
67.7427	33.0919		-77.9089
71.5098	37.978		-66.7031
73.1167	25.6877		-66.2684
58.5927	-42.7848		-60.7389
56.0629	-45.0362		-64.3226
60.394	-35.1018		-64.677
61.1093	-40.6073		-56.9082
57.032	-50.5958		-56.9618
67.6928	-23.6166		-59.9411
65.6699	-30.9652		-56.6172
65.1857	-25.2276		-64.1239
69.7045	-16.119		-62.3496
53.0724	-75.932		-53.5827
54.3357	-66.8614		-53.5344
73.0341	-38.7202		-5.16802
73.5241	-35.1765		-3.12524
71.2456	-41.7713		-2.90119
73.4192	-33.474		-1.66164
77.5128	-7.66203		-3.27427
78.5107	-2.32347		-5.4519
91.7396	3.67213		-39.035
91.8775	9.51305		-36.5946
92.3303	3.27278		-38.3347
80.6456	-36.3004		-25.4517
79.2158	-39.1758		-22.0492
91.4129	14.2281		-33.0283
90.4832	14.5401		-33.515
90.6339	17.3622		-28.8731
92.2611	13.5604		-32.4748
83.983	8.96719		-12.2229
82.6883	8.95113		-12.897
89.7437	18.6604		-24.5838
90.6284	17.9438		-23.8484
86.3781	-19.4846		-35.7601
81.6018	-37.1692		-18.0152
80.7833	-37.0965		-15.3205
79.9097	-39.269		-18.5101
79.0844	0.326229		-7.20142
86.1243	16.8214		-20.0141
84.0325	13.6669		-17.3606
85.0899	15.9486		-21.5874
81.4406	9.24046		-14.3223
80.6359	9.6831		-15.9071
89.8367	14.389		-33.7289
79.9334	9.45488		-17.347
81.3365	11.4889		-20.0002
83.0795	13.4628		-23.5931
80.9201	11.2803		-24.6924
85.1915	-28.0933		-28.5613
84.8156	-29.8331		-20.9066
78.3601	-40.4831		-18.9544
79.8792	-36.2769		-13.0137
81.0935	-33.3567		-12.986
82.1428	-30.9591		-13.8693
82.7158	-29.3758		-14.8115
92.4987	2.9639		-37.9235
92.917	8.60887		-35.5715
88.796	15.1709		-16.3716
88.9563	14.5197		-16.0901
90.1737	16.8873		-19.4643
88.9071	13.8944		-15.943
90.3304	15.6848		-18.9623
88.7067	12.7935		-16.1016
92.6141	13.0148		-32.1189
91.9533	15.9028		-27.9615
92.7166	12.5026		-31.9721
91.1557	17.2298		-23.3714
91.3607	16.6265		-23.2436
91.3424	16.0201		-22.956
92.0636	14.834		-27.5688
92.654	12.1153		-31.6406
91.8387	-1.45236		-36.8511
88.4252	11.4666		-16.6423
85.5596	4.07252		-14.1864
90.7394	11.3037		-25.1477
91.0606	-4.66365		-31.7408
91.123	-2.76463		-31.4248
91.0452	-0.884578		-30.824
90.8158	0.613789		-29.9047
90.4197	1.82763		-28.6422
89.3951	2.64256		-26.0843
80.5236	-25.8622		-12.5309
81.8403	-27.4384		-14.2096
83.3352	-2.70522		-11.2171
79.3406	-17.7956		-10.5926
82.8552	-28.6385		-15.3075
34.6521	26.7404		74.41
35.2326	94.1362		45.2032
36.0619	100.493		34.0741
9.30441	101.437		48.4656
9.04766	109.053		36.3517
1.14715	101.727		48.5727
36.4631	106.346		20.8049
36.8413	110.679		6.16908
8.69546	115.627		22.3096
0.652115	116.031		22.2229
23.2278	119.765		-10.4135
30.3913	116.84		-10.0202
37.1204	113.167		-9.90045
37.3862	113.263		-26.3306
63.6171	52.8078		34.3935
71.96	62.5037		3.18018
74.065	61.2878		-7.57001
60.2407	91.5459		-10.1962
60.6352	91.4273		-23.1517
8.17529	119.59		-47.8141
8.06291	113.48		-65.4136
0.261408	119.944		-47.9682
37.1144	111.048		-42.7864
36.8143	105.76		-59.5096
74.689	60.2638		-18.3805
74.6722	58.8315		-29.2896
59.8819	90.4232		-36.0858
59.1025	87.2148		-48.8392
73.9082	56.2206		-40.1332
73.1229	51.9161		-50.4287
72.283	45.8914		-59.303
69.3571	51.0166		-65.3079
44.741	-91.5795		-65.7512
44.234	-101.696		-67.1321
44.4489	-111.134		-68.1934
44.7632	-119.811		-69.4218
39.6318	-109.261		-72.8199
7.73715	104.502		-81.4808
7.44683	93.0519		-95.0243
0.218011	104.679		-81.864
7.40282	80.5888		-104.76
7.43096	67.4507		-111.82
0.158468	80.6947		-105.065
7.462	54.3714		-116.765
7.33209	41.1268		-120.073
0.141119	54.552		-117.036
7.05398	27.0947		-121.996
0.170059	27.1153		-122.317
19.0794	-1.63585		-118.212
25.2653	-2.58399		-115.842
5.98144	-26.9328		-110.768
5.97498	-39.2125		-102.632
0.207106	-27.0571		-110.909
5.97274	-48.0285		-96.6384
0.31978	-48.255		-96.5956
5.3375	-85.2054		-85.2
0.421068	-84.9937		-85.3197
35.0307	75.7141		-97.4705
35.5492	87.3696		-87.9211
34.621	63.0525		-104.489
36.1412	97.5956		-75.2277
34.0681	50.2825		-109.446
33.5805	37.0904		-112.681
32.9482	23.5247		-114.431
32.33	9.73224		-114.488
31.4856	-3.41963		-112.843
30.3973	-16.269		-109.325
29.2312	-28.7434		-103.793
28.3627	-40.1303		-97.235
28.1553	-49.7231		-91.3046
27.9257	-58.7816		-86.4295
27.1723	-68.2002		-83.0467
26.4821	-78.0358		-81.156
25.8589	-87.5224		-80.6867
35.0008	-108.005		-76.3333
35.3368	-116.877		-76.977
58.298	81.7334		-61.4465
65.8314	56.15		-70.9432
65.2471	46.4636		-78.0255
64.4503	36.5353		-83.261
63.7017	25.7886		-86.5397
62.8897	14.9749		-87.8892
61.8806	3.77134		-87.3073
60.0992	-7.58413		-85.5649
58.1236	-18.4785		-82.5849
56.2991	-28.5477		-78.5345
59.4599	-27.9618		-73.4244
54.8172	-38.3998		-73.118
53.4869	-46.8617		-68.0625
55.7946	-58.7355		-54.1028
57.7965	-57.23		-50.6754
74.9902	22.4217		-60.757
74.3196	15.0097		-63.9287
76.6934	18.5603		-54.6977
71.3718	-8.19971		-64.4059
72.7181	-0.272281		-65.3133
62.3522	-26.7093		-68.7973
73.5783	7.66863		-65.4789
63.6608	-38.2265		-53.1961
61.9258	-45.4443		-49.9529
16.3842	-105.581		42.5989
59.7792	-72.9968		3.86134
51.8999	-90.5429		5.32116
16.2009	-48.4906		96.0245
19.5703	-49.6555		93.3067
22.5475	-51.3137		89.9806
10.1927	-61.8126		97.6975
10.569	-62.9906		97.7321
10.8442	-64.1593		97.627
25.7145	-66.4735		83.1183
25.4416	-64.7863		83.7645
25.0734	-63.2856		84.3513
20.5961	-45.0349		92.8398
37.7993	-54.3187		76.1571
29.1835	-34.1039		84.5844
30.949	-38.7485		84.2727
32.175	-43.2509		83.4661
54.581	-41.3753		57.5765
20.1207	23.8719		74.1681
78.1797	14.7689		-48.2457
80.2292	13.2042		-28.9151
80.7494	11.1939		-26.5122
69.6377	-44.7224		0.603832
26.5418	11.5561		73.1209
51.0501	41.5815		64.9735
9.20322	-27.6758		98.079
46.3535	17.7962		65.3542
12.9032	-26.803		95.7455
80.5932	10.9915		-25.4892
57.4395	-102.621		-43.5696
61.0923	-66.7454		-38.3431
60.2682	-60.0456		-43.5163
60.3111	-54.0933		-47.23
22.9988	-25.5018		87.0606
17.2614	-59.1225		91.8735
27.8869	-56.4153		79.5221
9.16238	-54.6749		94.6998
-66.2534	-50.3496		10.5047
-67.1886	-45.6159		11.7391
-67.6023	-48.257		3.62899
-65.2283	-54.7339		9.22133
-64.8076	-52.2567		18.5819
-55.9829	-116.429		-7.8711
-55.2984	-106.24		-7.32308
-58.0454	-115.234		-12.4028
-57.1062	-126.752		-9.10188
-53.372	-117.406		-3.47126
-58.1465	-134.268		-10.4221
-55.7968	-136.078		-5.81153
-59.8622	-132.498		-15.0868
-59.0405	-140.167		-11.699
-49.093	-100.521		3.0401
-52.4071	-99.6273		-2.12189
-49.3	-108.071		1.996
-45.6572	-101.83		7.84289
-49.5267	-94.7391		4.11308
-58.7127	-97.9809		-15.6873
-57.166	-98.4622		-11.246
-58.78	-92.6506		-15.3604
-59.6728	-96.7365		-20.9023
-58.8674	-104.862		-16.1514
-59.1612	-68.8773		20.4798
-60.2978	-67.7969		12.9966
-57.517	-72.3501		18.3849
-57.4123	-70.2204		28.0865
-60.4414	-65.5667		22.407
-69.3584	30.2049		23.06
-73.0001	28.7104		11.2621
-68.5598	22.6126		25.8468
-65.265	33.0364		34.183
-70.5081	38.1912		18.7799
-76.9039	41.0521		-29.5467
-77.7982	33.5143		-24.8409
-77.0274	42.7096		-18.961
-75.5517	48.2389		-34.5891
-76.5654	38.1063		-39.2033
-8.63096	-112.724		39.6274
-9.02819	-108.347		42.1643
-11.7805	-112.221		38.3711
-8.55343	-119.995		37.4189
-6.12884	-112.969		40.4137
-9.19174	-131.38		33.2543
-9.97196	-142.783		29.1417
-5.99861	-131.615		34.2853
-12.7106	-130.418		31.898
-3.18023	-151.221		28.0428
-3.52123	-156.418		26.512
-2.9848	-143.466		30.5479
-6.82768	-150.881		27.5737
-64.5231	-55.0456		-33.6041
-65.4942	-47.4456		-37.7524
-62.0332	-60.9363		-35.8984
-63.8358	-61.3873		-28.4212
-66.956	-49.1282		-31.3662
-66.5297	-41.9895		-40.767
-69.5396	-37.4935		-37.6567
-67.5426	-37.2262		-43.1966
-63.023	-47.6219		-44.0873
-60.7896	-125.628		-31.3885
-61.3018	-128.705		-24.9667
-59.3165	-122.824		-38.1681
-60.9629	-132.239		-33.6953
-2.98142	-131.965		34.7963
-3.24735	-120.592		38.9384
-63.0053	-54.0193		27.1221
-62.1628	-58.6602		25.8807
-61.0244	-54.9741		34.7006
-63.9377	-48.6526		27.5391
-61.4521	-66.298		5.49023
-62.862	-62.5397		6.73727
-62.4044	-65.4307		-2.26931
-59.9631	-69.9067		3.94953
-11.8247	-94.4871		84.6115
-11.2344	-89.8915		86.9872
-15.4083	-93.7521		82.844
-11.7642	-98.2282		81.8885
-7.94443	-94.8526		86.0405
-19.4227	-92.0058		80.5963
-19.4949	-87.52		82.615
-23.9251	-89.6377		77.398
-18.9735	-96.0241		78.113
-3.01321	-86.0453		90.5463
-3.72068	-90.3137		89.2392
-2.43366	-82.0475		91.4531
-6.72202	-85.8088		89.8475
-11.4549	-100.511		79.1598
-7.95938	-100.757		80.4308
-14.832	-99.9503		77.5136
-11.1258	-102.138		75.4072
-10.8963	-102.977		70.7066
-10.8226	-103.139		65.4694
-7.02377	-103.455		71.5464
-18.3226	2.51366		82.7912
-15.2682	5.42274		84.9406
-17.9178	6.73167		79.9262
-21.2965	0.480373		80.6827
-18.7637	-1.77805		85.471
-42.7594	-31.2027		73.2071
-43.8209	-36.1319		72.3701
-38.3778	-29.2009		77.3034
-42.1578	-26.062		73.4263
-47.7202	-32.6375		67.5646
-51.6845	-22.0167		62.0579
-52.2259	-27.7827		61.425
-46.4595	-21.7668		68.4528
-50.982	-16.0742		62.4518
-56.9854	-20.6972		53.9698
-63.4215	-0.0180782		40.6709
-61.1255	1.46338		45.0369
-63.335	7.74334		40.0645
-65.4744	-1.00108		35.6554
-44.5451	-41.0486		71.1346
-40.2774	-39.2061		76.3507
-49.1497	-42.609		64.6973
-45.1002	-45.978		70.0211
-0.740703	7.78406		101.454
-2.59022	7.08074		101.007
-0.657281	2.90886		105.631
-0.936066	12.957		96.9716
-29.1286	67.9899		71.0564
-30.154	73.8791		66.4931
-34.5741	66.113		68.2342
-28.0592	61.3677		76.125
-23.9915	69.1922		73.0834
-3.28254	-104.229		60.8486
-3.37091	-103.997		66.8821
-6.49952	-103.959		60.2041
-3.33528	-104.7		54.3302
-58.6784	-55.3716		41.8407
-59.5368	-49.8249		42.3759
-57.4874	-60.7961		41.4181
-55.9769	-55.1259		48.7446
-4.22927	-100.822		81.3321
-3.92987	-102.682		77.0533
-4.216	-98.4431		84.3484
-3.50033	-103.644		72.1265
-37.3743	-86.7678		57.9829
-37.9028	-83.9197		61.1273
-41.6772	-83.3448		53.5476
-36.2876	-89.2314		55.1869
-32.8133	-89.9518		62.993
-40.3664	-90.1199		34.4792
-36.114	-92.7402		39.268
-42.7256	-86.9783		38.4277
-44.3425	-87.4245		29.284
-38.1488	-93.4885		30.0498
-3.64026	-105.91		47.9356
-3.96611	-108.633		43.359
-6.25219	-105.811		47.2507
-5.84053	-3.15336		107.256
-3.09671	-2.21545		108.913
-5.36296	1.17166		103.623
-9.10509	-4.6463		104.446
-6.28457	-6.53221		110.082
-26.7615	-21.0986		84.1771
-23.9092	-17.842		86.2082
-25.679	-15.9186		84.1555
-29.5116	-23.8168		82.686
-33.4225	-57.5484		78.2312
-31.6908	-57.8033		78.7165
-32.3096	-56.7313		78.6818
-12.8154	-24.6163		97.4003
-14.807	-25.1595		95.5807
-12.1012	-25.6399		96.9453
-14.4332	-23.2746		97.5039
-12.396	-29.2692		95.2138
-10.2053	-28.476		96.767
-12.1904	-28.2074		95.4885
-15.0129	-29.5584		93.346
-12.9709	-30.8506		94.9271
-0.530763	-25.2189		105.045
-2.41042	-25.0295		104.151
-0.682715	-26.2506		103.62
-0.524924	-24.2471		106.732
-17.8148	-29.0029		91.4035
-18.4286	-30.5734		91.1231
-17.3227	-27.9009		91.9169
-20.3787	-27.5577		89.5422
-6.46828	-15.2709		112.732
-6.61974	-13.5848		113.179
-9.51872	-15.1214		109.23
-6.25824	-17.2429		111.588
-3.55841	-15.6103		115.014
-27.2353	-72.0381		81.052
-27.8381	-75.3781		79.4159
-23.3919	-74.2449		84.0015
-26.599	-69.0454		82.5487
-30.4692	-69.56		78.5818
-31.2966	-50.9995		82.834
-33.2913	-51.9057		81.0719
-29.0872	-50.0927		84.943
-29.9159	-46.5716		85.3896
-1.10956	-30.6471		101.096
-0.903422	-28.6333		101.824
-3.08185	-30.4235		100.645
-1.34058	-33.2499		100.63
-5.13849	5.62081		99.8757
-5.53698	10.0558		95.596
-8.49992	3.28677		97.6072
-19.9218	-17.7862		93.2417
-20.4281	-17.5303		91.7897
-20.0899	-19.4529		92.3488
-19.0899	-16.6353		95.6246
-18.9295	-15.5817		95.6761
-4.40865	-26.6713		101.17
-2.72184	-26.9041		102.048
-4.35148	-25.6561		101.843
-6.15487	-27.0443		99.8385
-4.37295	-28.3574		100.514
-4.11477	-24.8924		102.891
-3.96606	-23.9431		104.487
-17.9579	-15.2075		97.8484
-18.501	-17.1297		96.8201
-17.6849	-14.2406		98.1348
-19.7983	-22.1211		91.625
-18.8069	-24.541		91.7369
-19.0465	-20.5147		94.0144
-2.46385	-42.212		100.959
-2.078	-39.2772		100.603
-5.42357	-41.6044		100.607
-2.77381	-44.2065		101.27
-24.9439	-33.3792		87.4285
-23.2876	-28.9562		87.525
-27.1162	-33.8666		86.1749
-26.9331	-37.8561		87.2691
-22.5098	-33.131		88.9916
-10.4385	-72.7049		93.1068
-14.8909	-72.2202		91.3577
-10.1031	-75.0485		91.9606
-5.94212	-73.1737		94.0754
-10.7071	-70.6713		94.361
-27.2485	-53.111		84.8759
-26.6772	-51.1584		86.6348
-30.1399	-54.4859		81.1821
-27.8662	-53.8649		83.7777
-17.4589	-13.5863		97.969
-15.5023	-12.0665		100.727
-17.78	-13.0555		96.4168
-19.1285	-71.2271		89.1038
-19.0371	-69.5877		90.1716
-22.6589	-69.56		86.6764
-19.0838	-73.265		88.034
-1.92178	-73.5362		94.3403
-2.06261	-71.881		95.5052
-1.85942	-75.419		93.3551
-57.4107	25.8148		55.8511
-58.1359	27.1548		54.0834
-58.6064	20.479		51.169
-56.5121	24.8025		57.5348
-39.2821	52.8161		71.7985
-39.7619	57.8884		68.2371
-45.2188	49.7807		66.5912
-39.0296	48.4918		74.665
-34.0998	55.1414		75.9889
-51.217	46.1244		60.4095
-51.9964	51.6245		56.2851
-56.4339	41.9879		53.1963
-50.6109	41.8795		63.8648
-39.7513	41.971		76.5514
-39.3402	44.2407		76.3612
-40.1786	39.3974		76.2775
-35.3367	44.6936		81.4113
-59.2806	28.7622		50.9647
-61.5161	22.911		44.6558
-55.3665	34.3377		59.3318
-60.1068	31.9428		48.0673
-24.7884	36.0426		80.8537
-21.2004	35.0926		81.1248
-24.4686	37.9493		81.9458
-28.322	35.9278		80.0578
-25.0189	33.5364		79.1979
-6.55718	20.2734		86.8777
-6.37629	17.6224		88.6937
-3.61862	22.2956		88.2971
-6.6539	22.4051		85.7368
-9.57776	17.266		84.6553
-30.5018	-5.8164		76.549
-26.3782	-3.38486		78.4211
-29.6656	-1.47889		75.3344
-35.4662	-8.18961		74.2593
-31.3549	-10.7048		77.9713
-54.4567	4.12086		54.189
-51.9666	0.812254		57.9004
-52.6928	5.83573		56.0807
-55.7059	8.54373		52.4646
-56.1883	2.82105		52.2523
-5.97163	14.1612		91.7405
-3.19183	16.0877		92.9546
-9.00855	11.3368		89.9434
-40.7101	37.1213		75.771
-40.6219	35.0069		75.2954
-35.9384	39.9068		80.0151
-45.3249	34.8498		72.4255
-49.5723	32.2913		68.7194
-53.257	28.1893		63.9377
-48.9442	30.2956		69.0718
-52.8849	13.8236		57.0693
-54.2775	13.7082		55.3546
-52.2571	10.3297		56.6843
-51.4572	13.9989		58.6844
-53.1307	17.593		58.7776
-42.8579	19.1543		68.3208
-41.1808	20.2849		69.8136
-44.3639	17.8109		66.4823
-39.3029	21.3455		70.996
-37.1209	22.1701		71.8427
-39.4325	22.33		71.4489
-41.5196	21.1925		70.1949
-36.9847	23.1897		72.3032
-34.5436	22.7665		72.3315
-31.8203	22.9948		72.5401
-34.2636	23.7315		72.7402
-31.318	23.9566		72.9049
-29.0301	22.8758		72.5253
-26.4412	22.1627		72.2719
-24.05	21.03		71.7743
-22.2002	19.8691		71.247
-22.8925	21.8778		72.0688
-25.3451	22.9621		72.5472
-21.1326	20.6381		71.6144
-21.1216	18.8066		70.8284
-21.6787	22.565		72.4789
-24.3242	23.9307		73.0277
-34.0342	24.8613		73.2636
-30.8368	25.1105		73.4474
-47.6454	13.0221		61.795
-46.616	12.1427		62.5522
-31.9602	35.0727		78.9218
-32.1819	32.8699		77.5335
-31.9911	37.3716		80.1558
-36.1547	33.9703		77.1722
-46.4553	24.1484		68.9902
-45.2911	22.5523		69.0404
-43.7119	25.9927		71.3457
-47.4737	26.1481		69.0603
-37.083	5.71645		69.974
-31.1477	6.78777		72.1771
-41.9882	6.04837		67.1255
-37.4958	3.85801		69.9607
-26.3241	8.76051		72.8669
-26.8562	7.37867		73.212
-22.9926	10.5564		72.8767
-19.4386	14.2506		72.2363
-20.2754	13.0574		72.521
-19.0216	15.1706		71.9539
-36.1962	8.97843		70.1397
-30.8504	9.67817		71.789
-40.905	9.44257		67.7715
-21.8914	13.8087		71.3097
-21.1764	14.451		71.0204
-23.3662	12.7816		71.7048
-20.6176	14.9905		70.9092
-20.1135	15.6788		70.8671
-15.9544	24.5075		76.0359
-14.7024	27.2296		78.2796
-17.2432	26.2455		76.205
-17.3516	21.7698		73.6644
-18.7075	16.6981		71.8487
-27.4573	24.8951		73.4003
-18.1094	20.6031		72.6651
-18.9691	22.1413		72.8958
-17.6719	18.9753		72.6692
-36.0601	10.2237		70.163
-30.7562	10.8819		71.6308
-22.0069	14.6016		70.696
-23.3349	13.8789		71.1134
-21.3255	14.9828		70.5594
-20.9338	15.3955		70.3827
-45.3982	16.4648		64.6754
-3.13613	36.2897		86.17
-3.64022	39.01		86.3856
-5.91747	35.816		85.6473
-2.47086	33.9465		86.0691
-22.0469	5.84938		76.1067
-24.8415	4.15288		75.3863
-22.8552	2.96677		77.4862
-19.9274	7.49945		76.8472
-21.5615	7.8759		75.1206
-17.5361	9.3685		78.1648
-15.054	11.7288		79.8925
-17.4427	14.1948		74.479
-17.5244	15.7623		73.4667
-15.8039	15.3756		76.071
-11.4857	24.9922		80.1202
-10.4736	26.3727		81.338
-12.4528	27.0537		79.8356
-21.3219	11.9079		72.6903
-21.1997	10.8923		73.4059
-21.2071	9.51605		74.2329
-23.6926	7.8793		73.9478
-23.6159	-56.6418		83.7608
-19.7186	-56.6598		87.5244
-27.0842	-56.303		80.5228
-23.5727	-56.5718		83.489
-28.8169	-56.3917		79.204
-28.504	-56.2992		79.2101
-3.02696	-47.8487		101.273
-2.90091	-49.3149		100.942
-2.9812	-46.4491		101.43
-6.34964	-47.3844		100.714
-9.20545	-50.6726		98.7453
-12.3964	-51.377		97.1098
-9.07332	-52.3231		97.8234
-6.28078	-50.6239		99.6861
-9.14699	-49.0497		99.4477
-15.7263	-52.0052		94.9932
-19.1328	-52.9944		92.2618
-15.7329	-53.6251		93.9254
-15.6928	-50.4385		95.8219
-9.03688	-47.4399		99.931
-8.93417	-46.0344		100.21
-12.0354	-48.0374		98.5609
-14.0983	-46.2467		97.7236
-15.0433	-47.4539		97.0933
-10.8339	-45.4435		99.4923
-13.5362	-45.032		98.0414
-22.7853	-54.6459		87.8356
-22.4464	-53.1942		89.5689
-8.5064	-53.8854		96.7298
-12.2764	-54.4601		94.9212
-8.1347	-54.6528		95.8724
-5.26525	-53.4899		97.9365
-16.0719	-55.2284		92.2244
-16.0974	-56.0065		91.1624
-29.5876	-55.1887		80.8689
-30.8025	-56.5		79.1005
-23.9193	-57.7256		84.2381
-23.9729	-57.9908		84.581
-19.8614	-58.396		88.5339
-23.8932	-57.6348		83.9803
-24.5034	-59.519		85.2355
-20.8755	-61.3284		89.9736
-24.3211	-58.959		85.0966
-17.757	-61.9314		93.1279
-18.2159	-62.8818		93.0354
-14.0103	-61.8946		95.9327
-17.4287	-60.8982		92.9227
-8.61102	-59.0987		97.5111
-5.00045	-59.1407		98.4666
-8.29506	-57.6978		96.9008
-13.0362	-59.3239		95.3981
-9.06545	-60.6912		97.9913
-2.21098	-62.9339		99.6432
-2.04744	-61.3271		99.3941
-5.46018	-62.3581		99.2801
-2.32725	-64.3621		99.7031
-28.9707	-57.8458		78.3931
-28.9494	-57.2556		79.0556
-27.2468	-57.9429		80.0682
-28.6558	-59.2949		77.715
-1.67571	-57.4433		94.2738
-1.60469	-56.6723		95.6954
-1.7165	-59.1792		92.6618
-4.48748	-57.5712		93.8718
-2.35752	-65.6403		99.585
-5.80694	-64.8712		99.3106
-2.36995	-66.7272		99.3018
-2.20725	-70.2237		96.8797
-2.33735	-68.7763		98.0944
-5.92937	-69.5465		96.7643
-8.59201	-45.0392		100.33
-6.14936	-44.7954		100.954
-7.86005	-43.6388		100.439
-1.93703	-59.5063		98.912
-1.73498	-57.8303		98.272
-1.5972	-57.0366		97.7787
-1.66813	-56.6697		97.3161
-4.50648	-56.9153		97.3967
-8.11578	-57.0277		96.4365
-8.00175	-56.7627		96.036
-12.2833	-57.4517		94.4675
-1.7086	-56.519		96.6886
-4.41585	-56.4902		96.3443
-16.2461	-58.0675		91.6662
-16.5696	-58.6511		92.0738
-16.1234	-57.8243		91.219
-18.8276	-65.798		92.4599
-18.9521	-66.7891		91.9226
-15.4202	-66.0756		94.9506
-18.6956	-64.8908		92.7674
-10.6629	-66.1757		97.4648
-10.863	-67.2797		96.7445
-5.94435	-66.884		98.6614
-10.3878	-65.2333		97.923
-2.36629	-67.704		98.837
-16.1146	-56.1721		90.5599
-16.0049	-56.0608		89.9814
-12.204	-55.4306		93.2779
-28.9766	-57.0084		79.7364
-27.3272	-57.3965		81.2853
-8.07965	-57.837		92.8892
-7.91481	-56.9873		94.2752
-8.29455	-59.4324		91.4439
-12.1332	-58.1799		91.1806
-7.88784	-56.6997		95.3673
-12.0152	-57.1695		93.4009
-10.8225	-68.7966		95.6987
-15.4286	-68.6125		93.4459
-18.4496	-63.918		92.9973
-14.9508	-64.0914		95.654
-19	-68.0938		91.1446
-22.091	-66.7228		88.6219
-15.6643	-55.6126		89.5952
-19.0184	-56.083		87.0979
-14.9529	-53.9548		88.8776
-12.1461	-54.8473		91.6171
-8.33727	-54.305		93.2043
-8.09508	-54.792		94.3183
-8.8851	-52.7763		91.5346
-5.19692	-53.8776		93.8176
-14.1293	-50.4044		87.8947
-16.9408	-50.9047		86.3021
-13.666	-45.904		87.1953
-11.3966	-49.8594		89.1347
-27.9056	-62.697		77.2504
-26.1502	-62.9058		79.1097
-26.5612	-66.7641		77.5739
-1.64882	-62.6966		91.0712
-1.90123	-66.9805		90.1015
-4.4097	-62.6674		90.7882
-8.69697	-49.4056		90.0173
-8.2514	-44.9973		89.1527
-5.87306	-49.0086		90.6301
-8.06795	-62.6948		89.957
-8.03521	-67.0271		88.8069
-12.0848	-62.8794		88.4754
-30.305	-57.598		72.9753
-30.2472	-57.6961		72.6453
-13.3686	17.4261		78.5984
-12.706	16.0754		80.4333
-78.8087	-9.93045		-44.4927
-80.2185	-10.4719		-42.7907
-79.5037	-5.28735		-44.4622
-77.0854	-9.2386		-47.8277
-77.9907	-14.3919		-43.7635
-77.2626	8.08556		-7.42995
-76.1144	10.1684		-2.59976
-77.8881	11.0732		-11.5833
-78.2421	13.3078		-16.725
-79.0938	12.9858		-23.6666
-78.6024	8.2435		-17.7998
-78.133	18.8738		-17.9554
