1858
13.7119	-25.4432		95.2504
16.4735	-24.9302		93.8353
13.8937	-28.994		93.6269
14.4651	-30.5422		93.4649
16.5045	-29.3958		91.6982
13.7061	-28.0011		93.8491
11.5755	-28.1835		95.3056
1.84101	-24.8959		103.115
2.00453	-23.8292		104.765
0.284699	-24.9412		103.269
1.86029	-25.9757		101.806
3.62252	-24.7373		102.383
19.1833	-28.764		89.8669
21.8189	-27.2419		88.1077
18.7682	-27.7082		90.2916
19.7039	-30.2556		89.7302
8.88376	-15.196		110.456
6.13647	-15.5517		112.36
8.57131	-17.0797		109.403
11.8868	-14.9644		107.466
9.03971	-13.5388		110.934
27.0765	-71.8785		84.1021
29.9828	-69.1404		81.6579
26.3934	-68.3507		85.7682
23.462	-74.2308		87.1453
27.5451	-76.0103		82.2988
30.652	-50.4441		85.1738
29.84	-46.4894		86.6659
28.6381	-49.6074		87.058
32.4417	-51.1648		83.6673
2.31918	-30.3716		99.682
2.62875	-32.6443		99.5878
4.17766	-30.1327		99.3009
2.04096	-28.4372		100.181
0.182205	-30.5011		99.7845
7.80305	3.02626		98.2971
10.6837	1.27762		96.3823
7.78049	6.79438		94.1158
21.9824	-16.7795		91.6414
21.0566	-14.7302		94.0727
21.2619	-15.7828		93.9685
22.1235	-18.4712		90.7476
22.4302	-16.3302		90.2126
5.43969	-26.505		99.616
5.27995	-28.1182		99.1368
7.14421	-26.8422		98.4564
5.35556	-25.528		100.257
3.76247	-26.7302		100.406
5.17664	-24.6633		101.31
5.22698	-23.6554		102.802
20.1872	-14.5278		96.2958
19.8927	-13.5973		96.6282
20.7189	-16.4009		95.2281
21.7187	-21.3976		89.9836
21.1056	-19.8795		92.2598
20.4698	-24.1707		90.1404
3.98721	-40.9073		101.342
4.40085	-42.9962		101.931
6.62053	-40.2068		100.885
3.61044	-37.9818		100.51
1.08742	-41.5933		101.64
25.7105	-32.5741		86.6617
23.2917	-32.598		88.148
27.1275	-37.164		87.2429
27.9078	-32.786		85.5548
24.6304	-28.3586		86.3598
11.8266	-72.1167		96.1894
11.9202	-69.9437		97.2696
8.0777	-72.7373		97.1662
11.6815	-74.8406		95.0988
15.7016	-71.341		94.5561
26.4575	-52.2196		87.8898
26.8023	-52.9911		87.1507
28.803	-53.7478		84.7653
26.4163	-50.3785		88.8498
19.6339	-12.9708		96.4753
19.8157	-12.3861		94.9502
17.73	-11.5673		99.2932
19.4125	-70.2209		92.3799
19.4718	-72.6577		91.288
22.7443	-68.4129		89.8772
19.2689	-68.3032		93.3845
5.01232	-73.1934		97.5734
2.04702	-73.3449		97.7934
5.08228	-75.8039		96.5818
4.85812	-71.1094		98.6756
59.604	27.5332		53.5451
58.7516	26.8121		54.8547
61.1452	21.1341		49.8502
60.2869	28.4445		52.1759
37.641	56.6776		69.6769
31.4488	58.9969		73.8825
37.9327	50.7839		71.6501
44.2395	53.3524		64.819
38.1267	62.917		66.7938
51.3526	49.0358		58.8241
51.0669	44.2411		61.4327
57.827	43.6012		51.7666
52.3145	54.7389		55.0674
39.6325	42.3117		72.3497
38.9049	44.8494		72.4633
33.7495	44.3964		77.0295
40.3516	39.8271		71.9146
61.4342	29.2537		49.7268
62.2161	31.9899		47.2773
56.9556	36.168		56.8511
63.9954	22.0995		44.651
23.6227	33.0002		78.4823
24.212	31.411		77.2517
27.2419	33.7371		77.495
22.9463	34.8804		79.9707
20.5432	32.0211		78.9098
8.19239	15.7357		85.0854
10.6472	13.2173		83.6223
8.28905	17.62		83.7185
5.99442	17.5579		85.8935
8.08714	13.3868		87.0496
31.6434	-6.21787		77.725
33.0593	-10.3821		79.0528
37.7969	-8.16737		75.9569
30.1006	-2.68425		76.6655
26.3237	-4.23599		79.4335
58.4814	5.54829		55.0681
60.5766	3.52466		53.4589
59.0174	10.3159		52.797
56.3381	7.62193		56.5146
56.4983	1.60511		59.1374
7.95911	10.3744		90.0978
10.5418	8.24372		88.7222
5.55444	11.8648		91.0113
41.0735	37.6433		71.6097
46.4551	36.3678		68.3056
35.7094	38.3274		74.9456
41.3419	35.4845		71.3796
51.2177	34.2164		64.6224
50.7491	32.2058		65.0722
55.2214	30.3148		60.3285
55.667	15.4026		56.0929
55.4721	19.2141		57.1488
54.0971	15.3704		57.762
55.4574	12.1081		56.2222
57.0931	15.3793		54.51
44.9028	19.7423		67.8757
46.4973	18.464		66.0294
43.1306	20.8206		69.4821
41.0519	21.8331		70.8005
38.7255	22.5318		71.7487
41.1081	22.8189		71.0394
38.4379	23.5327		72.0357
43.3958	21.7961		69.6516
35.9517	22.8852		72.4214
32.9674	22.6998		72.8421
35.5309	23.817		72.6784
32.2909	23.5788		73.0851
29.8563	22.0149		73.1689
27.1122	20.8336		73.1912
24.2569	19.2152		72.9096
21.5846	17.3443		72.5978
22.9407	19.9279		73.138
20.478	17.9592		72.8864
25.8932	21.639		73.39
19.8518	15.7214		72.3771
21.646	20.5414		73.4858
24.8014	22.5147		73.6974
35.1184	24.866		72.9476
31.6222	24.6418		73.3831
49.9909	13.9709		61.5961
50.3036	15.0529		61.4183
49.0123	12.9281		62.5277
31.3983	34.2007		76.0158
36.3167	33.9321		73.7447
31.1095	35.9336		76.865
31.843	32.1011		75.0205
48.0506	25.4579		66.7602
46.9726	23.4831		67.4413
49.1488	27.9031		66.0962
44.8019	26.818		69.3492
39.3264	4.64235		71.1367
44.9311	5.70321		67.9816
32.5914	4.71922		73.398
39.7886	3.15966		71.1651
27.0281	6.0797		74.197
23.0587	7.71536		74.1651
27.2313	4.72706		74.5368
19.1678	10.9158		73.6038
18.628	11.7918		73.3336
20.0524	10.0721		73.7179
38.4112	7.56328		71.2205
43.597	8.82539		68.3954
32.4972	7.50043		73.0423
21.4093	10.8341		72.7782
23.4241	9.91151		73.1331
20.5405	11.3673		72.5464
19.9346	11.7991		72.4384
19.3705	12.3436		72.4081
15.4809	20.7688		76.0511
14.5337	23.4893		77.406
16.466	17.8477		74.4964
16.9949	23.0526		75.9041
18.0775	13.1342		73.2171
28.0464	23.8928		73.6905
17.1743	16.7856		73.7711
16.9068	15.0962		73.8528
18.058	18.8339		73.8593
38.2234	8.89384		71.2508
32.3408	8.77555		72.9345
21.3382	11.6158		72.2336
20.559	11.879		72.145
23.227	11.0641		72.6329
19.9846	12.279		72.0522
47.5919	17.078		64.2793
4.69586	32.3275		83.4612
2.04624	32.3853		83.49
4.7255	29.5238		83.1931
6.93323	31.7421		83.127
4.83448	35.5041		83.9853
21.5008	3.55434		77.2159
21.173	5.32319		76.2095
19.583	4.99386		77.7898
22.2601	1.02571		78.6073
24.3806	1.91231		76.6268
17.5785	6.52062		78.8091
15.4044	8.43667		80.2222
17.32	10.7397		75.4876
15.7014	11.6416		76.9193
17.2676	12.1523		74.5219
11.6767	20.4682		79.1186
12.4682	22.7078		78.665
10.8535	21.65		79.9194
21.1436	8.98602		73.9612
20.9521	8.0369		74.6273
20.9753	6.80475		75.3213
23.4036	5.2153		75.2068
22.7533	-55.3069		87.1259
22.6755	-55.2459		86.8698
25.744	-55.4139		84.3652
19.6363	-54.8333		90.1311
27.4452	-55.5928		83.0323
27.1533	-55.4885		82.9923
4.68035	-46.6499		102.214
7.73408	-46.1823		101.581
4.6414	-45.2479		102.281
1.1618	-47.1979		102.554
4.61456	-48.2149		101.966
10.3784	-49.5284		99.8832
10.3898	-47.8969		100.426
7.69952	-49.4513		100.802
10.0897	-51.1296		99.1941
13.0323	-49.9597		98.6206
16.0027	-50.3253		96.8625
16.041	-48.895		97.4846
16.0217	-51.9245		95.8793
19.3511	-51.039		94.4047
10.2683	-46.2465		100.799
12.9349	-46.8367		99.6191
10.1288	-44.815		100.988
14.6945	-45.0379		98.8087
15.5635	-46.2125		98.3482
14.1804	-43.7965		98.9424
11.8272	-44.2429		100.284
22.7054	-53.0102		90.4042
22.6148	-51.4246		91.8335
9.51744	-52.6855		98.266
6.68956	-52.4096		99.3791
9.13784	-53.46		97.5184
12.8138	-52.9402		96.74
16.2959	-53.4531		94.3854
16.3159	-54.1724		93.441
28.1911	-54.4225		84.6483
23.0166	-56.3586		87.6856
22.9659	-56.2807		87.4247
19.7976	-56.4214		91.0978
23.079	-56.5988		88.0445
23.6166	-58.0563		88.7275
23.3972	-57.5274		88.6194
20.7594	-59.4112		92.7022
17.7781	-60.0814		95.7725
17.5189	-59.0831		95.4728
14.4524	-60.421		98.2911
18.2215	-61.0311		95.7601
9.69757	-57.8828		99.4745
10.1154	-59.4142		100.073
13.5392	-57.8738		97.5634
9.37075	-56.4946		98.7415
6.37052	-58.0218		100.553
4.05745	-61.4653		102.126
4.21547	-62.7583		102.281
6.96733	-61.0305		101.568
3.8803	-59.985		101.75
1.45319	-61.6394		102.327
27.6386	-57.0399		82.1845
27.5723	-56.4541		82.882
27.4186	-58.4819		81.4482
25.9154	-57.0495		83.8902
3.50707	-56.2847		96.4718
3.45651	-55.5489		97.6884
5.99091	-56.3307		95.9935
3.51109	-57.9266		95.1408
1.27951	-56.319		96.6376
4.35849	-64.0316		102.253
1.55355	-64.2513		102.429
4.49567	-65.149		102.042
7.50978	-63.4894		101.729
4.73164	-69.1568		99.9064
8.07529	-68.5237		99.5365
4.64185	-67.4786		100.975
1.76146	-69.4333		100.024
9.79185	-43.8061		101.03
9.02143	-42.3658		101.013
7.49024	-43.5684		101.637
3.70462	-58.3472		101.133
1.3236	-58.4692		101.334
3.51332	-56.8126		100.344
3.41744	-55.8761		99.6412
5.96919	-55.7674		99.2009
3.48058	-55.495		99.1117
1.23139	-56.0362		99.8675
9.20361	-55.7911		98.1752
12.8333	-55.9003		96.4039
9.10122	-55.4952		97.7068
3.53539	-55.3748		98.5573
5.91748	-55.3533		98.1018
1.22963	-55.49		98.6719
16.4715	-56.1901		93.9555
16.3577	-55.9462		93.5116
16.7635	-56.7875		94.4089
18.833	-64.0572		95.4265
19.0254	-65.1452		94.9463
18.6725	-63.0544		95.6704
15.6433	-64.6693		97.7971
11.6718	-65.1032		99.9315
11.8714	-66.3111		99.3064
11.475	-64.0814		100.288
7.89402	-65.6507		101.17
4.5568	-66.2412		101.644
1.62245	-66.5196		101.781
16.3119	-54.3367		92.8991
12.7044	-53.8881		95.2659
16.1764	-54.2422		92.3251
30.3756	-55.8747		82.6286
29.3568	-56.1812		82.7977
27.5587	-56.2091		83.5996
25.9525	-56.5067		85.2124
9.16183	-56.4271		95.017
9.01889	-55.6664		96.1683
12.7432	-56.5121		93.4732
9.32907	-57.9431		93.8164
8.99998	-55.4239		97.0883
12.6213	-55.5869		95.3646
11.93	-67.9654		98.3856
15.9252	-67.3751		96.4313
18.4387	-62.0402		95.802
15.1838	-62.6254		98.3158
19.1624	-66.6346		94.2373
22.0443	-65.1537		91.7164
15.821	-53.822		91.8878
12.6184	-53.3261		93.656
15.1249	-52.288		91.007
18.8773	-54.2882		89.6739
9.24822	-53.0653		95.0728
6.49907	-52.8182		95.662
9.65959	-51.4826		93.3107
9.08819	-53.5654		96.1652
14.3923	-48.9924		89.7215
11.8992	-48.5313		90.7934
14.0649	-44.8061		88.5582
16.944	-49.4837		88.3291
26.9045	-61.9062		80.8268
26.101	-66.1077		80.77
25.223	-61.9585		82.7038
3.50546	-61.4292		93.9162
5.95988	-61.366		93.52
3.95042	-65.9303		93.3462
1.45603	-61.4784		94.0746
9.45526	-48.1708		91.565
6.91073	-47.8695		92.113
9.06133	-43.9109		90.2976
9.15778	-61.3104		92.6451
9.34005	-65.9119		91.9106
12.6452	-61.3727		91.2615
29.3891	-56.727		75.966
29.4978	-56.9315		75.16
13.5524	13.5466		78.712
13.1202	12.3356		80.334
79.8753	-9.7913		-43.3178
79.0132	-14.2913		-42.5239
78.0983	-9.0496		-46.7581
80.622	-5.11703		-43.3387
81.3309	-10.3719		-41.5505
79.505	7.73468		-5.7116
79.9894	10.8624		-10.0467
78.4915	9.69175		-0.8524
80.1718	13.2325		-15.3531
80.0093	18.8895		-16.7441
80.483	8.14489		-16.325
80.8397	13.0459		-22.4354
72.8182	-34.7464		-33.6825
75.311	-32.5216		-31.9723
71.5593	-39.0663		-31.023
74.2023	-30.7421		-35.5705
75.4031	-26.9663		-37.717
72.7956	-28.8646		-40.6751
76.7265	-22.8803		-39.6087
77.6745	-25.8386		-35.785
82.7978	-10.3476		-40.638
84.3605	-9.80997		-40.2646
82.0678	-14.5951		-39.6733
83.3044	-5.25604		-40.8745
83.9607	-29.1011		-30.3283
85.2918	-24.9353		-32.4893
84.6457	-29.5814		-29.0656
82.5278	-33.2406		-27.7122
88.8941	-19.1854		-30.5013
88.8814	-18.6457		-29.7067
76.5701	-42.3211		-19.0688
77.0098	-42.5846		-18.32
76.0398	-43.0924		-16.9275
75.8042	-41.3536		-21.2631
77.5901	-35.4172		-6.00765
77.2251	-36.0513		-5.94868
76.7431	-37.0598		-6.16562
88.8236	-18.2822		-29.288
88.2593	-18.9243		-28.2993
92.2821	-3.28519		-33.4005
92.3943	-2.58483		-34.9532
92.1051	-4.67019		-31.6998
92.7753	7.05092		-31.0258
93.0891	8.4415		-31.1572
93.2542	10.5439		-30.138
92.6391	10.2753		-27.8833
93.4572	11.0341		-30.553
92.9096	12.5543		-27.0312
81.8821	-12.0811		-7.018
83.3881	-6.46705		-7.77555
81.3618	-11.3941		-5.67906
80.7513	-16.2436		-6.30613
75.8004	-28.7925		0.732174
74.8015	-29.3665		3.61952
75.0681	-32.5704		0.312435
76.5424	-24.4362		1.12613
80.0883	-23.3514		-8.79848
80.3522	-25.3958		-9.29954
80.1548	-21.3391		-8.97544
80.4745	7.62376		-16.2753
80.9219	9.07307		-19.8347
80.5116	7.61617		-16.0667
89.0322	15.5084		-17.0281
90.1061	17.355		-20.2473
88.1749	15.9474		-18.2224
87.4476	12.1871		-13.9627
89.8047	14.7576		-16.0103
89.7117	18.1762		-25.3616
88.86	17.8289		-22.311
89.9944	18.3037		-24.8585
90.228	16.9904		-29.0334
88.8706	17.1262		-26.7089
90.3664	2.94946		-39.6328
89.5651	2.46384		-39.8127
90.8197	8.95381		-36.7883
91.4286	3.19127		-39.0951
84.5158	-1.7235		-8.50071
84.7705	-2.95464		-9.14557
93.1477	2.22154		-36.513
93.7014	7.39265		-34.2927
92.7557	-0.626853		-36.6757
93.2017	2.13223		-36.8852
92.3444	13.3305		-23.0185
91.3296	12.624		-18.9629
92.1061	11.9658		-23.7379
92.4603	14.3249		-22.4175
86.074	-0.777731		-11.3753
85.4381	-2.61284		-10.7414
86.7316	1.63472		-12.1648
92.651	2.82944		-33.7555
92.7264	0.793225		-35.6225
89.8348	5.11432		-21.9925
89.2915	3.70274		-21.1756
91.2353	4.77473		-26.2209
83.9166	-7.67543		-12.465
84.0941	-7.36456		-13.2009
84.4853	-6.05465		-11.378
89.0016	-6.24398		-26.8334
91.1843	-3.4783		-28.8235
88.7385	-5.8138		-26.202
88.8479	-7.35565		-26.9792
77.2477	-20.4108		0.97783
78.1936	-15.7173		-0.0367109
76.3737	-20.7688		3.63055
83.6607	0.0470902		-39.4155
82.5213	-0.512808		-40.5656
83.6056	4.75059		-37.3012
84.6843	2.58471		-38.4749
87.2134	7.62317		-35.8048
87.0247	11.3688		-32.5777
89.7189	12.3503		-33.9325
87.2952	3.55496		-38.7089
88.4494	1.44312		-39.7699
87.1387	-4.16682		-40.5123
86.561	-9.27243		-40.1018
79.4652	-25.2138		-34.9013
78.3068	-28.4501		-32.9946
80.4689	-21.8709		-36.664
81.3093	-18.3786		-38.3249
79.6366	-18.597		-39.3769
87.6535	-18.9041		-27.2463
77.1339	-31.4764		-31.2053
75.8041	-35.2393		-28.7661
78.3838	-31.1778		-30.7432
75.6259	-39.2418		-23.9889
75.1742	-39.2523		-24.3415
74.6618	-42.8536		-19.1965
75.7703	-42.8654		-13.9783
75.2527	-43.1397		-13.833
74.666	-43.3526		-13.5057
89.0487	-8.09821		-27.4562
91.1211	-6.60732		-29.7154
80.7702	-10.8314		-4.55963
80.027	-10.4773		-3.30268
77.8834	-24.7213		-2.56269
78.2164	-24.8615		-3.2538
80.7452	-28.9594		-8.93718
81.643	-30.9231		-10.5713
81.0041	-27.8044		-9.84749
80.0264	-19.3318		-5.7109
80.4875	-19.3699		-7.98729
86.7078	13.1294		-29.3634
84.2214	9.41935		-32.143
85.7064	13.6477		-25.978
83.2631	7.90235		-33.9473
82.8707	7.61427		-35.0537
82.602	9.93747		-29.6026
80.1321	-19.3158		-10.9274
80.3777	-19.2546		-10.0313
91.8591	3.87217		-28.6177
91.6382	2.32089		-28.2461
84.5716	-6.58456		-14.6967
83.8536	-8.90689		-15.7326
85.6697	-5.22322		-17.4495
88.724	-4.9775		-25.6997
90.6475	-1.24651		-26.9729
88.1235	-4.97436		-24.2834
7.22609	88.3841		65.2607
6.77235	81.6115		70.9402
14.454	87.572		64.8103
7.77737	95.271		58.0118
-0.212406	88.479		65.4348
6.05553	74.8728		75.4921
-0.491407	74.4992		75.8194
5.24543	67.6634		79.1427
12.5123	74.7624		74.7182
25.7283	60.5625		76.7118
26.7247	54.4625		78.6068
21.6892	60.8087		78.3377
2.17807	-22.6582		106.817
2.61242	-21.3139		108.767
0.654591	-22.5968		107.207
4.17924	-22.6255		105.673
3.58897	-12.178		113.91
6.19713	-12.1281		112.92
3.58944	-10.2742		113.416
1.15593	-12.1917		114.192
3.58952	-13.9615		113.914
3.54117	-15.7996		113.424
1.13006	-15.8821		113.748
3.43181	-17.6354		112.409
1.9503	-27.0758		100.889
0.149937	-27.1923		100.996
3.03079	-35.1559		99.8754
5.26292	-34.7787		99.5584
0.635554	-35.5585		100.025
3.15055	-19.5159		110.801
5.45762	-19.432		109.593
0.97718	-19.5427		111.19
3.48509	-8.35572		112.479
6.0027	-8.55905		111.632
3.40977	-5.99674		110.758
1.10021	-8.24208		112.676
6.47105	48.044		84.1461
0.380196	48.4294		84.6572
6.26619	44.4982		84.5063
11.8207	48.2696		83.2897
6.22955	52.5011		83.4479
4.28224	18.4176		86.3048
3.89127	15.9451		88.2808
4.55641	20.4681		85.0297
2.79152	18.7441		86.4322
4.77265	22.4764		84.1321
6.37519	21.5184		83.7187
4.78541	24.5586		83.5781
3.10231	22.7608		84.3672
3.83351	-52.6588		95.9135
1.19361	-52.7275		96.1395
4.12028	-50.9806		94.2884
3.50459	-53.5343		97.5417
3.43837	-53.6736		98.5182
1.19101	-53.8363		98.6986
5.89497	-53.5749		98.0318
3.50573	-53.4835		99.0316
4.53932	-49.6587		101.538
4.33049	-51.0267		100.934
1.15145	-49.9231		101.865
3.90534	-52.4634		100.02
1.17685	-52.7033		100.179
4.64102	-44.2087		102.179
1.15866	-44.9173		102.526
4.0616	-47.6798		92.4681
3.73034	-43.4611		91.0177
1.03651	-47.6276		92.6146
20.4647	86.4854		63.9286
19.4159	80.4898		69.173
26.0603	84.924		62.6423
21.5984	92.7597		57.0568
17.8096	49.5551		82.1885
17.9744	46.0847		82.6066
22.7253	50.2871		81.3723
16.6628	53.572		81.63
19.6656	42.6904		82.4775
21.3078	39.3031		81.9629
24.0622	43.5874		81.6241
22.5692	36.6987		81.0172
19.1122	35.8465		81.8602
26.0486	37.9596		80.2752
27.072	24.965		74.0844
26.2667	26.6852		74.6985
23.6005	23.4926		74.1411
30.9008	25.8303		73.7261
28.969	22.893		73.3875
25.1374	28.7717		75.7259
28.8049	29.5302		75.0488
21.9439	27.5569		76.02
45.4659	87.9639		40.5117
46.9972	93.0049		30.4524
39.8017	91.7305		43.2264
44.3965	82.6562		47.8787
31.2621	83.2174		60.6486
32.7281	88.6887		54.2426
36.8822	80.8889		57.7629
26.9894	50.3284		80.1064
27.919	48.2956		80.2278
32.3528	49.6538		77.2298
30.0126	39.148		78.9112
29.726	41.0301		79.5141
28.8717	44.7526		80.0112
32.6197	29.5314		74.2228
33.8795	27.4596		73.5333
37.1271	28.8342		72.8801
43.0422	77.8816		53.6561
49.4274	74.4534		48.3181
41.5331	73.1617		58.5481
38.5359	47.266		72.2276
44.7023	44.5126		67.8097
41.3995	24.6581		71.218
41.2079	26.1261		71.3622
38.167	25.5659		72.4303
44.1068	23.5604		69.6481
41.4806	33.2542		71.2869
41.3212	30.7995		71.2882
46.1271	32.0908		68.6192
41.1549	28.0911		71.3699
39.7398	68.2349		62.9124
46.6576	64.5823		57.5303
55.4798	71.4015		41.4696
54.4533	66.1281		46.5393
60.7826	68.6174		33.45
45.2774	20.5949		68.0051
46.8951	19.1424		66.0627
46.4027	22.1745		67.6757
48.2177	20.6054		65.6038
45.7196	21.3715		67.9834
50.1036	30.2488		65.5255
53.2373	26.9247		62.007
17.8044	30.3255		78.8453
15.5757	28.1176		78.5454
18.3879	28.4149		77.5339
17.0856	31.6613		79.9375
15.9869	32.969		81.1603
13.7167	31.0726		80.8953
19.1878	25.4751		75.9677
19.9842	23.1329		74.7785
6.05053	40.0002		84.5251
1.72167	41.0026		84.5458
62.3328	-67.4929		-7.27848
64.2349	-62.4845		-5.16497
62.7934	-67.4679		-14.0782
79.5814	22.4098		-37.3309
79.3008	18.5982		-43.0723
78.5896	28.2803		-42.1621
79.9381	24.5217		-29.1036
80.6234	16.4406		-32.0468
75.7896	-8.55559		-52.7628
74.648	-14.6772		-51.206
73.6572	-8.55451		-58.4938
76.8689	-2.64403		-52.8034
77.6008	3.64347		-52.4377
75.7423	5.60084		-59.0315
78.261	9.20115		-50.5647
79.5174	1.3561		-46.0591
69.3282	-32.4008		-44.9118
66.1965	-35.6672		-48.9255
71.2436	-26.5031		-47.4018
5.71135	59.9759		81.7274
-0.113211	59.2659		82.1919
11.2177	59.9982		80.9975
16.1985	60.1842		79.9752
16.531	67.8944		77.2358
17.1145	-100.124		52.4536
14.6854	-99.319		44.1458
22.3276	-97.4546		46.8237
12.4505	-101.765		55.7731
41.6492	-87.0293		40.897
36.415	-90.3721		45.7219
46.1104	-83.9982		36.3999
43.0455	-85.1086		44.6144
53.504	60.4204		50.8355
59.4417	56.2735		43.39
18.0948	74.4764		73.5141
65.8599	65.9451		23.9126
69.9921	63.7677		14.0185
65.4947	59.1692		29.5407
22.4472	99.9733		47.3592
28.4964	97.6562		46.6303
22.9709	106.908		35.6329
15.7614	101.625		47.9593
63.2635	37.2964		43.366
64.016	44.765		39.2162
49.2363	18.7586		63.8095
57.8422	25.8483		56.0345
58.5328	20.4041		53.575
56.5026	24.5884		57.4881
55.1748	23.3824		58.8082
0.00614019	-105.421		32.6604
-1.83731	-105.457		32.7183
53.0102	-75.548		38.0555
54.4855	-71.634		40.6473
49.0102	-78.4171		43.6832
51.3716	-78.9858		34.6481
8.40299	-40.3512		100.557
10.2652	-40.7834		100.076
7.6701	-37.6563		99.8821
26.0184	-47.9734		89.5731
25.1656	-44.0458		90.5433
23.2558	-45.8222		92.5037
11.3231	-36.5112		97.9744
8.58241	-35.3657		98.8334
12.2203	-39.0735		98.5128
14.4044	-37.5028		96.5314
10.4507	-33.7842		97.3696
33.904	-51.6219		82.4681
33.733	-55.013		81.4195
35.5462	-52.646		80.8408
33.4329	-47.8643		83.7119
62.494	14.384		47.7799
60.6885	14.736		50.1992
63.2643	8.01384		48.0663
64.1424	14.3536		45.1928
65.946	14.5748		41.8795
68.2766	14.1925		36.8347
52.8342	15.4172		59.0951
52.857	13.1708		58.786
58.9737	14.956		52.3601
81.6769	8.37963		-37.1352
81.515	4.65025		-40.3582
80.3238	10.5788		-41.2894
81.7901	10.8346		-33.1176
77.8265	-18.7628		-41.3729
75.7823	-19.1799		-44.6241
67.6806	-54.169		-15.9702
69.661	-49.9493		-13.4584
66.8144	-56.5061		-9.44448
65.4509	-59.6294		-18.7404
68.604	-50.5031		-22.1161
81.1644	-0.0465096		-42.375
73.7459	-30.3883		6.98678
72.8423	-34.5938		6.52275
74.6186	-25.9559		7.17986
72.5761	-31.4538		11.6444
71.7803	-4.05068		30.7758
71.8238	4.55202		29.1745
71.2722	-11.8814		32.3334
73.7734	-5.08812		22.1239
54.8863	8.94686		57.5064
53.5707	10.2679		58.4316
53.2658	6.28345		60.2817
52.364	11.3731		59.4143
51.1459	9.89602		61.0515
71.2365	-32.2197		18.3817
69.8809	-32.7732		25.6354
70.3251	-37.006		17.9
72.2963	-26.9315		18.1269
26.0577	-9.78126		82.7588
29.4823	-11.9815		81.4863
24.5407	-6.165		81.9535
23.0554	-7.90171		84.6849
34.3417	-15.1721		80.1095
39.6582	-17.899		78.4489
34.9831	-20.3176		81.1201
19.8808	-5.94494		87.5973
16.7623	-3.41496		90.7645
20.5086	-8.94626		89.3085
23.6801	-15.2054		87.7644
22.2238	-13.2257		89.2561
19.0324	-16.7174		97.9601
17.3221	-15.6645		100.642
18.7015	-18.8035		97.141
19.986	-17.7379		96.0312
20.5702	-18.6667		94.2566
19.8613	-21.275		93.4411
37.189	-35.7812		81.2093
33.2984	-34.3565		83.2944
37.9032	-40.6728		80.8066
36.5763	-30.8981		81.5534
35.6193	-25.4935		81.4568
5.65003	-30.1687		98.8352
6.16047	-32.4488		98.8753
7.29214	-30.525		98.127
54.0101	-52.0165		58.4318
55.2143	-46.3147		59.8555
49.9915	-50.5783		65.5413
52.4588	-58.299		57.0928
28.6183	-42.0052		87.3228
26.4647	-41.1296		88.8744
30.663	-42.7026		85.9757
38.0473	-45.4688		80.0402
37.9966	-50.1457		79.3071
41.7141	-47.1513		76.556
34.9415	-44.2763		82.8065
6.86953	-34.8426		99.245
50.4983	-64.8178		55.8796
53.2101	-66.7558		49.062
47.236	-61.5458		63.4964
47.5547	-70.4381		56.6105
57.1206	-31.362		63.5062
56.6237	-36.3984		62.6028
61.4863	-31.2635		55.7868
25.8427	-96.9596		70.123
26.829	-94.3282		72.5676
21.3434	-99.9123		74.6473
36.2744	-83.5779		65.0508
40.143	-79.6962		61.552
35.8869	-79.2795		69.4832
32.019	-87.2475		69.7904
55.9296	-9.47524		64.1309
54.5612	-4.58165		63.8472
50.339	-9.96088		69.3938
48.7449	7.82779		64.2238
49.5306	5.88417		64.1698
53.2192	-1.00048		63.6983
48.4038	-2.23634		68.1085
51.6308	1.75944		63.9788
47.0239	10.9605		65.0425
4.66181	-100.935		90.1243
2.50569	-100.775		90.6817
43.7835	-58.721		69.7927
42.1271	-63.0707		69.871
44.9122	-53.9057		70.6247
40.3246	-56.2565		74.9948
35.0785	-74.7633		73.4064
37.7035	-71.142		71.6615
33.5908	-70.2269		77.2691
31.6706	-77.726		76.5923
44.0589	-9.58566		73.3282
45.0683	-14.4337		74.4057
43.0954	-5.33476		72.2914
45.8539	-48.8799		71.5305
45.9233	-19.4937		75.0382
11.3151	-88.8381		92.0101
11.5142	-83.2622		93.0455
15.3725	-87.3855		89.8892
19.6964	-85.6726		87.0617
23.8389	-83.4729		83.7779
19.7328	-80.5782		88.4798
42.2775	-2.46344		71.6036
41.2482	-0.277804		71.3688
35.5996	-1.775		74.1249
50.5675	3.93569		63.9989
46.5433	2.26459		67.7972
40.5166	1.60081		71.1659
33.628	1.76808		73.6453
13.6485	-0.925716		93.8865
14.2063	-4.16802		96.8881
13.3046	2.57096		90.3743
14.9499	-10.3042		103.374
14.8472	-8.9833		102.067
11.9577	-9.39214		106.995
15.1768	-11.2764		103.76
13.0354	10.7031		81.9782
13.0374	8.68025		84.0417
23.3314	-2.78151		80.5693
3.68509	12.6319		91.4085
2.07435	12.9659		91.4049
63.0687	1.89161		50.8294
13.1151	5.91022		86.9337
56.1093	-66.907		42.5393
59.348	-65.2328		35.3816
66.2391	-18.8981		48.6235
65.7139	-25.3233		48.0057
68.7009	-18.3403		40.8395
62.9421	-41.9055		46.3283
63.9988	-36.5464		46.9741
59.9132	-41.7685		53.7184
65.1156	-42.1813		39.2901
64.9735	-30.9606		47.4763
67.1691	-31.4143		39.8444
17.4232	-102.308		78.0015
11.5133	-78.6148		94.0467
8.00961	-79.2963		95.118
15.4669	-77.5831		92.312
19.5599	-76.299		89.9089
27.2735	9.87729		73.116
29.1124	-0.159129		75.748
28.3296	1.79059		75.2061
27.7243	3.27026		74.8106
5.01653	-79.8089		95.7123
2.07502	-79.9333		96.0199
7.72898	25.6262		82.2697
8.97599	24.5026		81.5466
8.11182	28.1801		82.2375
6.36895	26.343		82.8478
7.64056	22.8112		82.5745
18.8121	13.2405		72.5216
18.5819	14.4847		72.5973
17.0248	13.4766		74.1315
9.99186	22.9991		80.7476
10.7699	25.6924		80.4706
4.76326	26.9748		83.2284
2.83684	27.2394		83.4165
5.97396	-22.4337		104.419
6.82547	-21.1094		105.944
9.00518	-12.0301		111.03
9.03184	-10.4695		110.596
12.1592	-11.9198		107.907
18.681	-26.1318		90.9529
18.3718	-24.8056		92.1376
16.0722	-27.3443		92.4389
8.7478	-8.8554		109.928
8.14921	19.502		82.9755
8.88259	30.9736		82.5138
10.5758	29.9454		81.6519
18.9134	16.0807		72.738
12.0186	28.5833		80.5678
12.9879	27.0232		79.4554
13.7712	25.4124		78.494
20.962	-32.8444		89.7128
18.1026	-32.916		91.7277
22.3164	-36.2904		90.2384
23.9301	-40.2795		90.4897
20.7941	-39.2287		92.6609
26.4095	-55.0318		83.1855
26.0742	-53.9337		82.5981
24.4999	-55.0343		84.9177
26.8746	-53.5167		86.5979
24.9293	-52.2467		89.3714
25.4262	-50.8939		81.6077
22.4574	-50.5204		84.355
24.4668	-47.0993		81.0671
15.4022	-32.8071		93.6462
12.5663	-32.2716		95.4616
16.3936	-35.4376		94.1661
17.8086	-38.4539		94.5372
18.8723	-41.2751		94.9701
22.0317	-54.883		87.0548
20.6062	-53.3061		87.2924
19.6028	-50.0232		86.5626
19.2554	-45.9129		85.4481
9.73538	-31.2793		97.0278
9.2644	-29.0849		96.8767
13.3957	-41.8376		98.7861
16.783	-42.8731		97.036
20.3933	-10.9811		91.674
17.5846	-8.89275		95.8047
3.27642	-2.89191		107.946
1.15154	-2.69264		108.06
14.4948	-6.83127		99.8571
7.83122	-19.0985		107.929
10.5195	-18.9056		105.326
13.5351	-18.9811		102.24
14.3973	-16.8964		103.26
16.2566	-19.7468		98.8941
17.8159	-20.8255		96.4803
18.3249	-22.3319		94.5752
18.4059	-23.5942		93.2029
15.1234	-12.2311		104.17
14.9788	-13.4691		104.346
14.7872	-15.0564		104.03
36.304	-142.794		10.2625
32.0166	-144.009		13.188
38.1525	-149.121		9.46583
40.2138	-141.437		7.25167
33.8581	-134.096		11.4371
30.7201	-121.954		13.1287
34.6202	-120.98		9.92091
28.2746	-111.309		14.8844
26.6963	-122.83		16.2796
29.4887	-96.506		22.9464
33.5196	-95.4094		19.0241
25.525	-97.5762		26.2816
27.955	-100.202		19.2162
27.6145	-104.47		16.8137
23.5846	-104.843		20.2348
31.6368	-103.75		13.4269
40.2478	-67.3315		70.1929
42.4349	-71.2378		64.6632
37.687	-63.7112		75.0281
44.3064	-75.3059		58.1319
44.7015	-79.2123		52.7366
44.2987	-82.3941		48.3176
35.7104	-60.973		78.072
36.7519	-57.8121		78.1023
34.2766	-58.7337		79.9228
34.152	-63.7832		78.719
33.1896	-57.5159		81.0011
32.1478	-59.3563		81.287
37.5521	-94.1049		15.0976
39.9934	-90.6169		18.7156
36.369	-97.9312		12.0172
41.8431	-92.5568		10.3769
43.3398	-87.455		23.1217
46.2121	-85.9325		17.4371
46.7229	-84.4997		27.1802
49.3687	-81.8038		31.3043
51.7461	-80.1993		25.0511
38.4447	-119.822		6.59411
41.3788	-131.553		5.16463
42.3095	-118.98		3.01582
36.372	-109.7		8.09232
43.8016	-140.129		4.10371
45.9342	-146.512		3.15325
47.2366	-138.828		0.641754
35.8408	-102.734		9.85498
68.6935	-32.0639		32.6218
67.7093	-37.4057		32.5238
69.6824	-26.1037		32.7852
53.5405	-78.8508		18.7748
51.2522	-81.5267		15.1466
55.291	-77.1238		11.799
71.4048	13.6475		28.4328
74.5326	11.849		17.8448
61.6761	-63.6996		28.1399
63.2778	-62.0747		20.5854
66.7138	-42.6226		32.3081
68.0125	-42.7647		25.1314
70.5508	-19.0026		33.1342
72.0308	-20.3679		25.1844
69.3593	-41.7703		17.4478
70.7159	-40.2013		10.484
52.1191	-89.7392		-4.71895
51.6924	-94.3264		-6.33333
54.6281	-89.2624		-9.49115
52.7964	-85.7164		-2.80272
49.1832	-90.3482		0.100312
51.5281	-99.5707		-7.40958
53.8833	-82.0586		-0.169704
51.5281	-83.13		5.34139
56.0177	-81.1407		-5.85025
55.2233	-78.6916		2.34287
75.5065	-5.77151		13.513
76.2677	2.4257		10.5544
74.4337	-14.0023		16.3011
76.9197	11.0725		7.2423
77.3876	19.2419		4.40608
77.8033	27.5831		0.970096
79.2597	27.0114		-9.73705
78.1716	35.8721		-2.90331
64.4753	-60.2145		12.3452
65.3926	-58.6731		4.10641
73.3541	-20.8727		17.7873
74.5174	-21.2956		11.3668
46.2262	-118.034		-1.00116
48.5444	-129.249		-2.24967
49.0419	-84.5513		11.4611
47.0793	-87.7281		7.97027
50.5474	-137.413		-3.30781
52.4342	-143.405		-4.50417
56.9147	-114.51		-17.967
58.08	-123.826		-19.5849
56.7481	-88.6519		-14.285
58.3568	-86.8419		-19.3688
57.3318	-84.2689		-13.0175
58.1874	-79.9638		-11.4271
59.1248	-130.81		-21.2417
60.0218	-136.25		-23.2795
66.0479	-57.8982		-3.3813
71.9029	-38.6677		5.77025
73.1688	-36.7531		2.35027
71.0704	-42.3726		4.28956
75.4367	-21.2332		7.1065
58.1214	-94.0929		-27.9002
57.3973	-89.75		-34.6759
58.6223	-87.9704		-26.4706
59.5479	-82.2194		-25.206
59.6749	-75.7019		-31.2059
63.3794	-65.7757		-20.8505
70.9923	-47.42		-12.1166
72.6329	-44.513		-18.964
55.7963	-119.839		-46.8304
56.3165	-127.455		-48.3689
52.8896	-117.056		-53.8307
55.3788	-111.701		-45.1387
69.9594	-45.2864		-27.0342
72.4625	-41.6675		-25.2641
74.1909	-39.9812		-24.5429
27.5981	-145.04		15.914
25.4344	-136.234		17.3323
23.1827	-146.019		18.3523
29.388	-151.306		14.8159
19.1149	-105.121		23.874
14.7938	-105.216		27.0161
19.8143	-112.172		21.6723
19.6934	-101.59		26.029
27.0972	-95.3196		41.6582
24.0221	-96.4227		35.7272
29.6324	-94.3744		46.7832
21.248	-98.6028		29.9232
16.8695	-99.2576		33.5279
22.3869	-123.375		19.5269
18.1656	-124.464		22.499
32.3494	-66.6979		79.7661
31.3775	-63.4674		81.3595
31.6731	-93.4613		50.9435
30.7075	-61.3496		82.1474
28.6128	-63.3881		83.9531
29.996	-59.7251		82.6997
29.3196	-58.3755		83.0662
27.5475	-59.976		84.7564
27.9818	-80.9728		79.9833
28.0386	-85.8867		77.5473
27.7147	-90.6593		74.8211
23.0275	-57.0733		88.6153
20.1797	-57.6057		92.0458
22.8025	-56.3292		87.2343
25.8895	-56.2382		84.5717
22.9107	-56.5363		86.7521
19.558	-56.2494		90.2151
22.9306	-57.0172		86.3646
22.8845	-58.5402		85.7218
19.6089	-56.9142		89.0724
22.426	-62.0377		85.1413
21.6416	-66.3484		85.0998
19.1651	-61.8681		87.5453
10.4869	-105.153		29.5516
10.8653	-102.166		31.8269
11.5018	-113.166		27.5834
18.7384	-147.09		20.5432
16.854	-138.394		22.3433
14.3477	-147.922		22.4102
20.2963	-153.047		19.2572
14.1179	-125.479		25.1443
5.01524	-100.186		39.4974
7.94173	-100.147		38.1891
6.91071	-101.109		48.4501
10.4942	-148.529		23.764
11.789	-154.244		22.4421
8.98119	-102.855		57.8969
16.1829	-55.8954		92.9733
16.1274	-56.0966		92.2821
16.0941	-56.621		91.6213
16.2767	-58.0975		90.5203
15.9593	-61.5927		89.5529
15.6091	-66.1081		89.0607
73.3677	46.1935		14.4356
76.3558	44.8122		3.56028
73.6394	54.215		9.1438
69.5201	48.5315		24.9066
79.779	26.0951		-19.701
72.9304	-20.7074		-49.7671
70.2192	-22.4591		-54.7775
49.737	-95.7415		-56.1269
50.295	-85.661		-54.7527
52.3609	-98.9092		-50.6332
49.7709	-105.874		-57.5408
46.913	-93.3972		-61.0651
50.1557	-114.758		-59.0634
50.839	-123.218		-60.4165
47.1993	-113.023		-63.7666
55.8	-84.0362		-41.918
55.1106	-93.4516		-42.7806
53.6395	-79.439		-48.2814
57.1579	-75.7408		-40.2259
22.9923	113.161		21.8757
29.7654	110.308		21.604
22.9926	117.763		6.67578
15.8859	115.156		22.1604
22.7361	102.696		-79.0282
23.3524	111.349		-63.0321
29.8624	100.663		-77.1287
21.9979	91.8563		-92.3029
15.2546	104.114		-80.4622
21.5797	79.9428		-101.941
28.4755	78.2833		-99.9322
21.3448	66.7431		-109.234
14.5673	80.7115		-103.56
23.4471	117.166		-45.8288
30.6532	114.654		-44.2126
15.9185	118.986		-46.8934
23.3631	120.102		-27.8809
8.08134	123.536		-10.8507
0.112192	123.937		-10.9967
8.06636	121.137		6.46783
15.7773	122.304		-10.5527
8.09245	123.247		-29.0888
21.1207	53.7138		-114.251
27.5975	52.3585		-112.188
20.8381	40.1832		-117.626
14.5599	54.4726		-115.722
20.3655	26.0377		-119.529
26.7361	25.07		-117.321
19.8942	12.0696		-119.789
14.0087	26.9729		-121.048
17.7805	-26.8493		-109.016
23.5543	-27.6193		-106.82
17.3202	-38.7348		-101.697
12.219	-26.7459		-110.201
18.6682	-14.1008		-114.831
6.85936	-0.0668588		-121.048
0.429873	-0.0108842		-121.385
7.04346	13.186		-122.397
13.1386	-0.482996		-120.022
6.58171	-13.0255		-117.544
15.0036	-85.839		-84.6563
15.3422	-76.3037		-85.4757
20.1039	-86.6185		-83.293
14.8081	-95.2984		-84.4429
10.0806	-85.3993		-85.4423
5.13392	-103.87		-85.2723
9.95581	-104.313		-84.9645
5.28627	-113.541		-85.1937
0.491077	-103.658		-85.3731
5.20581	-94.1917		-85.4704
17.3239	-48.0924		-95.6522
22.5151	-48.6811		-94.06
16.8232	-56.4301		-91.1469
11.6885	-47.631		-96.6843
15.9508	-65.9612		-87.6305
21.3938	-67.0891		-85.8668
10.8068	-65.1577		-88.6445
5.61678	-64.874		-89.1131
5.8934	-55.5248		-92.6603
5.33185	-75.4007		-86.8393
0.402399	-65.0715		-89.1775
48.0268	97.924		18.4091
53.7154	92.2673		17.0351
49.0384	101.664		4.84808
42.2182	102.665		19.8693
47.5235	71.1213		-89.88
52.9726	67.9347		-85.6318
47.2315	59.1394		-96.7527
41.6801	73.8274		-93.7132
47.8502	81.9767		-80.627
48.1321	91.4151		-68.5339
42.4528	95.0812		-71.7733
48.7197	98.3747		-54.3351
53.6515	86.9367		-64.9656
49.3635	102.567		-39.5593
55.1009	96.8267		-37.8472
43.5512	107.308		-41.1231
50.087	103.997		-24.7029
49.7494	103.844		-9.77042
43.6927	108.985		-9.56513
55.5267	97.9149		-9.94868
46.6537	46.9799		-101.749
46.0265	34.3345		-105.086
40.776	48.932		-105.699
52.0538	44.6946		-97.4194
45.0945	21.5116		-106.995
50.3712	20.0062		-102.619
44.1195	8.50541		-107.18
39.4826	22.686		-110.85
42.7713	-4.1052		-105.789
41.326	-17.1166		-102.31
37.6019	-3.7245		-109.476
47.486	-4.91658		-101.552
40.2608	-29.8626		-96.4661
44.8364	-29.6632		-92.5732
39.3724	-40.9503		-90.0936
35.0901	-29.1904		-100.448
38.4651	-50.5545		-84.4463
37.4675	-60.1051		-79.6152
33.4727	-50.2895		-88.2219
42.8299	-50.8426		-80.1045
35.0302	-88.5604		-75.1739
34.2214	-98.4849		-76.2733
30.246	-88.078		-78.6081
35.9515	-78.9939		-74.8944
39.3238	-89.5954		-71.1384
24.4682	-105.889		-81.9807
24.7328	-114.734		-82.3095
19.5601	-105.174		-83.4307
24.6856	-96.8228		-81.6233
29.4153	-106.827		-79.8669
36.6385	-69.6735		-76.3377
41.0167	-70.1166		-71.7394
31.9945	-68.9621		-80.139
67.551	70.1995		-51.6428
68.6115	74.0085		-40.1321
71.4754	63.2417		-45.833
66.7785	64.142		-62.1532
63.2996	76.3078		-56.8486
69.3387	76.107		-28.7506
73.0573	68.0608		-23.6337
65.0947	83.6077		-32.8224
69.6844	76.9238		-17.532
68.7908	77.5481		-6.71212
71.5557	69.8621		-1.99438
65.1407	84.6859		-8.94239
56.7867	42.3709		-92.8664
57.4242	53.6139		-87.8474
61.0624	39.6261		-88.0122
56.0894	30.4656		-96.1708
57.7237	64.5883		-81.1496
58.0923	74.0986		-72.3949
62.1636	60.5901		-76.2213
52.1067	-5.70911		-96.5195
53.9726	6.3789		-97.8293
56.5098	-6.65387		-90.8936
50.2094	-17.8777		-93.4341
55.1397	18.2925		-97.8548
59.5269	16.8247		-92.706
48.8882	-29.2678		-88.3588
52.808	-29.3455		-83.1444
47.9741	-40.507		-81.5922
46.7024	-50.2897		-75.7527
50.1914	-48.7739		-71.6196
45.3322	-70.8893		-65.9884
48.8763	-73.5245		-59.404
44.2607	-80.8788		-65.3544
77.1236	34.4959		-47.2936
76.3074	28.636		-54.822
75.2512	40.1274		-53.0138
58.8198	85.9899		16.2888
59.8145	89.768		3.31057
77.9479	43.9217		-7.28305
77.3393	51.9829		-12.4312
66.5592	-7.75265		-74.7749
63.5869	-7.7381		-80.0227
68.1987	1.79369		-76.212
69.2891	-8.22208		-69.1002
64.484	-17.735		-71.9341
69.1409	11.4189		-76.8512
66.321	13.3112		-82.3874
70.065	20.5281		-75.331
71.7953	9.18387		-70.6908
70.9367	29.7395		-71.9146
68.0346	33.3436		-77.6313
71.8838	38.1279		-66.369
73.4828	25.7392		-65.9169
58.0522	-43.1788		-60.5096
55.506	-45.3422		-64.1724
60.0555	-35.413		-64.4356
60.6015	-41.0939		-56.5963
56.253	-51.0571		-56.7621
67.5944	-24.001		-59.5499
65.4151	-31.4454		-56.2185
65.0453	-25.5327		-63.8043
69.7344	-16.4188		-61.9622
51.5547	-76.2651		-53.7018
53.0566	-67.2909		-53.5129
73.4578	-40.564		-3.48387
74.1964	-37.0388		-1.37007
71.5643	-43.6991		-1.13171
74.2198	-35.3539		0.148862
79.3035	-9.33286		-1.94384
80.3138	-3.86721		-4.25041
92.422	3.07291		-38.3499
92.6576	8.9209		-35.9159
93.0337	2.65054		-37.632
80.6702	-37.5729		-24.3948
79.1844	-40.5731		-20.8849
92.3068	13.605		-32.3495
91.3615	13.9273		-32.8495
91.6544	16.6763		-28.1886
93.1736	12.9183		-31.779
85.6118	7.73919		-11.28
84.273	7.76		-11.9685
90.904	17.8796		-23.891
91.8079	17.1432		-23.1256
86.7457	-20.3774		-34.9415
81.8255	-38.611		-16.6687
81.0596	-38.6073		-13.8929
80.0029	-40.7355		-17.1727
80.8471	-1.14575		-6.06379
87.464	15.9143		-19.3234
85.4507	12.6481		-16.5861
86.3715	15.0584		-20.8999
82.9546	8.08404		-13.4278
82.0878	8.57839		-15.0464
90.7219	13.7664		-33.0726
81.3282	8.36653		-16.497
82.6473	10.4926		-19.2071
84.2773	12.577		-22.8542
82.0605	10.3858		-23.8898
85.5042	-29.2075		-27.5478
85.2451	-31.1367		-19.6874
78.3401	-41.9772		-17.6626
80.2493	-37.856		-11.5334
81.598	-34.9196		-11.5412
82.7272	-32.4768		-12.4578
83.3316	-30.8537		-13.4358
93.2113	2.31964		-37.2088
93.7319	7.97558		-34.8653
90.2654	14.1388		-15.5476
90.4146	13.4771		-15.2407
91.511	15.9648		-18.6847
90.3654	12.8468		-15.084
91.6764	14.7415		-18.1541
90.1617	11.7387		-15.2513
93.5406	12.3538		-31.4087
93.0061	15.1802		-27.2366
93.6471	11.8253		-31.2563
92.3491	16.4143		-22.6208
92.5601	15.7994		-22.4757
92.5549	15.1792		-22.1958
93.132	14.0848		-26.8451
93.5946	11.4258		-30.9326
92.5226	-2.17135		-36.1264
89.8584	10.4086		-15.7943
87.0457	2.85132		-13.2114
91.8674	10.4558		-24.3629
91.8261	-5.51444		-30.8957
91.9281	-3.60752		-30.5903
91.8923	-1.72553		-29.9971
91.7074	-0.236195		-29.0797
91.3623	0.958667		-27.8135
90.4253	1.71971		-25.2299
81.343	-27.3816		-11.1275
82.5471	-28.9291		-12.842
84.84	-4.07443		-10.0702
80.4962	-19.2976		-9.21129
83.4839	-30.1057		-13.9601
34.7364	25.9495		73.1996
34.0631	95.0944		45.1756
35.3469	101.22		33.9935
8.0775	102.787		48.1853
8.20038	110.079		36.1589
-0.00783172	103.164		48.1888
36.0604	106.914		20.7936
36.6402	111.156		6.27383
8.13671	116.405		22.286
0.08259	116.854		22.1654
23.0702	120.253		-10.1577
30.2711	117.305		-9.78325
37.0477	113.603		-9.68546
37.3862	113.697		-26.0365
64.9278	51.9941		34.4151
73.0273	61.9737		3.42898
75.0579	60.8567		-7.2596
60.5245	91.7293		-10.023
60.9245	91.6598		-22.9163
8.08565	120.096		-47.4512
8.01554	114.007		-65.0432
0.141595	120.455		-47.6175
37.1529	111.507		-42.4449
36.8795	106.254		-59.1472
75.5716	59.9772		-18.0404
75.4131	58.6874		-28.9419
60.1531	90.7213		-35.806
59.3547	87.5679		-48.531
74.5314	56.1959		-39.7792
73.637	51.9795		-50.0735
72.7209	46.0126		-58.9544
69.7221	51.2466		-64.9833
43.4518	-91.5366		-66.2337
42.9677	-101.578		-67.7296
43.2585	-110.964		-68.874
43.7128	-119.596		-70.1551
38.6651	-109.058		-73.5137
7.73164	105.047		-81.1252
7.48731	93.6018		-94.7029
0.191392	105.221		-81.5193
7.48825	81.1286		-104.486
7.56498	67.9744		-111.605
0.229562	81.2259		-104.802
7.61929	54.8959		-116.608
7.51607	41.6474		-119.981
0.288222	55.0651		-116.887
7.26466	27.6062		-121.977
0.372133	27.6162		-122.306
19.3515	-1.15868		-118.316
25.5444	-2.10683		-115.937
6.24475	-26.5506		-111.01
6.14062	-38.8985		-102.921
0.468525	-26.6842		-111.162
6.04965	-47.7543		-96.9674
0.419571	-47.9851		-96.9361
5.26805	-84.9097		-85.8584
0.431925	-84.6958		-85.9933
35.171	76.2576		-97.1816
35.6634	87.9107		-87.5878
34.7876	63.5897		-104.255
36.2297	98.1199		-74.8684
34.2609	50.8105		-109.271
33.8016	37.6082		-112.566
33.1925	24.0325		-114.383
32.5955	10.2234		-114.507
31.7634	-2.95089		-112.922
30.6471	-15.8492		-109.466
29.4047	-28.3901		-103.975
28.4072	-39.8501		-97.4532
28.0484	-49.4997		-91.5557
27.6649	-58.5935		-86.7319
26.7792	-68.0145		-83.4266
25.996	-77.8277		-81.6326
25.3427	-87.2837		-81.2606
34.2277	-107.766		-77.0377
34.6487	-116.604		-77.7506
58.5337	82.1321		-61.1241
66.1397	56.47		-70.6342
65.532	46.7922		-77.7415
64.7147	36.8627		-83.0098
63.9466	26.0982		-86.3243
63.1075	15.2509		-87.7061
62.0579	3.99083		-87.1519
60.2064	-7.43663		-85.4322
58.1288	-18.4154		-82.4714
56.163	-28.5741		-78.4343
59.2985	-28.0854		-73.253
54.4875	-38.5298		-73.028
52.9404	-47.0757		-67.9898
54.7509	-59.2202		-53.9673
56.751	-57.811		-50.4588
75.4054	22.3646		-60.3627
74.6687	14.9441		-63.5457
77.1704	18.3699		-54.2494
71.5074	-8.41452		-64.0252
72.9383	-0.419871		-64.9334
62.1905	-26.9225		-68.5531
73.866	7.57674		-65.1018
63.2131	-38.7995		-52.7981
61.2562	-46.0954		-49.57
12.2928	-99.9151		36.4966
57.0667	-75.4027		4.91306
45.7236	-91.3015		5.39171
15.8569	-47.4743		97.974
19.2859	-48.3803		95.6975
22.4108	-50.1199		92.6577
10.4765	-60.7008		100.419
10.8718	-61.8429		100.532
11.1856	-62.9943		100.499
25.8558	-65.977		86.8173
25.4161	-64.1304		87.5522
24.917	-62.5616		88.1996
20.1831	-44.1868		94.7057
37.5741	-54.2294		78.4977
30.1612	-33.3137		84.5064
31.5419	-38.4329		84.778
32.5457	-43.3616		84.5405
56.1395	-41.2111		61.1138
20.3605	21.3669		73.9954
78.7399	14.4277		-47.7308
81.2482	12.4342		-28.2507
81.8332	10.3457		-25.7994
69.8946	-46.7684		2.50167
27.2479	8.57758		73.5156
51.2159	41.3875		62.6629
9.25973	-27.4333		96.9544
48.1809	17.6187		64.1342
13.3647	-26.6189		94.6624
81.6956	10.1008		-24.7019
55.0454	-102.784		-43.9849
59.5265	-67.5873		-38.0242
59.0502	-60.7979		-43.2048
59.337	-54.787		-46.9001
24.7344	-24.2749		85.9048
17.06	-57.8936		95.0658
27.5585	-56.1739		83.2471
9.04144	-53.6518		97.0075
-67.8483	-52.2786		13.3942
-68.9933	-47.5049		14.6533
-69.0505	-50.1304		6.11207
-66.5541	-56.7648		12.0175
-66.551	-54.0564		21.6919
-52.4354	-116.695		-9.8566
-51.632	-106.655		-9.14633
-54.7787	-115.613		-14.1925
-53.9059	-126.967		-11.0484
-49.5254	-117.504		-5.68444
-55.265	-134.476		-12.2767
-52.8048	-136.179		-7.77699
-57.1069	-132.773		-16.8377
-56.4228	-140.327		-13.4542
-44.4274	-100.702		0.83721
-48.3682	-100.087		-3.95384
-44.7101	-107.988		-0.468922
-40.325	-101.583		5.19885
-45.0494	-95.365		2.2419
-55.8759	-98.6818		-16.8618
-54.004	-99.1476		-12.5716
-56.1733	-93.4879		-16.2589
-57.1648	-97.4267		-21.9152
-55.8694	-105.429		-17.5905
-59.2788	-71.6763		22.4082
-60.4432	-70.3497		15.1401
-56.9243	-75.2584		19.8825
-57.2528	-73.3229		29.4938
-61.1267	-68.1141		24.5946
-71.7723	29.1245		22.5064
-75.3068	27.769		11.0406
-71.3608	21.1555		25.433
-67.4057	32.022		33.2018
-72.5769	37.5056		18.1733
-77.9898	41.0356		-29.5138
-79.0766	33.3258		-24.7518
-78.3076	42.6063		-19.0012
-76.4527	48.3673		-34.5915
-77.4699	38.1413		-39.1235
-7.79559	-104.979		31.3988
-7.85668	-101.316		33.6526
-10.2308	-104.852		30.3623
-7.30227	-114.312		30.9757
-5.69712	-105.146		32.1025
-7.91186	-127.654		28.686
-8.84088	-140.347		25.751
-5.1873	-127.789		29.695
-10.9049	-126.762		27.3021
-2.7735	-149.361		25.2774
-3.11899	-154.92		24.1464
-2.59368	-140.934		27.1853
-6.11553	-149.049		24.7893
-64.4222	-55.9806		-32.9997
-65.6376	-48.2791		-37.1479
-61.6348	-61.7894		-35.5442
-63.5138	-62.4423		-27.8175
-67.1889	-50.1265		-30.5629
-66.7835	-42.741		-40.1824
-70.0149	-38.3029		-36.9508
-67.8852	-37.9057		-42.6425
-63.0354	-48.3015		-43.6747
-58.5119	-125.933		-32.8523
-58.833	-129.031		-26.5347
-57.2476	-123.079		-39.5353
-58.8546	-132.467		-35.1333
-2.61569	-128.12		30.2261
-3.0086	-114.83		32.4718
-64.8807	-55.3821		29.4982
-63.6352	-60.5543		28.2164
-62.8689	-56.0016		36.4489
-66.1935	-49.6336		29.9545
-61.5461	-68.5709		7.41793
-63.4521	-64.7656		9.06793
-62.3001	-67.3942		-0.732963
-59.4759	-72.1404		5.37511
-6.48499	-99.4078		89.4528
-7.08335	-94.2173		91.8212
-10.608	-98.4062		87.749
-5.98821	-103.201		86.5673
-2.77862	-99.9907		90.5158
-15.6156	-96.3929		85.1989
-16.3556	-91.4323		87.2332
-20.7622	-93.861		81.6174
-14.7972	-100.527		82.5431
-0.775366	-89.7156		94.7909
-0.343138	-95.0962		93.3913
-1.13141	-84.6417		95.4553
-3.94708	-89.3878		94.3008
-5.92093	-105.104		83.7521
-2.62413	-105.601		84.6819
-9.95848	-104.234		82.1341
-6.67458	-106.089		79.5848
-7.8059	-105.949		73.8042
-8.52796	-104.576		66.7012
-4.32537	-106.489		74.2459
-16.4657	0.203724		81.7194
-13.5103	2.75376		83.8438
-15.6485	3.56162		79.3844
-19.2631	-1.62759		79.7595
-17.4198	-3.165		83.8555
-46.2454	-31.4826		73.267
-46.6804	-36.0876		72.7411
-40.8544	-29.4379		76.9801
-45.8891	-26.5222		73.3818
-51.8474	-32.594		68.0109
-57.0226	-22.2483		61.9956
-57.3415	-27.7224		61.6201
-51.131	-22.1633		68.4377
-56.1466	-16.0762		62.3081
-62.5166	-20.7243		53.9372
-68.1887	-1.57609		40.7773
-65.7493	0.690226		45.0163
-67.3231	6.16224		39.9348
-69.9859	-2.96429		36.0452
-46.6751	-40.5573		71.9169
-41.3919	-38.8913		76.6692
-51.9488	-41.7698		65.8171
-46.2341	-45.1394		71.3371
-0.150155	4.74295		99.9129
-2.167	4.09292		99.409
-0.618034	0.738213		104.149
0.234773	8.79072		95.49
-29.3507	70.6065		69.2116
-30.6468	76.3318		64.8703
-34.675	68.5438		66.0909
-27.5141	64.1418		73.789
-24.4394	71.9416		71.5427
-2.28718	-103.627		59.1361
-1.84044	-105.536		67.6285
-5.08707	-103.293		58.6014
-2.68464	-101.653		49.9897
-60.3436	-55.9468		43.3425
-61.945	-49.5396		43.9588
-58.4147	-62.4987		42.6098
-57.5651	-55.0745		49.9913
0.184258	-105.933		84.99
-0.5212	-107.005		80.2902
0.379119	-104.028		87.9633
-1.31597	-106.764		74.4014
-34.0654	-90.1666		59.6246
-34.9678	-87.4241		63.0836
-38.5906	-86.893		54.4208
-32.6419	-92.2417		56.5027
-29.4646	-93.5086		65.5726
-35.3996	-91.5757		33.254
-30.9634	-93.5738		37.9618
-38.6456	-89.46		38.0826
-39.8014	-89.3763		28.1357
-32.167	-93.7494		27.8023
-3.34947	-100.135		40.7178
-3.92718	-101.222		34.6085
-5.46215	-100.028		40.0637
-5.95508	-4.29889		105.542
-3.25268	-3.43844		107.118
-5.41304	-0.831927		102.008
-9.16908	-5.60604		102.79
-6.39184	-7.0331		108.068
-27.3554	-19.8104		81.9167
-24.2939	-16.2701		83.5125
-26.0603	-14.4591		81.5882
-30.3756	-23.3043		81.0374
-30.05	-58.2371		83.0036
-28.3636	-58.5004		83.7277
-28.9605	-57.4426		83.556
-13.1087	-24.4306		95.0332
-15.1485	-25.147		92.9996
-12.3378	-25.4523		94.6585
-14.8301	-23.0647		95.0311
-12.5573	-29.0635		93.1351
-10.373	-28.1659		94.809
-12.403	-28.0509		93.3026
-15.2182	-29.5307		91.0858
-13.0372	-30.6409		93.0646
-1.29511	-24.8529		102.987
-3.05546	-24.5924		102.177
-1.4794	-25.9007		101.685
-1.16989	-23.7797		104.705
-18.0302	-29.1359		89.0076
-18.5127	-30.6458		88.9449
-17.604	-28.0529		89.3897
-20.6038	-27.6056		87.0961
-6.63862	-15.2262		110.249
-6.76792	-13.5822		110.705
-9.80683	-15.0169		106.913
-6.42117	-17.1376		109.171
-3.87692	-15.6175		112.245
-24.8879	-72.869		85.7764
-25.4958	-76.8993		83.9871
-21.0187	-75.1264		88.7004
-24.1985	-69.4975		87.2987
-28.0235	-70.3008		83.2467
-28.3176	-51.8315		86.1942
-30.0841	-52.5543		84.7332
-26.2608	-50.8968		88.0575
-27.3589	-47.6353		87.4966
-1.93242	-30.3851		99.547
-1.81269	-28.3856		100.023
-3.75616	-30.1051		99.0494
-1.91084	-32.843		99.5328
-4.78377	2.89089		98.1939
-4.48806	6.61293		94.0265
-8.06299	0.950233		95.9633
-20.2977	-17.141		90.5772
-20.7336	-16.7578		89.1176
-20.4934	-18.8168		89.6533
-19.5207	-16.1625		92.9717
-19.3113	-15.156		93.0512
-4.96431	-26.3607		99.1853
-3.42286	-26.5813		100.102
-4.89653	-25.2873		99.8338
-6.54496	-26.6621		97.9001
-4.93081	-28.016		98.6831
-4.64107	-24.4562		100.905
-4.48208	-23.4982		102.434
-18.4002	-14.8873		95.3442
-18.9682	-16.708		94.2428
-18.1018	-13.9749		95.6509
-20.1876	-21.7403		88.9583
-19.159	-24.4884		89.0513
-19.4866	-20.1064		91.3365
-2.00163	-41.2801		101.495
-1.94158	-38.3795		100.626
-4.76288	-40.7003		101.1
-2.25835	-43.2216		102.066
-24.0709	-33.2592		86.1047
-23.2698	-28.8694		85.4085
-26.0824	-33.5363		85.0166
-25.123	-37.9707		87.1843
-21.9254	-33.1671		87.4825
-8.74852	-72.126		96.9752
-12.8613	-71.4523		95.6058
-8.70492	-74.9193		95.8618
-4.72058	-72.8003		97.6621
-8.72697	-69.8793		98.1052
-24.3576	-53.4889		88.9136
-24.0704	-51.5361		89.8871
-26.8612	-55.0993		85.9006
-24.8037	-54.2891		88.1903
-17.8297	-13.3557		95.4967
-15.8907	-11.9642		98.2689
-18.0364	-12.8435		93.9464
-16.7352	-70.6262		93.6529
-16.5314	-68.7107		94.6401
-20.2503	-69.2985		91.2558
-16.7966	-73.2075		92.5642
-1.17762	-73.2585		97.845
-1.10503	-71.1472		98.9264
-1.10647	-75.8396		96.9002
-57.9709	27.4377		53.9353
-58.8865	28.1579		52.2969
-59.8334	21.0054		49.9214
-56.899	26.8834		55.4671
-38.4341	54.1229		68.5831
-39.4484	60.0329		65.4041
-44.5777	51.056		63.5624
-37.726	48.9905		70.9472
-33.0295	56.3646		73.0256
-51.071	47.2275		57.805
-52.2936	52.8155		53.9563
-57.1588	42.3328		51.0712
-49.9979	42.9787		61.0675
-37.8993	41.7304		72.3233
-37.6099	44.0925		72.2057
-38.2784	39.2431		72.1077
-33.1608	43.5331		76.9151
-60.4165	28.9238		49.339
-63.553	21.905		43.5809
-55.3065	35.7171		57.0283
-61.5022	31.4314		46.5312
-21.8142	32.3442		76.9287
-18.3767	31.3108		77.4786
-21.3384	33.9855		77.7999
-25.5672	32.9179		76.0815
-22.3421	30.3849		75.8458
-4.23043	15.8349		84.9877
-4.35562	13.3793		86.9021
-1.17466	17.6718		86.1081
-4.10785	17.8444		83.7542
-7.25916	13.1925		83.2238
-30.0848	-6.90335		75.8297
-24.8528	-4.89829		77.5382
-28.2818	-3.34249		74.9563
-36.5599	-8.86708		73.9034
-31.8963	-11.1097		76.9605
-56.9275	5.65237		54.6405
-54.683	1.85714		58.347
-54.2815	7.75196		56.4787
-57.46	10.5442		52.7463
-59.4314	3.7373		52.6583
-4.42406	10.262		89.9807
-1.66465	11.8323		91.0194
-7.42048	7.91631		88.4579
-38.7021	37.2157		71.8285
