1847
14.392	-49.0231		94.7836
15.1722	-49.8698		94.2102
13.9397	-48.0725		95.0835
11.4728	-49.4375		96.1913
22.0958	-54.4585		85.8551
21.8685	-53.6852		87.3434
8.74507	-54.3313		93.2577
5.97438	-54.4971		94.3332
8.27977	-54.5626		92.3927
11.9228	-54.1114		91.9115
15.3368	-54.3069		89.7105
15.1735	-54.6813		88.5336
28.5484	-54.9899		79.7935
22.735	-56.5537		82.4754
22.7082	-56.5		82.2528
18.6506	-56.1453		85.9674
22.7299	-56.7073		82.7634
23.0917	-57.7578		83.2145
22.9185	-57.3777		83.1884
19.1697	-57.4359		86.9862
15.837	-57.4712		89.6795
15.6688	-56.8871		89.5142
12.524	-57.712		91.7019
16.2212	-58.1309		89.6092
8.35509	-56.3957		93.0033
8.60005	-57.1248		93.1865
11.9241	-56.1989		91.442
8.20275	-55.8529		92.7491
5.20185	-56.2243		93.8389
2.80924	-57.8723		94.6342
2.87141	-58.8378		94.6887
5.5036	-57.8499		94.1734
2.76829	-56.9908		94.4779
0.460341	-57.8471		94.8127
28.0809	-57.3971		77.1877
27.951	-56.8505		77.8202
27.9566	-58.6891		76.5252
26.1179	-57.396		78.6936
2.67077	-56.1951		90.3638
2.68713	-55.5719		91.6878
4.98488	-56.279		89.9251
2.60031	-57.2302		89.2264
0.601074	-56.1841		90.5403
2.96223	-60.02		94.629
0.443375	-60.0067		94.8369
3.08073	-61.1484		94.4601
5.87494	-59.9881		94.1223
3.1026	-65.1239		93.2142
6.33232	-64.8693		92.7428
3.129	-63.5859		93.759
0.292766	-65.1831		93.4316
9.3544	-49.5334		96.8968
8.5779	-48.3097		97.1094
6.90779	-49.6497		97.4717
2.74436	-56.2411		94.2255
0.540028	-56.3274		94.3931
2.68861	-55.7549		93.9527
2.66234	-55.5264		93.7015
5.10413	-55.5589		93.4081
2.74275	-55.3969		93.3502
0.602279	-55.5703		93.7806
8.14766	-55.6082		92.4952
11.6254	-55.4928		91.0033
8.12332	-55.4732		92.1752
2.79047	-55.3691		92.7063
5.05648	-55.4172		92.3484
0.63692	-55.403		92.8087
15.1457	-55.7343		88.7314
15.1051	-55.6525		88.3359
15.2675	-55.9095		88.974
16.7867	-60.7544		89.2646
17.0232	-61.8164		88.9104
16.6146	-59.7943		89.4686
13.432	-61.4254		91.2202
9.71428	-61.9142		92.7002
9.89168	-63.0702		92.305
9.56212	-60.8964		92.9661
6.15151	-62.2375		93.6607
3.11059	-62.3165		94.1732
0.398539	-62.3472		94.3967
14.9857	-54.7523		87.6597
11.4711	-54.4636		89.9678
14.8738	-54.6296		87.0279
30.8096	-56.3438		77.8715
29.7583	-56.5789		77.8592
27.9154	-56.6172		78.4874
26.1375	-56.8849		79.9228
7.97533	-56.3411		89.1152
7.93357	-55.6858		90.3926
11.4083	-56.353		87.8091
8.10438	-57.3447		88.0462
8.00333	-55.4542		91.4748
11.4472	-55.4288		89.9929
10.004	-64.4702		91.8216
13.8384	-63.9073		90.3541
16.3901	-58.9107		89.6055
13.1032	-59.496		91.5964
17.2506	-63.2349		88.4426
20.4827	-62.3536		85.9775
14.664	-54.3484		86.7494
11.4794	-53.9149		88.4108
14.3009	-53.488		86.3712
17.87	-54.7581		84.679
8.231	-53.8921		89.6707
5.63867	-53.8292		90.2023
8.88342	-52.9466		88.5979
8.00504	-54.3408		90.5506
13.8778	-51.2004		85.7641
11.3697	-50.9759		86.8375
13.6748	-47.8769		85.285
16.5016	-51.4719		84.3957
27.3801	-61.6126		75.9772
26.1507	-64.6482		76.212
25.3333	-61.4867		77.684
2.40265	-59.1421		88.1429
4.77598	-59.189		87.7999
2.52081	-62.383		87.2671
0.425855	-59.1403		88.282
8.93014	-50.8877		87.6194
6.38672	-50.8553		88.1815
8.59201	-47.6569		86.9676
7.87082	-59.2757		87.0326
7.83679	-62.5603		85.9937
11.3086	-59.4141		85.8157
31.2336	-56.8285		72.2317
31.249	-56.826		72.0893
13.2463	13.4598		76.129
12.6024	11.7745		77.6754
81.1593	-8.42395		-43.9928
80.4942	-12.7987		-43.2902
79.2849	-7.84304		-47.292
81.737	-3.84955		-43.9467
82.6655	-8.90942		-42.2967
80.3006	10.1894		-6.92765
80.7381	13.0365		-11.091
79.1321	12.3174		-2.07348
80.896	15.1145		-16.234
80.5487	20.5435		-17.4626
81.4411	10.1473		-17.3427
81.5663	14.6651		-23.204
75.6002	-32.5611		-35.0747
78.0411	-30.2975		-33.4407
74.674	-36.7232		-32.57
76.7053	-28.6904		-36.8371
77.6279	-25.0542		-38.8441
75.0102	-27.0476		-41.6799
78.683	-21.1114		-40.6041
79.8986	-23.8641		-36.9931
84.1436	-8.86646		-41.4128
85.6559	-8.38132		-41.0495
83.613	-13.0054		-40.5479
84.4629	-3.88622		-41.5532
86.3503	-27.0879		-31.7585
87.3847	-23.0748		-33.7699
87.0828	-27.5351		-30.5517
85.2498	-31.0568		-29.3144
90.695	-17.3602		-31.7628
90.6833	-16.7909		-30.9923
80.3695	-39.5211		-21.3252
80.848	-39.7621		-20.6226
79.9955	-40.1889		-19.3316
79.4459	-38.65		-23.3588
81.4361	-32.1964		-8.88744
81.1362	-32.8163		-8.8487
80.7347	-33.813		-9.06765
90.6262	-16.4138		-30.5841
90.1378	-16.9977		-29.6474
93.2771	-1.90425		-34.2528
93.3392	-1.25019		-35.7553
93.1732	-3.22532		-32.6225
93.4294	8.2888		-31.7406
93.6868	9.63795		-31.8407
93.7878	11.7286		-30.8046
93.2071	11.5403		-28.6074
93.9669	12.1872		-31.1963
93.4048	13.8013		-27.7251
83.8106	-9.33216		-8.98668
84.9283	-3.8784		-9.48633
83.2532	-8.57208		-7.64758
83.0038	-13.3721		-8.47127
79.2583	-25.3116		-2.29169
78.3592	-25.7353		0.408129
78.907	-29.0678		-2.8364
79.5589	-20.9918		-1.72089
82.8541	-20.4759		-11.1148
83.2468	-22.4981		-11.6497
82.7786	-18.5299		-11.2167
81.4471	9.621		-17.3848
81.8473	10.8651		-20.8326
81.4764	9.61853		-17.1673
89.4739	17.0918		-17.8209
90.463	18.7503		-20.9026
88.647	17.4979		-18.974
88.0446	14.033		-14.9178
90.2385	16.3877		-16.8464
90.0517	19.3883		-25.8918
89.2486	19.1729		-22.9073
90.3397	19.527		-25.4044
90.5769	18.0966		-29.5554
89.2722	18.3509		-27.266
91.055	3.96739		-40.2134
90.2687	3.51268		-40.394
91.3378	9.94732		-37.3405
92.113	4.20499		-39.6793
85.757	0.727022		-10.0093
86.0893	-0.530218		-10.6903
93.876	3.37586		-37.1793
94.2825	8.49678		-34.9225
93.5879	0.585198		-37.3837
93.9266	3.27068		-37.5425
92.8391	14.7107		-23.776
91.865	14.1873		-19.8127
92.6451	13.3492		-24.5157
92.9212	15.696		-23.1593
87.2554	1.48616		-12.7833
86.7322	-0.274834		-12.2311
87.7766	3.80417		-13.4717
93.4182	4.07913		-34.4862
93.5316	2.03051		-36.3431
90.6883	6.77286		-22.9686
90.2175	5.42342		-22.2076
92.0408	6.25712		-27.1053
85.5422	-5.25059		-14.0767
85.6963	-4.9769		-14.7746
85.9984	-3.65002		-12.9717
90.3163	-4.50937		-27.9544
92.2697	-1.90919		-29.8366
90.0496	-4.0559		-27.3305
90.2175	-5.60259		-28.1202
79.8657	-17.033		-1.66689
80.3895	-12.4648		-2.40077
79.0054	-17.2363		0.849906
84.6534	1.3418		-40.0564
83.513	0.768599		-41.1896
84.4898	5.99299		-37.9156
85.6078	3.82639		-39.1096
87.9024	8.77621		-36.4077
87.6251	12.5596		-33.1852
90.1873	13.4107		-34.4702
88.0655	4.69806		-39.3182
89.2316	2.56006		-40.373
88.1252	-2.94652		-41.2057
87.7645	-7.93397		-40.8728
81.6639	-23.2416		-36.1324
80.7528	-26.343		-34.3651
82.4363	-20.0365		-37.7674
83.0585	-16.67		-39.3059
81.386	-16.8887		-40.328
89.5815	-16.9243		-28.6407
79.8194	-29.2453		-32.7034
78.8012	-32.8483		-30.4346
81.0466	-28.9649		-32.2467
79.0363	-36.6553		-25.9263
78.5866	-36.6569		-26.2785
78.4941	-40.0429		-21.4153
79.8433	-39.8582		-16.525
79.3452	-40.1155		-16.3501
78.821	-40.3075		-16.0662
90.4371	-6.3524		-28.6012
92.3314	-5.00987		-30.7635
82.6122	-7.94441		-6.53808
81.8429	-7.51882		-5.30162
80.886	-21.4749		-5.24454
81.2138	-21.6512		-5.91016
83.8942	-26.0021		-11.4478
84.87	-28.0148		-13.0466
84.0405	-24.9204		-12.2514
82.5183	-16.3606		-8.02878
82.9655	-16.5438		-10.2122
87.2888	14.3926		-29.988
84.9944	10.7146		-32.8265
86.3118	15.0376		-26.6627
84.1138	9.16726		-34.6204
83.6857	8.87228		-35.7037
83.4416	11.3202		-30.3888
82.6148	-16.5349		-13.0274
82.8442	-16.5134		-12.1514
92.6668	5.27304		-29.4579
92.5054	3.76808		-29.1319
86.1159	-4.2866		-16.1987
85.5449	-6.58106		-17.2728
87.0961	-3.08571		-18.8339
90.0023	-3.21409		-26.8228
91.6828	0.35566		-27.9836
89.432	-3.14534		-25.4497
8.96279	85.6852		62.6273
8.72946	78.5688		67.694
15.8895	84.8869		62.084
9.29226	92.8926		55.9722
1.8093	85.8503		62.9582
8.22591	71.5129		71.7527
1.94687	71.3033		72.2655
7.57206	63.9955		75.3229
14.3714	71.3444		70.9172
26.6952	57.5471		73.795
27.0692	52.8573		76.354
22.8469	57.9074		75.1801
0.55826	-30.0752		105.714
0.763063	-28.9328		107.231
-1.09463	-30.1108		105.976
2.71993	-30.0385		104.526
1.16862	-19.7555		111.954
3.92194	-19.7153		110.945
1.20007	-17.7668		111.378
-1.33622	-19.7859		112.239
1.17597	-21.5574		112.016
1.16398	-23.3812		111.58
-1.35656	-23.4908		111.908
1.09696	-25.2528		110.623
0.785012	-34.2227		100.136
-1.06167	-34.3437		100.247
2.14097	-41.7306		97.8367
4.53484	-41.3775		97.6423
-0.168779	-42.1255		97.8824
0.987741	-27.167		109.087
3.43732	-27.1341		107.812
-1.2943	-27.1512		109.549
1.10136	-15.7416		110.372
3.83099	-16.0039		109.463
0.975374	-13.2416		108.626
-1.32665	-15.6108		110.581
6.95564	46.6619		81.4472
1.03945	46.6759		81.9299
6.3825	43.2194		82.1861
11.8827	47.0843		80.8942
7.19024	50.733		80.3248
1.70225	14.9464		84.5001
1.71188	12.6255		86.0695
1.7237	16.9008		83.4262
-0.0128214	15.1249		84.5617
1.79191	18.8821		82.5806
3.84413	18.2212		82.1973
1.89545	21.0354		81.9446
-0.0144497	19.0063		82.6789
3.12271	-53.7652		90.4516
0.615145	-53.8292		90.6573
3.48822	-52.8077		89.5473
2.79577	-54.4833		91.6975
2.78215	-54.7801		92.7128
0.626859	-54.8521		92.8277
5.05707	-54.6813		92.3748
2.90468	-54.854		93.7027
3.91334	-53.9468		96.5724
3.70397	-54.4006		95.8351
0.729293	-54.2325		96.8884
3.30868	-54.7061		94.9474
0.676592	-54.8574		95.1324
4.08263	-50.3919		97.8436
0.771227	-51.114		98.0552
3.54819	-50.8363		88.5427
3.25052	-47.5905		87.6624
0.550729	-50.827		88.6991
21.6404	83.8821		61.1832
20.7355	77.5305		65.8561
27.0009	82.4487		59.9161
22.6386	90.48		54.9017
17.7899	47.894		80.3138
16.9772	45.2161		81.0665
22.7044	48.6977		79.8753
17.0215	51.8926		79.012
17.8284	42.0647		81.5082
19.2734	38.6661		81.5122
22.5968	43.1736		80.9535
20.7865	36.1137		80.8568
17.3778	35.1446		81.4784
24.8453	37.4079		80.2066
27.3739	27.0301		73.6464
26.4547	28.172		74.3718
23.8114	25.2589		73.2118
31.1278	28.1778		73.8156
29.2917	25.5555		72.814
25.0479	29.471		75.4691
28.6976	30.4694		75.2603
21.908	28.1002		75.3369
45.7195	86.6996		39.1443
47.204	91.873		29.5018
40.2104	90.2038		41.7553
44.6962	81.2232		46.0883
32.001	80.9256		58.0066
33.3839	86.6878		52.1445
37.4351	78.8554		55.2789
27.2305	48.8587		78.6845
27.84	47.1466		79.1921
32.626	48.4039		75.9452
29.7967	38.6259		78.9581
29.442	40.3311		79.3585
28.4167	44.1451		79.5016
32.7893	30.8425		74.8536
34.1324	29.6502		74.1693
37.602	30.4388		73.931
43.4051	76.2259		51.4353
49.5901	73.3347		46.4892
42.0179	71.2499		55.9272
38.9114	46.6937		71.2996
45.1211	44.2153		67.4672
41.9975	27.5877		72.4509
41.8298	28.5371		72.7232
38.6	28.2719		73.2511
44.7568	26.5836		71.187
41.906	33.5743		72.9705
41.8546	31.6295		72.9568
46.2828	32.3313		70.9541
41.7858	29.7891		72.8836
40.4362	66.0245		59.955
47.0636	63.1127		55.1635
55.4234	70.9241		40.0892
54.4304	65.6491		44.9525
60.6131	68.7199		32.4928
45.8478	23.9025		69.3447
47.5486	22.1933		67.4518
47.186	25.1669		69.3412
49.0286	23.3238		67.3089
46.3872	24.5751		69.4895
50.2325	30.6812		68.2492
53.9217	27.9254		64.5548
17.1807	29.7896		77.9836
15.1743	27.1729		77.0577
18.1714	28.1645		76.5129
16.0467	30.9452		79.1453
14.8168	32.105		80.2803
13.0266	29.8828		79.4081
19.2804	25.7746		74.6851
20.2537	24.1415		73.3914
6.06727	38.4408		82.5498
1.52382	39.1472		82.3835
67.9904	-63.9742		-9.86866
69.8938	-58.8604		-8.09987
67.9347	-64.2392		-16.2408
79.9755	23.2184		-37.6135
79.74	19.3083		-43.2901
78.8102	28.7876		-42.2601
80.3165	25.5604		-29.505
81.2179	17.5921		-32.5477
76.7986	-7.57354		-53.0665
75.9076	-13.5221		-51.6263
74.4932	-7.75804		-58.5881
77.702	-1.78063		-53.0455
78.2658	4.38959		-52.6173
76.1978	6.10458		-58.9861
78.8214	9.88799		-50.7287
80.3906	2.36486		-46.4738
71.515	-30.6881		-45.7395
68.3112	-34.0537		-49.573
73.0875	-24.984		-48.0805
7.41898	57.1867		78.0782
1.55024	56.4869		78.7564
12.8339	57.1439		77.4577
17.663	57.449		76.5356
18.5407	64.2279		73.3819
19.7991	-99.7063		55.6371
18.0901	-101.135		49.9894
26.1584	-97.271		49.6648
13.9218	-101.173		59.8923
47.3093	-84.1077		40.4193
41.3161	-88.0105		45.728
52.7262	-80.3018		35.3543
48.5977	-81.8847		43.9537
53.5063	59.9901		49.1499
59.1778	56.9127		42.3055
19.6488	71.1252		69.747
65.6249	66.4357		23.2673
69.7724	64.4047		13.5793
65.2171	60.0751		28.8343
23.3487	97.9937		45.8076
29.226	95.7832		45.0678
23.7436	105.131		34.5861
16.853	99.5684		46.4332
63.004	40.2627		43.2364
63.6601	46.876		38.7105
50.0977	21.3295		65.3845
59.0327	27.3894		57.9611
60.1	22.4071		55.1232
57.7173	26.042		59.6345
56.3878	24.8496		61.0023
2.61809	-111.886		45.0462
0.328975	-111.872		45.3146
60.2472	-71.4084		35.7581
61.7793	-67.5713		38.3768
55.4239	-74.5898		42.4499
58.621	-74.7619		32.5169
7.95002	-46.3294		97.1014
9.96212	-46.4756		96.5905
7.20847	-43.7225		97.1604
25.4089	-49.7702		86.5173
24.7847	-46.0712		88.0674
22.9428	-48.6109		89.0309
11.0016	-42.114		95.8869
8.11468	-41.566		96.874
11.9947	-44.2368		95.6828
14.103	-42.202		94.473
9.99744	-39.8622		96.0691
35.2471	-52.3876		79.5007
34.874	-55.6059		77.8271
37.6773	-53.3574		78.0221
34.5188	-48.7338		81.4911
63.7203	17.1184		48.004
62.1369	16.956		50.8049
64.3569	10.4851		47.474
65.0714	17.5351		45.0708
66.4806	18.2385		41.5294
68.3866	18.2991		36.2572
53.9042	17.5081		60.6759
53.8517	15.19		60.1455
60.5412	16.6841		53.2314
82.47	9.55479		-37.6904
82.3745	5.80182		-40.8987
81.0146	11.5367		-41.6845
82.5443	12.0961		-33.725
79.5346	-17.1379		-42.243
77.4177	-17.6879		-45.3595
72.2956	-51.0489		-18.3647
74.2581	-46.7697		-16.0628
71.9552	-53.0941		-12.2391
70.0682	-56.5956		-20.8463
72.6865	-47.6779		-24.1443
82.1306	1.14165		-42.9348
77.4576	-26.5838		3.52722
77.0335	-30.7811		2.90367
77.7992	-22.1784		3.93905
76.4625	-27.4057		7.83365
72.1553	0.527436		28.8725
71.857	8.80392		27.7875
72.4434	-7.45632		29.8357
74.4343	-0.861351		19.9544
56.196	10.3723		58.0703
54.6491	11.9521		59.3617
54.5757	7.9217		60.3739
53.27	13.4		60.5755
51.8873	12.0989		62.0273
75.3356	-27.7573		14.0409
74.2918	-27.8776		20.7449
75.0668	-32.6299		13.3085
75.6169	-22.4907		14.2079
26.2938	-13.5166		82.3175
30.4293	-15.007		80.7883
25.3761	-8.63783		80.5512
23.1322	-11.5255		83.745
36.8897	-16.8508		78.8728
44.305	-18.2278		76.3228
38.1411	-21.9219		79.8768
19.673	-9.66687		85.9346
16.1316	-7.4087		88.5163
19.8593	-13.5236		88.187
22.8799	-20.2043		87.5953
21.3975	-18.3433		88.7599
17.7009	-23.8694		96.883
15.9718	-23.4029		99.0651
17.4779	-25.575		96.373
18.762	-24.2046		95.2185
19.5094	-24.6131		93.6985
18.992	-26.7656		93.4008
41.4055	-37.1771		80.0192
35.8575	-36.4262		82.549
41.791	-41.9407		79.406
40.6011	-32.4956		80.4343
39.1636	-27.1008		80.4035
4.77373	-37.066		97.9602
5.41106	-39.1377		97.5939
6.58219	-37.2848		97.2957
61.2645	-51.0374		56.5555
62.5315	-45.9811		57.5985
57.047	-50.2752		63.5816
59.4612	-56.401		55.5695
28.5632	-43.5358		85.9049
26.3595	-43.1135		87.2385
30.9591	-44.0574		84.6055
41.8229	-46.5487		78.3369
41.4535	-51.0162		77.1324
47.0362	-47.7457		74.6674
37.1968	-45.5133		81.1185
6.26852	-41.3431		97.3544
57.0633	-62.1456		54.6334
60.2876	-63.2288		47.4012
53.3751	-60.0082		62.028
53.4556	-67.4522		55.4569
64.2026	-30.725		60.0119
63.9871	-35.9179		59.398
67.6149	-30.7041		52.7415
27.7459	-92.438		69.1515
28.487	-89.5916		71.4138
22.1486	-94.7669		74.446
39.7665	-80.1043		63.2786
44.4011	-76.4927		60.1475
38.9008	-75.932		67.4836
34.6044	-83.2018		67.8458
60.0206	-8.46939		61.4524
57.5911	-3.22932		61.871
54.6639	-8.63164		66.8141
49.5095	10.4088		64.5682
50.5687	8.15724		64.1318
55.6298	0.501079		62.2196
50.757	-0.447312		66.6715
53.5281	3.42488		63.0287
47.574	13.9939		65.714
-0.420974	-91.6443		92.3682
-3.08205	-91.8672		92.4045
49.39	-57.9955		68.002
47.158	-61.8917		67.8776
50.9522	-53.7336		68.7856
44.8705	-56.2531		72.8128
37.4952	-72.0382		70.9467
41.0204	-68.9848		69.3517
35.2247	-68.3918		74.122
33.2643	-74.7194		73.7495
47.7995	-8.41162		71.1203
49.9103	-13.6588		71.8826
45.7403	-3.77048		70.6128
52.3551	-49.063		69.5987
51.7624	-18.975		72.2062
8.16954	-82.2444		91.4521
9.27042	-77.3492		90.9316
13.2183	-81.3573		88.9496
18.6061	-80.1789		85.5628
23.6994	-78.8073		81.6224
18.7173	-75.6966		85.9149
44.1729	-0.537626		70.2877
42.7755	1.87816		70.333
36.9848	-0.461069		72.8108
51.9703	5.86071		63.5428
47.7969	4.55181		67.1837
41.6767	4.02941		70.368
34.6586	4.05174		72.3822
12.5897	-5.32256		91.3099
12.956	-9.54248		94.4563
12.3914	-0.781312		87.7124
13.4419	-17.6894		101.133
13.3501	-16.0496		99.862
10.2655	-16.8822		104.623
13.7003	-18.8895		101.576
12.3558	9.77497		79.2081
12.2285	7.22003		81.2362
24.4553	-3.82218		78.2661
1.62717	9.37188		88.7274
-0.0801938	9.64585		88.7514
64.403	3.80376		49.5904
12.2901	3.56588		84.1483
63.5206	-62.9794		40.2649
67.009	-60.8336		32.2098
69.4901	-17.7264		46.2556
69.987	-24.2938		45.4069
71.1772	-15.9061		38.37
69.6109	-40.6679		43.1088
70.0081	-35.5119		43.9185
66.989	-41.0858		50.8769
71.4447	-40.019		35.4092
70.1696	-29.9469		44.5853
71.8791	-29.0816		36.4639
17.1319	-96.4769		78.6716
10.1504	-73.0791		90.5406
6.1237	-73.4914		91.7234
14.3315	-72.4452		88.7287
18.535	-71.8702		86.3129
27.9922	12.8743		71.4257
30.6576	0.556992		73.8451
29.6989	2.93193		73.3094
28.9191	4.77739		72.8742
2.36965	-73.7845		92.4254
-0.867821	-73.766		92.665
5.92878	22.9602		80.454
7.61926	22.2467		79.6383
6.82784	25.7067		80.2149
4.02122	23.23		81.1059
5.71517	20.1235		80.8161
19.3459	15.0057		70.2702
19.0866	16.1855		70.3929
17.2887	15.0034		71.8055
9.13616	21.1831		78.6628
10.1091	23.8807		78.4129
2.10067	23.5805		81.4765
-0.0229207	23.608		81.6061
4.68315	-29.7495		103.369
5.38099	-28.5881		104.484
6.95936	-19.5853		108.962
7.0365	-18.0176		108.435
10.4579	-19.6286		105.705
18.0394	-30.9442		91.7157
17.7078	-29.9361		92.7186
15.4763	-32.5178		93.072
6.785	-16.3656		107.696
6.4406	16.9884		81.1179
8.19151	28.8646		80.4132
9.96764	27.9997		79.5976
19.4617	17.7655		70.6327
11.4984	26.9098		78.6127
12.6252	25.6593		77.5591
13.6076	24.3886		76.5666
20.7798	-37.0201		89.6726
17.6684	-37.5536		91.5973
22.4286	-39.6804		89.2041
23.9492	-42.7826		88.6045
20.869	-42.3489		90.5193
26.7914	-55.5151		78.2873
26.5972	-54.4943		78.0587
24.6529	-55.5274		79.8629
27.0361	-54.3242		81.9006
24.6325	-53.6486		85.0546
26.0428	-51.6973		77.9453
22.5665	-51.7168		80.4855
25.1458	-48.5499		78.2878
14.8473	-37.9789		93.3259
12.0096	-38.04		94.8944
16.0043	-40.1314		93.0885
17.5589	-42.3431		92.5194
18.7812	-44.6106		92.0591
21.6517	-55.3042		82.033
20.171	-54.1786		82.6774
19.3343	-51.6586		82.6516
19.1684	-48.1601		82.3351
9.14518	-37.7055		96.2844
8.55441	-35.8223		96.5005
13.1985	-46.4448		95.2922
16.6302	-46.5164		93.5109
19.453	-16.3542		90.5808
16.4753	-14.8534		93.9499
0.86802	-9.71551		105.752
-1.32524	-9.51566		105.888
13.0922	-13.2358		97.5991
6.14153	-26.6701		106.162
9.15961	-26.4791		103.614
12.2646	-26.6641		100.766
13.0477	-24.7452		101.481
15.0825	-27.008		97.9517
16.7496	-27.4397		95.959
17.5012	-28.1437		94.5464
17.6874	-28.9937		93.522
13.6525	-20.0125		102.035
13.5349	-21.3316		102.263
13.4075	-22.9748		102.017
38.4784	-142.532		13.2603
33.9375	-144.007		16.5548
39.761	-148.588		12.1327
42.5923	-140.919		9.90585
36.8444	-134.243		14.8471
35.0733	-122.668		16.9434
39.1753	-121.137		13.0387
34.112	-112.431		18.7317
30.7173	-124.107		20.8864
36.6105	-96.2945		24.9343
40.6304	-94.2331		20.294
32.4198	-98.3359		29.6257
35.505	-100.285		21.6538
34.5291	-105.312		19.9444
30.2504	-106.922		24.7101
38.4101	-103.655		15.7086
44.5275	-65.627		68.0855
47.2273	-68.7707		63.0616
41.0777	-62.7382		72.3718
49.4709	-72.1669		56.9906
50.0515	-75.7019		51.9475
49.8146	-78.8615		47.6202
38.2079	-60.6244		74.8517
39.6926	-57.8853		75.2234
35.701	-58.942		76.3404
35.8685	-63.0991		75.1681
34.0753	-57.879		77.0476
32.8445	-59.4991		76.9715
44.4527	-92.1277		15.9234
46.6994	-88.3946		18.8924
43.1549	-96.4407		13.2212
48.4513	-90.1774		10.6324
50.0276	-84.6269		22.3366
53.0529	-82.8173		16.275
53.6488	-81.0123		25.6796
56.514	-77.8037		29.3094
59.1295	-76.01		22.621
43.0804	-119.452		9.08114
44.728	-131.003		7.65234
46.8855	-118.13		4.96883
42.1729	-109.266		10.2593
46.3196	-139.366		6.43033
47.8386	-145.603		5.30195
49.8315	-137.832		2.65841
42.2897	-101.87		11.4862
73.1826	-28.2063		28.2883
73.0775	-33.8269		27.761
73.1136	-21.9653		28.9496
60.9653	-74.4937		15.8178
58.4329	-77.6152		12.847
62.3713	-72.9507		8.84846
71.3452	17.5635		27.5184
74.6613	15.3536		16.6731
69.0889	-59.2113		24.2626
70.2356	-57.6947		16.2163
72.7778	-39.2334		27.415
73.765	-38.4025		19.7187
72.7762	-14.755		29.9426
74.3794	-15.5756		21.6489
74.6378	-37.5135		12.7234
75.6065	-36.1961		6.37668
57.8844	-86.8993		-5.54766
57.202	-91.7408		-6.74967
60.0566	-86.4367		-10.3949
58.8276	-82.6394		-4.04473
55.2852	-87.5725		-0.52382
56.7336	-97.2211		-7.44161
60.1402	-78.6844		-1.90629
58.1506	-79.7067		3.66702
61.8984	-77.8965		-7.53611
61.7108	-75.0573		0.104559
76.4964	-1.98523		11.3305
76.9063	5.83595		8.88809
76.0671	-9.8828		13.4823
77.3379	14.0624		6.0064
77.6685	21.8308		3.4793
77.9597	29.7062		0.283577
79.5375	28.6889		-10.3594
78.2237	37.5031		-3.40492
70.9731	-55.9532		8.17905
71.4368	-54.6906		0.418811
75.7948	-16.5201		14.3775
77.0948	-17.3344		8.19556
50.6732	-116.756		0.485888
51.918	-128.062		-0.549051
55.8872	-81.0998		9.9514
53.6943	-84.7449		7.17595
53.1794	-136.193		-1.57422
54.4984	-142.168		-2.79384
60.5637	-112.463		-17.3695
61.0486	-121.956		-18.6751
61.8004	-85.8627		-15.1939
63.0479	-84.1119		-20.2387
62.585	-81.3171		-14.2653
63.624	-76.8385		-13.0391
61.5618	-129.05		-20.1633
62.0113	-134.639		-22.0893
71.6364	-54.2243		-6.56528
76.5136	-34.8608		2.05179
77.4983	-33.1106		-1.07593
75.9928	-38.5929		0.574075
78.0698	-17.509		4.13834
62.0008	-91.7455		-28.0953
60.9299	-87.5489		-34.8201
62.7678	-85.4829		-27.0148
63.8835	-79.5932		-26.0823
63.6236	-73.2326		-32.0493
67.9922	-62.8294		-22.647
75.5421	-44.2253		-14.8135
76.6272	-41.6181		-21.2383
57.5662	-118.22		-45.7782
57.6733	-125.911		-47.1608
54.3949	-115.537		-52.7069
57.5703	-110.01		-44.3059
73.5476	-42.714		-28.7999
75.977	-39.0557		-27.1551
77.6482	-37.3639		-26.4794
29.2287	-145.274		19.6392
27.7526	-137.056		21.752
24.493	-146.441		22.3956
30.574	-151.135		18.0228
25.1866	-108.457		30.1015
19.8181	-109.844		35.2156
24.7983	-115.122		28.0327
26.2895	-103.959		32.014
31.7778	-94.7807		43.9363
29.3383	-97.2066		39.5364
34.0755	-92.8618		47.7682
27.4792	-100.327		35.2395
22.1005	-102.036		40.792
25.9526	-125.224		25.0017
21.1031	-126.728		28.7512
33.416	-65.5584		75.931
32.0488	-63.0014		76.9661
35.8358	-91.2504		50.9803
31.2355	-61.2734		77.4221
28.6586	-62.8886		78.8784
30.3994	-59.8537		77.7793
29.658	-58.6279		78.0372
27.6269	-59.9867		79.3498
28.7261	-77.1644		77.3167
29.1601	-81.5328		75.4843
29.1755	-86.0034		73.2401
22.5388	-57.011		83.2654
18.8443	-56.6836		86.6539
22.5104	-56.5503		82.0388
26.1071	-56.6615		79.3549
22.6277	-56.7776		81.5026
18.4745	-56.1332		85.106
22.6414	-57.215		81.1028
22.6096	-58.3919		80.4973
18.5424	-56.8593		83.7933
22.0166	-61.0231		80.0042
20.8327	-64.1996		79.9767
18.2267	-60.2149		82.3846
14.755	-110.751		39.3077
15.7542	-106.565		41.6477
14.8978	-117.419		36.4032
19.705	-147.649		24.847
18.2953	-139.646		27.5776
14.9819	-148.563		26.9175
20.9819	-153.15		22.9235
16.4326	-128.021		32.025
7.80343	-104.554		50.0259
11.4772	-104.352		48.2012
8.43226	-102.812		55.7906
10.8465	-149.212		28.4043
11.987	-154.488		26.4005
9.45882	-102.003		62.3844
14.9209	-55.707		87.7099
14.8085	-55.9772		86.8818
14.7259	-56.5217		86.117
15.0014	-57.527		85.1379
14.7139	-59.6948		84.284
14.2516	-63.1991		83.4839
73.1555	47.9042		13.9767
76.2456	46.2705		3.14336
73.4364	55.3267		8.7556
69.2271	50.2826		24.3898
80.1292	27.4149		-20.2192
74.4538	-19.3811		-50.2973
71.6149	-21.2727		-55.1099
51.6659	-94.2228		-55.4016
52.4745	-84.077		-54.3227
54.5913	-97.2801		-50.0068
51.3969	-104.405		-56.5538
48.5694	-91.9835		-60.2236
51.4418	-113.317		-57.8673
51.7687	-121.802		-59.0676
48.2744	-111.656		-62.4911
58.8874	-82.0319		-42.0062
57.9984	-91.5578		-42.5342
56.3273	-77.628		-48.2724
60.4471	-73.6153		-40.6514
23.6377	111.476		21.2403
30.2893	108.715		20.9521
23.5063	116.092		6.37042
16.6567	113.412		21.5486
22.6321	100.941		-78.0258
23.3777	109.571		-62.2746
29.6931	98.9437		-76.1789
21.7573	90.1491		-91.0837
15.2279	102.34		-79.4103
21.2075	78.3105		-100.546
28.0426	76.6814		-98.5939
20.8439	65.2129		-107.688
14.2663	79.0706		-102.112
23.5916	115.394		-45.3213
30.7275	112.935		-43.7502
16.1437	117.185		-46.3434
23.6241	118.361		-27.6302
8.652	121.777		-10.7936
0.789262	122.183		-10.8931
8.79169	119.393		6.23242
16.2498	120.563		-10.5352
8.53064	121.459		-28.7601
20.5221	52.3178		-112.578
26.9175	50.9654		-110.588
20.1747	38.9614		-115.842
14.0456	53.0799		-113.997
19.6466	25.0098		-117.655
25.9397	24.041		-115.515
19.1289	11.2406		-117.853
13.3754	25.949		-119.126
17.0778	-27.033		-107.145
22.8704	-27.7732		-105.037
16.835	-38.616		-100.015
11.541	-26.9266		-108.268
17.8563	-14.5482		-112.872
6.22721	-0.679561		-118.987
-0.112022	-0.601448		-119.291
6.45212	12.3789		-120.369
12.4203	-1.10933		-118.001
5.92049	-13.4429		-115.484
14.9776	-85.0168		-83.1184
15.3459	-75.555		-84.0396
20.2193	-85.7571		-81.8143
14.7145	-94.4122		-82.7845
9.94251	-84.6024		-83.8617
4.80662	-102.96		-83.4413
9.70233	-103.386		-83.154
4.88915	-112.546		-83.2465
0.092769	-102.758		-83.5304
4.94224	-93.3519		-83.7533
17.0438	-47.7481		-94.1491
22.3096	-48.3121		-92.6313
16.6988	-55.9164		-89.7471
11.3672	-47.2927		-95.1249
15.9217	-65.3163		-86.2495
21.5101	-66.3962		-84.5638
10.6756	-64.5372		-87.2104
5.42195	-64.2566		-87.6438
5.64945	-55.0242		-91.1702
5.14476	-74.6905		-85.3194
0.144593	-64.4494		-87.6886
48.1956	96.812		17.8056
53.7742	91.4061		16.4675
49.1549	100.501		4.52958
42.5019	101.355		19.2342
47.0071	69.7242		-88.7692
52.4631	66.6447		-84.6118
46.6109	57.8369		-95.5096
41.1743	72.3448		-92.5197
47.4469	80.5167		-79.6729
47.8425	89.9277		-67.7672
42.1921	93.4956		-70.9419
48.5345	96.9009		-53.7754
53.3445	85.5748		-64.2687
49.2679	101.14		-39.2062
54.9616	95.5555		-37.5307
43.5045	105.76		-40.7356
50.0656	102.656		-24.557
49.8004	102.593		-9.84374
43.8214	107.58		-9.6352
55.5063	96.8541		-10.024
45.9426	45.7869		-100.39
45.2425	33.2746		-103.634
40.056	47.6587		-104.246
51.3742	43.6015		-96.1675
44.2627	20.602		-105.466
49.6067	19.1932		-101.209
43.2814	7.77621		-105.605
38.6104	21.7033		-109.224
41.9917	-4.62556		-104.209
40.6974	-17.3706		-100.785
36.7373	-4.31092		-107.776
46.8241	-5.33873		-100.106
39.9222	-29.7969		-95.0995
44.666	-29.5039		-91.3554
39.3802	-40.5835		-88.9113
34.5893	-29.2157		-98.924
38.8052	-49.9481		-83.4158
38.097	-59.298		-78.6754
33.5877	-49.7798		-87.0403
43.4298	-50.1106		-79.2398
35.7821	-87.4918		-73.9665
34.7943	-97.3818		-74.8757
30.7439	-87.0958		-77.296
36.7945	-77.966		-73.8642
40.3586	-88.4235		-70.0394
24.5138	-104.871		-80.2999
24.6524	-113.662		-80.4968
19.4862	-104.195		-81.6979
24.8571	-95.856		-80.0748
29.6133	-105.756		-78.2523
37.4424	-68.7235		-75.3988
42.1401	-69.034		-70.9691
32.5309	-68.116		-79.0621
67.2783	69.402		-51.2123
68.3847	73.3173		-39.856
71.254	62.7334		-45.53
66.4536	63.2945		-61.5774
62.9991	75.2807		-56.3121
69.1473	75.5423		-28.6177
72.8815	67.855		-23.6044
64.9054	82.7546		-32.6087
69.516	76.5113		-17.5378
68.6315	77.2698		-6.85397
71.3762	69.9823		-2.21307
65.0149	84.1029		-9.04293
56.1593	41.389		-91.7265
56.8608	52.5306		-86.807
60.508	38.7763		-86.9924
55.422	29.6147		-94.9522
57.2387	63.4184		-80.2232
57.6949	72.8829		-71.6056
61.7219	59.5706		-75.4
51.6037	-5.99441		-95.2543
53.3519	5.87124		-96.5405
56.1876	-6.77339		-89.8331
49.907	-17.8972		-92.2426
54.4711	17.5973		-96.5838
58.9721	16.2628		-91.5877
48.9075	-28.9944		-87.3153
53.0592	-28.9117		-82.3173
48.4272	-39.9077		-80.7492
47.561	-49.431		-75.0707
51.2783	-47.7919		-71.1283
46.8332	-69.6261		-65.4329
50.8218	-72.058		-59.0639
45.766	-79.585		-64.6208
77.1824	34.6961		-47.2136
76.3791	28.7667		-54.648
75.1765	40.039		-52.7657
58.7799	85.4262		15.7483
59.7646	89.0664		3.02181
77.9144	45.0573		-7.63667
77.242	52.6322		-12.6472
66.8216	-7.4372		-74.2839
63.66	-7.5633		-79.3429
68.2513	1.88414		-75.6325
69.7585	-7.7375		-68.8157
65.043	-17.1479		-71.5767
69.0377	11.3156		-76.2171
66.0494	13.0371		-81.5772
69.8795	20.297		-74.7013
71.8818	9.28557		-70.2567
70.7173	29.412		-71.3255
67.6828	32.8151		-76.881
71.6692	37.7582		-65.8576
73.4191	25.6421		-65.5063
59.702	-41.8637		-60.6095
56.9784	-44.134		-64.0778
61.3333	-34.3142		-64.3887
62.4384	-39.6665		-56.8908
58.2608	-49.5539		-56.9686
68.8317	-22.9307		-59.6989
67.0252	-30.1418		-56.5302
66.131	-24.5612		-63.7896
70.6638	-15.568		-61.9812
53.8734	-74.6201		-53.5447
55.4049	-65.6277		-53.5735
77.9414	-37.1291		-6.63197
78.4399	-33.5547		-4.56053
76.4091	-40.1212		-4.50061
78.3409	-31.8255		-3.09081
81.007	-6.30075		-3.94132
81.6941	-1.09225		-5.95592
93.1091	4.1023		-38.9483
93.1977	9.90971		-36.4789
93.7343	3.7088		-38.25
83.8048	-35.1573		-26.2248
82.6895	-37.9462		-22.9599
92.7545	14.6232		-32.9006
91.7929	14.9402		-33.387
92.0489	17.783		-28.7478
93.6347	13.9546		-32.3538
86.3994	9.86321		-12.42
85.1016	9.85587		-13.0756
91.2661	19.1277		-24.4785
92.1912	18.4115		-23.7577
88.5188	-18.698		-36.0472
85.2996	-35.8975		-18.9664
84.717	-35.7632		-16.3662
83.6534	-37.9839		-19.4889
82.0862	1.47126		-7.61907
87.9776	17.4555		-20.0457
86.1196	14.4191		-17.4557
86.9377	16.5945		-21.6178
83.8182	10.1355		-14.4953
82.9656	10.5661		-16.0613
91.1301	14.7928		-33.604
82.2378	10.3008		-17.5015
83.4553	12.2485		-20.0989
84.9761	14.1177		-23.6237
82.8956	11.9824		-24.7465
87.9635	-27.1049		-29.1027
88.1001	-28.6982		-21.6338
82.1252	-39.1621		-19.9893
83.9837	-34.8902		-14.1434
85.0913	-32.0017		-14.0524
85.9684	-29.6471		-14.8631
86.4154	-28.1032		-15.7267
93.9249	3.41719		-37.8461
94.2927	9.01378		-35.463
90.7203	15.7945		-16.4126
90.9139	15.1521		-16.1421
91.9116	17.4179		-19.4309
90.898	14.5458		-16.0141
92.1366	16.2499		-18.9797
90.7423	13.4762		-16.1971
94.0118	13.4107		-32.0043
93.4301	16.3212		-27.8628
94.1267	12.9141		-31.8765
92.7543	17.6967		-23.2979
92.981	17.0985		-23.1925
92.9918	16.5218		-22.934
93.5778	15.2881		-27.5131
94.0868	12.5471		-31.5651
93.4272	-0.890039		-36.8856
90.4994	12.1737		-16.758
88.0386	4.96183		-14.4506
92.4615	11.8517		-25.1632
92.949	-4.01571		-31.8699
92.9738	-2.13252		-31.538
92.8768	-0.262403		-30.9249
92.6546	1.2366		-30.0037
92.2901	2.45929		-28.7455
91.3739	3.31187		-26.2147
84.3169	-24.548		-13.4547
85.5528	-26.1541		-15.1204
86.2269	-1.67257		-11.6339
82.9604	-16.5498		-11.3721
86.5046	-27.3779		-16.2004
35.0131	28.6353		73.7341
34.6318	93.3675		43.6463
35.8299	99.678		32.9505
9.37765	100.699		46.7237
9.29831	108.197		35.1899
1.49875	101.098		46.8301
36.4639	105.443		20.1465
36.9529	109.673		5.94152
9.04268	114.631		21.7159
1.12553	115.085		21.6588
23.4539	118.553		-10.173
30.5682	115.674		-9.82474
37.2605	112.067		-9.74288
37.4987	112.1		-25.8488
64.5887	53.4274		33.7354
72.8301	62.5562		3.12424
74.8972	61.2689		-7.45632
60.4461	90.8797		-10.1013
60.8048	90.6885		-22.8145
8.40173	118.287		-46.8595
8.20808	112.202		-64.1955
0.554331	118.659		-46.9851
37.1672	109.86		-42.0243
36.7824	104.584		-58.4875
75.4267	60.1748		-18.1277
75.2712	58.6807		-28.9083
59.9836	89.6307		-35.5316
59.1203	86.3999		-48.0854
74.3768	56.0099		-39.6148
73.4633	51.6707		-49.7799
72.5206	45.6413		-58.5424
69.4226	50.6277		-64.421
44.7906	-90.2446		-65.2546
44.0625	-100.294		-66.5279
44.0889	-109.675		-67.4943
44.2402	-118.314		-68.6404
39.2646	-107.845		-72.0409
7.79222	103.272		-80.032
7.40449	91.8857		-93.3885
0.341776	103.464		-80.3855
7.27057	79.4944		-102.994
7.21548	66.4351		-109.967
0.105281	79.6118		-103.272
7.19982	53.5169		-114.838
7.03415	40.4433		-118.107
-0.0278133	53.7093		-115.081
6.72559	26.5946		-120.015
-0.0700878	26.6289		-120.31
18.5535	-1.79418		-116.351
24.6742	-2.74738		-114.044
5.6155	-26.7258		-109.029
5.67036	-38.7554		-101.158
-0.0974047	-26.8386		-109.152
5.71265	-47.4018		-95.3796
0.0668487	-47.6156		-95.3316
5.05422	-84.1326		-84.2491
0.142059	-83.9313		-84.3687
34.6936	74.7047		-95.9094
35.3142	86.2862		-86.4868
34.1892	62.1363		-102.837
36.0091	96.4558		-73.9719
33.5539	49.4714		-107.731
32.9886	36.3956		-110.943
32.3169	23.0044		-112.671
31.6752	9.38566		-112.739
30.8309	-3.62099		-111.132
29.8281	-16.2468		-107.686
28.7888	-28.4934		-102.314
28.0643	-39.662		-95.9661
27.9764	-49.0751		-90.2378
27.8233	-57.9751		-85.5208
27.0799	-67.2567		-82.2243
26.3404	-76.976		-80.359
25.634	-86.3702		-79.8579
34.6132	-106.629		-75.4903
34.8229	-115.444		-76.0688
58.2233	80.916		-60.5012
65.7591	55.6289		-69.9354
65.1026	46.0078		-76.9359
64.2507	36.1563		-82.1164
63.4792	25.5129		-85.3736
62.6858	14.8215		-86.7379
61.7486	3.77237		-86.2131
60.0847	-7.40639		-84.5666
58.263	-18.1164		-81.7096
56.6264	-28.0103		-77.8069
59.9939	-27.368		-72.8405
55.365	-37.6778		-72.5735
54.2191	-45.9853		-67.6892
57.0314	-57.5856		-54.1742
59.2565	-56.0551		-50.8496
75.4923	22.4842		-60.1199
74.823	15.1334		-63.2861
77.4435	18.7471		-54.2014
72.1563	-7.78348		-63.922
73.3722	0.0243658		-64.7443
63.0872	-26.0771		-68.3415
74.1265	7.86452		-64.8521
65.2084	-37.2713		-53.2698
63.6233	-44.3748		-50.163
16.6002	-103.465		45.3142
63.6952	-71.4825		2.149
52.0826	-88.6381		5.1135
15.3785	-50.8601		93.6921
18.6945	-51.6491		91.3066
21.7395	-52.9443		88.2103
8.83911	-57.9277		93.2738
9.11944	-58.7912		93.2522
9.34153	-59.8435		93.1596
25.103	-64.2858		81.7084
24.657	-62.7296		82.0852
24.1696	-61.3692		82.5351
20.0688	-47.4043		91.117
40.8976	-54.6988		75.9801
31.8833	-35.9433		84.0844
32.8446	-40.4028		83.9224
33.5818	-44.6164		83.1067
63.5177	-40.9507		58.4078
20.7039	22.8054		72.4979
79.2156	15.0849		-47.8966
81.999	13.8421		-28.921
82.6934	11.908		-26.6083
75.1216	-43.0052		-1.15919
27.9897	11.4832		71.7363
51.2563	41.6656		62.9997
8.50309	-34.2617		96.7263
48.8861	20.3688		65.5002
12.7793	-32.5493		94.9407
82.5903	11.7186		-25.5844
57.5933	-101.004		-43.4135
62.9506	-65.3428		-38.7917
62.0768	-58.7643		-43.8744
62.0293	-52.9084		-47.5073
24.3956	-28.412		86.4066
15.3585	-56.3199		89.331
27.9199	-56.5866		78.1747
8.00259	-54.565		91.5004
-72.0597	-48.0127		9.60644
-72.8562	-43.2407		11.3222
-72.9123	-46.2105		2.8232
-71.0416	-52.5696		7.94886
-71.1684	-49.5245		17.5976
-55.5925	-116.163		-9.10115
-55.1589	-106.081		-8.9275
-57.8013	-114.871		-13.6408
-56.6139	-126.291		-9.95196
-52.808	-117.231		-4.64723
-57.6428	-133.628		-11.0203
-55.2166	-135.463		-6.33515
-59.4281	-131.817		-15.7171
-58.5147	-139.352		-12.0898
-48.5886	-100.701		1.26708
-52.3211	-99.6569		-3.95996
-48.6135	-108.142		0.521388
-44.7404	-102.109		6.21419
-49.3897	-95.0757		2.09707
-59.2406	-97.5704		-17.3334
-57.5626	-98.1968		-12.9999
-59.6594	-92.2089		-17.0987
-60.3163	-96.1894		-22.3584
-59.051	-104.456		-17.6307
-64.6467	-68.1628		17.4844
-65.5751	-66.7908		10.5043
-62.1441	-72.2404		15.2153
-63.0904	-69.5452		24.6897
-66.5897	-64.1471		19.6933
-70.26	32.268		24.7016
-73.9972	30.4615		12.8993
-69.9273	24.7456		27.7649
-65.8714	35.4967		35.5448
-70.9754	40.0384		20.1568
-77.1389	41.8197		-28.327
-78.3084	34.4717		-23.6002
-77.2987	43.6334		-17.7222
-75.5558	48.8158		-33.3818
-76.773	38.7589		-37.9833
-6.95058	-111.667		43.9376
-7.26832	-107.343		46.4834
-10.0046	-111.238		42.6205
-7.44216	-118.733		41.3165
-4.45998	-111.788		44.7597
-8.65431	-130.237		36.2572
-9.75624	-141.671		31.3605
-5.58963	-130.418		37.4223
-12.0086	-129.338		34.7203
-3.32325	-149.991		30.0154
-3.71587	-155.175		28.2021
-3.0208	-142.261		32.9787
-6.86094	-149.693		29.4734
-66.9094	-53.9229		-34.1761
-67.7782	-46.3108		-38.0685
-64.1375	-59.9045		-36.5551
-66.3631	-60.291		-29.2808
-69.6083	-47.921		-31.8252
-68.653	-40.8535		-40.8941
-71.8244	-36.2912		-37.7036
-69.5321	-36.1105		-43.1592
-64.9473	-46.5646		-44.2866
-60.6202	-124.795		-31.8819
-61.0226	-127.923		-25.5423
-59.2367	-121.935		-38.5329
-60.711	-131.295		-33.9492
-2.71019	-130.713		38.0073
-2.3134	-119.203		42.9243
-69.878	-51.2231		25.5742
-68.9379	-56.2721		23.8851
-68.1947	-52.3649		33.1912
-70.691	-45.7666		26.6115
-66.3665	-65.1273		3.35194
-68.2305	-60.9863		4.85762
-66.7178	-64.2728		-4.14097
-64.2764	-69.1068		1.62395
-12.86	-90.9232		89.6751
-12.7174	-86.7065		90.9276
-16.7873	-90.3826		87.3332
-12.93	-94.8137		87.3729
-9.05949	-91.4802		91.2162
-20.7782	-89.3013		84.385
-20.953	-84.9131		85.5963
-25.0479	-87.9062		80.3744
-20.3281	-93.6634		82.19
-5.59032	-82.9214		93.4603
-5.73468	-87.3866		93.288
-5.0797	-78.148		93.0338
-8.93785	-82.6367		92.6561
-12.8587	-97.6532		84.3988
-9.24689	-97.9986		85.8776
-16.4283	-97.3019		82.181
-12.7635	-99.7621		80.2113
-12.7283	-100.912		75.0484
-12.3344	-101.284		69.2255
-8.77549	-101.46		75.9718
-16.3433	-1.3344		81.9565
-13.5904	0.951739		83.2374
-15.7267	2.71507		79.141
-19.1276	-2.79537		80.5234
-16.8206	-5.46389		84.8598
-49.5599	-29.2302		75.2456
-50.5057	-34.1494		74.4897
-43.6871	-27.9483		78.9856
-48.7394	-24.3152		75.4083
-55.2429	-30.02		70.1321
-59.1723	-20.0216		64.3786
-60.029	-25.3567		63.9974
-53.7355	-19.8441		70.4528
-57.994	-14.3681		64.4307
-63.9391	-19.5131		56.6672
-66.97	1.36866		43.2771
-64.8655	2.89327		47.3888
-66.1455	9.58307		42.3585
-68.7745	0.660185		38.3115
-50.9984	-39.0996		73.1779
-45.3498	-37.8795		77.9065
-56.3765	-40.2299		67.0768
-50.9191	-44.2278		72.0312
-2.36024	-0.318887		97.6371
-4.14714	-0.859305		97.152
-2.93381	-5.28748		101.939
-1.94086	4.92515		92.77
-25.9577	69.6362		68.0577
-27.5215	75.1984		63.8537
-31.2376	68.0775		65.6439
-24.3457	63.2565		72.5299
-21.1705	70.4996		69.8058
-4.06532	-102.573		64.2729
-4.75935	-102.263		70.6418
-7.34887	-102.276		63.7558
-3.22801	-103.106		57.9913
-65.9852	-52.9001		40.8005
-66.924	-47.0828		42.4279
-64.4647	-58.8705		39.5276
-63.004	-52.909		48.9013
-5.82669	-98.3745		86.6115
-5.65351	-100.597		81.9241
-5.83044	-95.5872		89.7537
-5.25444	-101.784		76.4812
-38.4401	-87.164		57.7335
-39.1459	-84.2774		61.1574
-43.3628	-83.9375		52.6348
-37.1554	-89.4556		54.9998
-33.7009	-89.8146		63.8615
-40.2663	-91.0001		32.9261
-35.7546	-93.1734		38.7551
-43.6457	-87.846		36.7031
-44.5155	-88.6867		27.1023
-37.0997	-94.4066		28.9418
-2.51704	-104.546		51.8265
-2.10958	-107.441		47.6276
-5.10006	-104.532		51.2331
-7.77379	-10.9651		103.514
-5.44583	-10.2534		105.005
-7.03131	-6.55129		100.003
-10.468	-12.1959		101.155
-8.34257	-14.3594		106.079
-26.0232	-23.4602		85.0807
-22.3549	-20.5127		86.7582
-24.1464	-18.3338		85.0208
-30.5566	-25.3979		83.6447
-32.6909	-57.9212		78.3111
-30.7012	-58.0827		78.5382
-31.3458	-57.1116		78.5901
-13.2442	-31.1134		96.0242
-15.0289	-30.8972		94.4782
-12.5958	-32.0443		95.5751
-14.7087	-29.7637		96.1702
-12.7537	-35.0082		93.9176
-10.9055	-34.8767		95.2138
-12.6005	-34.0735		94.2041
-15.1932	-34.649		92.2437
-13.2859	-36.3903		93.5935
-2.70436	-32.1294		102.33
-4.47627	-31.9909		101.544
-2.81283	-33.178		100.974
-2.72074	-31.1892		103.838
-17.935	-33.4196		90.4843
-18.5431	-34.9273		90.1896
-17.472	-32.4432		90.9659
-20.3098	-31.4492		88.9337
-8.63826	-23.2084		108.528
-8.80378	-21.5316		108.922
-11.4117	-23.2074		105.472
-8.40783	-25.0863		107.533
-6.13535	-23.4044		110.454
-27.2839	-70.0993		81.25
-28.3118	-73.6404		80.2297
-23.419	-71.4336		84.3854
-26.0631	-67.0953		82.1954
-30.5756	-68.2524		78.7329
-30.5778	-51.8962		82.5104
-32.8862	-52.6395		81.0926
-28.1827	-51.1646		84.262
-29.4173	-47.886		84.8573
-3.03631	-37.3202		98.598
-2.99082	-35.4844		99.279
-4.82615	-37.1118		98.2421
-2.86223	-39.495		98.1477
-6.30406	-1.80668		96.0829
-6.0601	2.8463		91.5855
-9.06797	-3.5136		94.2918
-19.019	-22.7306		92.3795
-19.3169	-21.9303		91.2432
-19.2458	-24.0434		91.6472
-18.5031	-22.5295		94.2041
-18.3121	-21.4852		94.198
-6.12758	-33.8211		98.7943
-4.67698	-33.8937		99.5314
-6.13141	-32.8363		99.4334
-7.61178	-34.1549		97.6973
-6.06758	-35.2973		98.1901
-5.96558	-31.9857		100.477
-5.90896	-30.9909		101.983
-17.8161	-21.8982		96.0578
-18.1704	-23.5021		95.2815
-17.571	-20.974		96.226
-19.203	-26.5446		91.0455
-18.6222	-29.0051		90.9833
-18.5408	-25.8805		92.9781
-2.23101	-47.3725		97.8299
-2.35198	-44.6006		97.7351
-4.95215	-46.5635		97.6471
-2.43785	-49.2973		97.9714
-25.2437	-36.2826		87.0121
-23.4443	-32.3466		87.2121
-27.6684	-36.0384		85.9948
-27.0059	-39.9816		86.7176
-22.6285	-36.7446		88.3042
-10.6184	-67.674		91.5246
-14.496	-67.446		90.2091
-11.4789	-69.8661		91.0927
-6.58891	-67.9331		92.3834
-9.82113	-66.0545		92.0491
-25.9423	-53.9361		84.173
-25.4441	-52.485		85.6152
-28.9838	-54.9903		80.8225
-26.5296	-54.5119		83.21
-17.3251	-20.2698		96.0727
-16.0164	-19.3623		98.2231
-17.335	-19.2449		94.7423
-18.0597	-67.1352		88.3178
-17.3767	-65.4338		88.9538
-21.5125	-66.2534		85.9087
-18.7835	-69.1872		87.7278
-3.1929	-68.2323		92.6581
-2.68767	-66.5971		93.0154
-3.55955	-70.367		92.4797
-58.9282	28.8199		56.2789
-59.3837	30.2444		54.618
-60.9143	23.1211		52.2231
-58.2137	27.6464		57.8706
-35.6111	54.7748		69.3572
-36.1291	60.2366		65.9965
-42.1759	51.8958		64.916
-35.7244	49.7451		72.0942
-30.0255	56.6971		72.8784
-49.179	48.6241		59.3757
-49.9074	54.1956		55.3305
-55.4201	44.923		52.945
-48.9098	43.9779		62.7776
-37.481	41.4471		74.4732
-36.6762	44.2366		74.0059
-38.3752	38.3668		74.62
-32.756	42.6267		77.756
-60.2482	31.8241		51.6939
-63.2633	25.3839		46.0628
-55.1753	36.951		59.0219
-60.6338	34.9428		48.8459
-23.6552	31.8801		77.7968
-20.0975	30.7959		77.9752
-23.26	33.4396		78.4229
-27.1208	32.5697		77.5426
-24.0464	30.1992		76.9882
-5.92196	12.54		82.8436
-5.90217	10.244		84.5775
-3.56108	14.0065		83.9544
-5.95079	14.285		81.757
-8.29837	10.5516		81.3804
-30.6454	-7.3642		77.7115
-24.7742	-5.83994		79.153
-29.118	-3.33607		76.3951
-37.9657	-8.27481		75.736
-32.4088	-11.941		79.1634
-58.1383	6.09248		56.1398
-56.0854	2.50216		59.7927
-56.0027	7.82282		57.9499
-58.9425	10.7423		54.2774
-60.0476	4.61161		54.3513
-5.89123	7.05767		87.5165
-3.53021	8.50977		88.3737
-8.40598	5.05908		86.3407
-39.1548	35.9612		74.5752
-39.3465	33.9763		74.5353
-34.0795	37.2511		77.4602
-44.6224	35.1265		71.5465
-49.4497	33.7541		68.2366
-53.9566	30.3867		64.0183
-49.0106	31.7384		68.9504
-55.5001	15.7036		58.499
-57.0605	15.7199		56.7949
-55.0777	12.2187		58.3306
-53.913	15.8391		60.0877
-55.488	19.7262		59.8987
-44.6603	21.6596		69.6892
-42.8237	22.8617		71.2101
-46.246	19.995		67.8038
-40.6962	23.9108		72.3815
-38.0914	24.6438		73.2068
-40.6122	24.6877		72.7773
-43.0376	23.655		71.5473
-37.76	25.472		73.6201
-35.0828	24.9909		73.6427
-32.0439	24.6552		73.7008
-34.6532	25.7434		73.989
-31.4079	25.3146		73.9736
-29.09	23.7339		73.4887
-26.3662	22.3266		73.0942
-23.8108	20.4632		72.3882
-21.7785	18.4293		71.5508
-22.5277	20.9659		72.5416
-25.1728	22.821		73.2678
-20.5343	18.7997		71.7338
-20.5372	16.7073		70.8698
-21.2092	21.2734		72.7707
-24.0481	23.4633		73.5878
-34.2393	26.5871		74.4058
-30.7551	26.0972		74.3599
-49.8583	14.9034		63.2147
-48.8714	13.9783		63.945
-30.6139	32.6289		77.1868
-31.0876	31.0598		76.4803
-30.4285	34.4331		77.7815
-34.8366	32.3194		76.3024
-47.409	25.9242		69.8652
-46.5803	24.5347		70.0998
-44.2765	27.3181		72.1066
-47.9703	27.72		69.7383
-38.8687	6.29349		71.5722
-31.9296	6.27015		73.3107
-44.433	7.11967		68.7158
-39.2707	4.52049		71.5945
-26.24	7.16868		73.3875
-26.447	5.40901		73.7926
-22.2316	8.27264		72.9814
-18.1258	11.3945		72.1259
-19.0295	10.329		72.4276
-17.6905	12.2013		71.8941
-38.0981	9.58935		71.6399
-31.9254	9.49972		72.998
-43.3309	10.5273		69.1212
-21.4094	11.7572		71.3474
-20.5351	12.2496		71.0212
-23.1882	11.0407		71.9227
-19.8438	12.6492		70.8974
-19.248	13.1704		70.8599
-13.9407	19.5168		74.609
-12.7887	21.4657		75.9279
-15.6717	21.9181		74.6916
-15.3954	17.5452		73.0654
-17.2964	13.6104		71.7554
-27.2535	24.9905		74.061
-16.388	16.9332		72.3126
-17.6595	18.903		72.4392
-15.8481	15.2852		72.4258
-38.0219	11.0025		71.6586
-31.8659	10.8214		72.9024
-21.6222	12.6612		70.7784
-23.2253	12.287		71.3648
-20.7658	12.8663		70.5764
-20.2962	13.1902		70.4026
-47.37	18.4116		65.973
-2.74568	29.6354		81.2299
-3.14256	33.3985		81.495
-5.26963	29.2353		80.8393
-2.35047	26.2814		81.2047
-20.014	2.36332		76.1944
-23.231	1.10862		75.775
-20.7966	-0.2916		77.5942
-17.7018	3.75659		76.633
-19.5408	4.43848		75.1988
-15.2235	5.33082		77.442
-12.7898	7.10107		78.5732
-15.2474	10.4606		74.204
-15.5004	12.0827		73.32
-13.3125	10.9655		75.5241
-9.52878	17.9071		77.387
-8.76038	18.8623		78.094
-10.557	20.2557		76.9498
-20.1417	9.30353		72.6964
-19.598	7.93833		73.4743
-19.3216	6.28493		74.295
-22.2379	4.86889		74.2515
-21.9714	-56.4725		82.9039
-17.888	-55.9148		85.8885
-25.711	-56.5634		80.0662
-21.8791	-56.3672		82.6411
-27.6076	-56.6912		78.8654
-27.2699	-56.5909		78.87
-2.62239	-52.5543		97.6461
-2.52442	-53.5255		97.1837
-2.61159	-51.4176		97.937
-5.68131	-51.9106		97.3352
-8.33188	-53.3989		95.5088
-11.376	-53.0874		94.4465
-8.17854	-53.954		94.79
-5.60178	-53.6274		96.2717
-8.3213	-52.6262		96.1728
-14.4614	-53.3352		92.7236
-17.5978	-54.221		90.2376
-14.3464	-54.138		91.7617
-14.5457	-52.4921		93.4047
-8.26898	-51.5585		96.748
-8.22437	-50.3788		97.1315
-11.2074	-51.374		95.664
-13.3414	-49.5478		95.0885
-14.1993	-50.5105		94.4982
-10.1566	-49.4457		96.5883
-12.82	-48.5096		95.4093
-21.291	-55.2309		86.498
-21.0118	-54.4032		87.9507
-7.61942	-54.4547		93.8253
-11.0171	-54.4059		92.4553
-7.16919	-54.6943		92.9043
-4.70244	-54.6307		94.6497
-14.5581	-54.8779		90.3504
-14.4117	-55.2383		89.3063
-28.3839	-55.6078		80.5124
-29.7327	-56.8493		78.8294
-22.2165	-57.3531		83.4656
-22.2342	-57.4982		83.7777
-17.9381	-56.7962		86.8366
-22.1659	-57.295		83.1952
-22.6325	-58.4337		84.3204
-18.5202	-58.0165		88.0664
-22.4725	-58.0956		84.2339
-15.1405	-57.9798		90.722
-15.5494	-58.6281		90.6871
-11.5865	-58.0421		92.6003
-14.968	-57.4665		90.5516
-7.10198	-56.462		93.5709
-3.97074	-56.3154		94.1972
-7.05157	-55.9721		93.2626
-11.0198	-56.6891		92.218
-7.25221	-57.076		93.7875
-1.75661	-57.8537		94.8219
-1.67253	-56.959		94.642
-4.14893	-57.8097		94.6149
-1.81769	-58.8413		94.901
-27.8636	-58.0832		78.1227
-27.7366	-57.5354		78.731
-25.8309	-58.0905		79.6408
-27.7324	-59.3921		77.4935
-1.48142	-56.2389		90.5148
-1.44662	-55.6275		91.8255
-1.51206	-57.2531		89.3919
-3.84426	-56.3694		90.2269
-1.86491	-59.9506		94.8699
-4.35378	-59.8216		94.6709
-1.96761	-61.0577		94.7257
-2.32226	-64.9695		93.5165
-2.15195	-63.4287		94.0636
-5.14177	-64.6386		93.379
-7.93523	-49.6209		97.2956
-5.53093	-49.69		97.7715
-7.22386	-48.3756		97.4492
-1.60843	-56.2432		94.3819
-1.50646	-55.798		94.1174
-1.45278	-55.5875		93.8701
-1.50683	-55.4636		93.5315
-3.89981	-55.6199		93.6805
-7.02237	-55.717		92.966
-6.99084	-55.5955		92.6408
-10.7086	-55.9224		91.5878
-1.54212	-55.4351		92.8592
-3.86747	-55.4933		92.6279
-14.3757	-56.3002		89.6104
-14.5025	-56.4849		89.9104
-14.3302	-56.2153		89.1832
-16.2683	-61.2771		90.3462
-16.5658	-62.371		89.9894
-12.7876	-61.7311		92.1443
-16.0367	-60.3196		90.5528
-8.45338	-61.7939		93.5037
-8.77441	-62.9854		93.1178
-4.60054	-61.8857		94.3104
-8.16644	-60.7774		93.7621
-2.05686	-62.1732		94.4623
-14.2392	-55.3169		88.478
-14.1168	-55.1868		87.818
-10.5665	-54.8221		90.5104
-27.7202	-57.3006		79.3703
-25.883	-57.5851		80.8235
-6.91038	-56.5267		89.6027
-6.839	-55.8514		90.8551
-7.10306	-57.5173		88.5947
-10.4703	-56.7241		88.4822
-6.8811	-55.5902		91.9415
-10.4837	-55.8191		90.5405
-9.12107	-64.4594		92.6182
-13.387	-64.242		91.3046
-15.7554	-59.406		90.6885
-12.2821	-59.7979		92.5319
-16.9109	-63.8415		89.5112
-20.1778	-63.0164		87.1567
-13.8768	-54.8662		87.471
-17.1854	-55.4284		85.4461
-13.4927	-53.9394		86.9857
-10.5781	-54.2868		88.9643
-7.20132	-54.0674		90.0824
-6.94215	-54.496		90.9783
-7.88267	-53.1575		89.0039
-4.51664	-53.9424		90.5006
-13.0654	-51.6923		86.2462
-15.7691	-52.0588		84.9249
-12.9084	-48.3401		85.5657
-10.4861	-51.3496		87.2467
-27.2295	-62.3156		77.0002
-25.1539	-62.1667		78.7456
-26.1168	-65.3927		77.2741
-1.53746	-59.147		88.31
-2.02001	-62.4239		87.4654
-3.90152	-59.2273		88.1615
-7.97857	-51.1401		87.9543
-7.76909	-47.9458		87.16
-5.37293	-51.012		88.4272
-7.0368	-59.4212		87.6101
-7.4068	-62.7711		86.5739
-10.6009	-59.739		86.5797
-30.7125	-57.5943		73.0748
-30.7137	-57.54		72.9266
-11.012	11.962		77.1919
-10.5885	10.5194		78.5117
-80.1686	-8.87488		-43.7524
-81.6611	-9.36888		-42.0525
-80.744	-4.26353		-43.6414
-78.3258	-8.26559		-47.0531
-79.4927	-13.2936		-43.1173
