1861
-84.5852	2.57559		-9.30612
-86.1876	7.66995		-10.4448
-86.1978	8.60562		-10.7143
-85.8415	8.58173		-10.718
-87.6629	12.0093		-12.7835
-92.2643	5.22129		-34.5535
-92.2355	6.74688		-33.0236
-92.3914	4.58239		-35.436
-92.0162	4.18218		-34.2516
-87.151	7.25286		-12.4682
-87.7059	8.89749		-13.5187
-86.6494	5.66205		-12.6754
-87.005	7.00791		-11.903
-86.6051	6.10997		-11.0374
-87.8155	10.4486		-12.6544
-85.6716	2.88753		-10.8501
-89.8795	-10.3189		-30.4335
-88.4272	-13.9562		-29.2895
-90.6496	-7.32098		-30.7967
-87.1873	6.57789		-16.0023
-86.7685	5.73958		-14.7719
-86.288	4.09098		-14.1869
-86.1907	3.92038		-13.7012
-81.7193	-10.6202		-9.25346
-83.0307	-6.17502		-9.50571
-80.3819	-15.3651		-9.1114
-81.5354	-10.6408		-8.1085
-85.437	-0.26652		-13.8134
-85.7517	1.48969		-13.2653
-85.6646	-0.516146		-15.6241
-51.02	-58.701		-60.941
-52.2873	-58.9693		-58.1595
-51.4536	-54.0514		-63.5199
-26.3837	-25.1815		85.6728
-24.2523	-24.6792		86.3683
-26.9036	-23.671		85.3519
-27.9798	-28.9976		85.6847
-21.0808	-22.8455		88.2085
-19.8879	-23.1887		89.3455
-21.6047	-20.0359		88.2806
-21.6083	-23.8592		87.7018
-52.3805	37.0374		67.3796
-52.4944	34.9311		67.9967
-47.3996	40.1537		71.1365
-52.6069	38.9377		66.1151
-56.7239	32.3513		62.6106
-6.64595	-25.0026		97.9851
-6.86201	-24.3602		98.6007
-7.35199	-25.6129		96.9771
-5.55761	-25.2203		98.5826
-7.11599	-23.4965		99.6474
-8.1639	-23.0654		99.4896
-5.95442	-23.0893		101.267
-49.8859	14.5354		64.7191
-49.5485	15.3716		65.124
-16.0336	-14.9421		98.223
-14.7361	-13.9233		99.7955
-16.5415	-15.0466		97.4519
-16.1437	-15.9062		98.0993
-65.5372	77.1476		12.9527
-67.3419	77.761		3.50339
-66.2252	72.4919		17.4448
-63.2599	80.7378		14.0524
-27.2234	-63.908		78.2181
-26.2257	-63.5509		79.8067
-27.6098	-64.8948		77.1235
-27.7588	-62.0263		77.6983
-27.1743	-52.7122		78.6048
-27.7389	-54.748		78.0398
-27.3131	-51.1422		77.929
-25.9398	-52.9816		80.1819
-9.62606	-22.7454		98.9822
-10.2487	-21.5324		99.8716
-10.8881	-23.8357		97.0356
8.07112	-24.0289		99.7999
7.08036	-23.5832		101.517
7.62737	-24.9058		98.6056
7.26169	-25.5458		97.9153
6.09457	-25.7662		98.5585
-7.96196	-26.4026		96.0352
-9.10442	-26.6037		95.3772
-7.7561	-27.1647		95.7667
78.5605	-36.9344		-25.7944
76.7729	-37.5265		-25.5444
79.3388	-33.6582		-28.5402
79.7171	-37.2981		-25.1586
77.1832	-40.358		-22.2358
66.954	-50.6827		14.53
65.6356	-52.2966		22.623
65.5851	-55.4476		13.4298
68.3105	-48.6613		7.35096
68.2585	-45.6907		15.5663
54.6507	-116.953		-7.92384
53.8597	-106.908		-7.09459
51.9106	-117.811		-3.72176
55.9294	-127.17		-9.27897
56.836	-115.827		-12.2922
57.0857	-134.606		-10.6397
58.0651	-140.429		-11.9241
58.8662	-132.89		-15.2137
54.6804	-136.339		-6.13433
47.1436	-101.025		3.00172
47.5659	-95.5469		4.44321
43.4407	-101.99		7.39791
47.4656	-108.387		1.65295
50.72	-100.35		-1.8159
57.6279	-98.8266		-14.8616
57.7488	-105.594		-15.6327
58.7964	-97.5415		-20.0268
57.7604	-93.576		-14.2482
55.8988	-99.3234		-10.5153
58.4302	-71.6754		25.3759
60.022	-67.8509		27.4319
56.4956	-73.8146		33.1082
56.585	-75.2514		22.6949
59.7633	-69.9006		17.4726
72.6774	31.1482		23.4743
73.487	39.2558		18.9602
68.5903	34.2484		34.1998
72.2748	23.3943		26.5865
76.1033	29.4914		11.8915
78.6902	41.49		-29.1975
78.1478	38.434		-38.8569
77.2052	48.6522		-34.4019
79.0349	43.2642		-18.6077
79.7277	33.9648		-24.3111
4.99145	-107.652		35.9206
2.35904	-107.718		36.3892
5.86515	-115.883		34.0017
8.32246	-107.471		35.0738
4.99937	-104.031		38.5452
7.55186	-128.559		30.6754
8.9677	-140.909		27.2371
10.931	-127.651		29.4017
4.48082	-128.723		31.6062
2.72322	-149.779		26.4584
6.22824	-149.448		26.0239
2.28089	-141.537		28.538
-0.641601	-149.776		26.5817
3.19075	-155.225		25.2245
64.8859	-55.4522		-31.7453
67.4347	-49.4878		-29.3792
64.0293	-61.9766		-26.3982
62.2895	-61.4064		-34.1952
65.9848	-47.7413		-36.0344
67.1202	-42.215		-39.1697
63.4719	-47.9045		-42.6311
68.2177	-37.3945		-41.7005
70.2651	-37.6649		-35.9565
60.0315	-126.044		-31.316
60.2616	-132.577		-33.6962
58.6652	-123.202		-38.0672
60.4489	-129.138		-24.9514
1.63748	-129.062		32.0427
0.684179	-116.372		35.2147
-1.04091	-129.065		32.1336
64.1725	-53.5989		30.8585
65.6687	-47.6509		30.9928
62.6576	-54.0156		38.408
62.7928	-58.9993		30.0671
61.0155	-67.9841		9.48865
59.303	-71.7062		7.57136
62.0441	-66.7702		1.19225
62.6768	-63.9492		10.9499
8.27399	-95.5937		83.8865
4.39222	-96.0519		84.9758
7.80226	-99.3323		81.0856
12.1065	-95.0555		82.2754
8.45961	-90.8146		86.247
16.2229	-93.7171		80.3121
15.6149	-97.5678		77.7366
20.874	-92.1121		77.2101
16.7221	-89.22		82.3243
1.27232	-86.9769		89.5368
4.59405	-86.6059		89.012
1.65816	-82.6257		90.6304
-1.72598	-87.0819		89.6983
1.03162	-91.6085		87.9519
7.60213	-101.472		78.1903
7.65962	-102.643		74.7373
11.2532	-101.004		76.8377
4.12124	-101.632		79.2845
7.92458	-103.007		70.2628
4.27572	-103.281		70.8915
8.16891	-102.597		64.8405
17.6736	1.08797		81.9458
18.5237	-3.03518		84.7696
20.1375	-1.08289		80.7561
16.8558	4.86499		79.3458
15.1187	3.7169		83.5173
52.0313	-26.8967		72.7031
57.8637	-27.4047		66.6342
51.7918	-21.8552		72.5713
45.0591	-25.9348		77.5276
51.6836	-31.6943		72.8241
62.6839	-17.3536		60.2722
66.0545	-16.9968		54.1864
61.6104	-12.2271		61.1416
57.5768	-16.7348		66.6966
62.7319	-22.7293		60.1493
69.6116	1.03529		42.1693
71.338	-0.240852		37.3543
68.6589	8.63699		41.3175
67.4756	2.80019		46.2616
51.0306	-36.5689		72.5725
49.9598	-41.8103		72.222
55.8795	-37.7545		66.7124
45.2884	-35.5002		77.3169
3.95234	4.05085		99.3737
3.55524	9.13623		94.2796
2.22119	4.35559		99.4575
4.05829	-0.153583		103.913
5.79423	3.41861		98.8334
32.5472	72.71		66.1834
27.3249	73.6772		68.1807
32.0087	66.83		69.8235
38.0568	71.0794		63.4923
33.2527	78.0093		62.36
1.04097	-102.495		59.1704
0.705475	-101.926		51.6484
4.13473	-102.336		58.7674
1.0265	-103.088		65.8783
-1.92393	-102.49		59.2201
60.9623	-53.7113		45.4704
58.8486	-52.897		52.3961
58.9151	-60.7437		45.1277
62.7083	-47.1604		45.779
0.839544	-101.718		79.8997
0.855022	-99.7418		82.7627
-2.12074	-101.649		80.1441
0.964345	-103.022		75.8734
1.03105	-103.384		71.2111
-2.05869	-103.354		71.2923
35.607	-90.5806		58.562
30.1308	-93.5458		63.2165
34.4818	-92.6357		55.7029
40.6321	-87.1709		54.9489
36.2932	-87.6734		61.9653
39.3048	-91.6894		35.2057
36.3742	-94.1147		29.8974
43.0853	-89.3601		30.3134
41.7905	-89.647		39.8982
34.6237	-94.0804		39.4449
0.164261	-101.918		44.1876
2.78746	-101.963		43.6459
-2.28735	-101.88		44.1981
-0.287255	-103.801		39.0967
8.64774	-4.52874		105.138
8.97725	-7.03168		107.658
11.3909	-5.82253		102.529
8.48621	-1.4977		101.593
6.21528	-3.70531		106.665
28.0896	-21.5056		83.7395
31.7461	-23.3953		82.5593
26.808	-16.6077		83.6756
24.7708	-18.6018		85.3556
27.2312	-58.9194		82.0903
29.2064	-58.5729		81.4937
13.1312	-25.6161		94.6044
14.9712	-24.0951		95.0544
12.3137	-26.697		93.9687
15.0087	-26.0817		92.8788
12.2734	-30.2153		92.2733
12.7919	-31.6755		92.1146
14.8295	-30.5647		90.5796
12.1185	-29.2457		92.5032
10.1286	-29.4642		93.7535
1.9253	-25.7918		101.389
2.18665	-24.5911		103.269
0.436757	-25.7422		101.642
1.857	-27.0113		99.9007
3.56917	-25.7479		100.612
17.5098	-29.9577		89.0555
20.2192	-28.5197		87.6461
17.1154	-28.9141		89.4679
18.0086	-31.4029		88.9125
9.20726	-15.2757		110.07
6.72933	-15.4507		112.024
8.85145	-17.3115		108.984
11.7823	-15.5367		106.974
9.39559	-13.5272		110.517
24.4715	-72.6769		82.2853
27.638	-70.2164		80.4078
23.5335	-69.2615		84.0986
20.7405	-74.5573		84.7527
25.3052	-76.4951		80.366
28.2737	-51.8094		84.89
28.0058	-47.3242		86.1795
26.291	-50.811		86.5604
30.1276	-52.6241		83.5824
1.98993	-31.5405		97.7277
2.03568	-33.5589		97.7099
3.65742	-31.3154		97.3363
1.87597	-29.6473		98.1757
0.0269625	-31.5866		97.9055
8.03861	2.37575		97.5482
10.6315	0.658072		95.5856
7.69595	6.7553		93.0239
20.6738	-18.5255		91.638
19.8772	-16.2844		93.9864
20.0309	-17.3341		93.8489
20.7274	-20.1822		90.7215
21.1426	-18.332		90.2912
4.91854	-27.8711		97.6486
4.79713	-29.4176		97.1143
6.374	-28.2154		96.5467
4.96105	-26.8067		98.3346
3.49102	-27.9829		98.3927
4.92075	-25.8136		99.5051
5.11742	-24.6566		101.232
19.0725	-15.9316		96.0681
18.8448	-15.0127		96.3608
19.5173	-17.8174		95.0038
20.2262	-22.9431		89.7602
19.7202	-21.2811		92.0654
18.9472	-25.4788		89.5943
2.44247	-40.3652		99.4478
2.703	-42.3389		100.078
4.77811	-39.9175		99.0441
2.22766	-37.8277		98.6139
-0.0283125	-40.7667		99.7008
24.428	-33.3323		86.2537
21.7253	-33.4866		87.5358
25.7692	-37.7234		86.6614
26.9039	-33.3824		85.3078
23.2728	-29.497		86.1158
9.2923	-71.8555		93.151
9.2504	-69.8154		94.4701
5.55783	-72.5723		93.8365
9.2125	-74.5347		91.7109
13.1315	-71.143		91.7938
23.7945	-53.5354		87.1802
24.0171	-54.4273		86.5353
25.8159	-55.4348		84.4069
24.0116	-51.4617		88.0756
18.6338	-14.3845		96.2019
18.8357	-13.86		94.7641
16.943	-12.8136		98.8589
16.6234	-70.2772		89.9666
16.7428	-72.6451		88.6372
19.8165	-68.8809		87.8355
16.4523	-68.4995		91.1118
2.47739	-73.0084		94.0741
-0.299628	-73.0868		94.2009
2.41534	-75.3035		92.8792
2.37081	-71.1156		95.352
60.2818	26.2707		57.2227
59.287	24.9		59.2474
62.4	21.0004		52.3623
61.1052	27.9948		54.9883
42.1294	56.7927		67.6449
36.5612	58.9277		71.1626
41.7223	50.7576		71.1904
47.9936	53.665		63.418
43.2013	63.1927		63.4651
53.7259	49.5022		58.4246
52.927	43.7964		62.5748
59.1338	44.631		52.075
54.8268	55.4308		53.9877
42.0385	41.6637		74.5732
41.8594	44.4874		73.8832
36.8948	43.7764		78.2371
42.3305	38.8143		74.744
62.4028	29.939		51.3106
63.2892	33.3146		47.91
57.7934	35.4003		59.438
65.3077	23.7558		45.2967
26.361	33.2461		79.2129
26.323	31.3847		77.8435
30.1484	33.5855		78.6874
26.339	35.3039		80.6271
22.5929	32.4062		79.2107
7.70426	16.6575		83.8963
10.1464	14.1879		82.1753
7.80655	18.6701		82.6085
5.46612	18.3021		84.9824
7.5316	14.1628		85.9099
31.5562	-6.14		77.3426
33.6464	-10.3458		78.4324
38.8459	-7.13791		75.3361
29.5243	-2.48881		76.39
25.6897	-4.58916		79.0568
60.0209	4.68928		56.2104
62.4232	3.82337		53.756
60.4965	8.79731		54.8
57.4898	6.00831		58.4473
58.1547	1.64057		59.4386
7.52689	10.8549		88.9507
10.0735	8.5931		87.4828
5.17449	12.4138		89.9293
42.6674	36.2656		74.7951
47.1773	33.4129		72.382
38.117	37.5856		77.2777
42.6345	33.8667		74.7075
51.5493	30.5424		69.3553
50.9461	28.4811		69.8695
55.5335	27.2268		65.1989
56.5354	13.3444		59.4427
56.2303	17.2093		61.1693
54.4936	13.323		61.3378
56.3159	9.82925		59.0763
58.2614	13.5063		57.5961
43.9407	19.0624		70.2863
45.6129	17.5673		68.7088
42.118	20.2362		71.6186
40.1208	21.2752		72.5276
37.9406	22.0548		73.0381
40.2882	22.2002		72.9373
37.7753	23.0206		73.4442
42.5103	21.1257		71.9863
35.2126	22.5872		73.2174
32.3416	22.5784		73.1155
34.8834	23.4971		73.564
31.8146	23.4249		73.3886
29.4343	22.1008		72.629
26.7148	21.1183		72.011
23.8636	19.7763		71.3147
21.1465	18.2597		70.7583
22.5676	20.4922		71.5723
20.0524	18.8488		71.0851
25.507	21.9045		72.2103
19.3652	16.8829		70.4528
21.3257	21.0516		71.9381
24.4721	22.7811		72.5899
34.6604	24.5493		73.9981
31.386	24.4711		73.7938
49.2936	12.4581		64.8676
49.7316	13.505		64.8091
48.1461	11.6259		65.5167
33.9145	33.6083		77.7362
38.0536	33.0726		76.2944
33.9961	35.4596		78.5555
33.8128	31.4775		76.7518
48.0574	23.2173		70.6545
46.8045	22.0629		70.914
49.2468	24.8132		70.4408
44.847	25.1026		72.811
38.1355	5.18044		71.7025
43.9517	5.66613		69.2453
31.3866	5.6709		73.1067
38.9504	3.77863		71.7264
25.962	7.10415		73.1478
22.0989	8.86694		72.701
26.1342	5.66417		73.6797
18.4872	12.277		71.6866
17.9649	13.1919		71.3888
19.3536	11.3823		71.8694
36.9281	8.03858		71.582
42.0684	8.72483		69.7726
31.1067	8.39614		72.544
20.8001	12.1168		70.877
22.6774	11.1285		71.4009
19.9462	12.6836		70.5816
19.3311	13.1428		70.4547
18.7701	13.7192		70.4167
15.3668	21.8646		74.5914
14.7232	24.514		76.1366
16.0602	19.0922		72.8141
17.0103	23.8125		74.6473
17.4713	14.5508		71.278
27.8644	23.9285		73.2522
16.7055	18.0355		71.9879
16.352	16.5026		72.0104
17.7092	19.8406		72.1803
36.6923	9.29243		71.5107
30.985	9.63734		72.3112
20.7691	12.8913		70.2756
19.9834	13.1853		70.1536
22.5781	12.2693		70.7784
19.407	13.6108		70.0493
46.7592	16.0109		67.17
4.28956	33.0092		82.994
1.26183	33.0772		83.0486
4.0121	30.2905		82.6898
6.81095	32.5688		82.6565
4.87802	35.9646		83.4691
20.0534	4.09815		76.4497
19.8123	6.05454		75.2231
18.327	5.63186		76.7573
20.9103	1.29519		78.0292
22.9025	2.367		76.0884
16.5777	7.26023		77.4709
14.6608	9.24117		78.662
16.5795	12.0526		73.6702
15.0246	12.9564		75.1305
16.5977	13.5712		72.6241
11.6994	21.9024		77.5676
12.6423	23.9718		77.2829
10.9253	23.0835		78.488
20.3117	10.2339		72.2685
19.9642	9.1748		73.1173
19.8031	7.75564		74.0541
22.0577	6.00988		74.233
19.9424	-56.5529		86.2095
19.8585	-56.5007		85.9878
22.7123	-57.0025		83.8287
16.9318	-55.8029		88.6474
24.3131	-57.3189		82.6241
24.0491	-57.1969		82.603
2.97218	-45.8683		100.327
5.74544	-45.7567		99.7549
2.91316	-44.5104		100.435
-0.110806	-46.1062		100.598
2.92727	-47.4291		100.004
8.32108	-49.4326		97.8629
8.32807	-47.7445		98.5242
5.75243	-49.0532		98.785
8.0238	-51.1069		97.0287
10.8246	-50.1574		96.6455
13.5745	-50.8575		95.0555
13.6799	-49.4156		95.732
13.5161	-52.4734		94.0266
16.791	-51.7992		92.8399
8.22111	-46.033		98.9771
10.832	-46.9521		97.7949
8.11539	-44.6142		99.1982
12.5775	-45.3968		97.0911
13.3809	-46.6806		96.6375
12.1194	-44.1005		97.2351
9.79439	-44.187		98.5147
20.0777	-53.9917		89.2881
20.0577	-52.3228		90.6171
7.41683	-52.7169		95.934
4.79505	-52.2777		96.9713
6.97927	-53.5568		95.0554
10.4792	-53.2545		94.5397
13.6863	-54.0801		92.5258
13.6685	-54.8601		91.54
25.1327	-56.1231		84.2426
20.1551	-57.6067		86.799
20.0953	-57.5333		86.5669
17.0154	-57.3315		89.5852
20.2144	-57.835		87.1252
20.725	-59.242		87.6852
20.5255	-58.7278		87.6022
17.9332	-60.2776		91.0249
14.9072	-60.6942		93.7585
14.6797	-59.7067		93.4753
11.627	-60.7705		95.9462
15.3403	-61.6763		93.7498
7.23821	-57.9288		96.776
7.56661	-59.5117		97.343
10.8068	-58.1634		95.2117
6.98846	-56.5205		96.1089
4.16403	-58.012		97.7051
1.90795	-61.8236		99.1613
1.98081	-63.2136		99.3027
4.49889	-61.3148		98.7028
1.8368	-60.2215		98.8159
-0.435657	-62.0196		99.3195
24.5013	-58.7713		81.7823
24.3925	-58.178		82.476
24.3952	-60.1636		80.9947
22.7683	-58.6305		83.3523
1.75543	-56.2121		93.8198
1.74342	-55.4312		95.0675
3.97458	-56.3349		93.4361
1.68049	-58.0309		92.3799
-0.225644	-56.2073		93.9389
2.0809	-64.5056		99.2483
-0.441075	-64.6941		99.3762
2.19933	-65.6182		99.0105
4.85489	-63.8822		98.8727
2.28678	-69.3273		96.7259
5.3862	-68.6584		96.5692
2.27116	-67.778		97.8887
-0.40984	-69.5485		96.7638
7.77323	-43.5845		99.2499
7.01568	-42.0948		99.2313
5.49667	-43.1551		99.8533
1.81458	-58.4394		98.2364
-0.353522	-58.5586		98.4045
1.73164	-56.76		97.5072
1.68723	-55.7525		96.8517
3.97298	-55.668		96.4663
1.76723	-55.3691		96.3778
-0.293198	-55.8903		97.0446
6.85634	-55.7972		95.5859
10.2355	-56.1986		94.0872
6.79179	-55.5328		95.1888
1.82322	-55.2576		95.8947
3.9394	-55.2871		95.5234
-0.233965	-55.3376		95.9672
13.7006	-56.8457		92.0587
13.5935	-56.6148		91.6422
13.9733	-57.4258		92.4812
15.9699	-64.6545		93.3368
16.1777	-65.6621		92.8173
15.7935	-63.7159		93.6167
12.7871	-65.0034		95.46
8.8398	-65.2699		97.3143
9.03236	-66.4369		96.693
8.6391	-64.2753		97.6628
5.1583	-65.9343		98.3167
2.22786	-66.6373		98.5923
-0.448374	-66.8511		98.6843
13.6563	-55.0477		90.9979
10.2563	-54.289		92.9819
13.5394	-54.966		90.4795
27.2304	-57.6966		82.3065
26.1663	-57.9813		82.4278
24.3856	-57.9223		83.1789
22.8752	-58.0354		84.6423
6.83635	-56.5874		92.6363
6.736	-55.7591		93.7808
10.1317	-56.9246		91.3551
6.94012	-58.2443		91.382
6.72029	-55.4848		94.6555
10.0477	-55.9249		93.1445
9.14374	-67.9877		95.7193
13.1003	-67.5426		94.0292
15.5528	-62.7055		93.7755
12.3121	-62.9962		95.9932
16.328	-67.005		92.0502
19.1409	-65.8052		89.8282
13.228	-54.5573		90.0972
10.2128	-53.7918		91.5813
12.6332	-52.9981		89.3008
16.1829	-55.2446		88.2493
7.09886	-53.2765		92.787
4.58331	-52.8857		93.277
7.52909	-51.7874		91.2262
6.91791	-53.7123		93.749
12.087	-49.632		88.1492
9.72715	-48.9967		89.0578
11.9973	-45.4428		87.1646
14.5475	-50.297		86.9749
24.0769	-63.3725		80.0667
23.4759	-67.1576		79.5138
22.2736	-63.3116		81.7644
1.53909	-61.6969		91.1165
3.77056	-61.6577		90.8303
1.82243	-66.1325		90.445
-0.308203	-61.7315		91.2146
7.44962	-48.4782		89.7121
5.11439	-48.0374		90.1793
7.27455	-44.3187		88.7069
6.72684	-61.6716		90.1574
6.90468	-66.1905		89.3074
10.0223	-61.8776		89.0428
27.6041	-58.0962		75.859
27.9778	-57.9478		75.0046
13.0611	14.7981		76.9732
12.5958	13.4145		78.6623
79.9977	-9.91128		-43.3298
79.1285	-14.3937		-42.5136
78.2144	-9.22477		-46.7541
80.7556	-5.24226		-43.3775
81.4549	-10.4627		-41.5694
80.0219	8.55403		-6.10853
80.4289	11.531		-10.3953
79.0964	10.6765		-1.28614
80.5428	13.7331		-15.6517
80.3608	19.3209		-17.0301
80.8466	8.63493		-16.626
81.1251	13.3528		-22.6866
72.9262	-34.7209		-33.5825
75.4128	-32.4661		-31.9145
71.6626	-39.013		-30.9012
74.3095	-30.7369		-35.4909
75.5117	-26.9904		-37.6524
72.9032	-28.9328		-40.5694
76.8361	-22.9323		-39.5607
77.7834	-25.8336		-35.7489
82.9254	-10.4303		-40.6591
84.489	-9.90561		-40.2877
82.1881	-14.6619		-39.6771
83.4459	-5.34626		-40.92
84.0467	-29.0872		-30.298
85.3869	-24.9509		-32.4687
84.7299	-29.5516		-29.0465
82.6031	-33.1937		-27.674
89.0156	-19.1648		-30.5372
89.0094	-18.6065		-29.7547
76.6185	-42.1326		-19.058
77.0472	-42.3856		-18.3244
76.0744	-42.8618		-16.955
75.8625	-41.1801		-21.244
77.6946	-34.9286		-6.33636
77.3161	-35.5706		-6.27168
76.8129	-36.5926		-6.47063
88.9561	-18.2327		-29.3429
88.3955	-18.8509		-28.3624
92.4492	-3.33479		-33.479
92.557	-2.66384		-35.0267
92.2738	-4.68595		-31.7833
92.9892	7.03229		-31.1565
93.3052	8.4127		-31.2896
93.481	10.5297		-30.2832
92.8794	10.3173		-28.0426
93.6817	11.0053		-30.6945
93.1616	12.6055		-27.2014
82.3335	-11.3883		-7.41095
83.8627	-5.77832		-8.14959
81.8562	-10.6483		-6.09487
81.1736	-15.5546		-6.71295
76.1452	-28.044		0.191171
75.2048	-28.5464		2.99967
75.3066	-31.8956		-0.186819
77.015	-23.6094		0.560274
80.3531	-22.7992		-9.13379
80.5837	-24.8781		-9.61838
80.4504	-20.7741		-9.31405
80.8334	8.11612		-16.5906
81.2413	9.45855		-20.115
80.8712	8.11368		-16.3839
89.3795	15.8359		-17.2821
90.4123	17.5678		-20.4545
88.5118	16.2559		-18.4719
87.8399	12.6496		-14.2562
90.16	15.106		-16.2681
89.9661	18.2721		-25.535
89.1469	18.0102		-22.5167
90.2619	18.4091		-25.0306
90.453	17.0067		-29.1914
89.1159	17.2109		-26.8914
90.5167	2.77645		-39.7026
89.7065	2.29817		-39.8817
90.991	8.82247		-36.8959
91.5871	3.01783		-39.164
84.9906	-1.04934		-8.85979
85.2272	-2.3154		-9.49306
93.3147	2.09664		-36.5918
93.8951	7.29499		-34.4015
92.9132	-0.749789		-36.7409
93.3673	2.00049		-36.9614
92.63	13.4792		-23.2183
91.652	12.8881		-19.1936
92.3817	12.1048		-23.9309
92.7521	14.4809		-22.6206
86.4872	-0.218365		-11.6903
85.8638	-2.032		-11.066
87.1332	2.16552		-12.4681
92.8368	2.76486		-33.8562
92.8949	0.693779		-35.7038
90.119	5.34279		-22.1954
89.5822	3.95936		-21.3833
91.4766	4.88568		-26.3849
84.2933	-7.14081		-12.7758
84.4611	-6.85143		-13.5002
84.8899	-5.49311		-11.6991
89.2071	-6.1205		-26.9641
91.3767	-3.41781		-28.9458
88.9513	-5.67335		-26.34
89.0494	-7.2353		-27.1045
77.8079	-19.5311		0.412064
78.8075	-14.8175		-0.57135
77.0232	-19.8032		2.99654
83.8197	-0.0243381		-39.4977
82.6712	-0.59652		-40.645
83.7879	4.70851		-37.4189
84.8631	2.51817		-38.5725
87.3994	7.56459		-35.926
87.2338	11.3717		-32.7312
89.9065	12.2839		-34.0662
87.4566	3.44682		-38.8001
88.594	1.29805		-39.8385
87.2685	-4.30792		-40.5579
86.6822	-9.40104		-40.1206
79.5726	-25.2019		-34.8784
78.4104	-28.4081		-32.9665
80.58	-21.8887		-36.6469
81.4242	-18.4232		-38.3162
79.7505	-18.6477		-39.3618
87.7962	-18.8058		-27.3216
77.2334	-31.4104		-31.1704
75.8959	-35.1417		-28.7231
78.4801	-31.1115		-30.7147
75.6983	-39.0914		-23.9646
75.25	-39.1044		-24.3109
74.7082	-42.6459		-19.1919
75.788	-42.5863		-14.0585
75.2696	-42.8536		-13.9067
74.6833	-43.0589		-13.5818
89.2434	-7.99049		-27.5747
91.2985	-6.56535		-29.8193
81.2957	-10.0438		-4.99506
80.5921	-9.64653		-3.75603
78.2445	-24.0074		-3.03922
78.5597	-24.1694		-3.71439
80.9336	-28.4693		-9.25395
81.7951	-30.4978		-10.8373
81.1986	-27.3206		-10.1481
80.4111	-18.6489		-6.13069
80.8288	-18.7557		-8.3569
86.9424	13.198		-29.5376
84.4461	9.46949		-32.3091
85.9692	13.8052		-26.1794
83.4752	7.91927		-34.109
83.0635	7.61811		-35.2131
82.8433	10.0542		-29.8181
80.4372	-18.7773		-11.2535
80.6928	-18.7061		-10.362
92.08	3.92258		-28.7578
91.8559	2.38411		-28.3857
84.92	-6.11648		-14.9741
84.1777	-8.46759		-15.994
85.9834	-4.83615		-17.6917
88.9437	-4.82378		-25.8454
90.8652	-1.14026		-27.1162
88.3573	-4.78165		-24.4449
7.55553	88.2675		62.0224
7.52561	81.4713		67.2447
15.6011	87.4273		61.6865
7.86342	95.1824		55.2593
-0.769687	88.4408		62.1051
7.48792	74.7072		71.5097
-0.674756	74.4552		71.8331
8.15474	67.3897		75.2777
15.2873	74.5837		70.7548
31.1357	59.9997		73.905
31.445	54.1892		77.0024
26.9843	60.5388		75.3969
2.50648	-23.1725		105.772
3.0969	-21.5646		108.129
1.06091	-23.0195		106.244
4.37469	-23.3254		104.463
4.26383	-12.0075		113.537
6.78152	-11.9682		112.504
4.23852	-10.0914		112.964
1.81102	-12.004		113.862
4.30916	-13.7894		113.582
4.28692	-15.6488		113.111
1.88439	-15.6866		113.482
4.16523	-17.5448		112.087
1.85079	-28.2302		98.896
0.137066	-28.3053		99.0569
2.09167	-35.7274		98.045
4.11936	-35.353		97.6995
-0.00955811	-35.9486		98.212
3.79463	-19.5515		110.401
5.93582	-19.6057		109.137
1.6546	-19.5026		110.838
4.13699	-8.16871		111.915
6.55804	-8.46189		111.065
4.10675	-5.96407		110.133
1.7586	-8.02246		112.129
7.6992	48.2767		82.8437
0.158434	48.4245		83.5528
7.16032	44.859		83.5792
14.6571	48.5501		82.0391
7.92277	52.6002		81.5593
3.76384	19.1526		85.4375
3.44293	16.6033		87.3493
3.95544	21.288		84.2167
2.23289	19.46		85.6167
4.1008	23.306		83.3906
5.79946	22.4436		82.8843
4.04974	25.4083		82.9099
2.40795	23.5749		83.6559
2.17494	-52.6391		93.4782
-0.19702	-52.6428		93.6642
2.49687	-51.0339		92.0432
1.83532	-53.4424		94.9414
1.75721	-53.5492		95.8296
-0.261231	-53.6544		95.9677
3.98031	-53.5342		95.4165
1.82701	-53.3258		96.3888
2.88184	-48.9501		99.4656
2.68329	-50.4808		98.7048
-0.156741	-48.9966		99.742
2.2269	-52.1026		97.6129
-0.211167	-52.2307		97.7245
2.88658	-43.5259		100.345
-0.090073	-43.9095		100.617
2.54388	-47.7366		90.4893
2.4071	-43.6845		89.3917
-0.159137	-47.6077		90.6311
22.2099	86.3551		60.936
21.952	80.3619		65.6983
28.272	84.8288		59.7837
22.7423	92.6433		54.5445
21.5857	49.4208		81.2426
21.6299	46.4439		82.027
27.1409	50.0275		80.5896
20.7384	53.7041		79.8452
23.1314	43.2916		82.3461
24.8315	39.8467		82.2095
28.0956	44.0051		81.7215
26.368	37.2057		81.494
21.9507	36.5991		82.1402
30.1643	38.0717		81.0165
27.0281	24.9538		73.7544
26.6673	26.5519		74.6589
23.3863	23.7093		73.1296
30.9352	25.564		74.2608
28.6141	22.9403		72.8655
26.204	28.6311		75.9644
30.0811	29.0756		75.9942
22.6595	27.6586		75.6931
46.8722	88.0378		39.0503
47.9399	93.0218		29.2448
41.1201	91.7326		41.5838
46.3779	82.7745		46.1191
33.77	83.1736		57.961
34.5171	88.6373		52.0191
39.548	80.9256		55.3033
31.5226	49.8046		79.4753
32.2371	47.8694		79.988
36.2181	49.0831		77.0868
33.3709	38.7444		80.1675
33.4486	40.5175		80.4159
32.8378	44.4723		80.3705
33.7079	29.0161		75.7465
34.1383	27.0735		74.9621
37.8698	28.1326		75.0898
45.6561	78.0336		51.5377
51.7113	74.7413		46.6485
44.8723	73.3566		55.9992
41.8507	47.0968		72.8681
47.2367	44.0462		69.1602
41.064	24.0353		73.5877
41.2092	25.2954		73.937
38.0628	25.0628		74.2433
43.6958	22.7488		72.4687
42.4708	31.4999		74.6208
41.9802	29.1246		74.4449
46.5194	28.9219		72.7216
41.4822	26.8827		74.218
43.9789	68.4789		59.8834
50.0503	65.0037		55.3419
57.2643	71.8279		40.2844
56.5625	66.6528		45.2479
62.0974	69.128		32.625
44.445	19.8371		70.6115
46.147	18.1665		68.9261
46.0799	21.1838		70.8029
47.8934	19.331		68.9902
45.073	20.5081		70.8288
50.2175	26.6666		70.193
53.4956	23.8742		66.8187
19.1086	30.8123		78.6878
16.257	28.8165		77.9753
19.2731	28.8254		77.1173
18.6483	32.3607		79.957
17.6479	33.9078		81.2317
14.5747	31.9097		80.6312
19.5006	25.8419		75.1009
19.834	23.5704		73.581
6.73651	40.3113		83.8471
1.11565	41.3031		83.9263
62.6788	-67.252		-6.87185
64.3754	-62.1981		-4.92534
63.1994	-67.3275		-13.6291
79.7935	22.3374		-37.5168
79.4845	18.4302		-43.2193
78.7916	28.0905		-42.3558
80.1892	24.6127		-29.3338
80.8485	16.5024		-32.2389
75.8884	-8.81973		-52.7322
74.7427	-14.9094		-51.1434
73.7393	-8.89574		-58.4419
76.9795	-2.91964		-52.8079
77.7249	3.36053		-52.4781
75.8499	5.22015		-59.0622
78.403	8.93414		-50.641
79.6606	1.17709		-46.1161
69.4405	-32.5287		-44.7448
66.3135	-35.8459		-48.7039
71.3435	-26.6669		-47.272
7.96835	59.6164		78.8344
0.0792586	58.7381		79.6466
15.2432	59.7655		78.0175
21.031	60.1623		76.9453
21.6769	67.7015		73.2506
17.695	-100.112		53.4772
16.1339	-100.25		46.3279
24.0809	-98.084		48.5986
12.0856	-101.284		56.3769
43.7265	-87.6432		43.9696
38.5218	-91.1322		48.2232
47.902	-84.3696		39.4139
44.7435	-85.7146		47.7575
55.8612	61.0625		49.5838
61.0157	57.1433		42.746
21.7003	74.3681		69.6154
66.8256	66.4752		23.3112
70.7221	64.2216		13.5188
66.5581	59.9347		29.0068
23.0916	99.8816		45.3111
29.4241	97.5733		44.6992
23.3319	106.82		33.9279
16.0818	101.538		45.7897
64.3211	38.7644		43.5062
65.0963	46.0514		39.0529
48.861	17.3891		67.2378
58.312	23.5848		60.7648
59.5001	18.7849		57.3893
56.998	22.1734		62.2926
55.693	21.0241		63.471
-0.142691	-107.88		36.5343
-2.41078	-107.898		36.4257
53.7901	-76.0601		40.7158
55.016	-72.3009		43.3574
50.0335	-79.1175		46.896
52.5608	-79.1888		37.1861
6.47208	-40.1457		98.7397
8.29817	-40.6869		98.295
5.96113	-37.6995		98.025
23.7281	-48.9174		88.7475
23.0493	-44.8516		89.6394
20.9696	-46.6339		91.3745
9.58938	-36.8955		96.1931
7.13589	-35.8544		96.9817
10.2815	-39.2856		96.7791
12.4665	-37.9227		94.8962
8.95088	-34.4909		95.5962
31.8063	-53.0287		82.5397
31.1945	-56.7328		81.4463
34.0136	-53.7796		81.046
31.9654	-48.701		83.615
64.0225	14.9187		49.2049
62.2241	14.1896		52.287
64.8825	8.85905		48.6975
65.6239	15.8258		45.9025
67.2908	16.5667		42.0577
69.4573	16.4357		36.6341
52.8568	13.4844		62.7394
52.8071	11.1595		62.179
60.4196	13.5486		54.9254
81.8693	8.3518		-37.2735
81.6844	4.56551		-40.4633
80.5048	10.4655		-41.4103
82.0017	10.8847		-33.291
77.9377	-18.8438		-41.3414
75.8874	-19.3104		-44.5671
67.786	-53.9791		-15.8081
69.6895	-49.6952		-13.4149
66.8748	-56.245		-9.31674
65.6753	-59.5082		-18.4359
68.716	-50.3753		-21.9428
81.3136	-0.160995		-42.4463
74.2029	-29.4823		6.26067
73.1201	-33.7963		5.84229
75.2523	-24.9518		6.43931
73.1387	-30.4103		10.7423
73.4135	-1.94374		29.7991
73.1483	6.65799		28.4616
73.1572	-9.73352		31.135
75.205	-3.23259		21.2312
55.6449	7.02077		59.8673
53.8195	8.18895		61.3051
53.7896	5.04168		62.0952
52.1735	9.42819		62.5581
50.674	8.32264		63.9146
72.0175	-30.882		17.1438
70.943	-31.0924		24.0542
70.769	-35.8848		16.6986
73.3662	-25.4526		16.9493
25.5807	-11.9004		82.9705
29.3791	-13.5829		81.4047
24.1466	-7.34765		81.7154
22.6073	-9.75149		84.6749
35.5004	-15.2121		79.4234
42.8313	-16.2088		76.7938
36.6217	-19.9977		80.2996
19.3267	-7.2223		87.2421
16.2272	-4.21792		90.1621
19.8207	-10.6078		89.216
22.5133	-17.8417		87.9966
21.2317	-15.4292		89.4113
17.9549	-18.0195		97.547
16.4361	-16.9818		100.098
17.5453	-20.0269		96.6975
18.8038	-19.0296		95.6994
19.2861	-20.0361		93.9584
18.5082	-22.4737		93.0468
39.1515	-34.6153		80.6999
33.7556	-34.0837		82.9598
39.0845	-39.8563		80.5388
38.6775	-29.7768		80.821
37.5017	-24.7107		80.758
4.93166	-31.3486		96.8865
5.22868	-33.3791		96.9805
6.33149	-31.6394		96.2445
56.1627	-51.3527		59.3669
58.0754	-44.8083		59.7316
52.5818	-49.5396		66.1274
54.0566	-58.2449		58.8633
27.0316	-42.6106		86.735
24.6636	-41.7658		88.1125
29.3424	-43.2095		85.5493
38.6983	-45.1763		80.083
37.9531	-50.4047		79.5285
43.4148	-46.3336		76.635
34.5676	-44.366		82.6521
5.57285	-35.4035		97.3825
51.678	-65.2569		58.3168
54.0888	-67.2457		51.7083
48.551	-61.9369		65.3204
48.5943	-71.0298		59.1593
61.976	-28.0012		60.3689
60.9482	-33.3601		60.3353
65.061	-28.4157		53.5174
24.4106	-96.4757		68.2759
25.3676	-93.7899		70.6622
19.2565	-98.5377		72.1375
36.5456	-83.9095		65.5321
40.8768	-80.1886		63.0749
35.7299	-79.5646		69.6308
31.5149	-87.1748		69.0055
59.7281	-7.74494		61.9131
57.2696	-3.46917		62.7342
54.1068	-8.05106		67.5706
48.0829	7.01858		66.2133
49.342	5.2201		65.7729
55.0516	-0.485345		63.3766
49.9634	-1.39291		67.9188
52.6985	1.70083		64.4588
45.8311	10.25		67.246
0.895701	-96.4118		85.4972
-2.13939	-96.3064		85.7618
44.9688	-58.9934		70.9646
42.8196	-63.7613		70.9905
46.5855	-53.6933		71.4721
40.7969	-56.5905		75.6168
34.5119	-75.2708		73.1257
37.5915	-71.7735		72.0611
32.2892	-71.1654		76.6052
30.4687	-78.2654		75.3142
46.8637	-7.71275		71.9985
48.9912	-12.0286		72.3674
44.7047	-3.98534		71.8102
48.3867	-47.6884		71.8362
50.7198	-16.7106		72.3861
8.40103	-86.2071		87.928
8.65452	-81.8311		89.1655
12.5068	-85.4804		86.3109
16.8818	-84.4685		84.0534
21.3597	-82.8509		81.3285
16.9405	-79.9431		85.5667
43.0502	-1.42866		71.5874
41.5092	0.575619		71.618
35.3115	-0.931499		74.0995
50.9005	3.45023		65.1231
46.6192	2.45337		68.5727
40.1857	2.29223		71.6045
32.7803	2.72361		73.5693
13.3206	-1.6047		93.1624
13.8025	-4.97082		96.3545
12.9398	2.26849		89.323
14.5152	-11.1864		102.752
14.3944	-9.83591		101.487
11.9482	-9.86365		106.338
14.7112	-12.2394		103.146
12.4555	11.5915		80.3817
12.4169	9.30943		82.5884
22.5404	-3.11891		80.0577
3.38986	13.1766		90.3698
1.82461	13.5067		90.4152
64.9435	3.09844		50.5388
12.5897	6.11163		85.6517
56.5033	-67.5831		45.0941
59.3706	-65.6038		37.1217
68.9901	-16.109		46.8457
68.3258	-22.8461		46.4458
70.9763	-16.0224		39.3251
64.4002	-40.8056		45.8864
65.9943	-34.6963		45.8725
62.5287	-39.7892		52.8885
65.8316	-41.5712		38.6982
67.3224	-28.7606		46.1014
68.8667	-29.5853		38.5585
15.0336	-100.01		75.1317
8.91964	-77.9523		90.3558
5.29798	-78.4042		91.2252
12.8732	-77.1047		88.9848
16.8866	-76.0951		87.0132
26.3368	11.0038		71.6246
28.2178	0.246329		75.4131
27.29	2.396		74.7475
26.6435	4.06176		74.1531
2.09586	-78.6945		91.6526
-0.820212	-78.6864		91.8378
7.2883	26.7429		81.5533
8.74572	25.7359		80.6653
7.89266	29.1731		81.6397
5.74956	27.291		82.2189
7.19238	23.9757		81.677
18.2442	14.6153		70.5526
18.0407	15.8311		70.6723
16.4054	14.9331		72.2388
9.95254	24.3696		79.5802
10.8914	26.9137		79.5875
3.98861	27.8143		82.6439
1.97759	28.0491		82.8512
5.94491	-23.316		103.152
6.91042	-21.7772		105.06
9.36249	-12.0068		110.57
9.37232	-10.4864		110.072
12.1099	-12.4666		107.379
17.1195	-27.3166		90.1545
16.8663	-25.9854		91.3563
14.4681	-28.5322		91.3369
9.09626	-8.92111		109.333
7.69926	20.6942		81.8749
9.02161	31.8462		82.0426
10.8319	30.8447		81.165
18.4234	17.2853		70.863
12.3381	29.5063		79.9957
13.3779	27.9642		78.6717
14.1291	26.3634		77.465
19.2293	-33.8026		88.8793
16.3203	-33.8959		90.6049
20.4502	-36.9596		89.3152
21.9829	-40.9315		89.5342
18.7574	-39.859		91.467
23.3712	-56.7043		82.8023
23.1718	-55.5431		82.2932
21.5556	-56.525		84.3201
24.0132	-55.0113		86.0131
22.3442	-53.4015		88.4452
22.9753	-52.2611		81.3156
19.9556	-51.7428		83.6605
22.6482	-48.056		80.6282
13.6699	-33.735		92.2512
10.9434	-33.1337		93.8547
14.5031	-36.1297		92.7463
15.7096	-38.9524		93.1418
16.7116	-41.8169		93.5733
19.2363	-56.0943		86.105
17.9201	-54.4113		86.2198
17.1437	-51.0244		85.4937
17.1422	-46.7723		84.4603
8.42956	-32.2967		95.2564
8.09217	-30.3368		95.1092
11.3746	-42.0652		97.0658
14.6732	-43.3725		95.4391
19.5294	-12.6613		91.5916
16.8771	-10.142		95.4966
4.00073	-3.24656		107.421
1.94143	-3.02374		107.567
14.0674	-7.63639		99.3123
8.05678	-19.5057		107.376
10.2606	-19.7007		104.682
12.793	-20.1141		101.525
13.7229	-18.0478		102.629
15.2099	-20.9276		98.2584
16.5958	-22.0168		95.8716
16.9809	-23.4746		93.9671
16.9746	-24.761		92.495
14.641	-13.2427		103.58
14.4478	-14.529		103.78
14.1864	-16.1932		103.45
37.1827	-143.458		11.996
32.7105	-144.685		14.922
38.6154	-149.693		11.0906
41.2324	-142.083		8.9725
35.3201	-134.889		13.3283
33.145	-122.907		15.2453
37.164	-121.846		11.9129
31.6887	-112.339		17.1833
28.8838	-123.857		18.5126
33.9563	-97.2225		24.9588
37.7707	-95.7498		20.7616
29.8762	-98.5959		28.7194
32.5721	-100.837		21.365
31.7422	-105.367		19.0809
27.4975	-105.998		22.9689
35.6894	-104.43		15.3335
40.5836	-68.1091		71.108
43.1913	-71.78		66.3071
37.335	-64.6533		75.2714
45.2711	-75.8401		60.528
45.8167	-79.7361		55.6509
45.6238	-82.9954		51.4598
34.5113	-62.0063		78.0852
35.8447	-58.7015		78.3523
32.0534	-60.2443		79.9253
32.4932	-64.8997		78.43
30.4478	-59.2638		80.899
29.3148	-61.0419		81.0063
41.3784	-94.1396		16.6388
43.359	-90.6292		20.2442
40.264	-98.1241		13.5667
44.9978	-92.4259		11.7576
46.0626	-87.4807		24.8346
48.6267	-85.6217		18.6838
48.7901	-84.4929		29.1142
50.9831	-81.834		33.5001
53.0965	-79.9354		26.4635
41.0017	-120.595		8.46096
43.0602	-132.259		6.94987
44.7487	-119.656		4.76614
39.6864	-110.433		9.91481
44.9043	-140.751		5.7971
46.6087	-147.073		4.77342
48.3702	-139.423		2.29667
39.571	-103.246		11.5109
69.9511	-30.5451		31.2701
68.5334	-36.2391		31.1482
71.3721	-24.2565		31.3596
54.751	-78.295		19.7005
52.8218	-81.0469		16.1303
56.2185	-76.6031		12.5682
72.4764	15.6918		27.941
75.4975	13.5241		17.2823
61.4346	-63.7012		28.998
62.9228	-61.8326		20.7043
67.0692	-41.9635		31.1713
68.2433	-41.7953		23.6044
72.4849	-16.9263		31.7863
73.6718	-18.402		23.8608
69.4732	-40.8889		16.36
70.8079	-39.4431		9.72235
53.8996	-89.6806		-3.65302
53.6169	-94.4124		-5.17084
56.142	-89.2641		-8.47511
54.382	-85.5349		-1.82122
51.2943	-90.2377		1.23236
53.545	-99.7853		-6.13999
55.2347	-81.7585		0.730157
53.1297	-82.768		6.33898
57.1679	-80.94		-5.02345
56.2953	-78.3182		3.13854
76.6567	-4.24317		12.7608
77.2206	3.85599		9.94261
75.7269	-12.4116		15.3819
77.6944	12.3511		6.74026
78.0335	20.3512		3.97343
78.3646	28.4736		0.585943
79.6817	27.5751		-10.0639
78.6589	36.5213		-3.25991
64.1767	-59.8392		12.3035
65.2439	-58.2914		4.09939
74.6294	-19.2897		16.7068
75.4756	-20.0309		10.5051
48.4724	-118.614		0.649948
50.1472	-129.841		-0.60027
51.0289	-84.1564		12.5694
49.3921	-87.4325		9.16748
51.6731	-137.973		-1.69435
53.1951	-143.942		-2.93227
58.3076	-114.9		-16.5535
59.2053	-124.26		-18.1356
58.0326	-88.7147		-13.3009
59.4213	-86.9454		-18.4419
58.471	-84.2486		-12.1376
59.1479	-79.8577		-10.6519
59.9894	-131.261		-19.8009
60.6526	-136.739		-21.8815
66.0319	-57.574		-3.30156
72.0054	-37.9777		5.1645
73.3033	-36.1001		1.8287
71.0427	-41.7871		3.79735
76.2112	-20.1446		6.37438
59.1333	-94.3359		-26.8722
58.1979	-90.0038		-33.7501
59.557	-88.1449		-25.5473
60.3706	-82.3299		-24.3949
60.2715	-75.8235		-30.5132
63.7634	-65.7191		-20.3982
70.9966	-47.1298		-12.1428
72.6851	-44.3014		-18.9293
56.228	-120.294		-45.6877
56.5802	-127.932		-47.2062
53.2014	-117.518		-52.7623
55.9564	-112.129		-44.0376
70.0727	-45.2031		-26.8802
72.5469	-41.539		-25.1801
74.2718	-39.8365		-24.4953
28.0703	-145.714		17.625
26.4089	-137.075		19.2584
23.4071	-146.681		20.022
29.5196	-151.863		16.3891
22.647	-106.512		27.0443
17.5529	-106.948		30.6548
22.6165	-113.519		24.5183
23.6216	-102.848		29.2535
29.7755	-96.1392		44.1203
27.4341	-97.4789		38.3541
31.6939	-95.0945		48.8802
25.1414	-99.8836		32.8026
19.8888	-100.863		36.7423
24.2354	-124.472		21.8595
19.5379	-125.59		24.8597
30.3749	-67.7716		79.035
28.8125	-64.7935		80.727
33.1593	-94.1077		52.663
27.7801	-62.9105		81.6133
25.6404	-64.7726		83.0139
26.889	-61.4205		82.2303
26.1285	-60.1309		82.6456
24.3877	-61.5267		84.09
26.1208	-80.9893		78.0233
26.4041	-85.4757		75.6996
26.2444	-90.0609		73.0044
20.1726	-58.2599		87.5958
17.3769	-58.4937		90.4537
19.9165	-57.5723		86.3752
22.7823	-57.796		84.0579
19.971	-57.8054		85.9197
16.765	-57.1746		88.7859
19.937	-58.3109		85.5107
19.859	-59.8168		84.7666
16.7523	-57.8804		87.7101
19.4852	-63.1231		83.8871
18.8559	-67.1451		83.3804
16.3264	-62.7155		85.9271
12.5234	-107.277		33.4184
13.1662	-104.072		35.8691
13.0354	-114.764		30.7084
18.6865	-147.724		22.1396
17.1425	-139.214		24.166
14.0311	-148.52		23.9191
20.0242	-153.558		20.7166
14.9818	-126.612		27.4611
5.56618	-101.979		43.1107
9.18623	-101.977		41.8775
6.75938	-101.547		50.4542
9.94955	-149.087		25.1791
11.1253	-154.685		23.7426
7.81123	-102.005		58.2606
13.4208	-56.5695		91.1242
13.3649	-56.7876		90.4617
13.3148	-57.3331		89.8116
13.4941	-58.8625		88.7077
13.2174	-62.2673		87.6172
12.9373	-66.5834		86.8856
74.0517	47.0962		14.0444
76.9089	45.4738		3.18774
74.2703	54.7992		8.73777
70.367	49.5733		24.5265
80.1088	26.3974		-19.9759
73.0241	-20.91		-49.6697
70.3017	-22.7246		-54.6437
50.1477	-96.1499		-55.2418
50.7184	-86.0218		-53.96
52.8789	-99.3083		-49.6855
50.1114	-106.318		-56.5794
47.2328	-93.8146		-60.2299
50.3792	-115.223		-58.0487
50.9176	-123.698		-59.3624
47.343	-113.49		-62.7991
56.4127	-84.3014		-41.1
55.7831	-93.7808		-41.8428
54.1181	-79.7253		-47.5364
57.6809	-75.9434		-39.5212
23.2541	113.055		20.4051
30.1333	110.193		20.2237
23.2717	117.608		5.37268
16.0362	115.069		20.6069
23.246	102.086		-79.7783
23.8489	110.826		-63.8811
30.3499	100.024		-77.8538
22.5013	91.1751		-92.9542
15.7815	103.539		-81.2326
22.0531	79.2145		-102.495
28.9204	77.5289		-100.469
21.766	65.9821		-109.689
15.0633	80.0165		-104.127
23.911	116.741		-46.7752
31.1016	114.204		-45.1258
16.3934	118.596		-47.8677
23.7744	119.779		-28.9301
8.38765	123.378		-12.0898
0.387753	123.826		-12.2605
8.23754	121.043		5.06071
16.1055	122.105		-11.7588
8.5022	123.001		-30.1969
21.4705	52.9465		-114.608
27.9193	51.5576		-112.533
21.0999	39.4212		-117.887
14.9292	53.7373		-116.091
20.5334	25.2943		-119.692
26.8822	24.2998		-117.474
19.9681	11.3559		-119.858
14.1978	26.2611		-121.223
17.6161	-27.3923		-108.842
23.3923	-28.183		-106.634
17.1562	-39.2016		-101.439
12.0575	-27.2597		-110.033
18.5629	-14.7214		-114.735
6.87737	-0.675507		-121.051
0.461438	-0.577866		-121.396
7.15372	12.5405		-122.485
13.14	-1.12691		-120.016
6.50692	-13.5824		-117.466
14.8559	-86.2188		-84.0662
15.2306	-76.6781		-84.9487
19.9928	-87.0193		-82.6798
14.604	-95.6827		-83.7921
9.90802	-85.7559		-84.87
4.82331	-104.213		-84.6066
9.66369	-104.68		-84.2766
4.89332	-113.88		-84.4702
0.160149	-103.978		-84.729
4.96767	-94.5331		-84.8605
17.1863	-48.5126		-95.3258
22.3879	-49.1235		-93.7231
16.7127	-56.8213		-90.7588
11.5478	-48.0218		-96.3668
15.8507	-66.3367		-87.1748
21.3237	-67.487		-85.3914
10.6901	-65.5076		-88.2028
5.49666	-65.1961		-88.6809
5.77251	-55.8574		-92.2917
5.19124	-75.7264		-86.3408
0.277794	-65.3622		-88.753
48.6632	97.8596		17.3566
54.414	92.2526		16.1057
49.5123	101.501		3.89122
42.7781	102.572		18.6989
47.8754	70.3467		-90.3452
53.2962	67.1725		-86.0668
47.5308	58.3369		-97.1324
42.0617	73.0501		-94.2049
48.2389	81.2489		-81.1747
48.5376	90.7578		-69.1624
42.8858	94.4212		-72.4385
49.1233	97.8043		-55.0375
54.0281	86.2905		-65.5495
49.7587	102.09		-40.3259
55.4812	96.3579		-38.5477
43.9617	106.832		-41.946
50.4772	103.618		-25.5242
50.1555	103.573		-10.656
44.0807	108.713		-10.5359
55.9503	97.6582		-10.7419
46.8914	46.1637		-102.044
46.1923	33.5184		-105.294
41.0388	48.112		-106.011
52.2687	43.8908		-97.6936
45.1839	20.7096		-107.116
50.4501	19.2174		-102.726
44.1313	7.73425		-107.215
39.5836	21.8804		-110.983
42.7177	-4.82933		-105.742
41.2243	-17.7754		-102.178
37.5418	-4.45043		-109.434
47.44	-5.62762		-101.495
40.1501	-30.4443		-96.2463
44.7513	-30.2369		-92.3477
39.2901	-41.4642		-89.7909
34.9562	-29.7748		-100.239
38.4325	-51.0193		-84.0663
37.4945	-60.5374		-79.1535
33.4015	-50.7556		-87.8557
42.84	-51.2944		-79.7095
35.0903	-88.9945		-74.4773
34.2044	-98.927		-75.5137
30.2377	-88.5075		-77.9417
36.0447	-79.4166		-74.2673
39.4605	-90.028		-70.4038
24.2613	-106.314		-81.2232
24.4514	-115.162		-81.4882
19.3184	-105.581		-82.6985
24.5522	-97.2449		-80.9244
29.2536	-107.266		-79.0814
36.7139	-70.0919		-75.7911
41.1548	-70.5216		-71.1661
32.0143	-69.3826		-79.6172
67.8533	69.6777		-52.0772
68.9302	73.5867		-40.6034
71.7566	62.8088		-46.2165
67.0604	63.5384		-62.54
63.6238	75.7234		-57.334
69.6933	75.7931		-29.2452
73.4109	67.8686		-24.0667
65.4505	83.2109		-33.3841
70.0843	76.7257		-18.0423
69.2679	77.4764		-7.25329
72.0694	69.9528		-2.47706
65.5936	84.5181		-9.55827
56.9839	41.5874		-93.119
57.6758	52.8451		-88.1757
61.2436	38.8722		-88.2401
56.2246	29.6829		-96.3437
58.0227	63.847		-81.553
58.4248	73.4038		-72.8672
62.4391	59.8826		-76.5894
52.0743	-6.39457		-96.4551
53.9866	5.64527		-97.8434
56.4921	-7.30236		-90.82
50.1484	-18.5014		-93.2874
55.2118	17.526		-97.9475
59.5965	16.0888		-92.7845
48.8316	-29.8229		-88.131
52.7827	-29.8665		-82.9131
47.9596	-40.9903		-81.2759
46.7499	-50.72		-75.3519
50.2676	-49.1777		-71.2259
45.5457	-71.2675		-65.3862
49.1785	-73.8699		-58.7543
44.5062	-81.2781		-64.6573
77.3266	34.1912		-47.5037
76.4802	28.244		-54.9869
75.4574	39.7143		-53.2448
59.564	86.0565		15.4684
60.3541	89.6781		2.55876
78.3933	44.3284		-7.62647
77.7384	52.1545		-12.783
66.5927	-8.27351		-74.6962
63.603	-8.30498		-79.9407
68.2497	1.22728		-76.1916
69.3394	-8.68521		-69.0256
64.5145	-18.1961		-71.792
69.22	10.818		-76.8905
66.3943	12.6561		-82.438
70.1779	19.9179		-75.4277
71.8813	8.65192		-70.7207
71.0874	29.1385		-72.0698
68.1928	32.6787		-77.8093
72.0694	37.5603		-66.5778
73.6281	25.2151		-66.0512
58.1733	-43.4798		-60.1773
55.6181	-45.6792		-63.8137
60.1319	-35.7599		-64.1677
60.7275	-41.3547		-56.2929
56.4332	-51.3241		-56.3543
67.6656	-24.3184		-59.3881
65.5069	-31.7124		-56.0062
65.1054	-25.8914		-63.6197
69.7979	-16.7814		-61.8485
51.9439	-76.5795		-53.0092
53.3765	-67.5704		-52.9222
73.4718	-40.0812		-3.7989
74.292	-36.4707		-1.78265
71.5147	-43.2187		-1.44992
74.3715	-34.7259		-0.325516
79.9162	-8.44911		-2.42867
80.8831	-3.03511		-4.6761
92.5851	2.90536		-38.4183
92.8509	8.78745		-36.0183
93.1985	2.49335		-37.6999
80.7322	-37.4783		-24.3572
79.2284	-40.4249		-20.8673
92.5324	13.5367		-32.482
91.5769	13.8588		-32.9849
91.911	16.6942		-28.3448
93.402	12.8537		-31.9103
86.0455	8.32462		-11.6072
84.693	8.33051		-12.2888
91.1862	17.9978		-24.0674
92.0991	17.2702		-23.3066
86.8475	-20.4362		-34.9268
81.8655	-38.3929		-16.7632
81.1061	-38.3339		-14.04
80.0249	-40.5338		-17.2356
81.3709	-0.361102		-6.46339
87.7909	16.2064		-19.5678
85.8114	13.056		-16.8616
86.681	15.3275		-21.1356
83.3509	8.62537		-13.7343
82.4574	9.08057		-15.3367
90.9187	13.7009		-33.2099
81.6824	8.83262		-16.7791
82.9742	10.8643		-19.4636
84.5716	12.8276		-23.0799
82.3444	10.6513		-24.1246
85.5935	-29.1501		-27.5517
85.3481	-30.9317		-19.7842
78.3645	-41.777		-17.6943
80.3098	-37.5229		-11.7277
81.6941	-34.5599		-11.7538
82.8455	-32.1148		-12.6762
83.4616	-30.4954		-13.6486
93.3762	2.17522		-37.28
93.9267	7.8579		-34.9676
90.6243	14.4971		-15.8063
90.778	13.8457		-15.5014
91.8348	16.2074		-18.9016
90.732	13.2223		-15.3469
92.0092	15.009		-18.3884
90.5279	12.1184		-15.514
93.7677	12.2959		-31.5422
93.2666	15.2079		-27.3996
93.8712	11.7761		-31.3957
92.6448	16.5493		-22.8094
92.8553	15.9408		-22.6741
92.8512	15.3341		-22.4009
93.3891	14.1301		-27.018
93.8183	11.3865		-31.0735
92.6792	-2.27657		-36.192
90.2194	10.7833		-16.0536
87.4345	3.35166		-13.5062
92.1357	10.5878		-24.5495
91.9974	-5.50756		-30.9876
92.1069	-3.59469		-30.6923
92.0819	-1.69963		-30.1109
91.91	-0.188734		-29.2064
91.58	1.03704		-27.9541
90.6699	1.86652		-25.3961
81.531	-26.9306		-11.4024
82.703	-28.5375		-13.0743
85.2737	-3.47049		-10.4058
80.8202	-18.725		-9.55176
83.6186	-29.7544		-14.165
34.5324	25.6271		74.4246
35.2057	95.0418		43.3804
36.0538	101.15		32.516
8.01324	102.732		45.9059
8.12848	110.037		34.2554
-0.482053	103.167		45.8191
36.5264	106.804		19.5142
37.0177	110.978		5.12262
8.16277	116.352		20.6614
-0.0227327	116.848		20.4888
23.4132	120.024		-11.3232
30.6277	117.053		-10.8962
37.419	113.336		-10.7331
37.7846	113.331		-26.9929
66.0265	53.0225		34.0212
73.6028	62.2857		2.9959
75.5132	60.9943		-7.65889
60.9632	91.5019		-10.7264
61.3148	91.316		-23.5788
8.56472	119.75		-48.4482
8.53468	113.563		-65.9351
0.617208	120.16		-48.6312
37.5824	111.043		-43.3193
37.3325	105.69		-59.9347
75.9492	59.9491		-18.4225
75.7233	58.5044		-29.309
60.5221	90.2763		-36.4392
59.7121	87.0311		-49.1232
74.8064	55.8785		-40.1199
73.8802	51.5502		-50.3781
72.9388	45.5014		-59.216
69.9554	50.6534		-65.2783
43.6775	-91.9647		-65.448
43.1218	-102.028		-66.8734
43.3132	-111.428		-67.9585
43.6405	-120.074		-69.1909
38.6352	-109.513		-72.6524
8.26936	104.515		-81.9127
8.02451	92.9978		-95.3833
0.734393	104.738		-82.3178
8.00089	80.4745		-105.065
8.03365	67.2817		-112.086
0.754193	80.6196		-105.39
8.00705	54.2017		-116.988
7.81754	40.958		-120.266
0.692079	54.419		-117.278
7.47275	26.933		-122.163
0.594376	26.988		-122.501
19.3342	-1.83248		-118.301
25.5059	-2.80556		-115.914
6.09043	-27.0297		-110.85
5.98238	-39.2994		-102.674
0.323485	-27.124		-111.007
5.91106	-48.1108		-96.6552
0.282899	-48.3044		-96.6286
5.08747	-85.2447		-85.303
0.240764	-85.0057		-85.4541
35.5847	75.4869		-97.6979
36.1126	87.1864		-88.1952
35.1469	62.7898		-104.677
36.692	97.4659		-75.5661
34.553	49.9957		-109.601
34.0099	36.7932		-112.806
33.3116	23.2404		-114.529
32.6203	9.46462		-114.563
31.6943	-3.67191		-112.897
30.5234	-16.5047		-109.351
29.2534	-28.9691		-103.779
28.2667	-40.3577		-97.1754
27.944	-49.959		-91.2053
27.6044	-59.0217		-86.3102
26.7492	-68.4281		-82.9301
25.9697	-78.2411		-81.0601
25.2794	-87.7022		-80.6221
34.1258	-108.215		-76.2179
34.4535	-117.064		-76.8659
58.8847	81.509		-61.6619
66.394	55.8115		-70.9673
65.7465	46.0971		-78.0105
64.8844	36.1469		-83.2145
64.0663	25.3812		-86.4598
63.1787	14.5508		-87.7715
62.0862	3.32875		-87.1448
60.2053	-8.04599		-85.3525
58.1172	-18.9641		-82.3183
56.1639	-29.0617		-78.2082
59.3242	-28.5304		-73.0333
54.5276	-38.9536		-72.7236
53.0359	-47.4494		-67.6112
55.0032	-59.4777		-53.4704
57.0079	-58.0341		-49.9826
75.5506	21.9194		-60.4842
74.787	14.4805		-63.6204
77.3198	18.0215		-54.3615
71.573	-8.82241		-63.9591
73.0159	-0.860631		-64.9144
62.235	-27.3262		-68.3483
73.9617	7.11319		-65.13
63.3385	-39.0214		-52.5295
61.4245	-46.2851		-49.2346
14.3615	-101.625		40.026
57.8201	-74.9684		5.57556
48.311	-91.1504		6.63445
13.594	-47.9708		96.2444
16.8276	-49.1023		94.176
19.9357	-50.9721		91.3862
7.81638	-60.8595		97.7049
8.12736	-62.0407		97.8514
8.38816	-63.2003		97.8458
22.884	-66.9638		85.301
22.3866	-65.1798		86.1688
21.9078	-63.6366		86.9079
17.9518	-44.9072		93.3304
37.0848	-54.8302		78.8468
29.7841	-33.5698		84.2775
30.9197	-38.6152		84.4619
31.6226	-43.6463		84.2659
59.8276	-38.7441		59.8121
20.0651	21.9139		72.5557
78.9012	14.1923		-47.8419
81.4961	12.5968		-28.4585
82.1003	10.5703		-26.0337
69.7684	-46.2822		2.15959
26.2838	9.73023		72.1597
52.6514	40.0036		65.0748
8.14275	-28.7912		95.2021
47.4479	16.4303		67.215
11.884	-27.8887		93.3065
81.9757	10.3573		-24.951
55.7016	-103.171		-42.9519
59.9461	-67.7291		-37.4505
59.3583	-60.9627		-42.7078
59.5788	-54.9681		-46.4718
23.3264	-25.9372		85.8673
14.2468	-58.4994		93.0817
24.3715	-57.8971		82.8423
6.86088	-53.7664		94.5084
-66.2806	-49.9032		15.4992
-67.3086	-45.0777		16.8161
-67.6407	-47.9203		8.1016
-65.1834	-54.4796		14.0609
-64.9447	-51.5812		23.8963
-53.8301	-116.935		-10.3972
-52.8366	-106.882		-9.7309
-56.0058	-115.775		-14.6041
-55.3544	-127.139		-11.4353
-51.1023	-117.828		-6.34958
-56.7165	-134.563		-12.5077
-54.3694	-136.304		-8.05726
-58.4442	-132.824		-17.0084
-57.8612	-140.325		-13.5444
-45.9049	-101.175		-0.171433
-49.5607	-100.381		-4.69133
-46.4026	-108.47		-1.42715
-42.168	-102.216		3.93593
-46.2857	-95.737		1.31538
-56.594	-98.6345		-17.04
-54.8439	-99.1818		-12.9056
-56.7234	-93.3234		-16.3122
-57.7585	-97.3117		-21.9356
-56.7736	-105.479		-17.8578
-59.0748	-70.013		24.5177
-59.9536	-68.7018		16.9837
-57.019	-74.1161		21.4288
-57.8711	-71.275		31.4993
-60.6531	-65.9308		27.0348
-71.1603	31.0599		23.9054
-74.6225	29.5378		12.3117
-70.4903	23.2382		27.334
-67.2594	34.055		34.4847
-72.246	39.2628		19.0895
-77.6937	41.9449		-29.3079
-78.6947	34.386		-24.3192
