1852
32.6043	35.4847		79.887
32.2904	32.4711		77.2676
48.5257	26.0328		68.4085
46.276	25.1483		69.0475
50.5496	27.2876		67.8946
44.9252	27.9844		71.1819
36.0028	9.05607		69.8991
41.7797	9.36084		67.2723
29.0216	9.44524		71.4986
36.6899	7.33497		69.5843
23.3874	10.8774		71.6715
19.7012	12.5015		71.5142
23.4214	9.37755		71.9056
16.1938	16.0989		71.0611
15.6654	17.1868		70.8358
17.0639	15.0221		71.1559
35.0096	12.2411		70.3477
40.1549	12.7278		68.3447
29.0175	12.3944		71.434
18.6801	15.6908		70.2517
20.4047	14.7091		70.629
17.8147	16.3227		70.0147
17.156	16.8719		69.9162
16.555	17.5901		69.8897
13.791	25.0812		75.1912
13.3278	26.9936		77.6377
14.1966	23.0919		72.7361
15.4277	26.6391		75.4255
15.2296	18.7617		70.785
25.5476	26.9784		72.7185
14.6702	22.233		71.7607
14.2081	20.875		71.6897
15.7049	23.7168		72.0903
34.8735	13.5929		70.4724
28.9756	13.6731		71.3859
18.6426	16.5057		69.7289
17.8474	16.8548		69.6292
20.4156	15.8286		70.159
17.2491	17.3559		69.5399
44.8652	19.8615		65.6508
3.1431	33.7993		86.9329
-0.396	34.0789		86.9984
2.28667	31.7636		86.5985
6.19332	32.9352		86.3038
4.19436	36.3835		87.5091
17.4476	7.9782		74.222
17.1698	9.94547		73.4409
15.7157	9.46337		74.9955
18.4255	4.91633		75.1674
20.3326	6.15559		73.4511
14.0742	11.0056		76.1896
12.3431	12.8546		78.0043
14.1941	16.1291		73.0313
12.7886	17.1105		74.6766
14.2908	17.7752		72.105
10.1823	24.6398		79.5048
11.3186	26.4524		79.241
9.59035	25.6743		80.8343
17.9719	13.829		71.3628
17.4869	12.8146		72.0242
17.221	11.5045		72.6671
19.4268	9.88872		72.4096
21.0583	-51.3717		80.5368
20.9928	-51.3064		80.2567
24.512	-51.9629		77.3818
17.3368	-50.3805		84.0099
26.2979	-52.2424		76.0777
26.0104	-52.1247		76.068
2.37411	-45.5993		96.6141
5.48074	-45.1511		96.0971
2.33	-44.3712		96.7567
-1.13884	-45.9766		96.7918
2.2778	-46.6572		96.307
8.14928	-47.175		94.3316
8.18308	-46.2656		94.9115
5.35724	-47.2603		95.1851
7.88611	-47.9385		93.6312
10.8795	-47.1416		93.127
13.815	-47.1725		91.37
13.9044	-46.2263		92.039
13.7716	-48.1358		90.3361
17.1811	-47.8407		88.6547
8.11039	-45.1306		95.3654
10.8783	-45.1493		94.2301
8.04841	-43.8721		95.6369
12.7895	-43.3862		93.4799
13.5929	-44.2741		92.9781
12.3344	-42.3609		93.6526
9.86527	-43.1617		94.9892
20.8129	-49.4342		84.4097
20.6697	-48.2677		85.9592
7.25204	-48.6273		92.7286
4.2904	-48.559		93.8156
6.77044	-48.9908		91.8587
10.5275	-48.6819		91.2352
14.0281	-49.0869		88.7518
13.9479	-49.5627		87.6575
27.0993	-51.122		77.7282
21.22	-52.3211		81.1628
21.1864	-52.2718		80.8943
17.4105	-51.5029		85.018
21.2378	-52.4857		81.5074
21.7109	-53.6391		82.0272
21.5076	-53.2101		81.981
18.1252	-53.2392		86.2109
14.9044	-53.3251		89.1246
14.6887	-52.6009		88.9198
11.5285	-53.293		91.3914
15.3366	-54.0781		89.0541
6.89821	-51.4531		92.8345
7.22241	-52.3477		93.1531
10.7492	-51.5905		91.0368
6.69186	-50.6668		92.385
3.43662	-51.2593		93.8367
0.906609	-53.0465		94.9001
1.01781	-54.0489		95.0287
3.84951	-53.0684		94.4053
0.808661	-52.0945		94.6319
-1.59547	-53.041		94.9944
26.5972	-53.6881		75.4441
26.4214	-53.1072		75.9877
26.5765	-55.0178		75.0159
24.64	-53.5282		77.042
0.814586	-50.9451		89.7837
0.790534	-50.2181		91.1573
3.28346	-51.0891		89.3889
0.793912	-52.1945		88.5667
-1.3823	-50.9083		89.8583
1.13996	-55.2121		95.0282
-1.56603	-55.2339		95.1388
1.26457	-56.3506		94.8851
4.33	-55.268		94.4838
1.54154	-60.8657		93.336
4.92299	-60.6835		92.8943
1.45236	-58.9408		94.0956
-1.3355	-60.9221		93.437
7.7204	-42.9497		95.7429
6.94551	-41.6171		95.8145
5.25753	-42.8271		96.3292
0.747529	-51.1378		94.1997
-1.55059	-51.2388		94.3135
0.73346	-50.4024		93.7138
0.726805	-50.1388		93.4099
3.28189	-50.1785		93.0326
0.812232	-49.9973		93.0175
-1.45262	-50.1903		93.4196
6.59984	-50.3456		92.0494
10.2927	-50.5827		90.3815
6.5667	-50.2053		91.6976
0.87307	-49.9747		92.2726
3.29821	-50.034		91.8967
-1.41604	-49.9846		92.2587
13.9367	-50.9071		87.9117
13.8826	-50.7958		87.5452
14.1328	-51.2188		88.2286
16.0382	-56.8914		88.7218
16.2894	-58.0471		88.3634
15.8203	-55.896		88.9296
12.7076	-57.2823		90.9079
8.64674	-57.3809		92.8625
8.85303	-58.6654		92.41
8.45617	-56.3249		93.1301
4.74052	-57.5611		94.029
1.33665	-57.5473		94.5906
-1.49791	-57.6119		94.7006
13.8091	-49.7069		86.8919
10.1688	-49.267		89.2661
13.6856	-49.6255		86.2628
29.2789	-52.5869		75.9075
28.2068	-52.8454		75.9388
26.3681	-52.8487		76.6214
24.6131	-52.9727		78.2448
6.48043	-51.2975		88.5522
6.39987	-50.5189		89.8463
10.1157	-51.4808		87.1795
6.66467	-52.5057		87.4479
6.45298	-50.2117		90.9675
10.0976	-50.4653		89.3285
8.94002	-60.4407		91.8096
13.0938	-60.1324		89.9925
15.5591	-54.9554		89.0588
12.1994	-55.2099		91.3349
16.5028	-59.6437		87.9154
19.5698	-58.8079		85.3944
13.414	-49.3083		85.877
10.1299	-48.7759		87.5551
12.9351	-48.2671		85.1976
16.6415	-49.9204		83.5579
6.73343	-48.5457		88.8576
3.98064	-48.3419		89.3653
7.36178	-47.5272		87.4456
6.5077	-48.9598		89.8993
12.4344	-45.8519		84.0809
9.88483	-45.5196		85.1879
12.3596	-42.5219		82.88
15.0982	-46.2598		82.5785
26.2217	-58.0392		74.9708
25.2331	-61.4507		75.7621
24.133	-57.8577		76.7049
0.726164	-54.6688		87.4022
3.22272	-54.7572		87.1438
1.11507	-58.6321		86.7381
-1.33402	-54.6741		87.423
7.40018	-45.2926		85.9681
4.79562	-45.0928		86.4833
7.2064	-41.9674		84.6865
6.49351	-54.9573		86.4004
6.57611	-58.9744		85.5632
10.0927	-55.2754		85.1341
30.0913	-53.0592		70.3523
30.1967	-53.0677		70.1305
11.0582	18.5415		77.2661
10.5905	16.9084		79.0121
82.4221	-7.52944		-42.8962
81.77	-11.8661		-42.0891
80.5401	-6.99824		-46.2471
82.9856	-2.98355		-42.949
83.9404	-7.99198		-41.1715
81.8661	11.1549		-6.06789
82.2131	13.9617		-10.2795
80.8196	13.2358		-1.24074
82.2702	16.0067		-15.4604
81.8987	21.3773		-16.7649
82.7848	11.1017		-16.4951
82.8594	15.5517		-22.4435
76.9293	-31.3396		-33.2895
79.3373	-29.0675		-31.7008
76.0277	-35.4173		-30.6408
78.0149	-27.534		-35.1759
78.9298	-23.9637		-37.2995
76.3333	-25.993		-40.1167
79.9768	-20.0802		-39.1779
81.1898	-22.7571		-35.46
85.4341	-7.93935		-40.2796
86.9685	-7.44889		-39.9242
84.9106	-12.0366		-39.3136
85.7415	-2.98885		-40.5304
87.7104	-25.8342		-30.1162
88.7481	-21.8961		-32.2518
88.4354	-26.2611		-28.8911
86.6087	-29.7146		-27.5429
92.0511	-16.2147		-30.3793
92.035	-15.6396		-29.6165
81.6222	-37.9318		-19.2123
82.1138	-38.1481		-18.4978
81.209	-38.5484		-17.1698
80.7099	-37.1191		-21.2872
82.4477	-30.4516		-6.94416
82.1347	-31.0581		-6.88594
81.7224	-32.0423		-7.07189
91.9743	-15.2598		-29.2142
91.4779	-15.8249		-28.2556
94.6411	-0.92113		-33.2413
94.7006	-0.289843		-34.7664
94.5412	-2.21274		-31.5731
94.7851	9.21726		-30.9193
95.0415	10.5561		-31.0454
95.144	12.6392		-30.0432
94.5705	12.4673		-27.8301
95.3213	13.0912		-30.4454
94.7702	14.7161		-26.9862
85.2222	-8.00598		-7.70782
86.3994	-2.65744		-8.34853
84.692	-7.25393		-6.39488
84.3565	-11.964		-7.08288
80.3452	-23.5798		-0.552081
79.4419	-23.9497		2.15941
79.8759	-27.2623		-0.979719
80.7944	-19.3488		-0.113789
84.0733	-18.9709		-9.53572
84.4386	-20.9728		-10.0165
84.024	-17.0539		-9.68842
82.7896	10.5919		-16.5185
83.1524	11.8238		-19.987
82.8251	10.589		-16.3017
90.8961	17.9904		-17.1009
91.8624	19.6299		-20.2228
90.0326	18.3836		-18.2685
89.4933	14.9617		-14.1407
91.6913	17.299		-16.1112
91.3815	20.2343		-25.2567
90.5907	20.03		-22.2537
91.6877	20.3793		-24.7603
91.8934	18.9392		-28.9105
90.5844	19.1969		-26.6105
92.3845	4.83814		-39.3581
91.5932	4.38365		-39.5302
92.6549	10.8005		-36.5845
93.4513	5.08254		-38.8259
87.2617	1.86283		-8.9796
87.5711	0.629307		-9.62819
95.2338	4.28974		-36.2949
95.6354	9.39899		-34.1235
94.9481	1.51531		-36.4435
95.2847	4.181		-36.6587
94.2274	15.6371		-23.0387
93.284	15.1303		-19.056
94.0287	14.2839		-23.7549
94.3124	16.6154		-22.4385
88.7203	2.60398		-11.7674
88.1933	0.873109		-11.175
89.2452	4.88461		-12.5061
94.7731	5.01393		-33.5985
94.8889	2.96104		-35.4256
92.0721	7.77077		-22.081
91.6019	6.43981		-21.2907
93.4102	7.23575		-26.2219
86.9287	-4.04911		-12.9117
87.0769	-3.78641		-13.6177
87.4193	-2.45634		-11.8391
91.6588	-3.43678		-26.8483
93.6336	-0.879814		-28.796
91.3916	-2.98245		-26.2311
91.5573	-4.52005		-26.9907
81.2277	-15.4809		-0.178603
81.8592	-11.0273		-1.04455
80.4193	-15.6509		2.34085
85.9172	2.22626		-39.1326
84.7621	1.64159		-40.264
85.7404	6.87024		-37.0628
86.8836	4.7041		-38.2276
89.1942	9.64319		-35.6126
88.9109	13.4228		-32.4434
91.4892	14.2601		-33.7593
89.3658	5.5645		-38.4637
90.5502	3.43696		-39.4866
89.452	-2.04084		-40.2064
89.1022	-6.98889		-39.7648
82.9602	-22.126		-34.6071
82.0422	-25.1712		-32.741
83.7378	-18.9716		-36.3395
84.3599	-15.6551		-37.9741
82.6747	-15.8889		-39.0006
90.9111	-15.7338		-27.241
81.1052	-28.0163		-30.9845
80.0833	-31.545		-28.591
82.3396	-27.7276		-30.5317
80.3008	-35.2108		-23.9297
79.8502	-35.224		-24.2842
79.7222	-38.4569		-19.2781
80.9902	-38.154		-14.3641
80.4846	-38.4045		-14.1879
79.9432	-38.5912		-13.885
91.7782	-5.26773		-27.4577
93.6948	-3.96256		-29.6618
84.0784	-6.6352		-5.30105
83.3351	-6.20888		-4.07462
82.0796	-19.8693		-3.62215
82.4032	-20.0515		-4.283
85.0425	-24.4152		-9.70897
86.0164	-26.4295		-11.2577
85.2097	-23.3699		-10.5525
83.8225	-14.8921		-6.55604
84.2503	-15.091		-8.73495
88.58	15.2594		-29.2633
86.261	11.601		-32.0345
87.6106	15.9167		-25.932
85.3585	10.0561		-33.8011
84.9178	9.75282		-34.8942
84.6952	12.2277		-29.5776
83.8602	-15.1376		-11.5637
84.1066	-15.0869		-10.6823
94.0299	6.24272		-28.5661
93.8704	4.75351		-28.2086
87.4888	-3.11666		-15.0599
86.886	-5.39226		-16.0821
88.4615	-1.95043		-17.7252
91.3468	-2.14655		-25.7403
93.0442	1.38089		-26.984
90.7779	-2.06699		-24.3624
8.26365	87.6718		65.818
8.28501	80.5366		71.4971
16.0948	86.7482		65.3215
8.43762	94.9007		58.4905
0.194174	87.9565		66.0779
8.09707	73.457		76.1362
0.490676	73.4176		76.6046
7.95517	65.8461		80.2995
15.5642	73.1291		75.2719
31.0118	58.4969		78.5173
31.2734	53.3441		81.3588
26.677	58.8936		80.279
1.55124	-26.5232		105.058
1.98127	-25.502		107.202
0.009349	-26.5712		105.484
3.51011	-26.276		103.468
2.93863	-16.9083		112.566
5.28311	-16.6387		111.314
2.84207	-14.5472		111.863
0.632499	-16.9618		112.966
2.99275	-18.8838		112.651
2.93966	-20.68		112.203
0.760068	-20.8618		112.634
2.76873	-22.3361		111.215
1.59794	-29.9082		98.0347
-0.321743	-30.1013		98.2589
1.81467	-36.479		95.9273
4.02417	-35.8101		95.6398
-0.76837	-36.6846		96.0103
2.48379	-23.9655		109.509
4.53302	-23.7048		107.916
0.474622	-24.0467		110.041
2.62344	-11.9834		110.625
4.93518	-12.1412		109.584
2.37286	-8.89505		108.631
0.334467	-11.8573		110.915
7.11403	47.7604		87.6434
0.187185	48.24		88.409
6.525	44.5116		88.1965
13.5018	47.5604		86.8504
7.37097	51.8079		86.5109
1.38861	22.2207		88.4931
1.41567	19.4513		89.9998
1.48008	24.4292		87.5249
-0.256361	22.5015		88.5795
1.60827	26.3443		86.9098
3.72289	25.4681		86.3259
1.75139	28.1196		86.5735
-0.293608	26.596		87.0312
1.3131	-48.1776		89.515
-1.34281	-48.1893		89.6101
1.72312	-47.0809		88.2383
0.923715	-48.8829		91.0751
0.866945	-49.0822		92.2593
-1.41987	-49.1174		92.2517
3.31248	-49.0493		91.8698
0.981466	-48.9886		93.2387
2.16407	-47.423		95.8849
1.94151	-48.0369		95.2824
-1.21844	-47.5878		96.0969
1.46788	-48.5819		94.4232
-1.34949	-48.6776		94.4729
2.32315	-43.3912		96.7237
-1.13931	-43.9731		96.8816
1.87107	-44.9188		86.7542
1.78208	-41.6785		85.3324
-1.22381	-44.8224		86.7814
22.5682	85.6327		64.4238
22.2594	79.2373		69.6333
28.5487	84.0856		63.1311
23.0814	92.2778		57.5169
20.2326	48.3641		85.9842
19.8653	45.3934		86.5706
25.9686	49.1501		85.1966
19.7513	52.4568		84.8013
20.9407	41.7973		86.5654
22.1326	38.5497		85.9818
26.086	42.626		85.6657
23.3292	36.4652		84.8735
19.6475	35.8474		85.7406
27.2835	37.501		84.1114
24.7783	27.7047		73.4545
24.4901	28.8689		74.7694
21.2834	26.6275		73.0341
28.6813	28.4132		73.755
26.3289	26.2045		72.1486
24.0419	30.264		76.6865
28.0662	30.79		76.4035
20.8156	29.4934		76.5928
47.0783	88.0701		41.0168
48.1111	93.2585		30.7918
41.3227	91.7018		43.6833
46.5888	82.5559		48.4665
34.0034	82.4517		61.1456
34.7561	88.2664		54.75
39.7584	80.268		58.287
30.9704	49.331		83.5946
31.413	47.4637		83.9649
36.444	49.0282		80.2712
32.0312	38.6463		82.5302
31.9804	40.5073		83.31
31.6849	44.0449		83.9104
31.9947	30.8924		75.8328
32.2612	29.607		74.6236
36.8877	30.4256		74.7059
45.8575	77.5283		54.243
51.933	74.5044		48.9784
45.0577	72.5086		59.0555
42.5761	47.2968		74.7333
48.3532	44.8049		69.9312
39.7122	27.2838		72.4179
40.2326	28.2499		72.8428
36.3648	28.2063		73.3537
42.5725	26.0407		70.9855
43.4159	33.2483		73.8661
42.4623	31.1811		73.506
48.199	31.2412		70.8314
41.1818	29.4954		73.186
44.1476	67.2077		63.2955
50.2431	64.3004		58.1711
57.5391	71.938		42.1706
56.8392	66.6292		47.3177
62.4471	69.5672		34.1097
42.922	23.4201		69.0952
44.5661	21.822		67.3182
45.0656	24.4701		69.0963
46.7136	22.7162		67.1831
43.6744	23.9976		69.2798
52.1501	28.953		67.4877
54.3708	26.4372		64.5014
17.6192	31.4109		80.8784
15.1666	30.08		80.0944
17.8373	30.1635		78.7852
17.1663	32.3786		82.517
16.256	33.6217		84.295
13.9035	31.9818		83.3353
17.8831	28.1861		76.0066
17.9489	26.5898		73.9743
6.08826	40.4538		88.1636
0.734849	41.6141		88.3595
70.0306	-61.8543		-6.76805
71.5253	-56.6916		-5.18409
70.0746	-62.372		-13.2221
81.1492	23.9754		-37.0755
80.9086	20.0456		-42.7405
79.939	29.4968		-41.8585
81.5303	26.3393		-28.9404
82.4398	18.4126		-31.8798
78.0552	-6.81928		-52.1047
77.1874	-12.7166		-50.5161
75.7514	-7.09223		-57.706
78.9351	-1.05179		-52.203
79.4753	5.09748		-51.8936
77.3984	6.72284		-58.3847
80.0117	10.5956		-50.0885
81.6105	3.16072		-45.635
72.8832	-29.699		-44.1396
69.7214	-33.1384		-47.9501
74.4188	-24.064		-46.6556
7.61085	58.335		83.9104
0.486676	57.7669		84.7109
14.5368	58.2416		83.095
20.5207	58.4522		81.9811
21.4731	65.682		78.1551
23.8821	-104.258		62.3613
22.5044	-106.585		56.3641
31.2015	-100.527		56.2309
16.9711	-106.872		66.188
52.7616	-82.7028		45.6589
47.071	-87.3785		51.4972
57.2894	-78.3817		40.1976
53.6375	-79.8696		48.9615
56.1457	60.9743		51.7205
61.4005	57.5646		44.3326
21.8494	72.7878		74.0041
67.2371	67.1906		24.4586
71.2009	65.1273		14.4311
67.0312	60.6955		30.201
23.3623	99.831		47.6566
29.6578	97.5141		46.9754
23.4946	106.985		35.646
16.4116	101.501		48.2291
64.7161	40.0857		44.5494
65.5975	47.0634		40.1837
47.2321	20.9674		65.5797
58.7098	25.963		58.9393
59.1666	21.2185		55.818
57.1613	24.6598		60.3743
55.5246	23.5889		61.578
3.09081	-119.279		51.7647
0.109053	-119.234		51.9082
62.8507	-68.2902		39.5455
63.6578	-64.2879		41.3925
58.9217	-71.634		46.4151
61.8665	-72.0355		36.8224
6.4082	-39.6651		95.5739
8.35376	-40.014		95.0258
5.98996	-37.4072		95.3048
24.6393	-45.2196		83.4627
23.8241	-41.6062		84.5722
21.6348	-43.4042		86.7405
9.92342	-36.1996		93.3345
7.35029	-35.7937		94.5455
10.5269	-38.2572		93.5873
12.8838	-36.5953		91.612
9.32103	-34.1062		93.0627
33.8633	-48.2432		76.4483
33.4088	-51.6527		75.5385
36.2335	-49.064		75.0908
33.5745	-44.7156		77.4372
63.8478	17.2371		48.2757
61.6353	16.7245		51.107
64.5197	11.0407		47.3311
65.7421	17.912		45.3205
67.6932	18.7185		41.819
70.083	18.7608		36.6855
50.8777	17.1293		61.172
50.6728	14.952		60.5016
59.5251	16.1737		53.4461
83.6869	10.3997		-36.9142
83.5956	6.64151		-40.0739
82.2134	12.3289		-40.9798
83.7741	12.9584		-32.9699
80.8207	-16.1606		-40.9299
78.7073	-16.755		-44.0705
73.7747	-49.2779		-15.8355
75.5328	-44.9679		-13.6568
73.3689	-51.1196		-9.58024
71.8298	-54.8814		-18.1624
74.1634	-46.0937		-21.7939
83.364	1.9888		-42.0336
78.5182	-24.7225		5.29945
77.9109	-28.8369		4.80594
79.0778	-20.4197		5.57694
77.4939	-25.4401		9.61608
74.505	1.50968		29.2745
74.2023	9.5164		28.2577
74.526	-5.98366		30.1157
76.8372	0.260668		20.7664
53.5828	10.1776		57.7639
51.6534	11.7927		59.3123
51.5768	8.11256		59.6908
49.9498	13.2779		60.7467
48.3701	12.1004		62.0325
76.2861	-25.6146		15.7776
74.988	-25.4817		22.3671
75.6702	-30.4113		15.1877
76.9731	-20.5092		15.7927
23.6894	-9.35949		77.529
27.4017	-10.9402		75.9128
22.1779	-4.51252		76.8187
20.6414	-7.25175		79.4137
33.5076	-12.7787		73.993
41.014	-14.2813		71.5238
34.9519	-17.6481		74.519
17.2167	-5.02135		82.6369
13.963	-2.62485		86.866
17.6449	-8.80173		84.2443
20.6812	-15.7808		82.2407
19.262	-13.5702		83.7817
16.3152	-17.9402		92.7282
14.818	-17.644		95.651
16.1171	-19.6896		91.954
17.2437	-18.3307		90.5663
17.8607	-18.8403		88.7294
17.5317	-20.9684		87.9951
39.0547	-32.0085		74.4642
33.6335	-31.3199		76.9602
39.7659	-36.8359		74.2659
38.0219	-27.3531		74.7091
36.2305	-22.3943		74.7483
4.96606	-32.1309		95.4295
5.28665	-33.9414		95.2168
6.47538	-32.1301		94.5248
61.1917	-46.5743		53.5148
62.0245	-41.0577		53.5534
56.6341	-45.3922		59.8196
59.9282	-52.4174		53.981
27.9653	-39.4716		81.1467
25.4433	-38.7496		82.8449
30.3545	-40.0658		79.7319
40.0786	-41.7079		73.8506
39.9391	-46.3762		73.5179
45.4303	-42.868		70.2985
35.796	-40.9728		76.4689
5.57476	-35.6327		95.2269
58.3505	-58.4167		54.6785
61.6834	-59.6699		48.5436
53.9473	-56.1412		60.9767
55.5846	-63.7961		56.9218
62.8613	-26.4475		55.0358
62.7719	-31.1363		54.5246
66.9382	-26.077		48.2196
30.4079	-92.7486		76.2221
30.4875	-89.6154		77.7807
24.5967	-96.6094		80.6447
42.4847	-77.4161		67.9184
47.3403	-73.1239		64.0424
40.3948	-73.3023		70.7644
36.4536	-81.6211		73.111
58.2613	-6.10412		58.1111
55.4069	-1.42844		59.2593
52.076	-6.30495		63.4418
45.814	10.6465		64.2539
47.0538	8.53732		63.4368
53.004	1.74048		60.1937
47.5298	1.06148		64.5219
50.4655	4.26545		61.5049
43.7768	14.2141		65.751
1.46045	-95.472		94.8236
-1.554	-95.4663		95.008
49.1348	-54.0441		66.1282
47.341	-58.2711		67.1424
50.3004	-49.3221		65.686
43.8482	-52.1458		70.426
38.1438	-69.426		72.8262
41.7312	-65.956		70.5345
35.2054	-65.4432		74.6895
33.5431	-72.7149		76.1365
44.5174	-5.80891		67.8152
46.7779	-10.5151		67.8864
42.2969	-1.65877		68.0219
51.3119	-44.23		65.4342
48.7237	-15.3618		67.6182
9.101	-83.5489		93.089
8.94558	-77.2035		91.8302
13.746	-82.3308		90.785
18.6597	-80.828		87.7835
23.5951	-78.5617		84.1231
18.0615	-75.1238		87.1662
40.5832	1.31328		68.2248
39.0752	3.56796		68.6842
32.7595	1.95162		70.9495
48.6703	6.4433		62.4273
44.2119	5.55335		65.8915
37.8208	5.54036		69.0868
30.2532	6.07901		71.2793
11.1297	-0.606669		91.0379
11.6268	-4.81543		93.5643
10.7301	4.0819		88.1708
12.6423	-12.6718		99.1567
12.4463	-11.0882		98.0247
10.1759	-12.3833		103.715
12.9174	-13.7834		99.4297
10.4162	14.9019		80.5896
10.3657	12.3029		82.5575
20.2799	0.122628		76.1321
1.50871	15.7662		92.3029
-0.0769116	16.1178		92.4105
64.3645	4.88255		48.6247
10.5091	8.55548		85.1418
64.6033	-59.5931		42.2572
67.4572	-57.8797		34.5461
70.016	-14.4926		43.0662
70.0382	-20.2552		42.266
72.3411	-13.1156		36.8707
68.7637	-36.2369		40.988
69.374	-30.9047		41.1137
66.2215	-36.2647		47.2452
70.6138	-36.3154		34.9154
69.851	-25.5807		41.4733
71.8601	-25.437		35.2576
19.7084	-99.3125		83.9196
8.86069	-72.0312		90.8633
5.12796	-72.3089		91.8313
13.1182	-71.4391		89.1611
17.5247	-70.4911		86.8256
24.2233	14.6821		70.8834
25.6005	3.67982		72.3825
24.6288	5.94915		72.2324
23.9392	7.68169		72.0025
1.86933	-72.4701		92.3221
-1.13011	-72.3975		92.404
6.07709	28.6207		84.9971
7.65119	27.8093		83.7675
7.08558	30.1909		84.9958
4.09498	29.3017		85.9469
5.75094	26.6107		84.9338
16.0205	18.6529		70.0764
15.835	19.9872		70.2789
14.1811	19.2577		71.805
8.83625	26.6964		82.2625
10.0196	28.588		82.315
1.91668	29.9377		86.468
-0.398755	30.1703		86.5852
5.23584	-25.776		101.764
5.8804	-24.6695		103.424
7.81886	-16.0126		108.818
7.77375	-14.2104		108.256
10.4986	-15.2546		104.666
17.3222	-25.1548		85.2035
16.8671	-24.1019		86.4735
15.1691	-26.6946		86.915
7.40832	-12.3382		107.533
6.12125	23.6024		84.7409
8.70535	32.0763		85.3196
10.4219	31.2201		84.0933
16.2808	21.3934		70.522
11.8018	30.3949		82.6633
12.5293	29.4882		81.1498
12.9756	28.3772		79.577
19.7415	-31.4471		84.1026
17.0406	-31.8072		86.2526
21.0434	-34.5617		84.5942
22.6153	-38.0704		84.6879
19.3023	-37.3629		87.1363
25.2795	-51.6549		76.3447
25.0989	-50.5717		75.9385
23.1837	-51.4619		78.0768
25.6905	-50.2188		79.8446
23.4462	-48.9641		83.1188
24.7398	-47.6337		75.2323
21.2675	-47.2709		78.0916
23.9223	-44.1103		74.9846
14.3479	-32.1579		88.569
11.4877	-32.1808		90.8712
15.1116	-34.5265		89.0954
16.2057	-37.05		89.4042
17.0966	-39.4169		89.6742
20.2683	-50.9088		80.5461
18.8128	-49.4638		81.0759
17.9922	-46.7504		80.5829
17.9354	-43.267		79.5342
8.76403	-32.1613		92.9718
8.38933	-30.3995		92.971
11.6103	-40.6148		93.6214
14.9434	-41.0876		91.7471
17.3839	-11.332		86.5307
14.7508	-9.76621		91.1795
2.07842	-4.84727		105.809
0.108306	-4.56346		105.973
11.9874	-8.37671		96.1864
6.69818	-22.9202		105.68
9.06615	-22.0469		102.065
11.5516	-21.413		98.0915
12.2996	-19.4797		99.0076
13.9822	-21.2391		94.0605
15.5226	-21.5414		91.295
16.2996	-22.2614		89.2509
16.6561	-23.1583		87.6723
12.9267	-14.8735		99.8597
12.8439	-16.1613		100.047
12.6943	-17.6996		99.732
41.8831	-143.62		18.4156
37.056	-145.415		21.8122
42.7473	-149.545		17.0987
46.2249	-141.707		14.9568
40.8125	-135.562		20.2447
39.9089	-124.27		22.581
44.2571	-122.142		18.4868
39.865	-114.241		24.5443
35.2311	-126.364		26.72
43.6908	-97.1528		30.6868
48.1097	-93.7639		25.5149
38.9006	-100.558		35.6208
42.3782	-101.549		27.4137
40.8887	-107.09		25.7448
36.1637	-109.76		30.7894
45.1248	-104.43		21.1021
45.13	-62.2307		68.3895
48.8904	-65.3353		64.5575
40.7175	-59.2824		71.7053
52.2493	-68.5198		59.7624
53.7234	-72.4407		55.788
54.218	-76.266		52.0968
37.36	-56.8651		73.5386
38.5863	-53.8942		73.2482
34.5161	-55.0018		74.6675
35.1676	-59.4097		74.4266
32.6583	-54.0176		75.2095
31.4825	-55.6356		75.4382
51.8422	-90.7339		20.5203
53.8965	-86.4345		23.4046
50.3306	-95.7781		17.9268
55.0753	-88.4593		14.9501
56.2387	-82.5026		27.0739
58.7871	-80.1683		20.4315
58.5904	-78.8189		30.428
60.4737	-75.4153		33.8442
62.7563	-73.1988		26.8169
48.276	-119.927		14.2904
49.0773	-131.547		12.7317
52.0771	-118.172		9.95494
48.2384	-109.577		15.4801
50.1001	-139.881		11.3517
51.1909	-146.12		10.0858
53.6972	-138.101		7.44266
48.9833	-101.855		16.4717
73.4924	-25.3122		29.0795
72.846	-30.7782		28.7706
74.0676	-19.4407		29.5195
64.3103	-71.454		19.8079
62.5632	-74.8104		16.8595
65.4279	-70.0857		12.6393
73.4946	18.1045		28.0783
76.8382	16.0657		17.3907
69.3998	-56.3131		26.9241
70.7645	-54.8854		19.0263
72.1723	-36.2818		28.5795
73.6536	-35.9295		21.6293
74.3763	-12.6713		30.2758
76.1754	-13.7149		22.8087
74.9734	-35.2417		14.7515
76.2179	-34.0742		8.42598
62.4029	-85.174		-1.60514
61.9438	-90.2786		-2.69912
64.1551	-84.7892		-6.56607
63.0344	-80.6526		-0.18626
60.3283	-85.8069		3.52863
61.6094	-95.9882		-3.27239
63.9625	-76.4234		1.89619
62.4045	-77.3036		7.62892
65.3733	-75.8333		-3.89174
65.0657	-72.5932		3.82498
78.6595	-0.776038		12.3483
78.9887	6.83965		9.78027
78.1293	-8.38906		14.6823
79.2539	14.9085		6.80232
79.4241	22.5712		4.20314
79.5665	30.3876		0.945208
80.9583	29.4388		-9.72942
79.688	38.1698		-2.80872
71.7681	-53.3459		10.973
72.4998	-52.3003		3.18359
77.5649	-14.7619		15.7705
78.7024	-15.645		9.67304
55.7312	-116.445		5.23715
56.302	-127.994		4.1708
60.7752	-78.5458		14.0334
59.1223	-82.5287		11.3097
57.0769	-136.24		3.06193
58.027	-142.333		1.75305
64.7105	-111.664		-13.239
64.9482	-121.401		-14.5426
65.5478	-84.3197		-11.4685
66.4478	-82.6734		-16.6784
66.0666	-79.6156		-10.6526
66.7863	-74.9718		-9.53438
65.2021	-128.683		-16.0755
65.4152	-134.486		-18.0922
72.9234	-52.0547		-3.82938
77.257	-32.8456		4.08307
78.3375	-31.1901		0.907559
76.6928	-36.5311		2.72998
79.5616	-15.8733		5.63242
65.3902	-90.6723		-24.5836
63.9391	-86.5816		-31.5788
65.9765	-84.2561		-23.607
66.8526	-78.2332		-22.7976
66.1643	-71.9704		-29.0712
70.0884	-61.1859		-19.7836
76.7074	-42.4189		-12.4817
77.8868	-40.0133		-19.0402
60.4529	-118.071		-42.464
60.4438	-125.938		-43.8656
57.0436	-115.496		-49.6229
60.5358	-109.683		-41.0161
74.9694	-41.2776		-26.6557
77.3022	-37.6123		-25.0987
78.9287	-35.927		-24.4649
31.9998	-146.989		24.9609
31.0108	-139.231		27.3857
26.8787	-148.434		27.7612
33.0048	-152.557		23.099
30.6875	-112.226		36.253
24.7303	-114.763		41.4927
29.6651	-118.776		34.2499
32.148	-107.726		38.0091
37.4736	-96.9505		50.1204
35.1088	-100.317		45.5929
39.6721	-93.9458		54.1849
33.3871	-103.886		41.2436
27.4979	-106.791		46.8342
29.9984	-128.168		30.9735
24.5599	-130.274		34.835
32.8438	-62.0608		75.6913
30.9991	-59.1715		76.1233
41.2114	-91.2936		57.8022
29.9489	-57.4148		76.2202
27.5276	-59.1215		77.9953
28.9968	-56.0443		76.3179
28.1776	-54.8621		76.394
26.2573	-56.1783		78.0109
28.7425	-76.0282		80.0333
29.7497	-80.9154		79.5242
30.5098	-85.7946		78.6553
21.1083	-52.7996		82.0724
17.6912	-52.1974		85.7929
21.0021	-52.3233		80.6845
24.5748	-52.7608		77.6036
21.1593	-52.5934		80.1205
17.2071	-51.4819		84.1386
21.2326	-53.0442		79.7464
21.2688	-54.3485		79.2387
17.3281	-52.2961		82.8281
20.8239	-57.3366		79.0772
19.8274	-61.0152		79.5142
17.0848	-56.4201		81.5231
18.8417	-116.728		45.7142
20.1682	-112.758		47.9677
18.2839	-122.746		42.8052
21.6537	-149.867		30.209
20.5587	-142.501		33.284
16.491	-150.957		32.2567
22.7214	-154.969		28.02
19.2096	-132.037		38.1388
10.368	-112.177		56.4858
15.0364	-111.41		54.5841
11.1164	-109.917		61.9278
11.9573	-151.716		33.6967
13.0154	-156.559		31.433
11.8113	-108.277		68.4252
13.7168	-50.8322		87.0001
13.6235	-51.115		86.2169
13.5604	-51.7278		85.4459
13.8354	-52.9985		84.3731
13.5802	-55.7481		83.5261
13.1534	-59.8717		83.033
74.7953	48.4306		14.769
77.7298	46.8856		3.77269
74.9073	55.9571		9.47828
71.0145	50.7285		25.4476
81.4212	28.1937		-19.6216
75.7604	-18.527		-49.037
72.9367	-20.503		-53.8824
54.1003	-93.9151		-52.6519
54.7911	-83.5946		-51.7048
57.2534	-96.8772		-47.0426
53.8833	-104.28		-53.7061
50.8114	-91.7752		-57.6702
53.9053	-113.358		-54.966
54.1662	-122.001		-56.1411
50.5682	-111.78		-59.7621
61.5186	-81.1716		-39.0711
60.8381	-90.8644		-39.4349
58.6759	-76.8853		-45.5965
62.8509	-72.6082		-37.8631
23.2847	113.323		21.5373
30.1738	110.47		21.3738
23.1826	117.877		6.02778
16.07	115.332		21.7432
23.0797	101.714		-79.6433
23.6511	110.592		-63.8136
30.1873	99.724		-77.6876
22.3684	90.6917		-92.7173
15.6228	103.107		-81.1214
21.9539	78.661		-102.133
28.8193	77.0513		-100.079
21.7027	65.3864		-109.183
14.9793	79.4006		-103.783
23.6923	116.652		-46.7199
30.8956	114.18		-45.0246
16.1736	118.453		-47.8452
23.5587	119.838		-28.8024
8.20566	123.499		-11.8314
0.219051	123.922		-11.9969
8.14255	121.274		5.67749
15.9203	122.257		-11.4827
8.28612	122.973		-30.1278
21.4559	52.3304		-113.954
27.8758	51.0098		-111.868
21.1591	38.8299		-117.063
14.9469	53.0693		-115.45
20.6638	24.7458		-118.693
26.9859	23.8086		-116.467
20.1643	10.8678		-118.694
14.3552	25.6607		-120.239
18.0683	-27.4655		-107.247
23.8982	-28.1524		-105.042
17.801	-38.9564		-99.7547
12.4953	-27.3941		-108.434
18.8709	-15.0258		-113.275
7.19028	-1.18067		-119.761
0.804294	-1.11667		-120.116
7.40815	11.9572		-121.346
13.4236	-1.58852		-118.713
6.87016	-13.9768		-116.029
16.0282	-85.3565		-81.6151
16.3633	-75.8145		-82.7174
21.4158	-86.0664		-80.2223
15.7949	-94.8525		-81.1284
10.8579	-84.9577		-82.4244
5.63493	-103.516		-81.7708
10.6723	-103.942		-81.4264
5.74268	-113.207		-81.446
0.781955	-103.311		-81.9083
5.74804	-93.8014		-82.2209
18.0058	-48.0169		-93.5712
23.3462	-48.5376		-91.9698
17.6668	-56.144		-88.9108
12.2465	-47.5938		-94.6167
16.9069	-65.5329		-85.1617
22.6232	-66.5753		-83.371
11.5459	-64.7748		-86.1986
6.17568	-64.5058		-86.6862
6.41275	-55.2962		-90.4625
5.90632	-74.9747		-84.1225
0.778806	-64.7011		-86.7694
48.772	98.2176		18.5145
54.567	92.6726		17.2402
49.5493	101.902		4.71386
42.8563	102.889		19.8712
47.8501	70.1731		-89.8649
53.3255	67.1199		-85.5592
47.5467	58.1397		-96.525
41.9984	72.7668		-93.7534
48.1809	81.1285		-80.8028
48.4526	90.7229		-68.8699
42.7642	94.29		-72.1908
49.0243	97.8798		-54.7785
53.9975	86.3649		-65.2106
49.6617	102.279		-40.0435
55.4468	96.6366		-38.2022
43.8179	106.945		-41.7244
50.4061	103.917		-25.1448
50.1275	103.947		-10.0985
44.0032	109.03		-10.0293
55.984	98.1014		-10.1427
46.9498	45.9581		-101.303
46.3036	33.3254		-104.412
41.05	47.7858		-105.288
52.3937	43.8174		-96.9402
45.359	20.545		-106.091
50.7165	19.2016		-101.701
44.3989	7.63481		-106.044
39.6919	21.5843		-109.967
43.1199	-4.81815		-104.437
41.8368	-17.5681		-100.746
37.8437	-4.58059		-108.112
47.9752	-5.4483		-100.208
41.0902	-29.9377		-94.7207
45.8774	-29.5525		-90.8604
40.6023	-40.6423		-88.1845
35.7088	-29.4481		-98.6815
40.1031	-49.9362		-82.3725
39.4981	-59.242		-77.3309
34.7989	-49.8639		-86.1304
44.8089	-49.9881		-78.05
37.4566	-87.5996		-71.9988
36.4875	-97.6402		-72.7979
32.2535	-87.2906		-75.4717
38.4156	-77.9568		-72.045
42.2063	-88.4353		-67.904
25.9048	-105.367		-78.3532
26.0662	-114.258		-78.4337
20.7324	-104.722		-79.8382
26.2279	-96.2377		-78.2426
31.1593	-106.207		-76.1994
38.9615	-68.6649		-73.7893
43.7913	-68.8518		-69.188
33.9161	-68.1552		-77.6042
68.0879	70.1608		-51.6044
69.1694	74.1585		-40.1247
72.1322	63.4791		-45.7123
67.3154	63.9507		-62.0363
63.7503	76.0496		-56.9023
69.9453	76.4381		-28.7332
73.8035	68.6879		-23.5206
65.5891	83.7116		-32.9219
70.3607	77.4339		-17.4668
69.552	78.2081		-6.57265
72.4712	70.8195		-1.76263
65.7837	85.139		-8.90173
57.1893	41.6502		-92.361
57.8238	52.9053		-87.5356
61.5493	39.0841		-87.4818
56.5057	29.7754		-95.4589
58.1189	63.9187		-81.0226
58.4854	73.5181		-72.4255
62.624	60.0958		-76.0373
52.7806	-6.00765		-95.2098
54.5041	5.89196		-96.7081
57.3903	-6.68145		-89.6301
51.1134	-17.9059		-91.9383
55.5942	17.6747		-96.9342
60.1074	16.4147		-91.7962
50.1594	-28.9444		-86.7017
54.3532	-28.7434		-81.5581
49.7622	-39.7541		-79.767
48.9999	-49.1906		-73.7529
52.7544	-47.4373		-69.7159
48.6307	-69.2912		-63.4458
52.7986	-71.5676		-56.8217
47.7104	-79.3385		-62.4303
78.2619	35.3662		-46.9657
77.4765	29.3882		-54.3991
76.2115	40.6749		-52.6814
59.7734	86.5556		16.5797
60.5079	90.2197		3.39843
79.2475	45.7391		-7.11726
78.4369	53.3539		-12.2394
68.0658	-7.04604		-73.7034
64.8946	-7.2677		-78.873
69.4564	2.25912		-75.2494
71.0119	-7.2474		-68.1163
66.3341	-16.713		-70.7566
70.2052	11.6893		-76.0131
67.2057	13.3343		-81.5123
71.0093	20.7033		-74.6271
73.0622	9.7445		-69.903
71.8018	29.8724		-71.3513
68.7508	33.2209		-77.0682
72.7079	38.2883		-65.9371
74.5244	26.1613		-65.3661
61.1927	-41.2129		-59.0291
58.4768	-43.5771		-62.5362
62.7428	-33.7413		-63.0611
63.9148	-38.9213		-55.2754
59.8685	-48.8304		-55.1299
70.1662	-22.2515		-58.5169
68.4083	-29.3877		-55.1271
67.4733	-23.9674		-62.6534
71.9579	-14.944		-60.9968
56.0291	-73.9964		-51.0837
57.3604	-64.9136		-51.2981
78.8297	-35.2432		-4.51332
79.3212	-31.6943		-2.55939
77.2338	-38.1334		-2.28169
79.2399	-29.9696		-1.14647
82.5527	-5.01107		-2.74523
83.2365	0.0916338		-4.87697
94.4569	4.99118		-38.0885
94.5342	10.781		-35.7154
95.0894	4.60954		-37.3787
85.1505	-33.7116		-24.3071
84.0089	-36.3997		-20.9289
94.0881	15.488		-32.2029
93.1142	15.7927		-32.6999
93.3927	18.6462		-28.0843
94.9798	14.8337		-31.6401
87.879	10.8422		-11.5646
86.5482	10.8359		-12.2176
92.6358	19.9944		-23.8195
93.5749	19.2946		-23.0821
89.889	-17.5928		-34.66
86.5313	-34.3187		-16.9854
85.8884	-34.1327		-14.3698
84.9053	-36.373		-17.4417
83.61	2.59645		-6.59373
89.3359	18.3305		-19.3494
87.4972	15.3284		-16.6944
88.2732	17.47		-20.9079
85.2258	11.1087		-13.64
84.344	11.5339		-15.2135
92.4416	15.6385		-32.9189
83.5878	11.2603		-16.6493
84.7841	13.1783		-19.291
86.2852	15.0175		-22.8618
84.1856	12.9114		-23.9322
89.3018	-25.8181		-27.4459
89.3665	-27.2716		-19.8894
83.3938	-37.5415		-17.89
85.1035	-33.224		-12.1507
86.2234	-30.3776		-12.1507
87.1381	-28.0766		-13.0374
87.6094	-26.5757		-13.9562
95.2826	4.32465		-36.9667
95.6434	9.90773		-34.676
92.1845	16.717		-15.6689
92.3745	16.0926		-15.3885
93.3422	18.3251		-18.7219
92.3572	15.5002		-15.2487
93.5643	17.185		-18.2496
92.1976	14.4369		-15.4187
95.3619	14.3012		-31.2779
94.7909	17.2146		-27.1658
95.4784	13.813		-31.1397
94.1441	18.5961		-22.6062
94.3698	18.0126		-22.4878
94.3837	17.4413		-22.2214
94.9424	16.1952		-26.7983
95.4402	13.449		-30.8215
94.7893	0.0561569		-35.9115
91.9453	13.1423		-15.9608
89.4954	6.01779		-13.5134
93.8414	12.7959		-24.3768
94.3166	-2.98863		-30.7986
94.3415	-1.11886		-30.5048
94.2434	0.74152		-29.9278
94.0198	2.2366		-29.0327
93.6543	3.45976		-27.7935
92.7406	4.32509		-25.269
85.4974	-23.0226		-11.7672
86.7406	-24.6382		-13.3966
87.6855	-0.497609		-10.5442
84.2345	-15.1061		-9.89592
87.7057	-25.8691		-14.4507
32.5106	28.5971		73.791
35.4172	94.989		45.5732
36.2016	101.321		34.1708
8.42153	102.721		48.4478
8.35301	110.213		36.0813
0.0160467	103.197		48.4799
36.5806	107.096		20.6754
36.9764	111.294		5.87636
8.21148	116.609		21.8232
0.0486326	117.103		21.6921
23.2377	120.21		-11.0055
30.4748	117.279		-10.5187
37.2981	113.603		-10.2921
37.6185	113.5		-26.7454
66.5294	53.8729		35.2021
74.1157	63.2897		3.72887
76.0553	62.0261		-7.04121
61.0658	92.023		-10.0989
61.3849	91.7816		-23.0925
8.35303	119.563		-48.4446
8.35078	113.224		-65.9138
0.420454	119.94		-48.6348
37.4011	111.084		-43.1617
37.1616	105.596		-59.7837
76.4863	60.9482		-17.8652
76.2576	59.4487		-28.7813
60.5624	90.6524		-36.0355
59.7426	87.3158		-48.7497
75.3339	56.7448		-39.6
74.4237	52.3478		-49.8446
73.5125	46.2476		-58.6401
70.3799	51.2057		-64.7016
46.8368	-90.1494		-62.9083
46.1483	-100.364		-64.0819
46.1824	-109.894		-64.964
46.2946	-118.675		-66.0511
41.1538	-108.157		-69.7089
8.12424	104.038		-81.8181
7.92122	92.4057		-95.1823
0.608068	104.223		-82.2327
7.93988	79.8098		-104.735
8.01299	66.5696		-111.616
0.720436	79.9174		-105.072
8.05671	53.4874		-116.36
7.93523	40.2706		-119.472
0.775868	53.6667		-116.664
7.65972	26.2878		-121.196
0.813438	26.3071		-121.545
19.5899	-2.24248		-116.988
25.7324	-3.15758		-114.593
6.52741	-27.2185		-109.257
6.51181	-39.1468		-100.996
0.768563	-27.3431		-109.422
6.50422	-47.7214		-94.9127
0.767355	-47.9422		-94.8992
5.83666	-84.4886		-82.8692
0.787121	-84.2817		-83.0374
35.4953	75.0992		-97.2767
35.9923	86.8625		-87.8966
35.0926	62.3678		-104.118
36.5436	97.2418		-75.3608
34.5317	49.556		-108.9
34.0151	36.3429		-111.97
33.3821	22.8202		-113.527
32.7564	9.0982		-113.398
31.9041	-3.96545		-111.583
30.9027	-16.6023		-107.883
29.86	-28.8067		-102.202
29.147	-39.8971		-95.5103
29.0975	-49.2411		-89.4628
29.0037	-58.0977		-84.4586
28.3266	-67.3777		-80.9116
27.653	-77.1425		-78.8266
26.9864	-86.6294		-78.1582
36.3246	-107.018		-73.3104
36.5431	-115.947		-73.7824
58.9203	81.6983		-61.2774
66.6837	56.1827		-70.4013
66.0963	46.457		-77.3565
65.3029	36.5122		-82.4622
64.5829	25.7903		-85.6014
63.8309	15.0445		-86.8132
62.9312	3.96995		-86.0927
61.3054	-7.21186		-84.2218
59.5278	-17.8959		-81.1145
57.9443	-27.7328		-76.9387
61.3323	-26.9761		-71.8567
56.7629	-37.3094		-71.3885
55.7096	-45.5296		-66.2086
58.8036	-56.8252		-52.0867
61.0297	-55.1962		-48.7176
76.6162	23.0601		-59.8384
75.9815	15.6809		-62.9202
78.5918	19.389		-53.7696
73.4138	-7.20804		-63.1301
74.5953	0.573273		-64.1193
64.4307	-25.5823		-67.2743
75.3165	8.39976		-64.3773
66.6606	-36.4386		-51.6372
65.1751	-43.465		-48.2962
21.2054	-109.446		51.506
66.5017	-68.8513		5.7524
57.8559	-86.8469		9.2912
13.8078	-45.2222		92.5749
17.2565	-45.8089		90.1146
20.5232	-47.249		86.8795
7.53768	-53.2311		93.3186
7.901	-54.1612		93.3523
8.17989	-55.2418		93.3052
24.1241	-60.943		81.1824
23.5931	-59.213		81.3639
23.0207	-57.6698		81.6721
18.4267	-42.0081		89.2136
39.5415	-50.401		73.2365
29.734	-30.8671		78.4525
31.4232	-35.687		78.6269
32.6887	-40.504		78.2808
62.6024	-36.0288		53.7972
18.0893	25.2896		72.5871
80.389	15.8002		-47.3209
83.2467	14.7166		-28.1698
83.9572	12.8279		-25.8079
75.8566	-40.8902		1.15321
24.0783	13.4154		71.2101
54.0353	41.4193		64.5699
8.43134	-28.898		92.9434
45.5895	20.1988		65.6432
12.4803	-26.8756		89.6657
83.8596	12.6416		-24.7625
60.5391	-100.495		-40.1975
65.1043	-64.2025		-36.1678
63.9738	-57.7293		-41.5226
63.7583	-51.9452		-45.3789
22.2669	-23.5641		80.3826
14.2989	-51.8232		88.6743
26.3728	-52.8283		76.2998
6.49702	-49.1018		90.9319
-73.1918	-44.5089		11.349
-74.0007	-39.5618		12.6134
-74.2436	-42.902		4.50173
-72.2827	-49.1796		10.0925
-71.9026	-45.9152		19.2704
-59.9606	-114.698		-6.90275
-59.8688	-104.209		-6.78289
-61.9113	-113.394		-11.4174
-60.4468	-125.251		-7.63409
-57.4349	-115.833		-2.47233
-61.0475	-132.884		-8.61213
-58.6993	-134.824		-3.85455
-62.717	-131.022		-13.3664
-61.5851	-138.902		-9.60991
-54.3546	-98.5916		3.1885
-57.5565	-97.4801		-1.88354
-54.1013	-106.419		2.49192
-50.9998	-100.218		8.00712
-55.1721	-92.584		4.1257
-63.2795	-95.6185		-15.0616
-61.9584	-96.131		-10.7699
-63.6068	-90.1115		-14.792
-63.9919	-94.3929		-20.0947
-63.0875	-102.705		-15.3831
-66.5072	-65.1178		21.4735
-67.684	-63.4169		13.9445
-64.9491	-68.8174		19.1328
-64.4873	-67.6093		29.1902
-67.6997	-61.4294		23.4939
-73.3981	34.154		24.1924
-76.889	32.3903		12.3013
-73.0909	26.8357		27.0623
-69.0996	37.0813		35.3369
-74.0826	41.8176		19.7703
-78.7757	43.0477		-29.0913
-80.0692	35.825		-24.2696
-79.2315	45.0121		-18.4292
-77.051	49.9396		-34.2603
-78.1565	39.845		-38.7908
-9.08379	-118.488		49.8031
-9.90073	-114.56		52.3334
-13.0596	-117.793		47.9151
-9.22184	-124.685		46.7849
-5.97411	-118.83		50.9234
-10.1459	-134.543		41.4785
-10.9447	-144.72		36.2967
-6.54964	-134.922		42.8729
-14.107	-133.412		39.6695
-3.60669	-152.539		34.986
-3.97327	-157.305		32.9179
-3.36395	-145.511		38.2339
-7.49707	-152.187		34.3163
-68.7178	-52.1168		-32.6373
-69.3296	-44.6403		-36.8094
-66.0762	-58.2172		-34.8904
-68.4434	-58.3138		-27.4705
-71.2656	-46.0123		-30.4344
-70.0726	-39.2933		-39.8485
-73.2145	-34.6296		-36.7755
-70.8452	-34.6452		-42.2927
-66.4036	-45.1279		-43.1107
-63.391	-124.091		-29.6957
-64.0134	-127.152		-23.2846
-61.7429	-121.349		-36.4259
-63.1998	-130.89		-31.8
-3.15408	-135.302		43.645
-2.82777	-125.493		48.8935
-70.0056	-48.322		27.4162
-69.227	-53.6389		26.5337
-67.982	-49.8598		34.7621
-70.888	-42.2863		27.6346
-68.5415	-61.8568		6.30897
-70.0007	-57.7039		7.62749
-69.0066	-61.2154		-1.51051
-66.9292	-65.8554		4.64542
-11.626	-94.3929		92.4324
-11.5951	-89.2284		93.1692
-16.1519	-93.7536		89.9464
-11.785	-98.7121		90.5198
-7.74576	-94.8143		94.0032
-21.0237	-92.1134		86.7696
-20.9504	-86.6304		87.3361
-25.8801	-89.5683		82.9824
-20.9846	-96.6612		85.2561
-4.85596	-84.0197		95.0031
-4.65395	-89.9887		95.559
-4.67734	-77.9877		93.5427
-8.08329	-83.835		94.1472
-11.8622	-101.889		87.9011
-8.0832	-102.202		89.3375
-16.247	-101.227		85.7892
-12.2341	-104.226		84.2975
-12.7627	-105.825		79.7355
-12.6869	-106.938		74.3457
-8.34934	-106.613		80.6873
-15.252	3.75481		80.0601
-12.8114	6.11577		82.4057
-14.4092	7.9525		78.0742
-17.7559	2.09094		77.9681
-16.1287	-0.553026		81.8235
-49.1846	-27.8649		69.9796
-50.1849	-32.4203		69.2986
-43.2522	-25.8377		73.6213
-48.281	-22.9084		70.3045
-55.1772	-28.8483		64.8493
-59.8394	-18.2936		59.1471
-60.5516	-23.8677		58.62
-53.6675	-18.4583		65.4798
-58.5237	-12.4003		59.772
-65.2942	-16.6759		51.591
-69.87	4.47161		40.8637
-67.1604	5.86783		45.2266
-68.9192	12.2929		40.7936
-71.9356	3.77682		36.209
-50.8145	-36.9649		68.224
-45.0921	-35.2831		72.7452
-56.2342	-37.9837		62.6014
-50.8398	-41.7333		67.5492
-1.63625	5.15431		99.3041
-3.41237	4.50762		98.6559
-1.7275	-0.160123		102.703
-1.6683	11.0657		95.3989
-31.7405	72.1781		71.0552
-32.7683	77.6391		66.5862
-37.3442	70.5018		68.2348
-30.4821	65.9086		75.8501
-26.4455	73.0838		73.1611
-3.6563	-109.493		69.6891
-4.3071	-108.3		75.9454
-7.40896	-109.078		69.0619
-3.21836	-110.751		63.4131
-65.6022	-50.5907		41.8351
-66.6441	-44.1678		41.9017
-64.2771	-57.2189		41.9631
-62.744	-50.7228		48.6419
-4.56849	-102.52		90.0852
-4.59905	-105.19		85.9997
-4.47352	-99.4328		92.8148
-4.54173	-107.028		81.2102
-41.4271	-87.3215		63.6951
-41.5032	-83.8155		66.4175
-46.3929	-84.3039		58.0576
-40.7206	-90.2506		61.0947
-36.3416	-90.021		69.5237
-46.1705	-91.166		36.725
-41.5097	-94.5646		42.718
-48.4668	-88.1652		41.3629
-50.4572	-87.5116		30.5526
-43.8426	-94.4655		31.6947
-3.1429	-112.573		57.8126
-3.25954	-115.108		54.2486
-6.54552	-112.39		56.9653
-6.51783	-6.07255		103.285
-4.04365	-5.32883		105.011
-6.01748	-1.66525		100.37
-9.3833	-7.09425		100.209
-7.04454	-9.66497		105.75
-26.0478	-18.3768		78.9709
-22.4418	-15.1299		80.6949
-24.2243	-13.1441		79.0372
-30.1902	-21.0353		77.7496
-33.4496	-54.1011		74.6841
-31.4761	-54.3092		74.8613
-32.1387	-53.3166		74.8364
-13.5621	-24.8616		91.4387
-15.4569	-24.658		89.2518
-12.9808	-25.8247		91.0639
-14.9567	-23.4063		91.3433
-13.4453	-28.7256		89.2929
-11.4254	-28.6759		91.2538
-13.2581	-27.8359		89.5221
-15.9054	-28.5244		86.9907
-14.0059	-30.0999		89.1039
-2.0153	-28.096		100.615
-3.9743	-27.7007		99.631
-2.22807	-28.9658		99.076
-1.93333	-27.3133		102.534
-18.4444	-27.5151		84.7528
-19.0617	-28.952		84.6283
-17.9488	-26.5494		85.1991
-20.5528	-25.7844		82.9491
-7.45091	-19.1686		108.496
-7.60274	-17.5477		108.915
-10.4562	-18.2844		104.367
-7.21585	-21.0339		107.323
-4.57908	-20.0892		110.946
-27.8571	-67.4082		79.7742
-28.7631	-71.6905		79.6985
-23.8726	-69.1878		83.009
-26.8788	-63.8487		80.0187
-31.2085	-65.1785		77.0909
-31.9594	-47.8176		78.2354
-33.9468	-48.5655		76.9006
-29.7352	-46.9329		80.0729
-31.0044	-43.8346		80.1387
-2.77057	-32.7503		96.4801
-2.48858	-31.082		97.2077
-4.82936	-32.2567		95.987
-3.09228	-34.514		96.0599
-5.72615	3.2694		97.1136
-5.7652	8.43192		93.4583
-8.45215	1.45214		94.466
-18.929	-16.6972		86.9
-19.2588	-16.0635		85.5474
-19.1946	-18.1356		86.0469
-18.3368	-16.1953		89.0399
-18.0729	-15.2121		89.1602
-6.06312	-28.8132		96.3531
-4.4128	-29.3177		97.3494
-6.01978	-27.919		97.0154
-7.72731	-28.6723		94.899
-6.09327	-30.2886		95.7448
-5.73671	-27.2454		98.2157
-5.52602	-26.4856		100.004
-17.5084	-15.4686		91.2016
-18.0565	-17.0121		90.1301
-17.1682	-14.6218		91.5659
-19.2676	-20.6691		85.2243
-18.805	-23.1365		85.0746
-18.5666	-19.6447		87.4718
-4.20472	-40.3861		96.1727
-3.86325	-38.2099		95.9173
-7.00883	-39.7239		95.7646
-4.50707	-42.2006		96.4655
-25.3775	-30.8631		81.4055
-23.4366	-26.7932		81.281
-27.7512	-30.9018		80.3074
-27.6625	-35.0531		81.5106
-22.9545	-31.0317		82.8586
-11.3139	-65.1401		90.3162
-15.4054	-64.7032		88.5262
-11.4859	-68.1508		90.0385
-7.43419	-65.2544		91.443
-11.1929	-62.6734		90.8716
-27.4792	-49.3832		80.4412
-27.2341	-47.6265		81.8992
-30.0174	-51.0147		76.9738
-27.8905	-50.1196		79.4711
-16.8774	-13.9865		91.5056
-15.3237	-13.2235		94.4976
-16.8957	-13.1127		90.1702
-19.3222	-64.0033		86.1552
-19.0515	-61.8177		86.6169
-22.7079	-62.8996		83.5308
-19.4718	-66.8176		85.9509
-4.03624	-65.2498		91.9842
-4.02128	-62.9438		92.5496
-4.08954	-68.0718		91.7519
-60.4546	29.4767		57.1419
-61.2732	31.1218		55.3096
-62.1455	24.211		52.6505
-59.4444	28.167		58.8223
-41.6158	56.9251		72.0279
-42.5116	62.5231		68.2334
-47.6006	54.1006		67.0057
-41.1368	51.7512		75.0419
-36.0529	58.9895		76.2323
-53.665	50.6197		61.0422
-54.6696	56.2518		56.9453
-59.3044	46.3861		53.9546
-53.0585	45.5477		64.3894
-41.4707	43.4616		77.191
-41.1722	46.2807		76.9821
-41.8369	40.2826		76.879
-36.2643	45.6055		81.9884
-62.5997	32.858		52.1202
-65.4941	27.0475		45.9916
-58.1558	37.8693		60.0299
-63.4999	35.9928		49.173
-23.0834	34.8539		81.4671
-19.7273	33.9888		81.6928
-22.516	36.2486		82.7479
-27.1339	35.1777		80.5965
-23.7383	33.2318		79.6037
-6.11206	19.6187		85.9086
-5.9766	16.8617		87.4993
-3.73134	21.3475		87.6886
-6.28723	21.7313		84.8791
-8.23749	17.1906		83.3949
-29.4788	-3.51038		73.784
-23.5416	-1.46223		75.536
-27.4341	0.61254		73.3071
-36.6709	-5.24709		71.8325
-31.5294	-8.16654		74.4881
-58.0622	7.66566		55.076
-55.5857	4.37113		57.9639
-55.2491	9.05048		57.2567
-58.981	11.8568		54.0071
-60.6734	6.71628		52.8729
-5.77886	13.1243		90.191
-3.45693	14.8837		91.6401
-8.18493	10.7292		87.9845
-42.2096	37.6688		76.3895
-41.9978	35.5723		75.9271
-36.7493	39.9457		80.6
-47.4753	36.0234		72.8825
-52.3475	33.8688		69.0043
-55.9942	30.7008		64.7074
-51.6273	31.8651		69.3867
-54.8934	16.7583		58.5982
-56.8388	16.7271		56.8908
-54.2186	13.3269		58.1162
-52.8489	17.0105		60.2402
-55.2439	20.6736		60.3264
-42.9137	23.2481		69.182
-41.1506	24.4703		70.5871
-44.476	21.7235		67.4726
-39.1439	25.5977		71.6502
-36.6912	26.4646		72.2899
-39.2524	26.3038		72.0817
-41.5311	25.1737		70.9756
-36.492	27.2166		72.7618
-33.7272	26.9205		72.5843
-30.7063	26.8203		72.5579
-33.3812	27.638		73.0198
-30.1579	27.4801		72.9275
-27.9098	26.2491		72.2264
-25.2644	25.1657		71.6975
-22.6215	23.7027		71.0246
-20.3961	22.2796		70.3568
-21.3288	24.352		71.329
-24.0913	25.6888		71.9863
-19.1308	22.9329		70.7256
-18.984	21.0365		69.8437
-20.06	24.8415		71.7648
-23.0119	26.3798		72.5132
-33.1027	28.4772		73.619
-29.6538	28.2745		73.5213
-47.9059	16.4705		63.2143
-46.7983	15.6451		63.8616
-31.5776	35.0056		79.4911
-31.6758	33.3811		78.0324
-31.5466	36.9289		80.8484
-36.6443	34.3901		77.782
-48.036	27.0665		69.8041
-46.3008	25.8562		69.9218
-44.8202	28.6834		72.1714
-49.5734	28.587		69.7404
-36.6687	9.3004		70.0832
-29.7749	9.76669		71.7589
-42.1123	9.515		67.5411
-37.2432	7.38285		69.8116
-24.1588	11.1557		71.9614
-24.117	9.56296		72.2098
-20.3569	12.4758		71.7942
-16.4977	16.1816		71.2699
-17.3788	14.9052		71.511
-16.0258	17.1702		71.0617
-35.8417	12.6941		70.4836
-29.9512	12.8702		71.6807
-40.7873	13.0534		68.4395
-19.8026	15.9055		70.327
-18.9659	16.5212		70.0374
-21.4966	15.0011		70.7954
-18.278	17.0452		69.9365
-17.6505	17.7437		69.923
-13.5004	25.4666		75.4691
-12.9694	27.4427		77.8069
-15.317	27.1308		75.6523
-14.2891	23.3612		73.0014
-15.7025	18.7277		70.9866
-26.2403	27.5488		73.1146
-15.0034	22.456		71.9435
-16.3318	23.9502		72.1042
-14.4391	20.9939		71.9302
-35.8163	14.1386		70.581
-29.9622	14.1658		71.6314
-20.0402	16.7749		69.7387
-21.6244	16.1785		70.2558
-19.2088	17.0974		69.582
-18.7298	17.4986		69.4244
-45.5667	20.1908		65.8173
-3.79548	34.0913		86.5935
-4.34164	36.9088		87.0484
-6.57967	33.5923		85.889
-3.15445	31.9228		86.3569
-17.7612	7.37912		74.7209
-20.7266	5.86992		73.8833
-18.6283	4.60494		75.6664
-15.859	8.89195		75.5129
-17.4165	9.34806		73.9722
-13.9109	10.6569		76.7659
-12.0218	12.8121		78.4382
-13.8366	16.0294		73.6152
-14.0354	17.7565		72.686
-12.2761	17.0925		75.2825
-9.81155	24.9278		79.4997
-9.32967	25.9454		80.743
-10.968	26.8356		79.2849
-18.4443	13.7229		71.6751
-17.7907	12.5485		72.4313
-17.371	11.0462		73.2046
-19.8936	9.54661		72.8175
-23.3982	-51.672		79.5681
-19.7912	-50.7449		83.0227
-26.7651	-52.4266		76.3401
-23.3226	-51.6039		79.2734
-28.534	-52.7887		75.0981
-28.2116	-52.6654		75.1149
-4.76535	-45.5619		96.4829
-4.66603	-46.6848		96.1626
-4.7084	-44.313		96.6376
-7.91473	-45.0199		95.8923
-10.6343	-47.1226		94.0006
-13.5762	-47.1187		92.596
-10.4508	-47.9256		93.2703
-7.89956	-47.2101		94.9364
-10.6367	-46.1266		94.6263
-16.5676	-47.3629		90.5964
-19.7069	-48.1439		87.8557
-16.4468	-48.3368		89.588
-16.6619	-46.406		91.299
-10.5823	-44.9233		95.0905
-10.4981	-43.6986		95.3632
-13.4541	-45.0951		93.7816
-15.4203	-43.4588		92.9245
-16.2332	-44.4111		92.3784
-12.3971	-43.0279		94.6085
-14.9019	-42.4104		93.1589
-23.1482	-49.7059		83.579
-23.0523	-48.5466		85.1605
-9.91146	-48.6648		92.344
-13.2294	-48.7904		90.6058
-9.49143	-49.0697		91.4314
-6.99627	-48.5864		93.5313
-16.603	-49.3212		87.984
-16.4523	-49.8417		86.8335
-29.3734	-51.6385		76.6954
-30.5675	-53.0558		75.0324
-23.5705	-52.5876		80.1759
-23.6061	-52.7453		80.4858
-19.8631	-51.883		84.0912
-23.5351	-52.5447		79.9235
-24.0191	-53.8787		81.039
-20.5483	-53.6227		85.2976
-23.8615	-53.4571		80.9432
-17.3928	-53.5663		88.287
-17.7933	-54.3328		88.2118
-13.9474	-53.5847		90.9153
-17.1667	-52.8707		88.1083
-9.50715	-51.6987		92.5242
-6.35163	-51.4731		93.617
-9.40827	-50.8848		92.0234
-13.3217	-51.935		90.5414
-9.73524	-52.5737		92.8509
-3.98611	-53.1633		94.8033
-3.89102	-52.189		94.526
-6.57492	-53.2938		94.254
-4.06553	-54.1869		94.9446
-28.7334	-54.2518		74.4942
-28.6254	-53.649		75.0257
-26.8436	-54.0032		76.051
-28.593	-55.6336		74.0732
-3.57781	-50.9708		89.6775
-3.58104	-50.2483		91.0483
-3.54298	-52.2253		88.4476
-6.02789	-51.1638		89.149
-4.09146	-55.2925		94.9602
