1846
-33.0294	-59.4947		-82.0842
-39.7685	-99.6056		-70.7431
-41.713	-79.5181		-69.1593
-31.6605	-78.5481		-77.048
-29.92	-97.8581		-77.3575
-29.8407	-115.646		-78.1155
-63.816	80.5224		-44.6689
-61.8691	68.7518		-67.5695
-70.1729	57.9246		-55.9203
-72.4181	66.2891		-34.3127
-73.5306	68.8247		-11.9929
-65.7939	84.0504		-20.48
-59.3416	27.9399		-90.9117
-60.8118	49.7987		-82.7561
-54.0944	-18.2713		-87.1105
-57.5689	4.96583		-91.8129
-52.095	-39.3749		-76.311
-74.3511	33.3816		-60.0774
-61.7407	-17.9163		-76.4265
-68.086	-16.484		-66.3328
-71.0674	0.923106		-69.8903
-64.9478	2.91037		-81.2757
-72.5841	17.6381		-68.9008
-66.5939	23.262		-80.6415
-68.3864	42.3328		-71.9535
-61.1403	-47.793		-52.9063
-64.4313	-32.5507		-59.7556
-58.4382	-36.5596		-68.0469
-94.6188	9.68131		-35.1868
-92.7891	10.3459		-36.4035
-93.7967	17.2245		-27.4126
-91.8805	18.3474		-28.5589
-90.1783	13.5181		-12.9437
-88.3664	14.4198		-14.9037
-86.1631	13.8315		-17.8863
-91.0721	8.75794		-37.3159
-90.686	16.9453		-29.8477
-93.9289	-2.17206		-37.2742
-93.2507	17.0017		-18.1832
-94.4413	15.9742		-26.9527
-40.1015	-118.037		-72.1719
19.1601	-99.9978		76.7277
16.0461	-101.426		76.7144
21.8286	-99.2297		73.3674
19.7977	-98.3585		79.4207
69.0169	-4.96393		47.2866
67.108	-3.51612		50.4949
69.1647	-8.30563		46.7598
70.5148	-2.03126		43.6125
65.2731	-1.53444		52.694
65.4527	2.18105		51.2301
62.5628	-2.45455		55.9701
13.6431	38.9875		86.2928
16.1888	37.6428		85.6411
17.0452	41.6131		86.2498
10.8528	40.2328		86.7039
11.2702	35.3899		84.783
10.668	19.9557		78.0489
11.4367	18.8266		77.2397
11.2045	21.4211		77.3585
10.0674	20.4308		78.8533
14.5835	20.1382		72.945
16.3667	18.6641		70.5527
15.2317	21.6534		72.6741
12.9275	21.8402		75.3724
14.1329	18.651		73.5181
45.6286	15.5231		63.4355
42.3806	13.9069		65.5595
47.3847	16.934		62.0455
18.2266	12.7613		71.1901
17.8286	13.8074		70.9441
17.8464	11.7865		72.2424
19.8122	11.967		70.4628
23.9028	-54.2937		83.013
23.7758	-54.159		83.2594
24.0421	-54.4415		82.5634
23.7824	-54.2178		83.3173
22.6912	-52.7145		85.0313
23.0245	-53.54		84.0641
23.7291	-53.3865		84.3108
22.7975	-52.1939		85.4817
21.222	-52.0346		85.9111
26.8414	-54.3516		83.3375
26.8293	-51.7031		84.2405
24.4454	-54.6752		81.6985
23.8952	-53.8619		82.2824
25.283	-54.7431		80.1993
24.2148	-54.9873		82.0861
20.3062	-57.7424		87.4499
20.7985	-58.5895		87.2383
22.3016	-56.0023		85.2704
20.1009	-57.0209		87.4132
18.1683	-59.5929		89.5041
17.4959	-45.3363		90.0402
16.932	-43.8555		90.467
14.2846	-43.4787		91.9362
17.7888	-46.1977		89.776
20.1607	-47.5191		88.3249
22.996	-54.2091		84.0269
23.1006	-54.2515		84.0211
23.1144	-54.228		83.9321
21.4777	-54.0892		84.7757
80.3913	-36.8933		-5.86194
79.7997	-37.3359		-5.00291
79.9317	-40.3408		-8.76492
80.9711	-35.9011		-5.81944
88.5082	-27.3057		-17.8968
89.0193	-25.3951		-20.6221
87.3919	-25.6959		-16.7458
88.0301	-28.5131		-15.3862
88.9847	-28.628		-18.5074
83.5086	-33.7221		-7.73843
83.6616	-31.0722		-7.16669
82.8568	-34.0329		-6.989
84.1714	-34.9705		-9.29898
83.6976	-21.1424		-11.4974
83.6064	-20.0265		-12.4182
83.6659	-19.2844		-11.3485
83.9696	-21.6052		-10.1515
84.1165	-22.6464		-11.8096
88.9911	-1.04926		-13.1037
88.4734	-3.05042		-13.795
89.259	-0.232468		-13.6852
89.0544	-0.503042		-12.217
92.2332	10.0465		-17.4353
92.2732	10.6377		-16.4825
91.8473	9.08556		-17.3824
93.3596	11.2323		-20.4781
86.0641	-18.7081		-18.4829
85.1414	-17.2566		-17.1351
85.6057	-22.5846		-15.7174
88.2631	-21.8008		-21.136
88.3286	-16.1439		-22.4563
90.6974	0.425469		-19.4956
91.0647	1.58711		-19.8763
89.5727	-0.0864683		-15.7371
90.6391	-0.893497		-20.502
93.8589	-10.2816		-31.1705
93.7577	-10.0745		-30.5997
93.0347	-13.4339		-30.6775
94.2007	-9.12878		-32.1524
94.4697	-7.44203		-33.8522
94.6497	-5.29726		-32.8436
94.3745	-8.13833		-34.8899
94.701	-4.34695		-35.1677
89.454	-23.7077		-22.6317
89.8822	-21.4071		-24.5175
89.8807	-24.7409		-23.4131
91.545	-9.83679		-27.0704
90.5624	-11.8589		-25.892
92.8013	-10.0866		-28.9089
91.5585	-8.478		-26.8316
81.8799	-28.8129		-3.96303
81.9131	-31.0958		-4.56993
82.5026	-28.3618		-4.85842
81.6496	-27.9751		-3.34379
81.5532	-26.341		-2.67038
81.9009	-24.2506		-2.73952
81.1745	-26.5254		-1.78118
83.0716	-17.1094		-3.39479
82.8123	-17.6836		-2.94121
83.3991	-17.4315		-4.26542
83.5461	-13.8443		-3.73029
82.4979	-18.4998		-2.43634
82.1548	-18.3811		-1.52254
82.2969	-20.9428		-2.61555
85.6569	-24.2046		-14.3775
85.5097	-25.2764		-12.5583
85.543	-12.0631		-12.019
84.4572	-15.9542		-11.6071
85.4283	-12.558		-13.5066
86.6593	-8.16949		-12.4137
85.9541	-10.9341		-10.8239
94.5945	6.11704		-29.3367
94.7146	6.87038		-29.6074
94.4517	5.67964		-28.762
94.809	4.94177		-31.0502
94.7592	1.24339		-31.7839
94.6054	0.113271		-30.3344
94.7882	-0.44183		-32.6454
94.8457	2.59139		-32.6421
94.5728	3.03411		-29.8981
91.6582	8.4535		-17.5426
92.4608	8.6008		-20.1411
91.0764	7.55303		-16.423
93.3868	8.52491		-23.3961
92.984	7.44003		-22.6826
94.4432	8.28394		-27.4198
93.9304	9.83476		-24.2806
41.3573	24.6627		71.7801
43.5959	23.8458		70.2512
38.7735	25.2124		72.8258
25.6877	-98.1245		68.5764
24.6979	-99.3648		64.3908
28.1029	-96.3964		68.6175
48.3943	20.1662		63.6388
47.2341	21.6413		66.0843
49.2406	18.9717		61.9941
52.1835	22.7723		63.0869
54.1499	24.4439		62.5482
50.3513	25.4842		66.7718
50.2507	21.7775		63.8751
52.9322	20.4622		60.7111
74.1786	-50.0164		-0.840712
75.0752	-48.212		-5.55011
74.5966	-48.4496		0.538863
73.4397	-52.2536		-1.16389
19.8859	17.7517		67.4805
20.3024	17.0729		67.2803
19.9333	18.6262		67.6428
18.822	20.1529		68.781
20.1613	21.7634		69.3452
18.584	18.8706		68.4994
9.38226	21.732		79.7218
8.73304	21.8538		80.5287
9.51616	23.7577		79.7386
17.9641	-51.9381		86.7608
18.6015	-52.6565		85.8318
18.3221	-51.3715		87.1215
14.9606	-50.9416		88.3075
66.5893	-72.8077		-5.48459
65.7755	-72.8687		0.0840633
66.0114	-75.4905		-7.36585
67.471	-70.259		-6.1352
81.6312	-5.82251		1.61255
80.6755	-13.2051		4.55517
82.4266	-6.56015		-0.938131
82.4432	2.0726		-2.13516
80.6519	-4.80919		5.86184
66.9936	-75.4415		-19.0922
66.4417	-77.6352		-20.7994
67.6978	-71.0376		-19.6003
66.3976	-77.8246		-14.2394
63.8596	-110.67		-24.6498
63.8888	-119.038		-26.2425
62.2958	-107.018		-32.4963
63.8628	-101.785		-24.4519
64.0437	-113.254		-18.4365
23.3639	-54.6345		84.1036
23.5117	-54.7924		84.0869
21.85	-54.9604		85.1773
23.753	-55.0577		84.0827
19.8212	-56.5586		87.4673
19.8091	-55.9523		87.2117
17.6754	-57.8997		89.5207
30.0341	-94.7069		68.7311
33.9368	-92.8427		62.9179
30.1179	-92.7715		72.2504
50.0274	-61.6116		-64.6872
48.6988	-57.6815		-68.8524
52.7095	-60.6765		-60.8587
49.0883	-64.7468		-64.4662
57.8305	80.4944		34.8977
59.435	82.3948		27.8074
53.8902	83.7138		37.6711
58.8923	76.433		37.8073
91.1556	-20.0624		-31.7715
92.4573	-14.9477		-34.7589
91.6833	-19.2607		-30.7744
90.0087	-24.3148		-29.0754
90.5301	-20.1017		-33.0179
86.3376	-0.0148933		-7.60831
85.4959	-4.38929		-6.34357
87.3	-0.0959146		-8.26713
87.1275	4.35232		-9.31202
85.0913	0.149877		-6.88294
83.7879	-21.6355		-6.32577
83.3486	-22.3513		-5.2396
84.1808	-24.2592		-7.48187
84.1176	-21.8466		-7.87578
83.7911	-19.9427		-6.06304
83.5698	-28.1642		-6.49017
83.1559	-25.3303		-5.33241
84.3942	-27.8317		-7.8629
93.4447	-9.12325		-37.3148
92.664	-9.11699		-38.1312
94.0822	-2.89622		-38.4851
93.9205	-9.13929		-36.4516
91.6393	-8.97978		-38.8005
90.8592	-14.5977		-36.7361
90.5866	-8.74268		-39.1812
92.0958	-2.89869		-39.7839
83.8989	4.21035		-8.23426
84.115	6.46818		-9.99888
83.6977	5.24639		-7.99628
83.9604	2.5324		-7.0441
87.7794	-18.2455		-36.0133
86.091	-17.7002		-36.7931
88.4715	-13.796		-37.9175
88.8411	-18.8499		-35.3023
86.7221	-22.2136		-34.0201
90.0392	-25.7958		-24.1658
90.6081	-22.6403		-26.6942
89.6555	-27.8266		-21.9582
89.8987	-26.7316		-25.3469
87.3903	-34.5774		-21.916
86.7816	-36.4806		-18.9915
86.0128	-35.9947		-22.9355
88.3619	-31.3094		-24.7188
88.7935	-31.8663		-20.5639
88.1631	-32.9189		-15.2867
87.6006	-34.6509		-15.574
88.6771	-31.7644		-16.9291
87.7665	-32.2608		-13.9882
77.5022	-43.7094		-10.9011
76.9473	-44.6696		-11.3651
78.5944	-42.7392		-12.6538
77.5567	-42.841		-6.57644
82.3486	-40.0824		-12.0847
82.6683	-40.8106		-14.4238
83.5914	-38.6878		-11.7225
81.9352	-38.3233		-9.12195
81.3011	-40.9526		-12.3033
89.9681	6.64012		-10.5394
90.0113	8.1535		-10.6775
88.6122	3.08912		-9.64838
90.2549	6.6133		-10.8853
89.9896	9.09527		-10.9286
91.2746	12.4412		-12.8685
89.6431	9.08238		-10.9363
94.153	-8.97694		-35.7141
93.2602	-13.7086		-33.1107
94.742	-3.27387		-37.1902
95.3305	5.37476		-34.0079
95.1216	4.34618		-33.7217
95.4422	4.72504		-34.8635
95.3118	6.9128		-32.5156
90.8999	7.69952		-12.6226
90.776	7.45686		-12.076
90.4435	6.11478		-12.8444
91.3751	9.31929		-13.6119
90.4296	6.56965		-11.2523
89.6018	3.3623		-11.1144
91.4591	10.86		-12.747
93.4942	-10.0585		-30.0184
94.1533	-7.08961		-30.3651
92.2061	-13.6655		-28.9097
90.0901	4.53139		-14.319
90.5033	6.16356		-14.8641
90.013	4.37136		-13.8551
90.3222	3.63636		-16.0308
90.8568	6.98438		-16.0412
91.2802	6.59848		-17.9577
89.6949	-14.9946		-24.8587
90.2887	-16.7769		-25.8936
86.1572	-10.1019		-9.69539
87.3047	-5.65624		-9.91894
86.0119	-10.1041		-8.61719
85.0037	-14.8508		-9.56393
89.3865	0.191322		-14.0016
89.6614	1.94939		-13.4582
54.4278	-58.7287		-58.9161
54.6769	-54.0745		-61.6059
55.8738	-58.9863		-56.1412
26.7994	-23.2587		80.4064
27.337	-26.5869		80.8026
27.6026	-21.9649		79.9849
24.9974	-22.8455		81.0877
22.1665	-21.1255		82.8485
22.5708	-22.1465		82.3731
22.9417	-18.8313		82.7995
20.8485	-21.2787		84.0785
51.8301	40.7853		69.7683
51.3646	38.9186		70.509
57.4713	35.8451		63.3832
52.6754	42.1764		68.412
47.8179	42.3678		73.2216
6.596	-22.8309		90.9361
5.84467	-22.1029		91.9043
6.3293	-23.4802		90.7188
8.12298	-23.2011		90.1679
8.8037	-19.7173		94.0974
6.89482	-19.9884		94.5505
10.4073	-20.7558		92.0273
9.62403	-18.6479		95.1278
48.059	17.7659		61.8421
47.7519	18.3578		62.2121
16.795	-12.5957		93.8312
16.9669	-13.4695		93.6387
17.4848	-12.7126		92.9764
15.2042	-11.5987		95.4963
85.6437	-26.3036		-31.7786
84.5247	-28.9058		-30.284
84.3215	-24.7046		-33.2332
86.672	-27.4334		-30.6497
67.1783	77.1412		14.8865
64.713	80.6893		16.1244
68.0593	72.5544		19.3857
68.9999	77.7069		5.18546
26.559	-60.131		78.8326
26.9718	-58.2977		78.1864
27.1991	-61.1359		77.9685
25.3331	-59.7504		80.158
25.6188	-49.1537		77.8286
24.1361	-49.281		79.3127
25.9523	-47.6667		76.8023
26.357	-51.1835		77.6081
-18.8457	-100.925		74.7306
-19.3198	-99.4877		77.485
-21.2875	-100.255		71.0331
-15.943	-102.15		75.0188
-68.4072	-4.24553		48.9758
-69.7845	-1.48274		45.4676
-68.805	-7.21441		48.3523
-66.2478	-3.01255		52.4669
-63.9964	-1.46373		55.1102
-61.2546	-2.54041		58.5186
-64.0334	1.89544		53.9271
-11.6913	39.2468		85.5634
-13.5785	37.2056		84.6191
-9.01931	35.838		84.6213
-8.80003	40.286		86.0408
-15.6011	41.5146		85.7926
-9.2313	19.9039		78.6932
-8.61424	20.4099		79.415
-9.66637	21.3953		78.0148
-10.0419	18.6247		78.0257
-12.9191	19.6816		74.1949
-14.7712	17.8648		71.8886
-12.4429	17.9654		74.9023
-11.3932	21.7518		76.1687
-13.6201	21.397		73.8534
-43.0732	12.9848		66.978
-39.233	11.4652		68.9699
-45.3083	14.3325		65.6036
-16.5789	11.5227		72.7297
-18.2047	10.6294		71.894
-16.2917	10.5663		73.8445
-16.1728	12.6221		72.435
-26.1142	-55.854		80.3709
-25.9791	-55.7186		80.6169
-25.9858	-55.7847		80.6745
-26.2573	-55.9877		79.943
-24.9895	-54.3619		82.4114
-26.0105	-55.0115		81.6281
-23.523	-53.6781		83.3878
-25.1171	-53.8655		82.8731
-29.1483	-53.3273		81.6581
-26.6504	-56.1941		79.1087
-26.415	-56.5249		79.4861
-27.4714	-56.1795		77.6681
-26.1126	-55.3891		79.6879
-22.5057	-59.0547		84.9197
-22.9488	-59.8729		84.7043
-20.1471	-60.4571		87.4072
-22.3002	-58.3704		84.9019
-24.5081	-57.668		82.7273
-20.7029	-46.9533		87.8971
-20.2738	-45.4085		88.4212
-22.9665	-49.257		85.9432
-20.9253	-47.8474		87.5787
-17.8734	-44.8189		90.1263
-25.2372	-55.787		81.3789
-23.7	-55.7082		82.2262
-25.3522	-55.8014		81.2803
-25.337	-55.8289		81.3753
-80.3799	-34.9496		-6.54434
-81.0553	-33.9967		-6.48223
-79.9039	-38.3463		-9.728
-79.804	-35.2675		-5.69867
-88.0831	-25.7704		-18.6405
-88.5474	-23.948		-21.3688
-88.5669	-27.0835		-19.3011
-87.6419	-26.8993		-16.1185
-86.9697	-24.1669		-17.4373
-84.0494	-31.8169		-8.47705
-84.7755	-32.9765		-10.1728
-83.5676	-32.0463		-7.81769
-83.7481	-29.1945		-7.70039
-83.2706	-19.5841		-11.8642
-83.1784	-18.5475		-12.7921
-83.6937	-21.0651		-12.2706
-83.5635	-20.051		-10.5111
-83.2291	-17.804		-11.6483
-88.3107	-0.0852157		-13.1086
-88.3765	0.452971		-12.1872
-88.564	0.708557		-13.6948
-87.8015	-2.03963		-13.8505
-91.4432	10.747		-17.4352
-91.4841	11.3265		-16.4509
-92.5376	11.9022		-20.5587
-91.0649	9.80669		-17.3883
-85.5452	-10.2061		-16.7917
-87.8432	-6.38881		-20.0575
-84.9697	-12.5902		-17.1754
-84.8683	-11.31		-13.708
-86.5218	-6.48078		-15.866
-90.6744	3.97462		-20.2832
-90.3115	2.45305		-20.0474
-89.5796	4.4751		-16.0589
-91.187	5.57149		-21.1196
-92.2194	3.4988		-25.2055
-82.7753	-29.0642		-30.5118
-83.9906	-27.5791		-31.2753
-81.5764	-28.9226		-31.0004
-82.6383	-31.3644		-28.9028
-93.1003	-9.27964		-31.8284
-93.4172	-8.158		-32.8086
-92.3134	-12.3747		-31.3752
-93.0036	-9.06929		-31.2409
-93.654	-6.51629		-34.5062
-93.8257	-4.39783		-33.4473
-93.8512	-3.48005		-35.7915
-93.5535	-7.21062		-35.5716
-88.9469	-22.3286		-23.3846
-89.3308	-20.1087		-25.2525
-89.3718	-23.3617		-24.2041
-87.7678	-20.4327		-21.8123
-90.8313	-8.80558		-27.6208
-89.8869	-10.7804		-26.4546
-90.834	-7.46836		-27.3494
-92.0683	-9.06525		-29.5049
-89.0689	-13.838		-25.4601
-89.6686	-15.5951		-26.5544
-87.7552	-14.9303		-23.02
-81.6734	-26.9339		-4.32494
-81.3835	-26.1246		-3.68178
-82.2736	-26.5238		-5.233
-81.9061	-29.172		-5.10543
-81.2631	-24.5266		-2.92456
-80.8867	-24.684		-2.01264
-81.5674	-22.5071		-2.92751
-82.6354	-15.6065		-3.38279
-83.0606	-12.4499		-3.64392
-82.968	-15.9283		-4.29373
-82.3859	-16.158		-2.92928
-82.0856	-16.9432		-2.42821
-81.918	-19.3082		-2.68895
-81.7425	-16.8178		-1.47423
-85.2422	-22.6465		-14.995
-85.1769	-21.1027		-16.3123
-85.102	-23.6764		-13.1235
-84.9911	-10.8077		-12.1675
-83.9617	-14.5835		-11.83
-85.3979	-9.70107		-10.942
-86.0624	-7.02383		-12.5031
-83.5241	-16.4005		-11.3084
-83.7811	-16.3445		-10.4239
-93.7337	6.84695		-29.6991
-93.9402	5.68342		-31.4648
-93.6006	6.41975		-29.1165
-93.846	7.58652		-29.9666
-93.9065	2.04183		-32.2663
-93.774	0.939521		-30.8045
-93.7293	3.81364		-30.3141
-93.9755	3.36451		-33.1206
-93.9388	0.378986		-33.1701
-90.8801	9.18399		-17.5576
-90.3119	8.30102		-16.4093
-91.6611	9.31863		-20.2325
-92.5619	9.23309		-23.5817
-92.1731	8.16928		-22.8614
-93.0891	10.5213		-24.4777
-93.5857	8.9845		-27.7129
-91.6472	6.92065		-21.9282
-92.8846	6.4421		-26.1672
-90.5109	7.36315		-18.0063
-38.6698	22.5282		74.5068
-35.7882	23.2684		75.3215
-41.1784	21.4553		73.1261
-25.0942	-99.2803		65.6544
-27.5926	-97.6513		65.3645
-23.9108	-100.492		61.5115
-46.2807	17.5571		67.2424
-47.2304	16.2947		65.6559
-45.0242	18.9826		69.3583
-50.7114	20.3778		66.8483
-49.5209	22.8515		69.5684
-53.0429	21.6104		65.8966
-50.8053	17.501		64.5854
-48.6073	19.1175		67.3237
-74.4695	-47.4079		-2.21665
-73.7857	-49.6346		-2.70516
-74.865	-45.8373		-0.684275
-75.2638	-45.8444		-6.9167
-19.2369	16.7694		68.2122
-19.5221	16.1227		68.0102
-19.3975	17.5809		68.4316
-17.8251	19.2005		69.8325
-18.8221	20.6223		70.5363
-17.4354	17.9043		69.5787
-7.79495	21.8123		80.2035
-7.87458	23.8909		80.121
-7.07569	21.9854		80.9824
-20.3829	-53.4344		84.3887
-17.6693	-52.2468		86.3213
-20.8274	-52.9357		84.7394
-20.8866	-54.1615		83.3345
-67.0626	-70.6538		-8.68903
-67.9086	-68.0017		-9.12535
-66.3648	-73.5056		-10.713
-66.468	-70.5588		-3.28634
-81.0573	-4.65067		2.12423
-80.1937	-11.7698		5.02622
-80.071	-3.65657		6.59337
-81.7998	2.98851		-1.62659
-81.8595	-5.37728		-0.571147
-66.8502	-73.8105		-21.9808
-66.4235	-76.1021		-17.443
-67.5419	-69.3275		-22.2775
-66.2094	-76.1278		-23.7216
-63.4935	-109.951		-27.8968
-63.4982	-118.455		-29.2981
-63.7501	-112.546		-22.0052
-63.5097	-100.897		-27.7436
-61.8438	-106.306		-35.363
-25.5894	-56.2244		81.4694
-24.0527	-56.5978		82.6528
-25.4394	-56.0635		81.4734
-25.7193	-56.375		81.4598
-27.2936	-55.959		80.9422
-26.5359	-57.2386		81.4171
-21.9919	-57.9059		85.0166
-19.6593	-58.7539		87.4872
-22.0137	-57.352		84.7357
-29.6427	-96.0864		65.1855
-29.7592	-94.3768		68.4575
-33.702	-94.3292		59.088
-49.1261	-60.997		-65.9589
-48.1909	-64.1443		-65.7662
-51.8801	-59.9855		-62.2227
-47.7137	-57.128		-69.9828
-57.3217	79.2745		36.0949
-58.3791	75.0879		39.2522
-53.4154	82.4432		38.8199
-58.924	81.3702		28.7685
-90.4838	-18.912		-32.6253
-91.6948	-13.9171		-35.5568
-89.8402	-18.9681		-33.8888
-89.4252	-23.0554		-29.9832
-91.019	-18.1064		-31.5924
-85.6781	0.947904		-7.37915
-84.8834	-3.29639		-6.14586
-84.4466	1.1047		-6.62462
-86.4302	5.18431		-9.07173
-86.628	0.874929		-8.0645
-83.4096	-20.0285		-6.55336
-82.9799	-20.7026		-5.45449
-83.3975	-18.3844		-6.2292
-83.7387	-20.2631		-8.1702
-83.8181	-22.5917		-7.83175
-83.3459	-26.3648		-6.90331
-82.8363	-23.5912		-5.65173
-84.1294	-26.072		-8.32083
-92.6018	-8.21065		-38.0471
-93.0894	-8.21538		-37.1751
-93.1782	-2.09335		-39.1392
-91.8113	-8.21583		-38.866
-90.7823	-8.09138		-39.5287
-90.0728	-13.5963		-37.5349
-91.1866	-2.12413		-40.4338
-89.742	-7.8657		-39.8929
-83.2401	5.08277		-7.96702
-83.3138	3.43075		-6.75017
-83.0337	6.07049		-7.67675
-83.4272	7.29228		-9.76249
-87.0574	-17.1781		-36.8378
-85.361	-16.6489		-37.5938
-86.0649	-21.0577		-34.9026
-88.1234	-17.7636		-36.1478
-87.6877	-12.8202		-38.6806
-89.5351	-24.4173		-25.0133
-90.0398	-21.3627		-27.5045
-89.3909	-25.3622		-26.2511
-89.1974	-26.3701		-22.8202
-87.0216	-32.9942		-23.0107
-88.4063	-30.3041		-21.5365
-87.9079	-29.8466		-25.7512
-85.6393	-34.3995		-24.107
-86.5074	-34.7959		-20.0971
-87.8856	-31.2129		-16.1547
-87.5063	-30.541		-14.7546
-88.3357	-30.1119		-17.8127
-87.3852	-32.9467		-16.4815
-77.4955	-41.6268		-12.1155
-77.6345	-40.6456		-7.65003
-78.5366	-40.7347		-13.8406
-76.961	-42.582		-12.6371
-82.74	-37.763		-12.925
-82.7134	-38.8312		-15.5556
-81.2967	-38.9281		-13.3617
-82.6263	-36.0685		-10.2117
-84.1601	-36.4454		-12.6683
-89.2346	7.43853		-10.3428
-89.5265	7.40964		-10.7125
-87.9065	3.97696		-9.45362
-89.2643	8.91044		-10.4618
-89.2354	9.81364		-10.7003
-88.9042	9.79679		-10.702
-90.4842	13.0801		-12.6708
-94.4232	6.09435		-34.4804
-94.411	7.61799		-32.9395
-94.5297	5.447		-35.3643
-94.2249	5.08578		-34.1988
-90.1592	8.4598		-12.4963
-90.6174	10.0414		-13.5002
-89.7141	6.90941		-12.74
-90.0402	8.22539		-11.9412
-89.7036	7.36429		-11.1014
-90.6952	11.5551		-12.5964
-88.9022	4.23315		-10.9943
-92.7466	-9.04706		-30.643
-91.5113	-12.5796		-29.5698
-93.3704	-6.12806		-30.9496
-90.0974	7.74717		-16.0201
-89.7553	6.94911		-14.8185
-89.3583	5.35657		-14.278
-89.2841	5.20146		-13.7992
-85.6	-8.87742		-9.76336
-86.7006	-4.55469		-9.89977
-84.5081	-13.4979		-9.74103
-85.4618	-8.86476		-8.63505
-88.6872	1.12101		-14.0141
-88.9485	2.84168		-13.4283
-88.8571	0.840022		-15.8092
-53.6323	-57.9899		-60.305
-55.1281	-58.1873		-57.5989
-53.8216	-53.3705		-62.8801
-29.5863	-23.9754		79.6844
-27.7756	-23.6111		80.3112
-30.3656	-22.6312		79.3801
-30.0073	-27.2165		79.8722
-24.9111	-21.8305		82.0899
-23.7079	-21.9859		83.2432
-25.6765	-19.3227		82.1693
-25.3003	-22.8193		81.5943
-52.3841	37.3759		71.4882
-52.3777	35.5418		71.7755
-46.8592	39.8691		75.7764
-52.7763	38.9264		70.565
-57.4738	32.7908		65.8362
-9.65955	-22.3462		92.4877
-9.99153	-21.8215		93.1617
-10.2955	-22.9623		91.4024
-8.57207	-22.3987		93.143
-10.4328	-21.1181		94.3242
-11.6024	-20.8427		94.185
-9.46006	-20.6909		95.9774
-46.0799	15.1559		65.4382
-45.7373	15.8637		65.8791
-20.6409	-13.5095		93.3132
-19.3215	-12.5339		95.0022
-21.1551	-13.5803		92.4879
-20.7588	-14.4137		93.1038
-66.5872	76.3923		15.6931
-68.3472	77.1368		5.75756
-67.5004	71.7246		20.427
-64.1394	79.9153		16.8736
-28.5322	-61.4616		76.3311
-27.3248	-61.1668		77.6497
-29.1312	-62.2731		75.4875
-29.0173	-59.5979		75.7114
-27.9276	-50.351		75.5334
-28.5915	-52.3597		75.2663
-28.2731	-48.7021		74.6357
-26.4727	-50.665		76.9676
-13.1912	-20.6722		93.6742
-14.0879	-19.6154		94.6798
-14.2971	-21.7339		91.5459
5.57098	-20.3444		94.6505
4.33021	-20.0763		96.1932
5.2613	-21.0174		93.5784
4.9729	-21.546		92.9487
3.69405	-21.7624		93.5585
-10.8339	-23.745		90.3755
-11.9731	-24.1182		89.6365
-10.594	-24.3621		90.1139
82.5587	-36.0513		-25.1208
80.8479	-36.6515		-24.8713
83.0917	-32.803		-27.84
83.7253	-36.4094		-24.4858
81.4934	-39.4391		-21.6045
73.2718	-49.1867		14.1018
72.0622	-50.7221		21.9634
72.1485	-53.8322		13.1077
74.3353	-47.2922		7.14996
74.2346	-44.2718		15.0545
60.0948	-117.349		-4.43517
59.9136	-107.27		-3.72345
57.5202	-118.517		-0.0788911
60.6739	-127.456		-5.81245
62.1061	-115.993		-8.95004
61.3118	-134.763		-7.25091
61.8724	-140.532		-8.63686
63.0358	-132.908		-11.9196
58.9259	-136.682		-2.65069
54.176	-102.078		6.69252
54.8694	-96.1868		7.95337
50.7122	-103.73		11.3552
54.0221	-109.611		5.47078
57.446	-100.897		1.60247
63.4112	-98.6923		-12.0151
63.2763	-105.547		-12.5698
64.2518	-97.3065		-17.3226
63.6858	-93.3295		-11.6306
61.9905	-99.3411		-7.53681
65.3527	-69.3136		25.3017
66.8581	-65.5797		26.9681
63.2307	-70.938		32.6823
63.6752	-72.8542		23.1046
66.7634	-67.8437		17.6862
75.4244	31.8131		23.3758
76.0141	39.7948		19.1979
71.3906	34.843		34.0207
75.1023	24.2126		26.1602
78.6438	30.1697		11.9638
80.1691	41.9324		-28.4716
79.5107	38.8474		-38.0727
78.4399	49.0154		-33.6076
80.6631	43.7422		-17.9585
81.4596	34.4872		-23.6784
10.2396	-117.563		37.4332
7.52666	-117.823		37.9641
10.043	-124.178		36.7058
13.5358	-117.073		36.5885
10.3527	-113.288		39.3645
10.6731	-134.377		34.4414
11.3406	-144.821		31.2612
14.4279	-133.434		33.1522
7.28501	-134.628		35.3685
4.11051	-152.659		30.3282
7.91145	-152.339		29.9218
4.00424	-145.486		32.5229
0.446223	-152.656		30.4151
4.39052	-157.476		28.8985
69.2765	-54.7781		-30.555
71.8	-48.7485		-28.3802
68.8927	-61.262		-25.1173
66.67	-60.8207		-32.7997
69.9438	-47.0909		-34.9511
70.754	-41.5729		-38.1392
67.0719	-47.3464		-41.4397
71.5976	-36.7661		-40.6943
73.9187	-36.9619		-35.0549
63.8666	-125.886		-28.3178
63.6857	-132.421		-30.7605
62.2862	-123.054		-35.1877
64.4326	-128.993		-21.8382
4.09441	-134.955		35.8061
4.36879	-124.808		37.9628
1.06028	-134.972		35.8731
70.4048	-52.1241		29.718
71.389	-46.3721		29.9668
68.3186	-52.5313		37.0519
69.3798	-57.0973		29.0291
67.8904	-66.2567		9.86793
66.2239	-70.0999		8.31961
68.605	-65.3929		1.83529
69.4893	-62.1959		11.0266
10.8642	-92.4227		90.3813
6.78858	-92.9123		91.6251
10.8202	-96.2768		88.4348
15.3602	-91.3608		88.5666
10.6449	-87.8153		91.4446
20.2604	-89.2231		86.1778
20.339	-92.9902		84.4863
25.3964	-86.6354		82.8576
20.0345	-84.9399		87.1229
2.95757	-84.0585		93.1663
6.53916	-83.5368		92.6124
2.74615	-79.0392		92.4471
-0.553551	-84.2444		93.2483
3.01964	-88.761		93.213
10.6449	-99.1871		85.7519
10.8958	-101.295		82.0584
15.3129	-98.0096		84.1886
6.7619	-99.7287		86.8598
11.6999	-102.764		76.9493
7.31305	-103.634		77.6229
12.2879	-103.712		70.7783
18.0483	3.82647		78.1459
18.3746	-0.54534		80.9805
21.0117	1.76795		76.6021
17.6942	7.66922		75.563
15.0187	6.14285		80.2145
48.2232	-23.9676		70.7199
54.8571	-24.6727		65.1573
47.9566	-18.4768		70.487
41.5227	-23.2636		74.8452
48.3499	-29.2446		70.8394
60.6482	-13.8247		59.137
65.2005	-14.1742		53.056
59.7597	-8.12122		59.8819
54.5093	-12.671		65.1496
60.6907	-19.7488		59.021
71.3489	2.79155		40.8175
73.2077	1.27764		36.2738
70.9899	10.2084		39.8901
69.1002	4.96429		44.7305
48.4263	-34.6278		70.6947
48.3316	-40.2447		70.6039
54.3465	-36.0579		65.0248
42.3354	-33.4441		75.238
0.325671	6.08058		95.2832
0.941361	10.7968		91.5889
-1.63351	6.31641		95.3822
-0.268729	2.18763		98.7804
2.54503	5.45497		94.7912
33.4964	70.9802		70.4104
27.9814	71.7944		72.7929
32.7101	64.8917		74.4684
39.3698	69.5277		67.2526
34.3048	76.6036		66.1768
4.16797	-106.456		64.3211
4.39403	-107.906		55.6988
7.96825	-105.938		63.8849
3.6854	-105.237		71.9569
0.585058	-106.684		64.3398
65.6348	-52.3883		44.1669
62.4096	-51.5939		50.9457
64.2755	-58.5953		43.8523
66.6915	-46.1757		44.3117
3.21994	-100.103		87.3946
3.2755	-97.2554		90.1518
-0.051452	-100.253		87.5238
3.30405	-102.507		83.1787
3.48461	-104.108		77.9693
-0.102214	-104.297		78.0254
40.956	-84.6038		63.2765
35.8222	-87.197		69.3102
40.0431	-87.6519		60.2578
45.9946	-81.5697		57.9172
41.203	-81.1543		66.552
45.6158	-90.723		37.9871
42.9854	-95.0458		33.4359
49.9995	-88.0601		33.0209
47.9397	-87.0853		42.0396
40.4957	-93.5879		42.8033
4.56403	-109.921		46.3755
7.48184	-109.778		45.7895
1.72873	-110.062		46.3881
5.00256	-113.599		40.038
5.06026	-2.71101		100.141
5.14228	-5.34737		102.463
8.53604	-3.83814		97.7447
5.19311	0.601538		96.955
1.97965	-1.85584		101.487
27.9509	-19.5888		79.7725
30.7162	-21.1433		78.9054
27.0046	-14.8574		79.6472
24.8691	-16.9264		81.2293
26.2064	-55.3398		83.4156
28.3319	-55.0632		82.9744
11.851	-22.0874		90.0127
13.9408	-20.8183		90.4922
10.9659	-23.0575		89.3934
14.2011	-22.7471		88.4198
11.065	-26.4869		87.8049
11.6178	-28.001		87.7334
13.9852	-27.0523		86.2913
10.8866	-25.5217		87.9964
8.54905	-25.5391		89.1576
-1.00887	-22.3005		96.2584
-1.1388	-21.4156		97.9835
-2.66976	-22.3819		96.5081
-0.834568	-23.2412		94.9079
0.816534	-22.0524		95.52
16.9362	-26.6592		84.9567
19.7969	-25.5264		83.7347
16.5851	-25.6836		85.2745
17.3662	-28.0268		84.9252
5.28986	-13.3083		104.154
2.10639	-13.7446		105.903
4.98223	-15.102		103.147
8.65051	-13.1533		101.48
5.40774	-11.7201		104.644
25.756	-68.4789		84.2827
28.7799	-66.2135		82.6058
24.1346	-65.3819		85.3486
21.9457	-70.1903		86.3924
27.3433	-71.9265		83.1226
26.6903	-48.1942		85.0917
26.0914	-43.6924		85.5837
24.5332	-47.0271		86.2328
28.8436	-49.1994		84.059
-0.230525	-27.3505		92.7734
0.0026265	-29.5867		92.6851
1.57706	-27.0824		92.4105
-0.485147	-25.4939		93.2681
-2.41583	-27.555		92.8548
5.18378	4.39612		93.6971
8.34573	2.71456		91.8301
5.60088	8.52692		90.2183
20.3528	-16.5215		87.3973
19.3534	-14.0299		89.6364
19.5464	-15.0798		89.5388
20.4493	-18.0645		86.5571
20.923	-16.4432		86.0642
2.64558	-23.6086		92.7854
2.58555	-25.1563		92.2641
4.20015	-23.9638		91.7666
2.57813	-22.7027		93.3891
1.12526	-23.8415		93.4859
2.38302	-21.9263		94.4377
2.30501	-21.0515		96.0276
18.2634	-13.4548		91.6311
17.9517	-12.5213		91.9475
18.9346	-15.3547		90.6044
19.9245	-20.4161		85.6827
19.367	-18.8294		87.8213
18.5651	-22.5774		85.5151
0.965464	-37.5489		94.4583
1.41544	-39.5665		95.0594
3.70436	-36.9031		94.1677
0.651788	-34.7547		93.6231
-1.98521	-38.1654		94.5611
23.3154	-30.2542		83.1193
20.8151	-30.2362		84.1176
24.0235	-34.5585		84.3733
25.5247	-30.4791		82.3813
22.7034	-26.5732		82.4599
8.81241	-68.0977		91.7159
8.90386	-66.1384		92.3355
5.33171	-68.4777		92.0222
8.8562	-70.4382		91.259
12.8178	-67.4725		90.8554
22.2575	-49.8189		86.7335
22.5183	-50.6964		86.3704
24.447	-51.7672		85.0855
22.2736	-47.7042		87.2378
17.6814	-11.9197		91.7859
18.0136	-11.5079		90.4181
15.428	-10.2422		94.2782
16.7454	-66.3577		89.501
17.1281	-68.5942		88.9452
20.0471	-65.0403		87.8899
16.3689	-64.6644		90.0647
2.42789	-68.5545		92.0595
-0.269596	-68.5521		91.9984
2.51152	-70.7111		91.681
2.3353	-66.848		92.6763
61.707	30.0081		55.981
60.4776	29.3717		57.7467
63.9413	24.0825		50.534
62.7744	30.8869		54.0413
43.7987	56.1724		70.7244
37.6915	57.7983		75.1139
43.2702	50.9285		73.84
50.0525	53.4995		65.8412
44.9445	61.7804		66.8107
55.9786	49.8169		60.0928
54.497	45.9173		64.2315
61.6782	44.9099		52.8099
57.1993	55.0881		55.7568
43.0712	43.4763		76.603
43.1049	45.6552		76.0949
37.5285	45.0239		80.8945
43.1761	41.2911		76.6462
64.4719	31.7129		50.7254
65.6664	34.1753		47.7341
59.2023	38.474		59.9886
67.6444	25.295		44.1597
25.0963	34.1433		81.2078
25.7549	32.3712		79.1643
29.1789	34.6503		80.616
24.6407	36.17		83.2298
21.5904	33.2082		80.9844
7.1991	18.5506		83.1301
9.82277	16.0598		80.8663
7.44841	20.4997		82.235
4.642	20.3769		84.6022
6.76852	16.0347		84.6101
31.9316	-3.17006		73.3942
33.3435	-7.65673		74.707
38.2554	-4.0074		71.6684
30.4923	0.702523		72.1653
26.7198	-1.76209		74.9036
60.4877	9.61232		54.0513
63.1383	7.87034		51.9621
61.2832	14.0842		52.4562
57.7965	11.3555		55.8196
58.2453	6.01516		57.3404
6.1899	12.6704		87.0035
9.02142	10.568		85.1802
3.58954	14.251		88.1507
43.2755	39.2386		76.4914
47.1283	38.7639		74.0403
38.4734	39.2885		79.3698
43.0165	37.1264		76.2491
50.8188	37.1355		71.0146
50.137	35.1433		71.3013
55.6306	33.0463		65.4567
57.0672	18.5133		56.4891
56.6556	22.0193		58.5043
54.8735	18.2294		58.0524
56.7155	15.4725		56.1376
58.9846	18.6226		54.8669
44.575	21.1525		67.3872
46.1225	20.2706		65.4039
42.829	21.9222		69.0894
40.9596	22.6656		70.5018
38.9539	23.2107		71.4884
41.1821	23.5795		71.0872
38.8036	24.1321		72.111
43.207	22.8506		69.6542
36.3253	23.5047		71.9973
33.5251	23.563		71.9896
36.0095	24.3704		72.5136
32.9974	24.4316		72.425
30.7865	23.4267		71.4805
28.1966	22.8061		70.6649
25.3066	21.8628		69.6269
22.5872	20.9127		68.6293
23.9355	22.5713		69.903
21.4321	21.4361		68.9576
26.9338	23.5555		70.9216
20.7413	19.8191		67.9845
22.6304	23.1135		70.2949
25.8403	24.4001		71.4358
35.7558	25.4302		73.1789
32.5146	25.5109		73.0685
49.5684	16.6435		60.9044
49.9939	17.6796		60.8929
48.4531	15.7455		61.5053
33.5866	34.8982		79.4706
38.2672	34.8355		77.6715
33.5609	36.7634		80.6918
33.7402	32.758		77.8891
47.7698	27.8079		70.1224
46.9435	25.3328		69.2891
48.6251	30.4672		70.8301
44.9191	28.5894		72.2846
39.1255	8.74015		67.3274
44.4365	9.57033		65.05
32.8074	9.14818		68.8851
39.6478	7.23241		67.4128
27.7044	10.5093		69.2114
23.6621	12.0115		69.0639
27.9737	8.99989		69.5419
19.7064	15.2762		68.6437
19.132	16.204		68.4778
20.639	14.3959		68.6891
38.2217	11.6969		67.3282
42.8472	12.6759		65.3944
32.7184	12.0144		68.6002
22.2244	15.2276		67.8107
24.1521	14.3921		68.147
21.3239	15.7593		67.6073
20.6498	16.2046		67.5426
20.032	16.7706		67.5734
16.3027	23.7009		73.1467
15.3669	25.9278		75.5707
17.2053	21.5341		70.6355
17.9008	25.4322		73.6841
18.609	17.5309		68.5145
29.1815	25.211		72.4024
17.8785	20.7002		69.6125
17.4367	19.297		69.4625
18.9149	22.2516		70.127
38.0126	12.8859		67.3876
32.62	13.2218		68.5394
22.1908	16.0045		67.3365
21.3641	16.2721		67.254
24.0671	15.4991		67.7334
20.7386	16.6798		67.1976
47.1645	19.2893		63.4528
4.31021	33.9138		84.8002
1.02712	34.1034		84.9636
3.85962	31.5667		84.0677
7.08482	33.2942		84.2566
5.18654	36.7702		85.8287
21.8274	7.23176		72.0856
21.4902	9.11792		71.1019
19.7513	8.60886		72.6796
22.5959	4.42739		73.5428
24.9123	5.67932		71.5524
17.5721	10.1352		73.7584
15.172	11.9259		75.5174
17.5594	14.9677		70.5804
15.8048	15.7844		72.2301
17.6171	16.4849		69.7492
12.0062	23.4668		76.9825
13.1333	25.3729		76.8505
11.2346	24.57		78.2073
21.7326	13.2562		68.8912
21.4147	12.1404		69.5508
21.3586	10.753		70.2321
23.9624	9.18717		70.0858
18.661	-52.7997		85.5321
18.4823	-52.7352		85.3867
21.4122	-53.3624		84.2478
15.5794	-52.0073		86.7643
23.1134	-53.7443		83.518
22.7845	-53.6157		83.4386
1.76097	-43.1074		95.3158
4.87311	-42.668		94.9069
1.70233	-41.7552		95.4055
-1.81782	-43.6651		95.4092
1.70739	-44.5921		95.031
7.31416	-45.9646		93.511
7.42689	-44.4267		94.0177
4.78754	-45.8243		94.087
6.99179	-47.4803		92.8009
9.6151	-46.5652		92.7168
11.9272	-47.1609		91.7683
12.013	-45.7469		92.3421
11.9	-48.7375		90.8824
14.8393	-48.0534		90.2868
7.37892	-42.8223		94.3602
9.67882	-43.5408		93.6336
7.27122	-41.4269		94.5097
11.1584	-41.9665		93.2241
11.7725	-43.1442		93.012
10.837	-40.7379		93.2022
8.91852	-40.9204		94.0004
18.5057	-50.263		87.7431
18.2956	-48.6398		88.6847
6.41596	-48.992		91.7752
3.82737	-48.7422		92.4438
6.07713	-49.8118		90.8674
9.25285	-49.5051		90.8784
12.1673	-50.2678		89.647
12.2616	-51.0208		88.789
23.8017	-52.4793		84.965
18.9101	-53.787		86.1092
18.8096	-53.7193		85.9267
15.7587	-53.4369		87.6408
18.9897	-54.0077		86.3952
19.6306	-55.3997		87.0574
19.3895	-54.8857		86.9042
17.0819	-56.2321		89.2059
14.0605	-56.697		91.3621
13.7152	-55.7279		91.0154
11.0442	-56.9049		92.8455
14.5598	-57.6325		91.4702
6.72408	-54.1048		92.7666
7.28441	-55.6987		93.4577
10.0218	-54.368		91.8602
6.28576	-52.6532		91.955
3.7638	-54.2104		93.3651
1.7474	-57.7405		94.8587
1.93096	-59.0704		95.102
4.5157	-57.4024		94.5807
1.5256	-56.2111		94.3953
-0.804863	-57.8636		94.8904
23.4253	-55.2048		82.8113
23.21	-54.599		83.4276
23.5764	-56.6062		82.1086
21.4767	-54.9806		83.9622
0.824478	-52.6236		89.43
0.803587	-51.9018		90.4432
3.02764	-52.6145		89.2868
0.890146	-54.3079		88.2963
-1.22293	-52.6979		89.3955
2.08523	-60.3368		95.1604
-0.706706	-60.4383		95.1664
2.22967	-61.4638		95.0418
5.06367	-59.9647		94.97
2.30122	-65.1372		93.5115
5.42576	-64.7839		93.4903
2.33303	-63.6565		94.2721
-0.483648	-65.3389		93.3931
6.95116	-40.4258		94.5212
6.18487	-39.0142		94.4418
4.58797	-40.1366		94.9679
1.29767	-54.4892		93.6847
-1.00981	-54.6451		93.7343
1.0585	-52.9215		92.8455
0.913197	-52.1323		92.234
3.26649	-51.8986		91.9354
0.919236	-51.8174		91.781
-1.21597	-52.2652		92.2396
6.06807	-51.9365		91.3835
9.19057	-52.3767		90.5475
5.92378	-51.6883		90.9931
0.914973	-51.7128		91.2136
3.10296	-51.5719		91.026
-1.29243	-51.8263		91.1579
12.3757	-52.9378		89.4021
12.205	-52.7034		88.9807
12.725	-53.5161		89.8788
15.461	-60.6175		91.373
15.7838	-61.7217		91.0375
15.19	-59.6364		91.5314
12.3876	-61.2104		92.9141
8.84691	-61.5773		94.0642
8.98392	-62.7462		93.6721
8.6705	-60.562		94.2638
5.37685	-62.0528		94.664
2.28393	-62.5231		94.7518
-0.629386	-62.6432		94.7235
12.2176	-51.207		88.3234
9.05627	-50.5143		89.4608
12.0439	-51.1287		87.8625
26.1246	-54.1258		83.5107
25.0424	-54.411		83.5619
23.1736	-54.3353		84.057
21.5811	-54.3692		85.0389
5.76449	-52.7415		88.9127
5.70985	-51.9472		89.791
8.84399	-53.0209		88.2713
5.96373	-54.3572		87.9672
5.76807	-51.6587		90.5132
8.83459	-52.0762		89.6481
8.94312	-64.2645		93.075
12.7405	-63.8055		92.0176
14.8598	-58.6428		91.5824
11.8396	-59.1495		93.1615
16.0764	-63.1416		90.5794
18.9595	-61.9059		88.9089
11.6695	-50.7364		87.4696
8.81379	-50.0169		88.2333
11.0445	-49.2393		86.577
14.6316	-51.4118		86.3451
5.89552	-49.5426		88.8159
3.45074	-49.2556		88.9818
6.21681	-48.1535		87.4456
5.82995	-49.9591		89.6468
10.5637	-46.0513		85.2479
8.30966	-45.4914		85.6731
10.5697	-42.0629		84.0713
12.9746	-46.6524		84.6196
23.8954	-59.7242		81.3605
24.037	-63.2875		80.9908
21.8743	-59.6245		82.6247
1.0849	-57.8472		87.4339
3.28783	-57.7893		87.3918
1.5771	-62.1504		87.2993
-0.786662	-57.9284		87.3778
6.1382	-45.0536		85.9383
3.83495	-44.7133		86.0865
5.88957	-41.0863		84.8113
6.12932	-57.809		87.1459
6.59533	-62.2712		86.8892
9.3001	-58.0232		86.6489
27.3796	-54.8042		77.088
28.0141	-54.5618		76.0197
13.4418	17.1676		74.8627
12.7847	15.6968		76.5503
82.4229	-9.23819		-42.5294
81.7179	-13.7014		-41.7061
80.5308	-8.60797		-45.895
83.0399	-4.58508		-42.5943
83.9438	-9.75501		-40.7937
82.6221	9.34528		-5.95545
82.9106	12.2811		-10.1368
81.6975	11.473		-1.22092
82.9064	14.4434		-15.282
82.5659	19.9817		-16.5993
83.3384	9.3837		-16.272
83.377	14.0413		-22.2117
76.5717	-33.9623		-32.7755
79.035	-31.6627		-31.1767
75.5908	-38.2384		-30.0903
77.7283	-29.9886		-34.6905
78.7051	-26.2538		-36.8453
76.0613	-28.2545		-39.6798
79.8134	-22.2088		-38.7507
80.9966	-25.0513		-34.9928
85.4423	-9.71009		-39.8957
86.9772	-9.18487		-39.5407
84.8672	-13.9221		-38.9101
85.808	-4.65268		-40.169
87.4616	-28.2503		-29.5904
88.5597	-24.1324		-31.757
88.1935	-28.7045		-28.3474
86.2892	-32.3377		-26.9749
91.9736	-18.3062		-29.8975
91.9702	-17.7393		-29.1377
81.1626	-41.1705		-18.489
81.6309	-41.4199		-17.7552
80.7563	-41.8784		-16.4362
80.2757	-40.2606		-20.6282
82.2953	-33.8586		-6.18929
81.9686	-34.4951		-6.12156
81.5316	-35.5115		-6.30341
91.9177	-17.363		-28.7365
91.4176	-17.9759		-27.7726
94.7605	-2.53111		-32.8549
94.8139	-1.86473		-34.3894
94.6608	-3.87607		-31.173
95.0487	7.8072		-30.582
95.3194	9.18242		-30.7135
95.4554	11.299		-29.7236
94.9088	11.0903		-27.5094
95.6323	11.7715		-30.1281
95.143	13.3801		-26.6833
85.532	-10.467		-7.29362
86.8096	-4.88167		-8.00643
85.0394	-9.7206		-6.00678
84.5864	-14.6093		-6.6136
80.4286	-26.9467		0.113444
79.5452	-27.4173		2.83415
79.8822	-30.7787		-0.241427
80.969	-22.5366		0.464457
84.1332	-21.8305		-8.95222
84.4663	-23.8845		-9.41552
84.1195	-19.8317		-9.13037
83.3392	8.85526		-16.2411
83.6539	10.1675		-19.7
83.378	8.85357		-16.0328
91.512	16.6242		-16.91
92.4152	18.33		-20.0135
90.6435	17.0323		-18.0785
90.1298	13.4676		-13.9457
92.2993	15.9103		-15.9132
91.8822	19.004		-25.0103
91.1533	18.7592		-22.0487
92.1685	19.1469		-24.5094
92.3136	17.729		-28.6202
91.0649	17.9411		-26.3626
92.5236	3.48956		-39.0044
91.7364	3.01152		-39.177
92.8882	9.53647		-36.2382
93.5926	3.738		-38.4725
87.7531	-0.171476		-8.69005
88.0214	-1.43448		-9.31299
95.3882	2.86065		-35.9349
95.8655	8.05187		-33.7807
95.0696	0.0275301		-36.0769
95.4343	2.75767		-36.2958
94.6648	14.2708		-22.7584
93.7823	13.6996		-18.797
94.4434	12.8922		-23.4588
94.7686	15.2723		-22.1668
89.1744	0.653296		-11.4588
88.6253	-1.15348		-10.851
89.7273	3.02685		-12.2157
94.9617	3.54576		-33.2432
95.0366	1.47679		-35.066
92.4425	6.16069		-21.7622
91.9685	4.7798		-20.9612
93.7121	5.68974		-25.8827
87.2553	-6.24581		-12.5325
87.4024	-5.95966		-13.2407
87.7851	-4.60468		-11.4754
91.8161	-5.28131		-26.4429
93.8043	-2.5905		-28.3992
91.565	-4.83152		-25.832
91.6962	-6.39384		-26.5782
81.4848	-18.4876		0.319567
82.209	-13.8104		-0.629253
80.6965	-18.7316		2.8273
86.0603	0.65336		-38.7842
84.889	0.0739048		-39.9153
85.9539	5.36681		-36.7405
87.0482	3.19362		-37.8866
89.4444	8.2589		-35.2772
89.2504	12.0677		-32.1273
91.8131	12.9946		-33.4432
89.5387	4.14259		-38.1146
90.6887	2.01141		-39.1341
89.5161	-3.59001		-39.8364
89.1014	-8.66639		-39.384
82.7863	-24.4028		-34.1336
81.8222	-27.5933		-32.2386
83.606	-21.1107		-35.8909
84.2714	-17.6643		-37.5509
82.5783	-17.8998		-38.5839
90.8595	-17.9236		-26.7565
80.8354	-30.5807		-30.4559
79.7522	-34.2905		-28.0304
82.0801	-30.2786		-30.0005
79.9165	-38.1997		-23.3159
79.4591	-38.2129		-23.6676
79.2846	-41.7056		-18.6168
80.5739	-41.5726		-13.6142
80.0689	-41.8451		-13.4558
79.5293	-42.0473		-13.1498
91.8997	-7.14927		-27.0383
93.8066	-5.73482		-29.2499
84.4617	-9.10694		-4.9328
83.7503	-8.7012		-3.72043
82.2023	-22.969		-3.02805
82.515	-23.1358		-3.68413
85.0076	-27.4566		-9.04974
85.9255	-29.4771		-10.5765
85.19	-26.3264		-9.91525
83.9951	-17.678		-6.04467
84.3926	-17.8168		-8.20769
88.9844	13.9021		-28.9726
86.5765	10.145		-31.7061
88.0764	14.5157		-25.6592
85.6388	8.57376		-33.482
85.1917	8.26885		-34.5779
85.0462	10.7285		-29.2591
83.9885	-17.8287		-11.0417
84.2418	-17.7746		-10.158
94.2865	4.71831		-28.2153
94.1157	3.18559		-27.8466
87.8106	-5.23611		-14.6828
87.1582	-7.58011		-15.6824
88.7713	-3.97289		-17.3452
91.5395	-3.98236		-25.3477
93.2757	-0.314603		-26.601
90.9898	-3.93503		-23.9737
8.50617	86.5599		66.4554
8.46418	79.3867		72.2341
16.4939	85.892		65.8561
8.73213	93.8182		59.0761
0.256652	86.5598		66.8186
8.23998	72.2335		76.9629
0.368585	71.6979		77.615
8.35754	64.5581		81.0601
15.8181	72.3621		75.9322
31.573	58.7672		78.4704
31.6851	53.8342		81.1888
26.8529	59.1867		80.313
-1.43971	-20.3981		100.257
-1.3528	-19.1948		102.363
-3.19683	-20.3826		100.701
0.790391	-20.3145		99.029
-0.865134	-10.4539		107.399
2.16142	-10.312		106.485
-0.833664	-8.50054		106.968
-3.59328	-10.4988		107.614
-0.860447	-12.2916		107.365
-0.872212	-14.1289		106.86
-3.61975	-14.2613		107.119
-0.996054	-15.8902		105.9
-0.625463	-24.2193		93.9806
-2.49397	-24.4165		94.1162
0.24734	-32.208		93.0152
2.50652	-31.8063		92.7711
-2.236	-32.516		93.0446
-1.14693	-17.5483		104.435
1.46613	-17.4325		103.251
-3.55379	-17.5979		104.789
-0.912973	-6.61977		106.147
2.09601	-6.85207		105.352
-0.892237	-4.36128		104.641
-3.53698	-6.54355		106.292
8.03829	47.7363		86.9572
0.851477	48.1761		88.0525
7.47824	44.8234		87.2971
14.1531	48.1424		86.0845
8.14635	51.554		86.1534
2.75897	21.4003		85.1488
2.23107	18.7153		86.4919
3.14017	23.5945		84.2804
1.13326	21.7014		85.3527
3.41943	25.5955		83.7536
5.33039	24.55		83.1461
3.57635	27.4887		83.5518
1.54181	25.9049		84.0144
1.01222	-49.126		88.964
-1.44262	-49.2271		88.952
1.23013	-47.6295		87.6501
0.781078	-49.9159		90.3107
0.781099	-50.0463		91.1743
-1.34026	-50.2027		91.1407
3.04787	-49.8989		90.8971
0.88458	-49.8623		91.6559
1.67021	-45.9697		94.5566
1.50795	-47.3044		93.8793
-1.74219	-46.2573		94.6528
1.19187	-48.7292		92.8556
-1.50413	-48.9629		92.8192
1.68565	-40.7454		95.3163
-1.86338	-41.439		95.424
1.19794	-44.535		86.1119
0.917457	-40.6368		84.8914
-1.6313	-44.5338		85.9992
23.1005	84.9661		64.8643
22.7428	78.659		70.116
29.2239	83.5713		63.4783
23.623	91.5436		57.9564
20.6518	49.2194		85.2698
20.2735	46.4049		85.7928
26.382	49.9488		84.6239
20.1887	53.0454		84.3106
21.4612	43.2405		85.8196
22.951	40.1437		85.3573
26.8361	44.0323		85.1775
24.5044	37.9149		84.3837
20.4391	37.2027		84.9576
28.759	38.9791		83.8778
28.2761	26.1718		73.1003
27.6491	27.7472		74.453
24.6623	25.2663		72.1423
31.9394	26.6338		73.7906
29.9482	24.2442		71.8293
26.5996	29.7264		76.3727
30.4256	30.2648		76.5238
23.2482	28.8197		75.8123
48.0409	87.5826		41.2852
48.9353	92.7191		31.1443
42.1537	91.1698		44.0108
47.7071	82.1483		48.6366
34.8378	82.0434		61.3998
35.5464	87.7521		55.0589
40.7927	79.9344		58.444
31.4318	50.0256		83.2475
31.9573	48.19		83.6656
37.0635	49.4802		80.2498
32.9192	40.0431		82.8755
32.9608	41.7439		83.3604
32.3676	45.1872		83.7543
34.1276	30.1692		76.181
34.9809	28.0865		74.7905
38.3403	29.7057		75.2134
47.1147	77.2142		54.3065
53.3767	74.1499		48.9821
46.4486	72.3191		59.0003
43.2431	47.8459		75.2392
48.6845	45.9165		71.1678
41.7289	25.7261		72.3175
41.7767	27.2547		73.118
38.8875	26.3164		73.4554
44.2121	24.8961		70.6846
42.6842	34.8254		75.7646
42.2123	32.1454		75.005
46.0001	34.6532		74.0042
41.901	29.3395		74.0014
45.6511	67.1919		63.0931
52.0573	64.1249		57.8945
59.056	71.5005		42.154
58.5726	66.2201		47.1712
63.9332	69.0398		34.0871
45.0817	21.9097		67.805
46.6127	20.9392		65.7828
46.4356	23.8419		68.5864
48.153	22.6148		66.3908
45.6805	22.7165		68.1643
49.3827	33.1492		71.3259
53.3286	29.6353		66.6015
18.863	31.6736		79.9102
16.5491	29.7985		78.5668
19.5253	29.8662		77.6784
18.0497	33.1156		81.7145
16.9823	34.662		83.4133
14.6362	32.6282		82.1231
20.3152	27.2436		74.6898
20.9727	25.2772		72.4945
7.0468	41.126		86.9975
1.61918	41.9227		87.3286
68.8385	-66.1579		-5.92493
70.493	-61.0053		-4.28756
68.955	-66.4104		-12.4857
81.5303	22.8658		-36.7933
81.189	18.9431		-42.4385
80.3019	28.5508		-41.5696
82.0372	25.1776		-28.7003
82.8274	17.1083		-31.6042
78.0228	-8.27477		-51.7807
77.0907	-14.3427		-50.1764
75.6991	-8.4067		-57.4144
78.9599	-2.3869		-51.8846
79.5613	3.87552		-51.5808
77.4701	5.67052		-58.0962
80.1545	9.44118		-49.7764
81.7108	1.76466		-45.3001
72.5387	-31.9169		-43.7375
69.325	-35.2949		-47.5936
74.1683	-26.0685		-46.277
8.2145	57.7586		84.065
0.771885	56.6538		85.1261
15.0176	58.1122		83.1081
20.6644	58.6266		81.9791
21.5476	65.4453		78.6072
22.9158	-101.453		58.204
21.364	-104.063		50.0673
29.5227	-98.6741		52.8311
16.8298	-103.631		61.2507
49.7624	-83.8701		45.6152
44.1579	-87.4083		51.1141
54.3088	-80.8438		40.4166
50.6469	-81.0817		49.2284
58.083	60.5997		51.4552
63.3599	56.9965		44.0316
22.2048	72.3282		74.5206
68.6341	66.5953		24.4442
72.4374	64.4801		14.4483
68.6697	60.0506		30.0369
23.8691	99.0495		48.1352
30.2625	96.8316		47.4064
23.9447	106.202		36.1698
16.824	100.603		48.755
66.9693	39.0995		43.6404
67.7164	46.2307		39.5811
49.1749	21.0098		63.9465
59.2424	28.5058		59.2282
60.4225	23.2912		55.0676
57.5895	27.2974		60.6875
56.0119	26.0246		61.7402
4.84346	-118.103		38.2853
2.245	-118.163		38.3724
60.0024	-72.5994		40.5323
61.0407	-68.9189		42.7514
55.882	-74.7686		47.3063
58.9782	-75.969		37.3793
5.54782	-37.0642		93.9548
7.4246	-37.5762		93.6458
4.81524	-34.5593		93.246
21.9428	-45.1104		87.5375
21.09	-41.1224		87.8015
19.088	-42.9799		89.1543
8.35877	-33.6385		91.7489
5.78379	-32.4643		92.2588
9.16542	-36.1217		92.4317
11.1416	-34.7284		90.8972
7.49394	-30.9616		91.0114
30.7114	-49.7618		83.1626
30.3921	-53.3224		82.7151
33.2336	-50.7389		81.7478
30.3661	-45.5325		83.5335
65.8431	17.9224		47.2127
63.513	18.2132		50.1291
66.6016	11.9379		46.7822
67.8201	17.908		44.2148
69.8102	18.0527		40.6799
72.1756	17.5112		35.5821
53.1592	18.0664		59.1607
53.1067	16.0256		58.591
61.4015	18.3831		52.5443
83.9354	8.98486		-36.5948
83.7729	5.19853		-39.7411
82.4351	11.0419		-40.6604
84.0894	11.5304		-32.6693
80.7121	-18.137		-40.5278
78.5789	-18.6606		-43.685
73.018	-53.0124		-15.0836
74.8888	-48.6793		-12.874
72.5463	-55.1522		-8.73699
70.9348	-58.6195		-17.4625
73.4922	-49.5091		-21.1239
83.4797	0.481235		-41.6899
78.6325	-28.3153		5.99101
77.9359	-32.602		5.59536
79.2748	-23.8141		6.15847
77.6254	-29.1802		10.3223
75.577	-0.570913		28.9419
75.6481	7.79102		27.7305
75.0906	-8.33749		30.299
77.7039	-2.06586		20.5827
55.89	12.4469		56.922
54.036	13.476		57.9997
53.9853	9.87003		59.0599
52.4119	14.3356		58.9492
50.9268	12.9153		60.1946
76.4573	-29.5179		16.4861
75.1552	-29.5333		23.136
75.7974	-34.4955		16.0637
77.1885	-24.1698		16.3068
25.7994	-9.89047		79.0299
29.4753	-11.3687		77.5143
24.5539	-4.87421		77.7601
22.6226	-7.62118		80.7324
34.5235	-12.6591		75.8249
40.3088	-13.3705		73.7402
34.9441	-17.4309		76.7977
18.96	-5.03267		83.2878
15.1871	-2.00288		86.3953
19.3641	-8.51271		85.1433
22.4652	-16.1485		83.7525
21.0688	-13.5514		85.1604
16.9999	-15.2157		92.9472
15.0349	-14.0432		95.2993
16.6793	-17.144		92.1093
18.1332	-16.384		91.2052
18.7806	-17.4849		89.5768
18.0252	-19.699		88.7336
36.4613	-32.4292		78.4138
31.5438	-31.6275		80.5043
36.929	-37.6533		78.8911
35.9554	-27.4768		77.9901
35.2392	-22.3061		77.4928
2.95383	-27.1575		91.9963
3.4615	-29.4668		92.0777
4.47986	-27.6071		91.399
58.3559	-50.0164		57.8161
59.1987	-43.7442		58.0153
53.4473	-48.025		64.5563
57.1747	-56.1592		57.7594
24.9244	-39.1121		85.3882
22.6597	-38.2359		86.2897
27.2223	-39.8831		84.4855
37.0768	-43.0145		79.2444
36.9922	-48.0446		79.5051
42.2775	-44.4859		75.5802
32.7995	-41.7676		81.8203
4.09657	-31.912		92.5481
55.6334	-61.963		57.7466
59.025	-63.9183		50.9941
51.1709	-58.9391		64.9759
52.9486	-66.6505		59.3477
60.3024	-25.7509		59.0416
60.0403	-31.6155		58.7732
64.9528	-26.8811		52.1038
30.4468	-89.9982		75.2522
30.8149	-87.0211		77.1189
25.1067	-93.1873		79.2376
40.892	-77.4054		69.5823
45.2146	-74.1512		65.8761
39.2582	-73.5732		73.2596
35.9398	-80.4756		74.1116
58.3741	-3.40239		60.3918
56.5788	0.905746		60.7477
52.2242	-3.82672		65.4168
48.3823	11.2286		62.3586
49.5173	9.47673		62.2028
54.7913	3.70354		61.1025
49.4849	2.5276		65.0061
52.6391	5.87479		61.7263
46.3381	14.2563		63.0867
3.22023	-93.3615		92.1931
-0.135909	-93.4874		92.354
46.4109	-56.3608		70.9252
44.8645	-60.3113		71.7132
47.278	-51.7024		70.7105
41.1679	-54.1156		76.068
37.2014	-70.103		76.2094
40.1262	-67.1155		74.4922
34.024	-66.835		79.3062
33.2543	-72.9415		78.8359
45.1035	-4.28391		69.1999
46.2172	-8.56484		69.8832
43.9008	-0.647016		68.5316
48.0394	-46.0766		70.4668
47.3151	-13.1186		70.1603
10.438	-82.9785		91.5649
9.88451	-78.0298		91.2353
14.8119	-81.8545		89.8701
19.5414	-80.309		87.5892
24.2263	-78.1732		84.8173
18.7616	-75.6109		87.8769
42.8103	1.99595		67.9757
41.548	3.97886		67.7056
35.6511	2.237		70.0118
51.0272	7.69353		61.9479
46.6292	6.26974		64.9591
40.5572	5.71669		67.4987
33.8025	6.03889		69.2368
11.6627	0.531668		89.3746
11.8707	-2.77		92.1176
11.6641	4.43079		86.1814
12.1762	-8.75714		97.8357
12.1143	-7.46417		96.6941
8.76727	-7.79523		101.114
12.426	-9.72026		98.1599
12.4772	13.8752		78.0964
12.1974	11.5077		80.1545
23.5598	-0.241852		75.8261
1.60089	15.1186		88.625
-0.109578	15.4097		88.7422
66.0834	6.17668		48.9821
11.9177	8.2843		82.9057
62.2691	-64.5		44.1488
65.7524	-63.2174		35.9941
69.3221	-14.1927		45.6184
68.9608	-21.4542		45.2408
72.1616	-14.6731		38.4719
67.4709	-40.0062		44.4921
68.0627	-33.9541		44.7122
64.1569	-39.0165		51.3066
70.0652	-40.5405		37.5933
