1861
8.87583	-108.693		38.6812
5.80686	-105.767		42.7181
7.47706	-128.348		33.6806
8.91448	-139.984		29.6703
10.9215	-127.246		32.1607
4.33655	-128.667		34.8453
2.60019	-148.664		28.7629
6.17376	-148.278		28.1868
2.07477	-140.794		31.3188
-0.847088	-148.694		29.0377
3.14666	-153.905		27.1822
68.59	-53.4977		-32.2526
71.3797	-47.7332		-29.9216
68.163	-59.7818		-27.0955
65.7475	-59.2714		-34.6438
69.3404	-46.0319		-36.3895
70.1373	-40.6503		-39.3917
66.2812	-46.2114		-42.8075
70.9773	-35.9619		-41.8014
73.4631	-36.2154		-36.2006
61.2343	-122.775		-31.2194
61.1914	-129.457		-33.5388
59.7876	-120.053		-37.874
61.6784	-125.779		-24.9241
1.39876	-129.084		35.4887
0.681611	-117.36		39.4032
-1.40847	-129.137		35.7888
72.7416	-52.3343		29.3035
74.0133	-46.8051		30.1784
70.9464	-52.4789		37.1329
71.3246	-57.2838		27.9844
68.0624	-65.5117		7.28543
65.8548	-68.867		5.4572
68.5067	-64.3806		-0.650251
70.1208	-61.8752		8.76167
9.2612	-96.6364		81.437
5.27216	-97.2155		82.4029
8.99275	-99.9737		78.827
13.657	-95.6352		80.0245
9.2724	-92.2828		83.7898
18.5039	-93.5631		78.4013
17.9686	-97.3763		75.8576
23.6279	-91.0531		76.074
18.7516	-89.2585		80.6148
1.85107	-89.1665		86.6726
5.19998	-88.5133		86.4301
1.95343	-84.8103		88.0635
-1.04918	-89.3867		86.6581
2.02026	-93.5482		84.9911
9.00219	-101.94		76.1163
9.4486	-102.963		72.9308
13.142	-101.179		74.9312
5.42487	-102.351		76.9949
10.1941	-103.245		69.0055
6.3481	-103.796		69.4463
10.4137	-102.926		64.3983
18.1132	-1.50343		79.6335
18.93	-5.7058		81.342
20.7321	-3.28338		78.9096
17.5863	2.46208		78.1349
15.4664	0.422967		80.3861
52.2222	-27.672		73.3344
58.6999	-28.2308		68.3071
51.6157	-22.333		73.4398
45.3111	-27.2084		76.8438
52.3817	-32.7818		73.1938
63.1788	-17.4962		63.3106
67.5078	-17.2757		57.3187
61.5797	-11.9686		64.309
57.3388	-16.8234		69.0161
63.9479	-23.0847		62.7509
71.557	1.5562		44.7866
73.8237	0.270761		39.6385
70.6273	9.32541		43.6154
68.8482	3.40013		49.0431
52.4268	-37.8234		72.6476
52.1111	-43.1625		72.0546
58.3503	-38.6383		67.2625
46.2559	-37.2419		76.7407
4.91709	-2.0141		87.9143
4.26251	2.45149		84.6142
2.97504	-1.80323		87.94
5.54942	-5.74906		91.2617
6.95424	-2.4224		87.6141
33.8401	73.5201		65.7282
28.7264	74.4239		67.7062
33.2421	67.6099		69.1277
39.2543	72.0185		63.098
34.4346	78.6842		62.1336
2.56947	-103.562		59.7085
1.57139	-103.418		53.6728
5.73745	-103.238		59.327
3.03777	-103.918		65.2152
-0.428549	-103.694		59.8578
68.5743	-52.1418		44.6947
65.5883	-51.6113		51.7927
66.6965	-58.4586		43.6859
69.8902	-46.1423		45.627
2.36412	-102.693		77.3041
2.1727	-100.884		80.0145
-0.226718	-102.877		77.208
2.75119	-103.819		73.5728
3.05107	-104.111		69.6245
0.0150836	-104.234		69.6837
39.3928	-86.9797		59.4243
33.7422	-90.2677		64.2577
37.977	-89.2517		56.5055
45.0511	-83.4241		55.017
40.141	-84.2388		62.6836
41.7898	-88.3673		34.3617
38.1746	-90.9625		29.4551
46.6696	-85.4324		28.8762
45.2165	-86.1315		38.963
36.2235	-91.4966		39.4052
0.545663	-104.019		47.9825
3.28712	-103.936		47.3062
-2.0372	-104.067		48.1501
0.143678	-105.92		44.2387
10.2125	-9.32333		92.582
10.6024	-11.2659		94.2004
12.7745	-10.3212		91.4318
9.79155	-6.62175		90.0806
7.99523	-8.7403		93.345
30.0588	-23.659		80.0906
33.2512	-25.2831		79.6373
28.6137	-18.7924		79.8216
26.8826	-20.9488		81.0219
29.932	-62.1811		82.2858
32.028	-61.7668		81.6801
15.3867	-27.7071		89.1811
17.2385	-26.6853		89.1535
14.6138	-28.5728		88.9707
17.4326	-28.2665		88.2221
14.7128	-31.9367		88.3425
15.3364	-33.5688		88.5557
17.3972	-32.4733		87.1956
14.4962	-30.9211		88.3629
12.4602	-30.9752		89.22
5.17287	-26.0694		93.8137
5.15261	-25.2427		94.371
3.60803	-26.2429		93.9802
5.27997	-27.0616		93.1896
6.71144	-25.897		93.2721
20.1356	-31.892		85.8789
22.8535	-30.4508		84.3794
19.7626	-30.8426		86.0573
20.6751	-33.4208		85.9997
11.0336	-18.1937		95.7543
8.67916	-18.1165		96.7158
10.7871	-20.1186		95.2135
13.7224	-18.4505		94.34
11.1349	-16.5113		95.9808
26.6289	-74.1868		81.85
30.1117	-71.8303		80.147
25.5708	-71.5287		83.6906
22.4905	-76.3185		83.9994
27.4325	-77.2782		79.9704
31.028	-55.3373		85.0032
30.7427	-51.1821		86.1097
28.8891	-54.5207		86.7087
32.9354	-56.0171		83.6562
5.37331	-31.9411		92.3823
5.0298	-34.6977		93.1121
6.79154	-32.0172		92.0408
5.44438	-29.7066		92.3137
3.51707	-31.8629		92.5976
9.15415	-3.16493		87.1442
11.5474	-4.39463		86.5886
8.61834	0.787336		84.264
22.7545	-21.7181		85.9674
21.8032	-19.5817		87.4698
22.0412	-20.645		87.4447
22.9368	-23.2606		85.4228
23.2312	-21.3526		84.9571
7.85419	-28.2509		91.5572
7.91111	-29.7853		91.315
9.02772	-28.9138		90.7797
7.93795	-27.0776		91.8962
6.75497	-28.0549		92.1525
7.86473	-26.0889		92.5108
7.92395	-25.1018		93.2279
21.0314	-19.2832		88.7164
20.7222	-18.3193		88.8399
21.5945	-21.1639		88.1857
22.6232	-25.6447		85.112
21.9579	-24.3883		86.6116
21.4577	-27.7399		85.643
3.75813	-44.9859		98.0282
4.00997	-47.1955		98.9931
6.52715	-44.4875		97.665
4.00735	-41.5946		96.3579
0.737372	-45.4913		98.2473
26.759	-35.9359		84.3624
24.2757	-36.1251		85.4973
28.0935	-41.1142		85.8352
29.0508	-36.003		83.5294
25.681	-31.5552		83.2331
9.59128	-74.7331		91.9283
9.64959	-72.9198		93.3295
5.63283	-75.2757		92.4539
9.49209	-76.9905		90.4053
13.7668	-74.0909		90.7393
26.2046	-57.2486		87.5292
26.4313	-58.0685		86.8746
28.4152	-58.8934		84.7232
26.3809	-55.3454		88.3644
20.4333	-17.6696		88.6718
20.5491	-17.0986		87.7607
18.6634	-16.1488		90.0839
17.7375	-73.1873		89.0646
17.8586	-75.2178		87.7119
21.3341	-71.7067		87.1935
17.5778	-71.5685		90.2543
2.41345	-75.7219		92.4253
-0.579256	-75.8626		92.3021
2.39022	-77.8992		90.9551
2.32685	-73.9053		93.962
60.5822	28.4705		57.5301
59.4004	27.3449		59.2273
62.9142	22.886		53.4464
61.6474	29.8697		55.648
42.7849	57.6678		66.9901
37.2827	59.6629		70.2432
41.899	51.1096		70.4062
48.6365	54.691		63.1194
44.2829	64.4304		62.919
54.6197	50.674		58.3765
53.3656	44.739		62.4693
60.3345	46.0844		52.4401
55.9539	56.7136		54.1151
41.5926	41.4976		73.5821
41.5676	44.3391		72.9661
36.2014	43.4309		76.7709
41.8844	38.7592		73.7175
63.318	31.455		52.4674
64.5217	34.6525		49.2948
58.2041	36.832		59.6003
66.6418	24.8582		47.1806
24.3736	32.6384		78.0923
24.8666	30.7357		77.2635
28.0857	33.0563		77.8295
24.0902	34.5971		78.9878
21.1729	31.6499		77.8862
7.88984	11.1165		78.6691
10.4242	9.38388		78.4282
7.67696	13.3739		77.7795
5.41762	12.539		78.8508
7.98948	8.38281		79.9418
32.6985	-7.69379		76.3169
34.7166	-11.9303		76.8934
39.6172	-8.0052		75.0969
30.7655	-3.9446		75.8015
26.6955	-6.62088		77.4406
59.6532	7.05387		58.651
62.4331	5.47419		56.4884
60.0436	11.8108		56.8847
56.8953	8.69968		60.5687
57.9419	3.1069		62.0469
8.22719	4.89393		81.7905
10.6062	3.40481		81.5297
5.94436	6.02255		81.9739
42.1707	36.4293		73.81
46.9113	34.5128		71.4374
37.2066	36.9917		76.1653
42.0789	34.1099		73.943
51.5629	32.2958		68.3389
50.9427	30.1922		68.9831
55.4276	29.234		64.6288
55.8983	15.9571		60.7874
55.6733	19.5055		61.9459
53.8839	15.7305		62.6946
55.6181	12.8292		60.8253
57.6977	16.1776		59.016
44.1372	18.9931		71.6943
45.6524	17.9993		70.1667
42.3574	19.8387		73.0917
40.43	20.6832		74.1485
38.3305	21.3748		74.8338
40.5966	21.674		74.4428
38.1147	22.3753		75.1364
42.7294	20.7911		73.3464
35.586	21.807		75.2833
32.6856	21.7254		75.4188
35.2013	22.7476		75.5209
32.0904	22.6023		75.5893
29.9542	21.2081		75.2187
27.5231	20.1411		74.7977
24.8979	18.5146		74.0999
22.5236	16.5874		73.311
23.5891	19.0947		74.1367
21.4025	16.9993		73.4289
26.2814	20.877		74.853
20.9286	14.9108		72.7745
22.2658	19.5568		74.2216
25.1954	21.6793		74.9732
34.856	23.7851		75.7474
31.5158	23.6401		75.7714
48.9409	14.1867		66.4596
49.3439	15.2317		66.3752
47.883	13.1848		67.1234
32.4437	32.9338		77.0267
37.2248	32.452		75.7249
32.4601	34.7756		77.4977
32.5696	30.7376		76.541
47.992	24.0744		70.8845
46.745	22.4467		71.5503
49.1595	26.1154		70.2195
44.7006	25.3234		73.1481
39.0188	5.4868		72.6756
44.3459	6.53863		70.5901
32.5083	5.55804		73.9904
39.6759	3.97839		72.6732
27.4445	6.57134		74.2029
23.6877	7.8027		74.0462
27.588	4.93914		74.464
19.9881	10.4048		73.667
19.4887	11.1726		73.4663
20.8824	9.71789		73.7275
37.9796	8.38868		72.6972
42.5536	9.6151		71.0895
32.3191	8.51696		73.7487
22.3826	10.7484		72.9558
24.2573	10.133		73.2828
21.5215	11.1422		72.7682
20.9095	11.4657		72.6913
20.365	11.8781		72.678
16.1781	18.7515		74.5315
15.1233	21.3594		74.9683
17.1586	16.2866		73.9471
17.6382	21.2423		74.7179
18.9299	12.2929		73.3519
28.2923	23.0656		75.5009
17.901	15.4661		73.6339
17.5567	13.8302		73.7693
18.9	17.4414		73.7698
37.7402	9.56077		72.7175
32.2014	9.72166		73.6671
22.3798	11.513		72.4962
21.5812	11.6538		72.4188
24.1317	11.2312		72.8882
21.0041	11.9479		72.3471
46.6255	16.9091		68.7192
3.79327	29.3744		78.4206
0.983112	29.3612		78.337
3.50392	25.7086		77.6192
6.19221	29.1712		78.3125
4.44083	33.5014		79.6136
21.4144	2.62227		76.2123
21.2916	4.67516		75.5304
19.4987	3.88979		76.5491
22.0117	-0.477265		77.1778
24.426	1.06002		75.835
17.5208	5.06307		77.0392
15.2617	6.30187		77.6564
17.8279	9.71559		75.0345
15.8989	10.052		75.7857
17.878	11.1313		74.3617
11.9232	17.7731		75.4295
12.9109	20.2298		75.2309
11.0381	18.7116		75.6306
21.8879	8.80295		73.898
21.501	7.70886		74.4184
21.3343	6.35019		74.9139
23.6991	4.92903		74.8338
21.9606	-60.1036		86.4865
21.872	-60.044		86.2673
25.0798	-60.4745		84.1723
18.6049	-59.4915		88.8275
26.8607	-60.6998		82.9138
26.5681	-60.5798		82.8941
4.23055	-50.6699		99.452
7.49909	-50.4067		98.9425
4.21963	-49.3518		99.4996
0.601149	-51.0679		99.6067
4.09723	-52.1538		99.2023
10.0235	-53.7501		97.4535
10.1554	-52.2238		97.9891
7.23817	-53.441		98.2009
9.54815	-55.2446		96.7306
12.564	-54.465		96.4528
15.296	-55.0821		95.1517
15.4567	-53.7953		95.7881
15.1448	-56.5509		94.1516
18.5112	-56.027		93.1615
10.1365	-50.6175		98.3363
12.7494	-51.5042		97.4342
10.046	-49.2634		98.4737
14.5621	-49.896		96.8155
15.2835	-51.2015		96.5411
14.102	-48.6472		96.8515
11.7854	-48.8575		97.9047
22.0592	-57.9194		89.6505
22.0566	-56.4746		90.9977
8.74452	-56.6584		95.7613
5.82925	-56.2727		96.6518
8.15644	-57.4051		94.9321
11.948	-57.1802		94.5526
15.2606	-57.9877		92.6576
15.2062	-58.6943		91.6566
27.6878	-59.5869		84.5688
22.1613	-61.0992		87.0452
22.1223	-61.0347		86.821
18.6957	-60.9346		89.6163
22.1803	-61.293		87.3369
22.6144	-62.5992		87.8506
22.4227	-62.1215		87.7899
19.4642	-63.5974		90.7039
16.1341	-64.0836		93.3397
15.9561	-63.1331		93.1336
12.6174	-64.2219		95.4313
16.5389	-65		93.2634
8.02016	-61.5896		96.5496
8.20004	-63.052		97.0369
11.978	-61.7391		94.8917
7.94633	-60.2417		95.9171
4.61039	-61.6137		97.4158
1.94194	-64.8724		98.5842
1.98983	-66.1533		98.6708
4.68793	-64.5331		98.2546
1.94083	-63.3818		98.2792
-0.472122	-65.021		98.6026
27.0719	-62.0753		82.0238
26.9436	-61.5474		82.7408
26.9616	-63.3169		81.1802
25.1337	-62.0477		83.5988
2.18733	-59.8844		93.4447
2.22361	-59.1507		94.707
4.62892	-60.0171		93.1689
2.01521	-61.5091		91.9682
0.00784891	-59.8669		93.4272
2.067	-67.4059		98.5672
-0.49692	-67.6041		98.5617
2.19195	-68.4919		98.272
5.00339	-66.9724		98.2746
2.2483	-72.1532		95.6209
5.5368	-71.6964		95.5232
2.24871	-70.6597		96.9602
-0.525613	-72.3405		95.488
9.71759	-48.2556		98.4463
8.92966	-46.7996		98.2812
7.27198	-47.8754		98.9076
1.98009	-61.7779		97.756
-0.306634	-61.8364		97.771
2.01836	-60.2536		97.0551
2.06804	-59.3818		96.4542
4.64814	-59.3579		96.2071
2.20843	-59.0705		96.039
-0.0941128	-59.477		96.4918
7.90855	-59.5555		95.4169
11.5272	-59.9565		93.9956
7.88336	-59.3053		95.0443
2.31128	-58.9754		95.553
4.71088	-59.019		95.2962
0.00871593	-59.042		95.4826
15.1692	-60.5244		92.0042
15.0999	-60.321		91.6453
15.3884	-61.05		92.36
17.0984	-67.8643		92.6664
17.2986	-68.8395		92.1053
16.9489	-66.942		92.9893
13.6811	-68.3563		94.6227
9.38016	-68.6466		96.4955
9.58084	-69.7787		95.7537
9.19538	-67.6637		96.936
5.3475	-69.0603		97.5348
2.22484	-69.5396		97.7694
-0.480722	-69.7202		97.7419
15.1501	-58.8582		91.0934
11.5787	-58.1122		93.0106
15.0416	-58.7738		90.5995
29.9494	-61.0062		82.5529
28.819	-61.3076		82.6715
26.9253	-61.3276		83.4531
25.1945	-61.5128		84.9597
7.77575	-60.2885		92.4604
7.75951	-59.4998		93.6358
11.3551	-60.6493		91.2652
7.78277	-61.8264		91.1559
7.79819	-59.2501		94.5122
11.366	-59.7054		93.1155
9.66895	-71.2507		94.6568
13.9672	-70.7908		93.0432
16.7221	-65.9686		93.2127
13.2284	-66.4048		95.3087
17.4488	-70.1439		91.265
20.5769	-68.8516		89.2952
14.7386	-58.3877		90.2541
11.5425	-57.5987		91.6226
14.2024	-56.9166		89.476
17.856	-58.9723		88.4691
8.20633	-57.0632		92.7056
5.46199	-56.6723		93.1088
8.78683	-55.6415		91.156
7.99651	-57.5047		93.6575
13.8014	-53.6553		88.2016
11.3267	-52.9982		88.9697
13.9557	-49.2549		86.9122
16.3934	-54.2763		87.1333
26.5434	-66.1433		80.1547
25.7871	-69.3918		79.4456
24.5036	-66.2526		81.8175
1.74043	-64.7869		90.4487
4.16723	-64.832		90.2814
1.94339	-69.0071		89.3863
-0.238832	-64.7771		90.4219
8.9224	-52.4503		89.4769
6.40181	-51.9855		89.7973
8.93899	-48.0738		88.0953
7.41441	-64.9488		89.7195
7.42575	-69.148		88.4876
11.0265	-65.2005		88.7001
30.3772	-60.7941		75.8755
30.791	-60.2449		74.963
13.551	11.1432		76.3771
12.9674	9.59391		77.2606
81.755	-9.03808		-42.9324
81.087	-13.4301		-42.2098
79.7924	-8.40123		-46.2986
82.3493	-4.45422		-42.8956
83.3277	-9.56271		-41.1993
82.5881	9.1833		-4.98437
82.7384	12.1346		-9.29544
81.6978	11.2691		0.0343199
82.5807	14.3026		-14.6004
82.1218	19.8022		-15.8855
83.0815	9.29461		-15.7343
82.9173	13.9356		-21.7727
76.207	-33.3318		-33.8332
78.7489	-31.1306		-32.1638
75.2939	-37.5348		-31.2929
77.322	-29.4365		-35.6262
78.2329	-25.764		-37.6693
75.5091	-27.6852		-40.5598
79.2835	-21.7919		-39.4644
80.5913	-24.6276		-35.7788
84.8535	-9.54443		-40.3061
86.375	-9.06203		-39.9566
84.3209	-13.7045		-39.4172
85.1897	-4.53927		-40.4569
87.1864	-27.9643		-30.5071
88.2089	-23.9077		-32.5588
87.9673	-28.4441		-29.2648
86.1024	-31.9896		-28.0177
91.6496	-18.224		-30.4947
91.6669	-17.6672		-29.7097
81.3065	-40.6882		-19.8385
81.8131	-40.9676		-19.1008
80.9986	-41.4387		-17.7768
80.3462	-39.7559		-21.9025
83.1321	-33.8226		-6.97965
82.8142	-34.4481		-6.94364
82.37	-35.4497		-7.1857
91.6251	-17.2964		-29.292
91.1651	-17.9026		-28.3302
94.2075	-2.64798		-33.0828
94.221	-1.9714		-34.6286
94.1561	-3.99768		-31.4001
94.4375	7.57712		-30.5492
94.6868	8.93597		-30.6606
94.8169	11.0303		-29.6159
94.3149	10.8152		-27.3484
94.9799	11.4961		-30.0236
94.5346	13.0867		-26.472
85.9665	-10.6375		-6.99283
87.0679	-5.08116		-7.53741
85.5088	-9.90101		-5.61976
85.1584	-14.7581		-6.4553
81.579	-27.1266		-0.10224
80.8539	-27.6684		2.71063
81.058	-30.9203		-0.696896
82.058	-22.7498		0.510517
84.7452	-21.8803		-9.22883
85.0654	-23.9065		-9.79144
84.694	-19.9067		-9.31889
83.0952	8.7879		-15.7498
83.3055	10.0677		-19.3004
83.1375	8.78213		-15.5143
91.0306	16.2976		-16.3031
91.8366	18.0015		-19.4831
90.1486	16.7334		-17.4985
89.7917	13.1835		-13.2792
91.8369	15.5678		-15.2896
91.2164	18.696		-24.6444
90.548	18.4645		-21.5798
91.5116	18.8381		-24.1207
91.6045	17.4242		-28.38
90.4147	17.6742		-26.0433
91.7811	3.33458		-39.1843
91.0092	2.87905		-39.3594
92.139	9.30324		-36.2784
92.855	3.56668		-38.6462
87.8565	-0.393711		-8.10469
88.1458	-1.65206		-8.80394
94.7148	2.69636		-36.0925
95.182	7.8193		-33.8058
94.422	-0.103903		-36.3
94.7527	2.5924		-36.4547
94.1195	13.9646		-22.4315
93.3241	13.3949		-18.3582
93.9037	12.5955		-23.1666
94.2187	14.9523		-21.8087
89.181	0.437511		-10.9969
88.6966	-1.36022		-10.4108
89.6546	2.80008		-11.7281
94.3427	3.37303		-33.3454
94.3988	1.33539		-35.2447
92.0597	5.94591		-21.5372
91.6245	4.5707		-20.7328
93.2333	5.47707		-25.7806
87.4006	-6.36863		-12.3118
87.5147	-6.07541		-13.0382
87.9248	-4.76959		-11.1652
91.4835	-5.36005		-26.6119
93.3596	-2.71486		-28.5488
91.2471	-4.91311		-25.9768
91.3747	-6.45836		-26.7783
82.4721	-18.7125		0.5734
83.0285	-14.0211		-0.204297
81.808	-19.0107		3.19525
85.4283	0.694934		-38.9397
84.232	0.133997		-40.0933
85.3264	5.35316		-36.7641
86.4011	3.18859		-37.9906
88.7622	8.12664		-35.2829
88.5834	11.8981		-32.007
91.1009	12.7589		-33.3637
88.8431	4.05567		-38.2379
89.9893	1.92299		-39.3284
88.8452	-3.59203		-40.1496
88.4776	-8.60197		-39.8038
82.4122	-24.0329		-34.9008
81.5159	-27.1735		-33.0966
83.1681	-20.7924		-36.5731
83.7745	-17.3947		-38.1456
82.0522	-17.586		-39.1808
90.6498	-17.8478		-27.3024
80.5865	-30.1094		-31.4038
79.5799	-33.7642		-29.096
81.8481	-29.8477		-30.9415
79.902	-37.6856		-24.5036
79.4313	-37.6768		-24.8634
79.4343	-41.2034		-19.9241
80.9657	-41.2091		-14.904
80.4637	-41.4752		-14.7411
79.9382	-41.6715		-14.4531
91.5693	-7.2066		-27.2669
93.3746	-5.82351		-29.4864
84.962	-9.29214		-4.48592
84.2995	-8.88512		-3.21835
83.1157	-23.1083		-3.14987
83.3952	-23.2626		-3.84009
85.636	-27.4656		-9.58399
86.4799	-29.4424		-11.2539
85.7652	-26.338		-10.401
84.663	-17.8104		-6.00604
84.9685	-17.9254		-8.24859
88.3508	13.7133		-28.754
85.9621	10.0537		-31.5792
87.4917	14.3328		-25.3393
85.0428	8.51412		-33.3971
84.5704	8.21926		-34.5274
84.5092	10.6491		-29.0641
84.4396	-17.8424		-11.1941
84.7208	-17.8368		-10.295
93.7662	4.51336		-28.1867
93.6199	2.99287		-27.8397
87.855	-5.34733		-14.5085
87.2211	-7.64933		-15.6193
88.6935	-4.08249		-17.2219
91.2236	-4.07361		-25.4599
92.8504	-0.459824		-26.6561
90.7157	-4.02626		-24.049
9.34266	88.7222		62.0966
9.55253	82.2103		67.1178
17.0974	87.8515		61.6594
9.35499	95.2938		55.5261
1.34864	88.9467		62.3253
9.59323	75.6631		71.1016
1.90437	75.5199		71.5484
9.92589	68.524		74.369
17.034	75.4194		70.2925
31.9325	60.8054		72.7037
31.2928	54.284		75.8291
27.7131	60.9777		74.3336
5.19167	-24.4549		94.8562
5.5939	-23.5107		95.2837
3.57428	-24.5988		95.001
7.00466	-24.3216		94.2747
6.1673	-14.733		97.5721
8.63119	-14.7861		96.9549
6.1559	-13.2085		97.1998
3.6968	-14.686		97.7665
6.25955	-16.3087		97.6232
6.28047	-18.1552		97.3333
3.71848	-18.1853		97.573
6.2447	-20.1591		96.7139
5.3896	-28.1919		92.6672
3.69026	-28.3329		92.93
4.60139	-37.8666		94.4632
6.53257	-37.9892		94.3617
2.212	-38.1294		94.6594
6.01121	-21.9689		95.9719
8.13133	-21.9757		95.3297
3.67778	-22.0676		96.2224
6.08002	-11.968		96.6247
8.27339	-12.1495		96.1017
6.05128	-10.4614		95.5675
3.72238	-11.7607		96.7159
7.82836	47.6766		80.5511
1.06538	48.3971		80.8693
7.00076	43.8092		81.0262
14.0432	48.0686		80.0001
8.44988	52.3938		79.6327
3.46887	13.3068		78.949
3.56248	10.4255		80.1932
3.43521	15.5742		78.146
1.77012	13.5722		78.9403
3.46929	17.7451		77.595
5.43115	16.9307		77.4364
3.44661	20.0074		77.3014
1.68814	17.9416		77.6429
2.80373	-56.4522		93.2004
0.170455	-56.464		93.2332
3.26736	-54.8862		91.7188
2.37696	-57.2436		94.6404
2.25783	-57.3661		95.4909
-0.00716418	-57.4722		95.4675
4.76194	-57.3227		95.2147
2.37062	-57.1658		96.0343
3.91311	-53.5167		98.7685
3.59441	-54.8045		98.1357
0.454258	-53.6376		98.9076
2.95475	-56.0905		97.213
0.176831	-56.2276		97.1805
4.23373	-48.3832		99.3569
0.634306	-48.8639		99.5237
3.5528	-51.6533		89.9367
3.63039	-47.3152		88.3864
0.52459	-51.4831		89.8811
23.5033	86.77		60.865
23.4058	80.9939		65.4393
29.4195	85.262		59.7074
23.8364	92.7696		54.6792
20.8899	49.0371		79.3896
20.1187	45.9391		80.0324
26.5265	49.8372		78.9397
20.5369	53.4024		78.3664
20.8762	42.6927		80.313
22.3667	39.4147		80.2483
25.8207	43.4589		79.9835
24.088	36.6688		79.6717
19.9593	35.7716		79.9631
27.9832	37.5425		79.3553
27.3707	24.1077		75.6583
26.6425	25.6746		75.9133
23.9939	22.5311		75.0973
30.9088	24.7299		75.9245
29.105	22.0714		75.3451
25.5993	27.6914		76.3406
29.1825	28.3516		76.4247
22.4416	26.4538		75.9859
47.4975	88.0893		39.5773
48.3992	92.7789		29.9504
41.7669	91.699		42.0234
47.1533	83.1122		46.4844
34.8119	83.6401		57.9259
35.3985	88.846		52.1817
40.5063	81.4509		55.3578
31.0154	49.8583		77.8612
31.3174	47.6397		78.4584
35.9113	49.1851		75.7018
31.995	38.1276		78.5384
32.0099	40.1787		78.7867
31.3869	44.1444		78.8532
32.9543	28.1349		76.2267
33.8757	26.1838		76.0265
37.4366	27.3597		75.5951
46.5588	78.6238		51.7404
52.6045	75.3686		47.0594
45.8853	74.1874		56.0178
41.7224	47.1087		72.0362
47.2894	44.3925		68.5968
41.1163	23.4568		74.6822
41.1466	24.7794		74.7337
38.0894	24.2948		75.4937
43.7215	22.5248		73.458
41.954	31.7658		74.1036
41.5947	29.2461		74.344
46.3244	29.9951		72.1539
41.2856	26.6066		74.6074
45.0742	69.5418		59.6496
51.1117	66.1167		55.3734
58.1702	72.4143		40.9624
57.6086	67.5058		45.7958
63.0335	69.607		33.6065
44.6251	19.811		71.9002
46.1603	18.6311		70.2731
46.0749	21.3567		71.7203
47.7633	20.0164		69.9813
45.206	20.5748		71.9612
50.2084	28.2384		69.554
53.308	25.7837		66.4741
18.2785	29.4429		77.1614
15.9154	26.4684		76.0999
18.9136	27.2148		76.2004
17.4634	31.1239		78.0011
16.3497	32.644		78.9446
13.7279	29.9848		77.8581
19.8095	23.9845		75.3175
20.6236	21.7047		74.7485
6.54994	39.0101		80.9169
1.48615	39.8705		80.6583
68.4167	-64.8104		-8.37917
70.5063	-60.071		-6.48913
68.3007	-64.8727		-14.8581
80.7646	22.6892		-36.5495
80.3829	18.804		-42.32
79.4441	28.3253		-41.3346
81.3518	24.9801		-28.2824
82.1885	16.9813		-31.3437
77.1859	-8.05181		-52.1869
76.2932	-14.0153		-50.7064
74.7787	-8.16702		-57.8155
78.1087	-2.25648		-52.1805
78.6959	3.91922		-51.7642
76.5163	5.70203		-58.2609
79.2968	9.41288		-49.8605
80.9472	1.81799		-45.4924
71.8664	-31.2185		-44.6955
68.5434	-34.4826		-48.6034
73.4568	-25.5026		-47.0804
9.09665	60.1694		77.4528
1.70845	59.7128		78.0454
15.9514	60.1098		76.7766
21.6862	60.3756		75.8143
23.0583	68.5226		72.4307
19.3084	-99.6964		54.1973
17.0745	-100.434		47.6965
25.4479	-96.9269		49.4434
13.6918	-101.555		57.0899
48.024	-83.9276		43.0101
41.927	-87.7346		48.1691
53.0528	-80.5291		37.659
49.6373	-81.9317		46.8037
56.997	62.1627		49.9617
62.2937	58.1683		43.5688
23.2388	75.1225		69.142
67.7546	66.8034		24.5624
71.598	64.4087		14.9243
67.758	60.5178		30.3023
23.9542	99.6376		45.6958
30.1906	97.3899		45.0695
23.9633	106.2		34.5473
17.0802	101.26		46.2118
65.8357	40.0488		44.8802
66.6643	47.1314		40.4062
48.5796	18.5159		68.5059
58.2641	26.0697		60.6414
59.332	21.2521		58.0817
56.7505	24.5799		62.2378
55.2735	23.2226		63.6289
0.193887	-109.618		41.5932
-2.318	-109.63		41.8479
60.6862	-72.5073		38.5242
62.2593	-69.09		41.2966
56.1783	-75.4905		45.2584
58.8814	-75.4857		34.9901
8.36883	-44.7474		97.5062
10.274	-45.3325		97.2657
8.04	-41.7229		96.0819
26.1286	-53.0287		88.9463
25.4146	-49.1426		89.6792
23.0835	-51.1002		91.6295
11.8532	-40.437		94.0827
9.44626	-38.9116		94.1748
12.3901	-43.5391		95.5487
14.7667	-41.6793		93.3903
11.3627	-37.0442		92.3708
34.6776	-56.3264		82.5114
34.116	-59.8977		81.5325
36.9272	-56.9805		80.859
34.6542	-52.1854		83.4686
64.6549	16.5908		51.1114
62.286	16.4017		54.0379
65.5847	10.3158		51.1071
66.8065	17.0018		47.9988
69.0356	17.4938		44.1694
71.7137	17.181		38.725
52.3004	15.6751		64.1474
52.2785	13.5314		63.7536
60.0592	16.178		56.5621
83.2749	8.9353		-36.5619
83.0835	5.19659		-39.82
81.7041	10.9754		-40.6423
83.4824	11.4534		-32.5311
80.125	-17.7892		-41.1368
77.9164	-18.2776		-44.3135
72.9943	-52.1287		-16.8656
75.1463	-48.0452		-14.4773
72.722	-54.3717		-10.6305
70.5668	-57.4127		-19.451
73.3352	-48.6166		-22.7414
82.7794	0.540748		-41.8796
80.136	-28.6632		5.97097
79.4741	-32.9107		5.27544
80.6909	-24.1815		6.42767
79.3925	-29.6868		10.4907
76.4898	-1.35134		31.6716
75.98	7.2773		30.5079
76.6395	-9.34616		32.9226
78.6452	-2.67827		22.8373
55.0526	9.76332		61.8025
53.2933	10.8508		63.0546
53.5072	7.09646		64.0818
51.7102	11.7892		64.2342
50.3797	10.3435		65.6145
78.5629	-30.3133		17.0412
77.6114	-30.5813		24.1188
77.9448	-35.2546		16.2173
79.1458	-24.9146		17.2206
26.8069	-14.0133		79.521
30.6114	-15.4571		78.5035
25.0687	-9.58666		78.9813
23.4904	-11.9528		80.9148
36.5694	-16.6997		77.5502
43.0853	-17.1873		76.221
37.536	-21.5009		78.2523
19.9773	-9.91212		82.8149
16.864	-7.64046		84.4977
20.8855	-13.2686		84.147
24.4623	-20.4133		83.1378
22.9822	-18.1958		84.232
20.1631	-21.3652		89.6251
18.693	-20.2155		90.9248
19.7752	-23.3574		89.3422
20.9596	-22.3963		88.6796
21.4838	-23.3287		87.6949
20.7899	-25.4471		87.5478
40.1801	-36.8418		79.5943
35.2907	-36.491		81.4874
40.6523	-42.2619		79.7609
39.5355	-31.782		79.3175
38.4059	-26.4537		78.8023
7.82586	-32.2807		91.769
7.94024	-35.0552		92.6785
8.99469	-33.0224		91.4776
61.6712	-50.7768		58.9036
62.8244	-44.6958		59.8891
56.7871	-49.8538		65.6596
60.0217	-56.9936		58.0253
29.5646	-46.586		86.5313
27.0932	-45.8127		87.9182
31.8461	-47.0641		85.2962
40.788	-47.7849		79.5762
40.5907	-53.1981		79.1169
45.6624	-48.3039		76.1527
36.8392	-47.5108		82.1945
7.919	-38.3613		94.3081
57.7541	-63.3777		57.2062
60.8947	-64.7601		50.2827
53.588	-61.2895		64.4147
54.3142	-68.6684		58.1892
64.0246	-28.5194		62.2951
63.9185	-33.923		61.6041
68.3787	-28.6866		55.4551
27.911	-93.8732		68.7334
28.6753	-91.2843		70.9072
22.2788	-97.3481		71.2733
40.3063	-81.0125		66.0109
45.2457	-77.4009		63.113
39.137	-77.8104		69.8794
34.7548	-84.5444		69.5509
59.4891	-7.08999		64.9415
57.0977	-2.56491		65.3891
53.6491	-7.6555		69.7594
48.1318	8.41913		67.8408
49.3929	6.58148		67.5014
54.9934	0.524065		65.8024
49.9446	-0.805565		69.7766
52.6903	2.8633		66.5852
45.9614	11.4606		68.7416
2.1247	-97.7495		82.6755
-0.428674	-97.9905		82.6126
48.9753	-59.7096		70.256
46.9747	-64.0475		70.3387
50.2357	-54.6705		70.828
44.0721	-58.617		75.0697
37.5426	-74.9514		73.1013
41.0651	-71.5961		71.9105
35.0646	-72.0719		76.5064
33.0446	-77.8216		75.3624
46.7535	-8.06321		73.0861
48.7482	-12.4591		73.3971
44.7768	-4.16259		72.8513
51.3433	-48.9422		71.4039
50.4197	-17.0781		73.3872
9.22414	-87.7439		85.6661
9.27478	-83.5398		87.2488
13.8112	-86.5606		84.3823
18.6738	-85.0792		82.5203
23.4493	-82.9308		80.4028
18.4958	-81.2113		84.2873
43.2589	-1.40649		72.6337
41.9004	0.648539		72.6085
36.1616	-1.64185		74.3706
50.989	4.76904		67.0041
46.8117	3.20014		70.1388
40.7426	2.43515		72.589
33.8037	2.26802		74.134
14.0404	-5.8989		85.7437
14.8611	-9.12892		87.9596
13.4542	-2.02849		83.2577
16.1077	-14.698		92.1905
15.8846	-13.5462		91.3467
13.4098	-13.501		93.89
16.4193	-15.5959		92.442
12.8427	7.68527		78.163
12.8373	5.21965		79.3721
23.3722	-5.27918		78.2506
3.91289	6.6428		82.1065
2.08308	6.9672		82.0525
65.563	4.11141		53.4493
13.0467	1.84419		81.0556
64.0097	-64.7739		43.2738
67.4731	-63.0551		34.8304
71.5217	-16.1694		49.4961
71.9324	-22.8319		48.4683
74.3578	-16.0117		41.608
70.8492	-40.232		46.4125
71.5273	-34.3941		47.0824
67.714	-39.608		53.7372
73.2343	-40.8274		38.7953
71.9222	-28.5458		47.6706
74.4229	-29.356		39.916
17.5238	-99.7746		73.4066
9.26073	-80.0619		88.7624
5.51139	-80.6402		89.2794
13.5781	-79.1885		87.7024
18.0369	-78.1836		85.9634
27.8101	10.7003		73.3987
29.6249	-1.00384		75.2887
28.7421	1.35794		74.9556
28.0952	3.1821		74.6653
2.1985	-80.9937		89.4361
-0.888292	-81.1111		89.3952
6.81509	21.9547		76.819
8.37001	21.128		76.4419
7.30763	25.0829		77.1631
5.18188	22.2647		77.0992
6.85137	18.8147		76.8216
19.7854	12.5869		72.7728
19.5668	13.6318		72.8211
17.6449	12.3626		74.0453
9.81729	19.8945		76.0248
10.6418	22.9595		76.1149
3.42721	22.7161		77.2782
1.39167	22.8926		77.3304
8.42945	-24.279		93.6439
9.1342	-23.3881		94.0082
11.0355	-15.0939		95.9614
10.9768	-13.7805		95.6326
13.7887	-15.5951		94.4951
19.7047	-29.379		86.4133
19.3455	-28.2171		87.1674
16.9787	-30.4225		87.4914
10.6799	-12.5521		95.156
7.52967	15.4683		77.1612
8.38147	28.7263		78.0058
10.2476	27.8258		77.4551
19.913	15.109		73.0117
11.8946	26.4991		76.7732
13.1865	24.8463		75.9868
14.2254	23.2296		75.4973
21.9254	-36.2661		86.6176
18.9622	-36.2844		88.0747
22.975	-40.4347		88.1884
24.3342	-45.0119		89.2682
20.9846	-43.9403		91.0086
25.8242	-60.1134		83.1033
25.6246	-58.9571		82.5622
23.7803	-60.019		84.6642
26.4281	-58.6171		86.3662
24.5348	-57.2572		88.8688
25.4559	-55.6747		81.4693
22.1783	-55.3594		83.8766
25.1409	-51.3626		80.6121
16.2585	-36.1065		89.3591
13.4375	-35.4472		90.472
17.024	-39.1918		90.7483
18.0376	-42.9121		92.2023
18.7798	-46.2637		93.3535
21.1902	-59.6685		86.3999
19.8289	-58.1048		86.5068
19.1609	-54.843		85.7024
19.3717	-50.4498		84.4324
10.896	-34.1351		91.1418
10.5342	-31.6996		90.3215
13.3921	-46.5949		96.4039
16.5599	-47.9439		95.3123
20.9393	-15.6182		85.6778
18.1983	-13.5302		88.0263
5.8479	-8.37959		93.7683
3.69967	-8.16811		93.859
15.4187	-11.609		89.8428
10.083	-21.8632		94.6183
12.2355	-22.2449		93.4684
14.8963	-22.9748		91.9548
15.9384	-21.0991		92.3064
17.4153	-24.0064		90.3713
18.8875	-25.1075		89.1795
19.2861	-26.2801		88.3731
19.3803	-27.2628		87.7153
16.5077	-16.4458		92.6615
16.4793	-17.6135		92.7569
16.3513	-19.2622		92.6376
37.7606	-140.839		12.8046
33.1656	-142.329		15.9385
39.1628	-147.14		11.7649
41.9348	-139.232		9.5986
35.9482	-132.207		14.2602
33.8653	-120.079		16.1559
38.1158	-118.598		12.5468
32.58	-109.286		17.8939
29.401	-121.531		19.7604
35.4641	-93.9634		24.9238
39.9975	-91.7304		20.5561
30.8337	-96.2816		28.9835
34.1271	-97.3565		21.4056
32.9304	-101.992		19.4627
28.464	-103.569		23.617
37.1457	-100.467		15.5801
44.5843	-67.9315		70.6803
47.758	-70.3903		65.7999
40.695	-66.0814		74.9742
50.4565	-73.1743		59.9038
51.1854	-76.4089		54.8955
50.9142	-79.3114		50.5461
37.6989	-64.4476		77.8321
39.022	-61.3939		78.044
35.1565	-63.153		79.8455
35.4987	-67.1857		78.2176
33.391	-62.3479		80.988
32.1473	-64.0784		81.0664
44.1962	-89.6202		16.3437
46.8955	-86.2217		19.4569
42.5374	-93.6309		13.5361
48.3017	-87.9507		11.1758
50.2623	-83.2238		23.2828
53.3184	-81.3464		17.0609
53.7867	-80.4374		27.1109
56.6464	-78.0003		31.3284
59.2016	-76.0395		24.1343
42.1964	-117.013		8.85304
44.0148	-129.028		7.44775
46.1769	-115.856		4.95637
41.1645	-106.434		10.1242
45.7239	-137.706		6.26113
47.337	-144.183		5.16839
49.2996	-136.222		2.6152
41.3826	-98.909		11.6007
76.2737	-30.1063		31.9323
75.7389	-35.7523		31.4143
76.6544	-23.8795		32.4411
61.048	-74.5337		17.2615
58.4731	-77.0739		14.0469
62.4655	-73.1592		10.3366
75.0617	16.3597		30.1233
78.2488	14.1479		19.2334
69.6741	-61.6639		26.5963
71.0533	-60.1258		18.3164
74.9858	-41.2554		30.9015
76.2335	-41.1829		22.9647
76.6887	-16.6309		33.2107
78.4346	-17.9799		24.7694
77.1344	-40.1713		15.4969
77.9404	-38.5663		8.83426
57.8044	-85.8234		-4.62262
57.0591	-90.4143		-5.94177
60.0075	-85.5981		-9.42526
58.7798	-81.8498		-3.01635
55.1492	-86.1694		0.3093
56.5321	-95.7116		-6.74334
60.1562	-78.2569		-0.745511
58.114	-78.9919		4.75862
61.9488	-77.6377		-6.3563
61.7733	-74.9974		1.40522
80.2423	-3.64381		14.0228
80.3517	4.46887		11.4082
79.949	-11.8611		16.3441
80.3856	12.9418		8.3434
80.3445	20.8929		5.64535
80.2664	28.9295		2.24999
81.3346	27.9712		-8.65963
80.1553	36.8675		-1.6656
71.9297	-58.1638		10.2068
72.3652	-56.5391		2.29277
79.5841	-18.7591		17.347
80.4686	-19.3785		10.8935
50.1287	-114.692		0.661767
51.4075	-126.289		-0.44087
55.9157	-80.0583		10.9318
53.63	-83.2551		7.98589
52.7097	-134.652		-1.49965
54.0821	-140.821		-2.73643
60.2992	-111.176		-16.8056
60.7424	-120.693		-18.2296
61.7839	-85.2131		-14.1988
63.0492	-83.6441		-19.2293
62.6229	-80.9122		-13.1782
63.7295	-76.7258		-11.8509
61.2302	-127.851		-19.8076
61.6738	-133.512		-21.8168
72.4768	-55.7282		-4.84669
78.6867	-37.0098		4.33283
79.5781	-35.0937		1.09693
77.8829	-40.7064		2.73796
81.1309	-19.4088		6.63803
61.8721	-91.066		-27.2547
60.7826	-87.0085		-33.9913
62.7105	-85.0016		-26.083
63.8902	-79.3469		-25.0603
63.6514	-73.1731		-31.0294
68.3151	-63.3546		-21.3538
76.5487	-45.5933		-13.18
77.5051	-42.7756		-19.7554
57.2006	-117.296		-45.3656
57.2947	-125		-46.8497
54.0105	-114.669		-52.3073
57.2293	-109.112		-43.7954
74.161	-43.5739		-27.4657
76.7239	-40.0231		-25.7797
78.4537	-38.371		-25.0806
28.4118	-143.63		18.8566
26.7361	-135.099		20.7246
23.647	-144.854		21.4674
29.8882	-149.711		17.4024
23.4173	-105.193		28.1904
18.2896	-106.705		32.5075
23.1045	-112.026		26.089
24.4679	-101.602		29.9912
31.0346	-94.2029		44.5208
27.9673	-96.0781		38.9482
33.899	-92.6312		49.3059
25.6821	-98.635		33.5699
20.4179	-100.589		38.1844
24.5657	-122.719		23.4891
19.719	-124.395		26.9066
33.1065	-69.7626		78.8325
31.4649	-67.4487		80.6132
36.1233	-91.1155		53.3191
30.3677	-65.8867		81.6334
27.9502	-67.5932		82.9108
29.4508	-64.5643		82.3212
28.7339	-63.3699		82.7761
26.7176	-64.7883		84.1422
28.3565	-80.6291		77.7871
28.962	-84.3215		75.4648
29.161	-88.1405		72.9723
22.0786	-61.6911		87.7809
18.9911	-62.0127		90.3326
21.934	-61.0769		86.6082
25.1407	-61.2738		84.3697
22.0028	-61.3011		86.1381
18.4663	-60.7818		88.9075
21.9549	-61.773		85.7187
21.8713	-63.1659		84.9086
18.4267	-61.4665		87.8075
21.3883	-66.1937		83.8579
20.5895	-69.7804		83.0926
17.9034	-65.884		85.7927
13.2513	-107.868		36.1965
14.1864	-104.669		38.2994
13.2752	-114.808		33.4825
18.8388	-146.131		23.7898
17.2435	-137.89		26.1736
14.1048	-147.119		25.7637
20.2353	-151.792		22.0823
15.0518	-125.888		29.899
6.19823	-103.727		46.4817
9.92893	-103.325		44.8068
7.78069	-102.706		52.2845
9.9584	-147.824		27.1914
11.2048	-153.206		25.4236
9.47877	-102.631		58.8022
14.9511	-60.2776		91.1763
14.8753	-60.486		90.5011
14.7662	-61.0286		89.8036
14.899	-62.4433		88.6547
14.5049	-65.537		87.3779
14.0263	-69.5012		86.3154
75.5222	47.5189		15.8142
78.2289	45.7654		4.86102
75.3747	55.0406		10.3345
71.8889	50.1914		26.2015
81.5092	26.769		-18.7747
74.8276	-19.8824		-49.343
71.88	-21.6918		-54.2468
51.3155	-93.5322		-54.8193
52.176	-83.5431		-53.6492
54.2592	-96.5316		-49.4064
51.017	-103.615		-56.0732
48.2083	-91.3362		-59.6744
51.0471	-112.49		-57.4814
51.3704	-120.975		-58.7756
47.8748	-110.865		-62.1268
58.7074	-81.603		-41.1936
57.7492	-90.9064		-41.82
56.1194	-77.2578		-47.4878
60.3626	-73.4303		-39.75
23.6601	112.089		21.216
30.4821	109.317		21.0141
23.4623	116.376		6.33253
16.516	114.04		21.4503
22.7035	100.759		-78.0397
23.397	109.401		-62.2816
29.7546	98.757		-76.1692
21.8907	89.9624		-91.1263
15.3078	102.167		-79.4425
21.3938	78.1247		-100.623
28.2017	76.491		-98.6534
21.0705	65.0348		-107.801
14.4761	78.8917		-102.203
23.5746	115.253		-45.3421
30.7207	112.792		-43.7346
16.1177	117.048		-46.3928
23.5828	118.29		-27.6693
8.49269	121.852		-10.9278
0.572078	122.273		-11.0594
8.55518	119.694		6.08431
16.1441	120.628		-10.6306
8.43717	121.399		-28.8673
20.7593	52.17		-112.713
27.1304	50.8049		-110.711
20.4017	38.8529		-115.993
14.3025	52.9466		-114.138
19.8597	24.9344		-117.824
26.133	23.9574		-115.677
19.3262	11.1949		-118.04
13.6047	25.8816		-119.297
17.1552	-26.961		-107.294
22.9104	-27.7054		-105.153
16.8046	-38.4824		-100.008
11.6473	-26.8503		-108.437
18.0088	-14.5263		-113.077
6.4378	-0.682433		-119.196
0.112113	-0.596442		-119.504
6.67961	12.3498		-120.56
12.6167	-1.12017		-118.208
6.11286	-13.4139		-115.704
14.6075	-84.4547		-82.6971
15.006	-75.0773		-83.6218
19.844	-85.1924		-81.4091
14.3299	-93.7837		-82.3876
9.57302	-84.0345		-83.4145
4.39459	-102.254		-83.0202
9.30104	-102.691		-82.771
4.47961	-111.806		-82.8815
-0.328959	-102.042		-83.0682
4.53808	-92.702		-83.2916
16.9101	-47.558		-93.9783
22.1623	-48.1205		-92.4438
16.4806	-55.6581		-89.4569
11.2391	-47.1074		-94.9553
15.6353	-64.9493		-85.877
21.2158	-66.0294		-84.1874
10.392	-64.1703		-86.8271
5.12064	-63.8908		-87.2375
5.42067	-54.7742		-90.8573
4.7853	-74.2021		-84.854
-0.17386	-64.0801		-87.2482
48.9374	97.3306		18.2114
54.7185	91.8654		17.0257
49.5916	100.737		4.86631
43.0556	101.919		19.5089
47.0956	69.5302		-88.727
52.542	66.4466		-84.5201
46.7149	57.6531		-95.5076
41.2806	72.1534		-92.5196
47.5147	80.3207		-79.5914
47.89	89.7384		-67.6478
42.2371	93.3081		-70.866
48.5752	96.7275		-53.6271
53.405	85.3814		-64.0954
49.3328	101.001		-39.0311
55.0799	95.4082		-37.2778
43.5331	105.622		-40.6226
50.1965	102.58		-24.3394
50.0448	102.637		-9.57511
43.9709	107.639		-9.46431
55.864	96.8706		-9.6413
46.0541	45.6187		-100.428
45.3513	33.1277		-103.703
40.1941	47.4934		-104.324
51.4666	43.4268		-96.1517
44.3597	20.4819		-105.561
49.681	19.0626		-101.247
43.358	7.68787		-105.71
38.7373	21.5895		-109.356
42.0403	-4.67935		-104.302
40.7043	-17.3857		-100.828
36.8157	-4.35315		-107.919
46.8529	-5.40894		-100.134
39.867	-29.7664		-95.0276
44.6004	-29.4986		-91.2113
39.2566	-40.4978		-88.7004
34.5592	-29.1699		-98.9247
38.6184	-49.7945		-83.0851
37.8516	-59.0548		-78.2531
33.4058	-49.6063		-86.7664
43.2453	-49.9809		-78.8363
35.4007	-86.9148		-73.5337
34.3926	-96.7466		-74.5068
30.3625	-86.5217		-76.8864
36.454	-77.4841		-73.3951
39.9811	-87.8356		-69.5763
24.1199	-104.199		-79.9885
24.261	-112.949		-80.2428
19.094	-103.52		-81.3693
24.4655	-95.231		-79.7123
29.2148	-105.082		-77.9501
37.1465	-68.3667		-74.9309
41.8554	-68.6883		-70.4388
32.2302	-67.7533		-78.6374
67.4924	69.1666		-50.7881
68.6902	73.0881		-39.3506
71.5789	62.4612		-44.9736
66.6101	63.0558		-61.2183
63.1342	75.0657		-55.9917
69.6012	75.3286		-28.0153
73.5384	67.5889		-22.818
65.2028	82.5715		-32.1505
70.1524	76.3245		-16.8174
69.4921	77.16		-6.02907
72.5297	69.8257		-1.16715
65.6628	84.0377		-8.38882
56.2417	41.2039		-91.6504
56.9441	52.3327		-86.6952
60.5909	38.5771		-86.8472
55.4976	29.4472		-94.9036
57.3187	63.2126		-80.0741
57.7738	72.6748		-71.4145
61.8171	59.3529		-75.1808
51.6236	-6.09034		-95.1891
53.3956	5.74886		-96.5023
56.2106	-6.90243		-89.6611
49.8921	-17.9626		-92.1171
54.5324	17.4518		-96.5504
59.0317	16.0959		-91.4708
48.8448	-29.0227		-87.087
53.0086	-28.9807		-81.9841
48.3094	-39.8846		-80.3832
47.3893	-49.3388		-74.5877
51.1341	-47.7543		-70.5661
46.5628	-69.2977		-64.8191
50.5672	-71.724		-58.3714
45.443	-79.1026		-64.047
77.676	34.2967		-46.4251
76.7558	28.3894		-53.9503
75.5413	39.6938		-52.113
59.9401	85.8265		16.4667
60.515	89.2055		3.62968
79.5063	44.534		-6.12587
78.4814	52.2098		-11.3923
66.9131	-7.68212		-73.8165
63.7153	-7.76432		-78.973
68.3564	1.63322		-75.2098
69.9021	-8.03383		-68.2414
65.1183	-17.3856		-71.0398
69.1558	11.0602		-75.8266
66.1341	12.8169		-81.2865
70.019	20.0329		-74.3095
72.0525	8.98531		-69.7522
70.8827	29.1376		-70.9109
67.8053	32.5729		-76.5687
71.8739	37.4717		-65.396
73.647	25.3268		-64.9789
59.6809	-42.0287		-59.8383
56.9056	-44.2239		-63.371
61.3534	-34.5159		-63.6912
62.4847	-39.9143		-56.0542
58.1937	-49.6572		-56.1422
69.008	-23.2778		-58.923
67.1833	-30.4869		-55.6881
66.2403	-24.8475		-63.09
70.8577	-15.9178		-61.26
53.637	-74.2748		-52.7945
55.2332	-65.471		-52.7682
79.5473	-38.8918		-4.71164
80.3065	-35.3892		-2.53303
77.9772	-41.9869		-2.53722
80.3603	-33.7021		-0.982509
83.5911	-7.67773		-1.83552
84.1287	-2.30515		-3.92565
93.8788	3.45357		-37.9037
94.0256	9.26276		-35.4042
94.5324	3.04642		-37.1859
84.689	-36.1761		-24.8596
83.631	-39.0716		-21.5061
93.6793	13.9691		-31.7668
92.6945	14.2901		-32.2669
93.102	17.1126		-27.5299
94.5871	13.2895		-31.2025
88.329	8.93106		-10.6551
86.9775	8.9533		-11.3122
92.4729	18.4243		-23.1576
93.4305	17.6939		-22.4117
89.3101	-19.478		-34.889
86.4635	-37.1464		-17.3574
85.9719	-37.101		-14.682
84.7435	-39.221		-17.8893
84.3834	0.330908		-5.63748
89.4292	16.711		-18.6139
87.7155	13.6215		-15.8968
88.3215	15.8602		-20.2159
85.5986	9.2559		-12.7763
84.6594	9.72885		-14.3903
92.0361	14.1331		-32.491
83.8564	9.45247		-15.8635
84.9337	11.4511		-18.5593
86.2852	13.3743		-22.2016
84.1658	11.2334		-23.2778
88.9105	-28.0524		-27.7732
89.2904	-29.8419		-20.1022
83.1475	-40.3882		-18.4242
85.3541	-36.3152		-12.4039
86.5464	-33.4206		-12.3218
87.4443	-31.0202		-13.1408
87.8807	-29.4337		-14.0194
94.7418	2.74383		-36.7631
95.1695	8.34511		-34.3533
92.3251	14.96		-14.8344
92.5251	14.3118		-14.5469
93.3447	16.6394		-17.9506
92.5248	13.7043		-14.42
93.6035	15.4595		-17.4917
92.3801	12.6329		-14.6197
94.9849	12.7338		-30.8344
94.5326	15.624		-26.6071
95.1082	12.2298		-30.6972
94.0199	16.9662		-21.9315
94.258	16.3568		-21.8167
94.2869	15.7765		-21.5643
94.7036	14.5797		-26.2559
95.0828	11.8599		-30.39
94.2749	-1.59321		-35.7908
92.1273	11.3261		-15.1964
89.856	3.9914		-12.7551
93.702	11.0907		-23.8115
93.9524	-4.80648		-30.6145
93.9957	-2.91621		-30.2807
93.9239	-1.04303		-29.66
93.7372	0.453826		-28.7218
93.4203	1.66889		-27.4366
92.6065	2.49411		-24.8376
85.9878	-25.9209		-11.6626
87.0966	-27.4929		-13.396
88.2295	-2.79047		-9.77981
84.892	-17.8941		-9.46365
87.9641	-28.6908		-14.5156
34.5698	24.8073		75.8997
35.9003	94.9218		43.7708
36.5553	100.693		33.1237
9.18438	102.433		46.4014
8.9859	109.326		34.9715
0.881084	102.873		46.4175
36.8291	106.029		20.305
37.1219	109.95		6.05983
8.73505	115.281		21.5494
0.651734	115.758		21.4333
23.3996	118.616		-10.2209
30.5706	115.737		-9.81281
37.3282	112.13		-9.65962
37.5208	112.033		-25.7829
67.4521	53.8568		35.3527
74.3667	62.3428		4.43655
76.1133	60.9562		-6.27608
60.9303	90.8592		-9.59638
61.1178	90.5742		-22.393
8.3643	118.159		-46.9337
8.22614	112.046		-64.2445
0.501131	118.544		-47.0798
37.1736	109.722		-41.9658
36.8003	104.41		-58.4311
76.3635	59.8408		-17.1174
75.9439	58.3491		-28.0649
60.1761	89.471		-35.1899
59.241	86.2133		-47.799
74.8637	55.6895		-38.904
73.8085	51.3608		-49.1749
72.7819	45.3435		-58.0188
69.6047	50.3658		-64.0133
44.4189	-89.6287		-64.7491
43.6675	-99.5945		-66.1082
43.6851	-108.93		-67.1559
43.8404	-117.55		-68.3773
38.8587	-107.144		-71.7277
7.87517	103.109		-80.0781
7.56409	91.718		-93.4572
0.425417	103.312		-80.4445
7.49658	79.3263		-103.095
7.50179	66.2669		-110.104
0.341712	79.4549		-103.38
7.47316	53.3944		-114.983
7.2939	40.3523		-118.265
0.260994	53.5966		-115.233
6.96999	26.5353		-120.188
0.188517	26.5784		-120.487
18.7324	-1.81149		-116.552
24.8322	-2.76928		-114.237
5.74755	-26.6413		-109.21
5.65765	-38.6213		-101.15
0.0515805	-26.7459		-109.335
5.57845	-47.2197		-95.1904
-0.0735315	-47.4321		-95.1173
4.66379	-83.5515		-83.7703
-0.268115	-83.337		-83.8511
34.8248	74.5136		-95.9437
35.4082	86.0922		-86.4827
34.3475	61.9553		-102.911
36.0612	96.2683		-73.9338
33.7274	49.3059		-107.841
33.1623	36.2609		-111.074
32.4846	22.9074		-112.821
31.8269	9.32109		-112.905
30.9472	-3.64242		-111.307
29.8974	-16.2365		-107.839
28.7907	-28.4341		-102.378
27.9806	-39.5414		-95.8866
27.8103	-48.891		-90.0155
27.5847	-57.7148		-85.1889
26.7813	-66.8925		-81.8319
25.9938	-76.4947		-79.9453
25.2545	-85.8012		-79.4564
34.2091	-105.948		-75.1867
34.4296	-114.721		-75.8257
58.3114	80.7154		-60.2638
65.887	55.3937		-69.6293
65.2127	45.7797		-76.6756
64.3455	35.9386		-81.8942
63.5605	25.3079		-85.1732
62.7515	14.6306		-86.5384
61.7993	3.59477		-85.9875
60.1169	-7.56896		-84.2946
58.2697	-18.2589		-81.371
56.5981	-28.1238		-77.3815
59.9998	-27.5334		-72.316
55.2971	-37.752		-72.037
54.1053	-46.0061		-67.0544
56.9135	-57.5819		-53.3313
59.1964	-56.132		-49.955
75.7943	22.1252		-59.4842
75.0843	14.7824		-62.6743
77.8482	18.3319		-53.4407
72.3612	-8.13151		-63.2534
73.5911	-0.323913		-64.1094
63.1365	-26.2996		-67.7283
74.3603	7.51782		-64.2429
65.3335	-37.6032		-52.3674
63.7115	-44.6716		-49.2194
15.0612	-102.226		42.1742
63.8668	-71.8803		3.61562
51.9445	-86.8334		5.81738
15.4097	-52.4621		96.2376
18.6127	-53.5782		94.5259
21.8994	-55.338		91.7741
8.37655	-64.3054		97.2971
8.66961	-65.4677		97.3449
8.935	-66.5983		97.2281
24.8472	-69.6441		84.9834
24.2641	-68.0795		85.9613
23.7467	-66.686		86.8067
19.8582	-49.4749		93.5244
40.0931	-57.7059		78.4382
31.6749	-36.1407		82.6072
33.022	-41.8393		83.6349
34.0432	-47.1936		83.9175
63.6011	-39.1327		60.6992
21.0179	20.1348		74.3291
79.7531	14.6023		-46.9957
83.112	13.1671		-27.6245
83.9011	11.1909		-25.2559
76.684	-45.0383		0.87272
27.7727	9.39122		73.6949
52.8197	41.0744		64.7318
10.5225	-29.9288		90.0422
47.2832	17.4199		68.6981
14.2093	-29.591		88.7017
83.8326	10.9747		-24.1522
57.2879	-100.193		-42.8014
62.9696	-65.4229		-37.7883
62.0972	-58.9109		-42.899
62.0511	-53.1082		-46.5484
25.782	-28.0248		82.2428
15.5845	-62.0479		92.8634
26.9262	-61.2953		83.1053
7.95401	-57.5849		94.418
-73.3492	-51.6208		11.1963
-74.6108	-46.8612		12.3364
-74.2271	-49.2552		4.5916
-71.9479	-55.9294		10.0968
-72.338	-53.6799		18.7637
-57.7049	-114.293		-5.29217
-57.3973	-104.239		-4.61003
-59.8025	-113.164		-9.86508
-58.4847	-124.528		-6.76377
-55.0451	-115.19		-0.863125
-59.278	-131.997		-8.30834
-56.8917	-133.773		-3.73189
-61.0237	-130.255		-12.9554
-59.9855	-137.886		-9.79688
-51.2504	-98.3242		6.03838
-54.7342	-97.6365		0.734925
-51.1881	-105.797		4.84553
-47.5784	-99.403		10.9297
-51.9766	-92.7535		7.15325
-61.1518	-96.3		-13.1463
-59.6168	-96.723		-8.61899
-61.4858	-91.1462		-12.8763
-62.0891	-95.1019		-18.4534
-60.9997	-103.004		-13.5922
-64.8027	-69.6383		21.8615
-65.941	-68.4258		14.4393
-62.6666	-72.6888		20.0441
-62.9783	-70.9625		29.4725
-66.658	-66.5243		23.498
-74.2504	30.8375		23.6072
-77.6124	29.1825		12.1001
-74.2676	23.0295		26.4685
-69.7958	33.9788		34.2991
-74.606	38.9757		19.2868
-78.6551	41.3576		-28.3609
-80.0722	33.8522		-23.6324
-79.1818	43.0806		-17.878
-76.8164	48.4834		-33.4253
-77.9741	38.3622		-37.9269
-10.0386	-109.247		40.6355
-10.2521	-105.764		43.2124
-13.1154	-109.094		39.4193
-9.73687	-116.927		38.264
-7.39822	-109.378		41.3793
-10.3468	-128.619		34.2751
-11.0493	-140.198		30.1881
-7.18988	-128.836		35.2251
-13.841	-127.652		33.0214
-4.29277	-148.715		28.905
-4.5689	-153.955		27.3193
-4.1812	-140.856		31.4764
-7.87703	-148.388		28.4813
-67.8879	-54.5316		-31.8281
-68.7061	-46.9758		-36.0587
-65.1376	-60.2306		-34.0572
-67.4189	-60.855		-26.5753
-70.6172	-48.7937		-29.6763
-69.548	-41.5261		-39.1107
-72.7977	-37.1446		-36.0611
-70.4135	-36.774		-41.5649
-65.7964	-47.016		-42.3708
-61.985	-123.456		-29.2822
-62.4894	-126.505		-22.8448
-60.4931	-120.672		-36.1005
-61.9152	-130.013		-31.7582
-4.2203	-129.162		35.6713
-4.35738	-117.439		39.6041
-70.7867	-55.1903		27.3721
-69.3885	-59.865		26.4865
-68.9255	-55.5505		35.2825
-72.2283	-49.6133		27.6061
-66.9388	-66.7974		6.97829
-68.7887	-63.323		8.01885
-67.5121	-65.6896		-0.6788
-64.9911	-70.0973		5.65313
-9.98303	-97.0305		80.5525
-10.1804	-92.7734		82.9583
-13.6455	-96.1065		79.241
-9.52614	-100.445		77.8119
-6.20729	-97.5896		81.6849
-17.5315	-94.257		77.8093
-17.7976	-90.0244		79.9614
-21.7582	-92.1006		75.6311
-16.8343	-98.1272		75.3183
-3.84647	-89.3562		86.3459
-3.42585	-93.7388		84.6615
-4.22267	-85.0222		87.6951
-6.97601	-88.8721		85.7818
-9.11405	-102.358		75.2529
-5.86212	-102.643		76.2696
-12.6008	-101.721		74.1753
-9.22178	-103.33		72.3252
-9.64252	-103.638		68.6338
-10.1594	-103.338		64.1679
-6.20096	-104.018		69.0898
-15.2251	-1.87179		78.8851
-12.4052	-0.133399		79.6962
-15.0781	1.87542		77.3083
-18.029	-3.15815		78.0082
-15.5861	-5.69693		80.5414
-49.9556	-28.4696		73.2918
-50.6548	-33.7514		72.6888
-43.9583	-27.2454		76.3615
-49.3549	-23.0903		73.508
-55.8891	-29.2743		68.7657
-60.3536	-17.9458		64.0676
-61.1292	-23.9311		63.3724
-54.5226	-17.9729		69.6353
-59.1504	-12.0875		64.6396
-66.0153	-17.8264		56.3714
-71.7745	0.732842		41.8641
-68.945	3.14743		46.6696
-70.8206	8.40969		40.9422
-73.9054	-0.798341		36.4959
-50.8606	-39.0783		71.7514
-44.9142	-38.1227		75.9265
-56.509	-40.4213		66.2773
-50.4326	-44.9073		71.0181
0.974175	-2.02936		87.9398
-1.09783	-2.42013		87.6312
1.36752	-5.71422		91.2996
0.530569	2.38171		84.6063
-30.4541	73.1097		66.7827
-31.5417	78.3228		62.7835
-36.1633	71.243		64.1923
-29.0595	66.9635		70.9695
-25.0869	74.2256		68.6871
-3.46324	-103.666		59.6987
-3.04858	-104.008		64.9142
-6.59852	-103.456		59.1631
-4.08596	-103.49		53.8711
-66.5127	-55.3398		42.8258
-67.9643	-49.3979		43.4272
-64.5396	-61.2995		42.4042
-63.3953	-54.8889		50.1712
-2.83962	-102.837		76.9178
-2.96488	-103.911		73.3703
-2.87033	-101.104		79.5676
-3.03317	-104.204		69.5128
-36.883	-88.6622		58.9693
-37.4489	-86.0721		61.9945
-42.412	-85.2566		54.6942
-35.7199	-90.8372		56.2546
-31.323	-91.9654		63.46
-41.5921	-90.085		36.5705
-36.684	-92.7229		40.9949
-44.1211	-87.7164		40.2099
-46.3709	-87.2744		31.6773
-39.4159	-92.4994		32.6294
-4.59912	-104.061		48.0121
-5.06953	-105.866		44.3418
-7.27866	-104.015		47.4446
-3.85198	-9.26214		92.3676
-1.0435	-8.64681		93.2915
-3.69103	-6.59141		89.9302
-6.95781	-10.2802		91.0068
-3.94163	-11.126		93.9942
-26.7703	-22.9723		79.9857
-22.9839	-20.0625		80.9983
-24.8591	-17.9593		79.7203
-31.1127	-24.845		79.3422
-31.1579	-60.8589		80.3521
-29.0763	-61.154		80.9297
-29.799	-60.1376		80.9166
-11.0986	-27.3869		89.4041
