1819
-87.0474	-23.8618		-24.2479
-86.8369	-17.1485		-26.1853
-81.1491	-32.769		-13.0238
-79.9054	-27.4477		-9.11338
-82.8689	6.24417		-10.1676
-91.4836	14.174		-21.0888
-91.8674	16.4329		-19.548
-81.4238	-14.392		-15.1033
-81.275	-18.4831		-15.7608
-85.748	-1.03048		-14.0488
-87.0838	3.51425		-14.399
-86.7324	0.375191		-17.6728
-85.6884	-3.91184		-19.7013
-91.4239	-10.4378		-34.6698
-78.5921	-30.9972		-30.8394
-78.2906	-35.5747		-25.8551
-92.321	-4.92914		-33.3847
-92.7307	-2.11747		-36.2381
-88.1885	-19.315		-28.681
-79.2083	-22.3445		-6.93754
-78.6602	-18.8543		-4.41793
-80.0066	-11.5838		-4.75206
-81.1844	-11.1657		-7.13554
-79.9104	-17.1086		-6.49473
-84.3471	-23.8382		-17.5764
-84.0468	-6.06378		-15.7628
-93.0346	7.37685		-33.4292
-92.7246	5.76397		-32.364
-92.6645	-0.0370564		-33.0053
-92.4186	3.52277		-31.1362
-89.6108	9.31609		-20.5912
-92.1722	8.80816		-28.7711
-92.7549	11.0434		-29.5947
-91.3071	5.90275		-27.2222
-31.8507	-98.2061		60.9023
-71.1567	-46.4078		-11.2561
-69.8765	-47.039		-0.442897
-72.8748	-41.5149		-8.92391
-6.65644	24.6233		82.8289
-17.1389	-51.9123		84.9001
-16.9312	-50.3154		87.5582
-64.7456	-64.1534		-4.47981
-65.1457	-68.514		-17.0833
-62.7743	-71.3956		-6.30601
-76.7049	-9.20591		7.01752
-78.4492	-10.4388		-0.470647
-63.9329	-77.9409		-19.1665
-64.7126	-66.1176		-29.5396
-63.655	-120.209		-21.6295
-61.4897	-113.629		-35.1773
-23.8033	-55.452		79.7713
-23.7117	-54.6018		79.4459
-26.876	-54.0411		77.2541
-27.6278	-54.5406		77.1842
-18.82	-57.3853		86.6061
-18.4265	-55.8625		86.5083
-35.4398	-92.6201		66.3337
-43.0228	-59.9179		-73.5235
-52.2045	-63.2142		-59.2119
-50.6309	-54.6114		-66.5131
-60.8963	75.1671		27.582
-50.9908	77.7819		43.037
-52.6661	87.3099		28.1157
-92.6584	-1.52278		-39.8239
-91.278	-1.24555		-41.3183
-90.8522	-12.5117		-36.3363
-89.701	-13.0246		-38.1545
-87.0533	-22.2343		-33.2761
-88.2711	-20.9479		-30.546
-83.6872	-2.1998		-9.05773
-80.8584	-21.3348		-9.52847
-87.7908	-12.1709		-39.8063
-81.8409	10.3804		-13.8173
-80.7247	3.23721		-6.1511
-83.1428	-19.0349		-37.6808
-82.5113	-35.2303		-23.3247
-85.6762	-30.576		-21.3905
-86.9923	-26.5568		-26.2865
-84.773	-29.5814		-29.2204
-84.2835	-31.1621		-16.8818
-85.6909	-27.2072		-18.7989
-75.6759	-38.9161		-21.7602
-81.6119	-35.8949		-17.8461
-78.7807	-37.8598		-19.0504
-83.5707	-24.8978		-14.873
-82.308	-28.0707		-12.5887
-88.9377	13.0807		-13.7118
-85.9516	6.9405		-11.1758
-93.8412	9.71977		-34.7909
-93.2818	4.1534		-37.1702
-89.2679	12.1547		-14.4964
-88.5891	9.45334		-15.6422
-87.8108	7.10664		-13.5106
-93.3135	15.7698		-27.9872
-92.8856	14.0316		-27.5959
-91.3124	-5.73652		-31.4316
-88.5192	7.3324		-18.442
-90.2242	2.4176		-26.1574
-89.3862	-10.9093		-30.1417
-81.1594	-16.6362		-12.8278
-81.5364	-20.2861		-13.5641
-82.1179	-12.3778		-12.9148
-82.24	-11.8956		-10.9097
-84.5975	-2.57457		-10.7433
-84.5079	-4.35911		-13.1866
-87.4735	3.91343		-16.7652
-55.3136	-50.8913		-60.5425
-24.1624	-28.333		83.8417
-21.7179	-21.1783		85.4536
-30.6927	-27.0329		81.9755
-18.1896	-26.6938		87.0216
-18.6686	-20.6615		88.6484
-54.1192	15.8397		60.7849
-54.0383	21.3895		62.1606
-32.2306	7.66435		72.6746
-57.1253	34.582		62.8168
-47.6401	40.7117		71.057
-6.49629	-27.8456		98.4816
-9.50414	-27.8826		95.3254
-7.22434	-29.5153		95.4122
-8.17138	-25.4661		101.141
-14.5628	-18.5939		98.5497
-14.9419	-16.4692		97.213
-16.2698	-19.312		95.012
-64.0083	83.6862		3.09368
-68.9956	71.6184		8.7538
-26.7362	-56.1543		74.9215
-26.511	-52.5422		74.9985
-12.4984	-25.4467		95.8442
5.45373	-28.1453		98.5992
-9.84114	-30.2449		92.576
78.6672	-35.4055		-23.6117
79.052	-30.8014		-28.7757
69.3398	-40.2127		21.0767
67.6027	-50.2046		18.9081
71.8187	-37.6315		6.79935
60.8353	-103.746		-9.13501
56.4258	-105.859		-0.0620274
59.4735	-141.684		-3.77416
63.1458	-137.658		-13.5912
61.989	-124.191		-10.7591
57.7383	-127.775		-1.48365
56.4675	-91.8778		1.29253
50.7387	-94.9276		12.0538
49.8532	-109.4		9.68203
62.8813	-101.742		-18.7456
63.0935	-88.6703		-18.1665
60.6938	-90.63		-8.32332
65.4338	-58.6499		16.4335
63.3583	-62.6832		32.135
60.5501	-70.2424		27.9913
62.5271	-66.6245		13.2698
76.3474	40.5442		9.32347
68.8332	44.8075		31.5944
66.9225	30.1147		41.3121
75.4119	25.3551		16.6835
79.6989	33.558		-33.1376
76.579	46.4523		-43.7921
77.789	52.6538		-22.8209
79.6359	38.0144		-13.1555
5.19587	-117.095		46.9707
5.49979	-127.324		43.1272
12.5241	-126.317		40.4186
12.9159	-116.513		44.8136
6.81183	-146.722		35.4622
15.0313	-145.45		32.9404
8.14332	-158.332		30.8925
-0.29363	-147.01		36.2534
-0.21055	-158.639		31.7406
71.1878	-39.0062		-33.6025
69.0637	-51.3463		-25.0244
65.2472	-50.4581		-39.1705
66.7355	-38.9561		-45.4193
73.4023	-29.9828		-38.3184
64.1008	-133.597		-24.6053
61.6201	-129.155		-37.7196
-0.498371	-127.542		44.0446
67.2506	-42.1987		35.5621
65.5207	-53.4159		34.2567
67.1686	-56.1958		0.863693
6.29961	-91.2095		95.9932
6.31118	-100.634		92.8914
14.9915	-99.0728		89.0809
14.9334	-89.2788		91.8698
24.9864	-94.0036		82.2619
24.9008	-84.9483		84.2094
6.14904	-78.7192		94.4543
-0.489585	-79.2195		95.4707
-0.344528	-91.7362		96.9798
6.86164	-105.572		86.0274
7.79485	-107.904		74.4804
13.3463	1.28414		87.2483
18.8246	-3.3622		83.216
17.3581	5.57104		78.2006
12.7849	9.18948		81.2538
55.8111	-31.8665		67.4239
55.6053	-21.8314		68.8384
41.1141	-20.0363		78.4468
43.4016	-29.585		77.3694
65.1145	-21.0125		54.928
53.389	-10.4383		69.5111
70.0437	12.6833		38.0821
66.3518	13.3849		46.876
44.4603	-38.8211		74.9079
55.6763	-41.2373		64.4679
3.64522	8.45724		95.4228
0.233686	9.66498		95.8872
0.486108	-1.04502		103.835
4.33461	-1.84167		102.921
27.3002	76.8295		65.4732
26.4174	63.9685		73.035
36.3809	62.2351		68.5614
37.9375	74.0206		60.8751
-0.0491927	-110.81		60.5587
6.90393	-110.58		59.401
-0.0176849	-108.349		75.6058
63.3953	-42.6148		50.1969
61.2905	-54.7307		48.6868
-0.162614	-101.441		93.5677
-0.15196	-106.012		86.8469
36.5499	-86.9131		70.7841
46.8831	-85.8797		53.6852
47.322	-79.0825		60.0781
39.4037	-98.2593		38.1308
47.7147	-90.6148		28.0747
52.9007	-82.3292		35.8381
44.3021	-91.1297		47.0447
-1.03532	-116.985		47.6029
5.07291	-9.74146		108.96
10.0648	-11.4585		104.164
9.04739	-3.97162		98.9337
27.3973	-17.4626		82.6707
20.0152	-13.8432		86.456
30.0908	-55.1423		75.6539
13.6944	-26.4322		92.752
12.9001	-28.5601		90.8347
9.30188	-32.8926		91.907
13.6791	-32.5518		88.7884
12.9411	-30.6452		89.3586
2.93793	-28.1303		101.303
-0.309274	-28.1272		102.718
-0.583227	-30.3328		98.5997
2.77395	-30.0588		97.82
18.4448	-30.5913		85.9838
5.47659	-17.7687		112.261
5.21698	-21.549		110.531
9.81398	-21.5718		105.03
10.5452	-18.0229		106.445
31.5382	-69.3492		77.2848
28.3529	-62.1961		78.075
21.4748	-66.3474		84.4179
23.2694	-74.2776		84.3426
30.7806	-44.6167		79.6076
25.892	-43.2393		82.5049
-0.732461	-36.0874		95.3508
3.14854	-35.6258		95.0438
2.82367	-32.3297		96.0026
-0.699497	-32.6553		96.5679
8.31549	5.3801		92.3433
17.1178	-17.1234		91.7578
16.6691	-18.0094		93.5839
17.1126	-20.3223		92.1369
5.43055	-32.419		94.6049
16.2399	-24.7228		90.4541
-0.972269	-43.6144		95.8297
4.22723	-42.4782		95.3827
3.61375	-38.8317		94.9258
-0.884081	-39.5478		95.1786
22.2918	-35.8994		84.5059
27.5554	-36.1493		82.1946
13.3816	-64.0502		90.0054
5.64682	-64.8904		92.7157
5.90463	-69.0114		92.4802
13.5124	-68.3706		89.7996
22.4687	-48.8726		83.9176
27.1435	-51.4411		77.5853
14.4545	-14.1813		96.6047
20.1745	-62.0932		85.1531
-0.41986	-65.087		93.3458
-0.135401	-69.0445		93.1375
60.2999	24.9022		56.5714
63.149	26.7711		51.3032
56.9883	37.6161		61.5139
35.2873	52.7433		75.4572
46.709	48.5373		67.8252
47.786	58.1109		61.0055
57.5841	41.8952		57.6179
58.9601	51.9453		49.3921
46.8351	44.4342		70.2439
35.3899	48.0833		78.5283
20.3061	32.4968		78.3738
27.2306	34.2042		77.7885
26.742	37.9535		80.7
19.4109	35.634		81.3523
8.37481	13.3555		85.6273
3.85279	21.7301		86.2162
3.60473	17.1396		88.8925
25.0484	-6.93611		80.8022
38.1622	-9.61808		77.2443
34.5014	-0.83192		75.0625
22.5994	2.33719		76.9734
61.8817	13.5625		53.7958
56.8432	14.9469		58.8592
53.9998	8.07334		62.5254
47.405	37.0324		71.3862
36.7751	43.3941		77.9666
37.1421	38.7814		76.6961
54.6748	31.263		65.2589
56.8029	23.3068		60.5403
45.2972	19.7838		66.6645
36.3229	34.2856		75.4407
46.6825	24.6203		68.512
42.1237	28.2055		72.0047
14.9417	28.5619		77.6394
11.7964	23.66		77.4168
15.6651	23.2772		73.69
-0.420078	37.0325		84.8953
-0.00914048	31.6741		84.8105
4.45771	30.9583		84.3002
6.71241	36.6025		84.7174
21.1623	7.20126		74.5699
10.3865	26.914		80.0343
20.3305	10.1831		73.2534
16.9847	-51.5466		83.2133
24.0384	-52.5219		77.2961
4.9112	-47.3034		94.9218
4.69852	-44.7076		95.5064
-0.982934	-45.6951		96.0395
-0.958969	-47.8413		95.5952
10.3078	-47.1566		93.0383
4.80981	-49.1411		93.7088
10.4104	-49.1108		91.5872
16.5163	-47.7739		89.1175
9.75494	-44.9527		93.8812
16.1928	-45.7711		90.1677
3.81323	-50.3352		91.9982
10.2758	-50.4564		89.5275
28.0512	-52.9272		75.9404
17.1675	-52.781		84.2647
17.4142	-53.1617		85.0033
17.9065	-54.3387		85.807
11.4526	-54.4439		90.9302
12.2592	-56.4194		91.1904
4.32717	-54.509		93.6908
10.568	-52.5293		90.1566
3.77228	-52.3159		92.6667
-0.815378	-57.0955		94.8608
4.87155	-56.8412		94.1721
-0.797124	-54.7543		94.3241
24.4506	-53.5953		77.1755
-0.688868	-51.8253		90.6515
3.60241	-51.9086		90.1736
-0.776152	-59.5292		94.8211
5.33604	-59.2139		94.1006
5.57413	-61.5614		93.5538
-0.682417	-61.9825		94.2241
8.13989	-42.848		94.422
-0.786748	-52.4945		93.1702
3.6692	-51.6941		91.8871
-0.754968	-51.7448		92.2208
10.2205	-51.9311		89.4311
13.1532	-60.7847		90.6716
12.7775	-58.5801		91.1266
10.0998	-50.5254		87.8939
10.0622	-52.2241		87.8687
9.97091	-49.0787		86.0646
15.426	-49.9842		83.0729
24.4977	-55.5139		76.568
3.89354	-53.8887		87.9688
-0.52426	-53.7757		88.3658
3.7263	-50.3231		90.1102
4.75236	-48.6161		87.4896
10.4828	-54.1522		85.8567
25.8562	-45.6379		73.683
29.2387	-50.0892		71.0498
9.16111	-43.4809		83.9421
14.3	-43.9876		81.5387
27.1433	-61.9314		74.0854
22.8334	-62.5128		77.7148
4.35592	-43.1369		85.0565
10.173	-61.025		84.6882
4.2972	-60.5941		86.6596
29.5128	-57.6285		71.3218
81.8805	-11.8015		-40.5949
78.474	-11.6284		-45.6335
80.0609	-1.81361		-46.5441
83.2081	-3.08244		-41.4741
80.9831	3.96771		-4.46839
82.1781	11.0447		-12.2683
79.7994	21.8258		-6.01488
78.7347	6.66017		3.03279
81.126	20.8376		-24.8622
81.8663	13.0605		-20.693
78.3496	-25.6818		-33.9958
76.1716	-32.4981		-29.8139
75.9201	-21.2441		-42.6895
80.3015	-19.1169		-37.6897
85.9669	-1.15175		-40.1252
85.1934	-11.5907		-39.0031
83.4205	-28.7029		-29.1467
86.1008	-20.7116		-33.8046
80.1696	-36.2553		-22.206
77.6058	-37.9956		-18.9707
80.2224	-32.7308		-10.1932
91.046	-11.3001		-30.3493
93.5843	2.6969		-34.5319
85.7378	-20.7896		-19.8869
77.1595	-18.8666		2.45567
75.7558	-27.0811		1.35362
81.6726	-16.3463		-8.64016
81.838	-20.3422		-9.17262
81.7742	12.4319		-19.3266
89.9843	-1.3545		-40.3943
91.6807	19.7473		-18.8211
89.9674	20.7686		-20.9587
88.6434	19.758		-23.2305
94.6975	10.0818		-34.3615
88.9611	10.0585		-14.0402
86.7147	4.56881		-10.0847
92.3027	-1.914		-29.283
92.0303	0.84908		-27.9423
83.7283	6.71637		-38.1792
85.7075	9.32223		-35.0234
81.4269	-24.9514		-32.486
87.5864	-7.21107		-23.3689
84.2516	13.5484		-27.9902
83.3931	12.49		-30.5453
91.3286	12.098		-20.6938
0.710362	78.4683		69.1814
15.6239	78.3214		67.979
16.2215	92.7098		56.2945
0.409971	93.916		56.7193
0.853711	63.1883		77.5629
15.1588	63.9144		75.8726
24.6416	53.508		79.6886
3.94956	-25.662		106.019
0.184747	-25.4202		108.211
5.49878	-14.266		111.701
0.722571	-13.9288		113.104
0.753552	-17.9464		113.79
0.654976	-21.6374		112.347
0.667247	-9.07358		110.083
0.0994193	50.4433		83.7355
-0.0636044	45.3588		85.2461
12.6118	44.8549		83.791
13.3183	51.4837		81.6974
0.262123	18.2768		89.4828
0.410256	22.861		86.8893
3.86681	26.1177		84.8518
0.347915	26.9743		85.4771
-0.690688	-50.3867		90.5599
-0.603874	-48.388		87.8074
-0.761425	-50.4648		92.4495
-0.907733	-49.3902		94.45
-0.606487	-43.024		85.3312
28.6227	89.5567		54.7399
24.9362	48.5492		82.2898
26.0205	42.4402		82.5166
27.8467	30.0932		74.8922
20.7195	27.8271		74.631
41.7829	97.4474		32.1445
39.7051	85.1248		50.7359
35.416	29.9793		74.1525
49.7744	69.0713		52.7245
45.423	32.588		71.7075
60.7384	64.1134		39.5498
51.6719	27.9406		66.7509
13.8954	31.8895		80.4485
68.1975	-56.3097		-12.7148
81.3954	16.1537		-36.8975
78.6122	25.0658		-48.7591
73.3993	-13.8242		-56.3651
75.8892	-0.0715605		-58.7535
77.3285	13.4545		-56.9799
80.9678	8.41489		-43.9348
69.8154	-26.7996		-51.6641
15.2884	-109.229		56.2181
28.3079	-104.73		48.2455
55.7907	-76.3412		42.6087
70.2372	59.0001		20.8182
29.8492	104.092		34.3693
16.3268	108.446		35.092
56.8059	-68.3178		49.7457
6.86519	-38.9579		94.1658
19.4236	-41.1974		87.135
5.99951	-35.5835		94.107
12.6454	-40.061		91.5622
10.6601	-36.4329		91.7217
35.1735	-52.9853		75.1877
35.6612	-45.9006		77.2167
73.4764	-41.7961		-20.6279
73.4563	-28.914		8.88947
75.1104	-19.8393		9.90741
75.0983	9.80438		20.396
74.3047	-5.65061		23.3681
49.9394	11.7111		64.2349
72.7884	-18.9398		23.2185
71.0024	-29.8538		22.1489
14.1226	-7.87526		92.4424
13.8716	-22.3027		97.884
15.6328	-23.2733		93.6784
33.8993	-36.87		79.9339
53.9625	-52.1981		62.4968
44.0528	-48.5756		72.4272
50.4541	-62.3758		63.2776
64.6444	-31.6534		52.5524
43.9394	-70.9219		67.5798
35.1085	-78.434		74.6137
49.6407	-1.1314		69.2693
45.9714	4.3577		69.2629
41.9333	-56.7332		71.7876
37.7413	-63.4276		73.2435
14.3477	-77.2307		90.7574
31.7797	4.21763		73.7492
10.6331	-15.1008		106.048
70.124	-19.2028		38.3586
68.7202	-30.9105		36.9412
7.99945	29.3709		82.5506
16.3993	-36.2613		88.0145
21.812	-50.8724		78.2469
20.1943	-44.5312		77.7755
35.1368	-139.392		21.9553
37.2079	-152.588		18.8648
46.1962	-149.349		12.5644
43.9172	-135.338		15.0462
44.1945	-100.759		21.3157
36.1918	-107.451		29.5625
33.9489	-119.337		26.3443
42.5298	-114.403		18.2467
32.7515	-57.7381		75.2451
53.184	-84.9059		16.7826
57.116	-76.7578		22.6793
51.276	-131.453		7.52131
53.6775	-145.69		5.09687
59.7135	-73.741		8.97021
61.179	-80.6634		-6.45874
57.5383	-81.9147		4.27885
61.2832	-95.938		-32.8623
74.6188	-33.5462		-1.00675
62.3641	-79.4537		-31.4877
56.305	-124.792		-51.0687
55.5854	-107.524		-48.9326
25.061	-142.678		28.2657
27.2313	-155.289		24.2013
24.7647	-113.455		38.5529
22.897	-123.704		34.6097
26.8997	-58.191		77.8507
17.1156	-53.0741		83.0803
17.4798	-54.7564		81.8146
17.2202	-157.246		28.3462
16.7754	-61.8402		81.5067
76.3415	55.3967		-0.840099
50.1014	-81.7202		-57.7217
55.9057	-87.3695		-47.0181
49.2039	-103.069		-59.4787
49.5104	-121.141		-62.0309
58.3697	-66.0286		-46.2698
30.2266	114.958		5.9079
15.9079	119.908		5.63338
16.1519	112.459		-65.3089
30.8715	108.616		-62.0024
29.5018	89.2215		-90.805
15.1968	92.0048		-94.5246
28.4839	64.1661		-107.359
15.061	66.3017		-111.032
30.8174	117.268		-27.7523
16.1333	121.96		-29.7093
0.359594	123.501		-30.379
0.215904	121.568		5.246
27.6003	37.6607		-115.29
14.8546	39.7524		-118.946
26.5554	9.86461		-116.79
13.9271	11.4806		-120.794
24.8988	-16.1341		-111.323
23.1358	-39.6536		-98.6352
12.122	-39.2921		-101.186
12.9986	-14.6546		-115.435
0.766034	-14.0823		-116.886
0.810475	11.9125		-122.172
10.6445	-75.7511		-84.2523
21.3834	-77.0621		-81.7408
20.3937	-96.123		-80.603
10.3054	-94.9926		-82.4435
10.2866	-114.012		-81.7462
0.411557	-113.864		-82.1716
0.421975	-94.0635		-82.9767
22.8104	-57.5724		-87.6429
11.7418	-55.7604		-90.6332
0.536437	-55.835		-91.0939
0.454913	-75.4288		-84.8787
55.0354	96.5417		3.91255
43.3089	107.018		5.33406
53.69	77.7069		-76.8519
53.0818	55.7224		-92.3778
41.7488	60.459		-100.787
42.4596	84.4404		-84.6784
43.3277	102.35		-57.4262
54.622	93.1448		-51.9095
56.1115	98.3896		-24.213
44.2718	109.268		-25.8956
51.7633	31.5881		-100.377
40.5988	34.8311		-108.704
49.57	6.71581		-102.059
38.9878	8.11201		-110.259
46.3309	-17.9839		-97.1605
36.6875	-17.4529		-104.861
44.942	-40.6928		-84.5329
34.6849	-40.778		-92.6438
33.8601	-59.2446		-81.7137
40.3029	-99.2864		-69.6706
30.6893	-97.7234		-76.5276
32.3559	-78.1921		-76.4181
42.0808	-78.9165		-68.3213
30.6895	-115.735		-77.1422
20.3447	-114.52		-80.3841
64.5539	81.285		-44.8565
72.7463	67.2822		-34.4307
70.9616	58.5662		-55.9949
63.0317	69.1553		-67.6949
73.1388	70.3204		-12.2715
65.9347	85.2153		-20.7734
62.2019	49.9188		-82.7881
60.8178	27.8604		-90.8383
58.9357	4.83885		-91.6546
55.1641	-18.2526		-86.897
52.6694	-38.9712		-76.0147
74.9857	33.986		-60.0677
62.4347	-17.5918		-76.2317
65.977	3.04549		-81.126
71.7035	1.35721		-69.7699
68.4169	-15.8844		-66.1792
67.7559	23.4009		-80.5574
73.3449	18.0607		-68.8242
69.4455	42.6631		-71.9554
58.6876	-35.9053		-67.7716
64.3489	-31.675		-59.5411
60.6714	-46.6419		-52.5144
94.3486	10.7914		-34.9985
92.556	11.4412		-36.2295
91.4548	19.6456		-28.4002
93.3439	18.5295		-27.2509
87.2687	16.1606		-14.8269
89.0302	15.3042		-12.8641
85.1295	15.5314		-17.8357
90.7725	9.86453		-37.1601
90.207	18.2338		-29.6891
93.5304	-1.06198		-37.096
92.4453	18.5785		-18.0619
93.9519	17.3028		-26.8025
0.216762	110.032		35.1068
0.556605	113.788		-66.3366
40.8072	-118.008		-70.9436
0.708771	92.7887		-95.7984
0.761341	66.8458		-112.28
0.815195	40.4676		-120.222
0.641569	-39.6839		-101.566
-69.3379	-41.0864		18.1234
-71.7557	-38.0123		3.89885
-67.718	-50.4077		15.4131
-61.2045	-103.212		-10.7139
-56.9719	-105.211		-1.46696
-59.6136	-141.33		-4.57394
-58.0492	-127.298		-2.42739
-62.1867	-123.784		-11.8445
-63.1998	-137.353		-14.4812
-57.0694	-91.0361		-0.664962
-50.5599	-108.656		8.70596
-51.5504	-93.875		10.5447
-61.0788	-89.9785		-10.3593
-63.1859	-88.2288		-20.0952
-63.0361	-101.334		-20.3093
-65.7296	-58.0567		12.5352
-62.9596	-65.6249		9.47238
-61.2894	-68.6613		23.6973
-64.1901	-61.3842		28.0946
-76.2715	39.4694		8.31868
-75.52	24.2233		15.4753
-67.456	28.7287		40.3935
-68.9357	43.2893		31.0409
-79.0759	33.0804		-34.3128
-79.2644	37.285		-14.3131
-77.2127	52.0438		-23.8442
-75.7745	46.0742		-44.8076
-6.97824	-116.668		47.0273
-13.9201	-115.938		45.1827
-13.3744	-126.02		40.7682
-6.48427	-127.124		43.3138
-15.6245	-145.195		32.9309
-7.4057	-146.598		35.4639
-8.55956	-158.23		30.8295
-70.7329	-39.1217		-35.5752
-64.7634	-50.4646		-40.9952
-68.7412	-51.2831		-27.3176
-72.8577	-30.162		-40.1219
-66.1678	-39.046		-47.0708
-64.0324	-133.344		-25.5451
-61.3961	-128.96		-38.6424
-65.7626	-54.2483		31.5129
-67.3666	-43.3724		33.1969
-67.3167	-55.8423		-2.4583
-6.93754	-91.0028		95.8309
-15.0658	-88.8398		91.7935
-15.0504	-98.7678		88.9303
-6.62837	-100.672		92.6177
-24.7532	-84.3964		84.3159
-24.8551	-93.2108		82.3809
-7.09449	-78.8799		94.3403
-7.15953	-105.382		85.8757
-7.75126	-107.651		74.7022
-13.6584	1.13591		86.8986
-13.202	8.94277		80.9559
-18.2509	5.21806		77.7787
-19.2784	-3.12913		82.8085
-55.8031	-32.0494		66.9027
-44.0921	-29.4638		76.9009
-42.421	-19.6771		77.6468
-55.0678	-21.9536		69.1364
-65.6052	-21.704		53.4335
-53.7613	-10.8251		69.1331
-67.3986	12.3578		45.8178
-70.7911	11.4687		36.7604
-44.4469	-39.2864		75.0072
-55.4846	-41.9125		64.0946
-3.24587	8.52983		95.3061
-3.41433	-1.66131		102.94
-25.88	75.6773		66.5894
-36.6878	72.5283		62.1375
-34.7866	60.8802		70.9081
-24.4297	62.8226		75.1435
-6.97143	-110.375		59.5637
-63.4391	-43.7067		48.8047
-61.2199	-55.6605		47.5565
-36.1273	-86.1076		71.2937
-46.388	-79.1028		60.7138
-46.0346	-85.7518		53.9931
-39.4334	-97.9064		38.1796
-43.7594	-90.8275		47.1845
-52.6858	-82.14		34.069
-47.9087	-90.2763		27.2007
-4.04532	-9.68935		108.974
-8.67457	-3.82086		98.7664
-9.61494	-11.174		103.9
-19.8239	-13.465		86.7187
-27.6162	-17.3176		82.6267
-29.2286	-56.0054		76.9978
-14.2287	-26.0908		92.6745
-13.5449	-28.2151		90.868
-10.2564	-32.6421		91.8963
-13.6199	-30.2963		89.4634
-14.4202	-32.2957		88.8683
-3.79482	-27.9513		101.263
-4.10503	-29.8349		97.7418
-19.3506	-30.2349		85.9048
-4.40171	-17.9149		112.308
-10.1303	-17.8509		106.352
-9.65714	-21.3558		104.862
-4.3169	-21.6202		110.59
-30.9885	-69.5576		78.0635
-23.063	-74.2841		84.6385
-21.2949	-66.6019		84.8286
-27.5982	-62.7523		79.1372
-30.4444	-45.5294		80.5085
-25.882	-43.9583		83.2444
-4.34854	-32.1455		95.883
-4.68136	-35.7002		94.9451
-8.34459	5.24572		92.0073
-17.1294	-16.8701		91.8001
-17.2356	-20.0813		92.1223
-16.7239	-17.7754		93.4609
-6.84237	-32.1673		94.4386
-16.657	-24.314		90.4452
-5.36952	-39.065		94.8592
-6.03506	-42.5125		95.3071
-28.0905	-36.4911		82.5141
-22.9894	-36.0903		84.7428
-13.7651	-64.0173		90.1333
-14.1474	-68.6003		89.7284
-6.65934	-69.126		92.4904
-6.25055	-64.7298		92.8585
-22.3799	-49.593		84.6317
-26.3201	-52.3152		78.8949
-14.4735	-13.9976		96.2687
-20.1328	-62.3556		85.5087
-57.5559	37.0603		61.2173
-63.9711	25.6428		50.1348
-61.4047	24.2532		55.1366
-46.9313	56.2941		62.6031
-46.2416	47.8733		68.7527
-34.8962	51.8031		77.9382
-58.845	50.0705		49.9021
-58.0961	40.4299		57.6287
-35.8534	48.4874		79.8907
-46.2924	44.4418		70.8177
-20.9202	33.4631		77.8788
-19.4146	37.2665		80.4065
-27.5092	39.2559		79.3596
-28.2691	35.2478		77.2075
-8.45135	13.169		85.3607
-3.27957	17.1007		88.8256
-3.36523	21.8054		86.1831
-25.6237	-6.80099		80.4581
-23.6874	2.34659		76.3856
-36.5489	-0.632363		74.2085
-40.0949	-9.31573		76.1851
-55.7484	8.18456		61.2615
-58.3383	14.5592		57.6688
-63.3732	13.0616		52.4488
-48.0547	37.0138		70.9917
-37.1162	38.876		77.1582
-36.8662	44.1992		79.3149
-55.623	31.5154		64.3551
-58.3058	23.0192		58.9192
-36.9092	34.5394		75.3284
-48.7284	24.8898		67.2518
-44.37	28.6856		70.9885
-11.7628	23.9568		77.3447
-15.2701	28.9448		77.298
-16.9682	24.3022		73.5658
-7.15332	37.0156		83.6774
-4.71276	31.3522		83.9459
-22.4577	6.80792		74.2123
-10.3629	27.1202		79.8285
-22.0074	9.83193		72.9549
-17.02	-51.9994		83.7279
-23.1324	-53.3379		78.7199
-6.61824	-47.2482		94.8417
-6.47048	-44.6529		95.4221
-11.6249	-47.2603		93.0016
-11.4758	-49.1642		91.6538
-6.36003	-49.1441		93.6387
-17.263	-48.1997		89.2429
-11.2893	-45.0066		93.7738
-17.1499	-46.2194		90.2166
-11.0525	-50.6041		89.5558
-5.19541	-50.3425		91.9671
-17.4813	-53.5703		85.4741
-17.2199	-53.2067		84.7546
-17.9529	-54.6904		86.2328
-12.6585	-56.4885		91.3232
-11.9126	-54.5672		91.067
-5.38157	-54.6209		93.7369
-5.07328	-52.3731		92.6323
-11.2266	-52.6998		90.2448
-5.70166	-56.8535		94.2644
-23.4884	-54.414		78.6044
-4.80041	-51.9017		90.1582
-5.94703	-59.1367		94.2764
-6.02515	-61.3876		93.7868
-9.81969	-42.8461		94.2806
-4.9988	-51.7063		91.8292
-10.9206	-52.0987		89.4958
-13.636	-60.7325		90.7607
-13.231	-58.5772		91.2221
-10.7643	-50.6946		87.9787
-10.6435	-52.3809		87.975
-15.6107	-50.3914		83.4813
-10.6328	-49.2563		86.1382
-23.4602	-56.2923		77.9811
-4.74625	-53.903		87.9718
-4.96179	-50.3435		90.0766
-5.8138	-48.6532		87.4536
-10.8269	-54.3194		86.0409
-25.5167	-46.318		74.5728
-28.6059	-50.7581		72.1081
-14.8403	-44.3116		81.8642
-10.0825	-43.6284		84.0369
-26.2946	-62.39		75.1253
-22.2442	-62.9068		78.5248
-4.86573	-60.609		86.7696
-0.340948	-60.495		87.3043
-5.49828	-43.1852		85.0677
-10.4465	-61.1278		84.941
-28.6495	-58.1792		72.4677
-81.2222	-12.0643		-42.2345
-82.5227	-3.37812		-43.0162
-79.33	-2.08075		-47.9847
-77.7759	-11.8674		-47.1696
-78.5753	5.82133		1.41577
-79.5543	21.0333		-7.37374
-80.6331	20.286		-26.2122
-81.4322	12.4831		-22.171
-77.8115	-25.9037		-35.881
-75.7129	-32.6806		-31.8559
-79.6981	-19.357		-39.4465
-75.2865	-21.4577		-44.3444
-85.2981	-1.45708		-41.6747
-84.5502	-11.8591		-40.679
-82.9265	-28.9333		-31.1836
-85.5271	-20.9713		-35.6697
-79.8056	-36.4201		-24.4998
-77.2944	-38.1383		-21.3644
-90.4772	-11.6211		-32.1662
-92.9514	2.35584		-36.1423
-76.9173	-19.463		0.23444
-75.5603	-27.5573		-1.11613
-81.3429	-16.8399		-10.7501
-81.5078	-20.7933		-11.3689
-81.357	11.8452		-20.816
-89.2875	-1.64737		-41.9701
-89.5193	20.2172		-22.3984
-91.253	19.1873		-20.2908
-88.1609	19.2243		-24.6696
-86.3855	3.9451		-11.7748
-94.0606	9.72625		-35.8929
-91.7358	-2.2871		-30.9876
-91.4792	0.447942		-29.6185
-85.089	8.92771		-36.4932
-83.0717	6.3544		-39.6466
-80.8973	-25.1818		-34.4094
-81.8465	-1.12237		-7.03553
-83.7228	13.0635		-29.441
-82.8284	12.0312		-31.9938
-90.8701	11.5775		-22.2542
-87.0932	-7.64492		-25.1762
-15.3999	92.1574		56.5333
-14.1982	77.6291		68.6202
-12.7615	63.0683		77.127
-23.7717	52.959		80.8813
-3.88839	-25.6104		105.979
-4.45493	-14.3442		111.737
-12.8749	51.244		82.3968
-12.3951	44.9735		83.2442
-3.44298	26.2366		84.7927
-27.798	88.6028		55.1356
-24.3685	47.8987		81.7421
-26.6731	43.2066		80.8124
-29.8444	30.7007		74.5033
-22.62	28.4969		74.3127
-38.9489	83.8495		51.1912
-41.3481	96.5372		31.9526
-37.3591	30.4901		73.6257
-48.9914	67.2579		53.6872
-46.8711	32.8033		70.9351
-60.4639	62.399		39.6589
-52.805	28.082		65.8158
-13.836	32.4107		80.0104
-68.1357	-56.0657		-15.4837
-80.752	15.7485		-38.241
-77.8111	24.7583		-49.9225
-75.0173	-0.253869		-60.0029
-72.5935	-13.9888		-57.7179
-80.2495	8.09689		-45.3029
-76.4488	13.2342		-58.1598
-69.1149	-26.9415		-53.1471
-15.3295	-108.846		56.5463
-28.3965	-104.135		48.7976
-55.7536	-75.9617		40.6668
-70.1001	57.6911		20.2195
-15.9078	108.098		34.9977
-29.4124	103.446		34.2169
-50.4717	20.414		64.0954
-56.5105	-68.6087		48.9451
-8.51526	-39.0287		94.0305
-20.1621	-41.5702		87.3971
-7.49734	-35.6647		93.973
-11.764	-36.1185		91.6327
-13.9852	-40.0685		91.4033
-35.0877	-46.7402		78.2075
-34.1467	-53.8693		76.4992
-73.1767	-41.8734		-23.0137
-73.3232	-29.458		6.33877
-74.9177	-20.5047		7.67563
-75.2574	8.75453		18.8927
-74.3442	-6.54082		21.616
-52.117	11.6336		62.7424
-72.7098	-19.7227		21.2
-70.9362	-30.672		19.85
-14.2354	-7.75407		92.0771
-15.8893	-23.0049		93.5704
-14.1499	-22.0714		97.4795
-34.3051	-37.4491		80.1949
-53.3824	-53.0106		62.8119
-43.3775	-49.317		73.288
-49.6622	-62.7978		64.033
-64.8329	-32.6395		51.0901
-34.5439	-77.8914		75.307
-43.0803	-70.9928		68.5274
-50.8733	-0.538767		68.2684
-47.5931	4.71092		68.3412
-41.0843	-57.332		72.9557
-36.8562	-63.7717		74.4139
-14.7517	-77.5099		90.7479
-34.0464	4.22903		73.1309
-10.1801	-14.9231		105.902
-70.2868	-20.082		36.9299
-68.7841	-32.0659		35.0053
-8.25736	29.8616		82.1746
-17.1622	-36.1204		88.1371
-21.1032	-51.6054		79.4954
-20.2487	-45.0703		78.4216
-35.6649	-138.928		21.721
-44.3925	-134.823		14.5791
-46.4611	-148.958		12.0379
-37.5296	-152.231		18.4907
-45.0632	-99.8573		20.6667
-36.682	-106.917		30.0104
-43.2606	-113.782		17.9038
-34.571	-118.951		26.5874
-31.6967	-58.4895		76.5675
-53.8724	-83.7922		14.5615
-57.5451	-75.7369		19.4709
-51.686	-130.925		6.80093
-53.8799	-145.299		4.4203
-60.225	-72.7067		5.72366
-58.1041	-80.9621		1.77035
-61.5397	-79.9602		-8.89693
-61.144	-95.6716		-34.313
-74.4619	-33.9005		-3.65597
-62.049	-79.2157		-33.333
-55.264	-107.364		-49.9399
-55.9095	-124.653		-51.9077
-27.5992	-154.996		23.9611
-25.6338	-142.297		28.1966
-25.1316	-112.912		39.4378
-23.5808	-123.347		35.0626
-25.9521	-58.9862		79.1984
-17.0338	-53.4973		83.661
-17.1871	-55.1673		82.5148
-17.6194	-157.043		28.2082
-16.6214	-62.1023		82.0186
-76.0498	54.4862		-1.77681
-49.6143	-81.6338		-58.7654
-48.7286	-102.963		-60.3338
-55.5613	-87.216		-48.2635
-48.9658	-121.04		-62.7484
-57.8977	-65.9449		-47.7567
-15.4735	119.72		5.42879
-29.7808	114.585		5.53881
-15.0486	112.415		-65.4785
-13.8431	91.996		-94.6518
-28.143	89.2114		-91.0912
-29.8031	108.523		-62.3372
-13.8284	66.3071		-111.095
-27.0251	64.1995		-107.622
-30.1095	117.068		-28.1304
-15.4135	121.862		-29.9065
-13.2883	39.7735		-119.062
-26.0324	37.702		-115.544
-12.3215	11.5059		-120.917
-24.9961	9.91312		-117.038
-23.4366	-16.1018		-111.574
-11.4821	-14.6348		-115.557
-10.8419	-39.2858		-101.329
-21.8934	-39.6477		-98.9267
-9.74047	-75.7454		-84.4162
-9.46505	-94.9792		-82.5926
-19.5823	-96.0996		-80.9083
-20.523	-77.0493		-82.0864
-9.46856	-114		-81.8769
-19.5442	-114.494		-80.653
-10.6748	-55.7575		-90.8036
-21.7922	-57.569		-87.9957
-42.859	106.46		4.84806
-54.5946	95.8281		3.31629
-52.4842	77.6103		-77.4219
-41.1629	84.3932		-85.1081
-40.3086	60.4791		-101.195
-51.7374	55.7076		-92.9258
-53.6726	92.9156		-52.525
-42.3133	102.198		-57.906
-55.4496	97.9639		-24.8826
-43.5817	108.959		-26.4312
-50.3665	31.622		-100.912
-39.1039	34.8879		-109.092
-37.5129	8.17483		-110.644
-48.1978	6.7618		-102.594
-45.0662	-17.9607		-97.7261
-35.32	-17.4174		-105.264
-33.5354	-40.7753		-93.1277
-43.9033	-40.7003		-85.2337
-32.9364	-59.2405		-82.2803
-39.6712	-99.2205		-70.3265
-41.4322	-78.8722		-69.1124
-31.5807	-78.1671		-76.9751
-29.9455	-97.6801		-77.0027
-29.9348	-115.692		-77.5568
-63.6553	80.9728		-45.6164
-61.9246	68.993		-68.4081
-69.9772	58.3061		-56.8679
-71.932	66.8864		-35.3553
-72.6243	69.6221		-13.1415
-65.303	84.6782		-21.5546
-59.5323	27.8517		-91.5275
-60.9696	49.853		-83.4808
-54.0183	-18.2578		-87.6767
-57.6827	4.84359		-92.3758
-51.7331	-38.9957		-76.93
-74.0328	33.7659		-61.0715
-61.4123	-17.6413		-77.2206
-67.5053	-15.9866		-67.3607
-70.7041	1.24465		-70.8496
-64.8472	2.999		-82.0224
-72.3207	17.9234		-69.8393
-66.5917	23.3368		-81.4009
-68.3417	42.5288		-72.7993
-60.0708	-46.6778		-53.9626
-63.5801	-31.7638		-60.8554
-57.8391	-35.9555		-68.8915
-93.7053	10.439		-36.512
-91.9002	11.09		-37.7152
-92.7955	18.0756		-28.7142
-90.898	19.1891		-29.8332
-88.6887	14.6717		-14.3892
-86.9009	15.5385		-16.3248
-84.7241	14.9307		-19.3162
-90.1061	9.51307		-38.6457
-89.6363	17.7818		-31.1279
-92.8708	-1.3652		-38.7255
-92.0181	18.0236		-19.5518
-93.4081	16.8509		-28.2884
-40.1406	-117.941		-71.5114
19.2695	-103.585		78.5021
16.2495	-104.928		78.8831
22.0013	-102.764		74.6372
19.7314	-102.093		81.1332
67.876	-4.49958		49.9078
66.1364	-3.63345		53.4223
68.1686	-7.81183		49.1314
68.7414	-0.523041		46.1982
64.3667	-2.03539		55.8151
64.0944	2.20187		54.4432
61.9337	-3.62013		59.2812
11.7959	39.1829		84.6097
14.2763	38.2931		84.0421
15.4985	42.5309		83.9279
9.00609	40.1541		84.9319
9.35137	35.8436		84.074
9.04924	19.65		80.6049
9.70174	18.5545		79.9251
9.46555	21.1924		79.7864
8.51739	20.0998		81.3667
12.2639	19.6874		75.8201
13.6688	17.944		73.8057
12.7942	21.3911		75.3922
10.9227	21.6503		77.8331
11.8623	18.0948		76.5737
42.5322	16.4327		68.0135
39.368	14.5892		69.9695
44.15	17.9229		66.7567
15.2711	12.1264		74.9445
14.9392	13.1043		74.6257
14.9406	11.273		76.0473
16.6814	11.3575		74.2422
26.872	-53.2431		75.363
26.7507	-53.1141		75.6042
26.9988	-53.3529		74.9518
26.7631	-53.1869		75.661
25.6552	-51.9733		77.9328
26.0258	-52.6057		76.5618
26.7436	-52.4266		76.77
25.706	-51.4925		78.5731
23.9133	-51.5591		79.7754
29.6438	-53.1813		75.7512
29.6999	-50.7632		77.1429
27.3797	-53.5441		74.2006
26.8951	-52.7564		74.8087
28.1429	-53.5616		73.0109
27.1439	-53.9176		74.5544
22.1535	-56.7299		82.1202
22.5766	-57.5156		81.8472
25.1236	-55.1506		78.1864
22.0075	-56.0596		82.0739
18.9795	-58.0351		86.188
19.1666	-46.4886		87.8156
18.614	-45.1913		88.4642
15.8134	-45.0019		90.5539
19.4857	-47.2751		87.409
21.9651	-48.1199		84.8437
26.021	-53.2388		76.4883
26.1109	-53.2769		76.4742
26.1534	-53.2405		76.3588
24.425	-53.2978		77.7053
77.5168	-32.7592		-7.15668
76.8833	-33.1499		-6.32416
77.1623	-36.2764		-10.1729
78.1151	-31.7954		-7.08835
86.3627	-24.0635		-18.8175
87.0038	-22.3122		-21.4863
85.1984	-22.4094		-17.63
85.7593	-25.1349		-16.3519
86.8636	-25.4049		-19.4839
80.8094	-29.7782		-8.9112
80.962	-27.1699		-8.23551
80.1144	-30.0288		-8.18262
81.5423	-31.0827		-10.5162
81.2741	-17.6099		-12.2042
81.251	-16.636		-13.0502
81.2875	-15.8379		-11.9736
81.5068	-18.0582		-10.8648
81.68	-19.109		-12.5959
86.9354	1.76191		-13.1609
86.4074	-0.202928		-13.9238
87.2279	2.53163		-13.7302
86.9813	2.32372		-12.2374
90.465	12.3942		-17.3518
90.4774	12.9949		-16.3557
90.0642	11.467		-17.3192
91.7123	13.4457		-20.4557
83.9866	-15.6451		-19.1538
83.0099	-14.1691		-17.7439
83.3802	-19.3021		-16.5075
86.2945	-18.805		-21.9003
86.4369	-13.343		-23.0719
88.8798	2.95418		-19.666
89.2741	4.07011		-20.0272
87.6046	2.59799		-15.8287
88.8356	1.63319		-20.7246
92.3612	-8.00423		-31.7264
92.245	-7.77525		-31.1475
91.4893	-11.0679		-31.2909
92.74	-6.91561		-32.6874
93.074	-5.32351		-34.358
93.2437	-3.18499		-33.3061
93.0016	-6.04346		-35.4144
93.3752	-2.32895		-35.6215
87.5344	-20.7534		-23.4544
88.0505	-18.5885		-25.2831
87.9881	-21.8142		-24.2735
89.8854	-7.38728		-27.5806
88.8311	-9.32		-26.4312
91.2256	-7.71082		-29.4367
89.9037	-6.04166		-27.3108
79.0586	-24.7972		-4.9249
79.0792	-27.0453		-5.64073
79.7319	-24.4015		-5.80756
78.8092	-23.9549		-4.2625
78.7161	-22.3337		-3.50256
79.108	-20.3049		-3.4747
78.2925	-22.4691		-2.6126
80.445	-13.3994		-3.80251
80.1568	-13.9388		-3.36481
80.8073	-13.7507		-4.70563
80.985	-10.2464		-3.99694
79.8064	-14.7096		-2.88746
79.4303	-14.5541		-1.947
79.5658	-17.0875		-3.18818
83.3482	-20.805		-15.2375
83.0989	-21.7969		-13.4277
83.2925	-8.87678		-12.3807
82.1378	-12.6272		-12.1131
83.2064	-9.43357		-13.8835
84.4819	-5.11948		-12.6558
83.692	-7.73901		-11.1579
93.1885	8.13682		-29.5568
93.3242	8.86484		-29.8185
93.0252	7.72822		-28.9823
93.4481	6.92641		-31.3136
93.3861	3.27187		-32.123
93.1783	2.21188		-30.6844
93.4263	1.58733		-33.0219
93.5082	4.56854		-32.9627
93.1617	5.09425		-30.1844
89.8689	10.8413		-17.4872
90.7627	10.8883		-20.1422
89.2286	9.99747		-16.342
91.8014	10.6976		-23.469
91.3585	9.65919		-22.7529
92.995	10.3213		-27.573
92.3969	11.9544		-24.3647
37.95	26.8992		72.7554
40.4007	25.9392		71.8013
35.0771	27.5489		73.2846
26.2739	-101.543		69.1565
25.3562	-102.712		65.3555
28.7675	-99.7601		68.895
45.1954	21.4851		67.6156
44.2468	23.1752		68.9443
46.0126	19.9974		66.5091
49.8638	23.5553		66.1672
52.4923	24.9288		64.9576
49.179	26.1152		67.6919
47.5411	22.7673		67.1811
50.2539	21.1691		64.8668
71.0304	-45.3359		-2.72389
72.1559	-43.7989		-7.30133
71.3835	-43.7273		-1.30004
70.3403	-47.5694		-3.10936
16.6941	16.9208		70.7834
17.0894	16.232		70.6224
16.7166	17.8578		70.8597
15.8408	19.6171		71.8268
17.0112	21.6277		72.0726
15.6044	18.0927		71.6952
7.82103	21.3667		82.174
7.22623	21.4509		82.9838
7.84863	23.4623		81.9388
19.8762	-51.5952		82.6968
20.7605	-52.128		80.8574
20.2675	-51.2145		83.1068
16.5379	-50.8893		86.0083
64.228	-68.5478		-7.43011
63.3186	-68.3757		-1.99705
63.7911	-71.3995		-9.22453
65.031	-65.9701		-8.11189
78.9637	-2.24827		1.88927
77.8378	-9.28441		4.58363
79.8338	-3.07159		-0.802188
79.9393	5.27209		-1.7068
77.8857	-1.10455		6.37018
65.0663	-71.9152		-20.6998
64.5981	-74.2501		-22.3359
65.6701	-67.4412		-21.2454
64.4012	-74.133		-15.9284
62.92	-108.644		-25.407
63.1588	-117.394		-26.775
61.3573	-105.082		-33.207
62.6878	-99.391		-25.4274
63.1378	-111.192		-19.2009
26.3687	-53.6409		76.5221
26.5159	-53.7836		76.4807
24.7215	-54.15		78.1442
26.7511	-54.0179		76.4547
21.6433	-55.602		82.3345
21.7984	-55.0884		81.8991
18.4673	-56.356		86.3709
30.7444	-98.0254		68.7958
35.1694	-95.6941		62.7554
30.4065	-96.3125		72.2926
49.2812	-60.2112		-65.3695
48.0258	-56.4761		-69.4869
51.8623	-59.082		-61.6287
48.347	-63.3543		-65.125
55.7671	81.111		34.3723
57.6159	83.1691		27.4123
51.975	84.1831		36.8979
56.5788	77.0232		37.3542
89.563	-17.5905		-32.5584
91.0029	-12.7007		-35.4352
90.0769	-16.7717		-31.5383
88.2953	-21.6467		-29.9602
88.9656	-17.6692		-33.8004
84.0629	3.01399		-7.47283
83.1395	-1.17901		-6.30719
85.0636	2.91462		-8.14802
84.9508	7.18196		-9.12169
82.7805	3.1997		-6.73358
81.2052	-17.9269		-6.99536
80.7049	-18.5712		-5.9246
81.5905	-20.5371		-8.28373
81.5909	-18.2112		-8.58032
81.2344	-16.2703		-6.65128
80.8823	-24.2982		-7.43807
80.4587	-21.4762		-6.1527
81.7674	-24.0458		-8.81034
92.1212	-7.09275		-37.8819
91.3577	-7.11248		-38.6955
92.8492	-1.03281		-38.9525
92.5757	-7.07781		-37.0206
90.3522	-7.00066		-39.3609
89.4568	-12.4185		-37.3926
89.3102	-6.77952		-39.7364
90.8938	-1.08731		-40.2573
81.6604	7.13684		-8.03608
81.9659	9.30309		-9.82926
81.4446	8.1515		-7.72075
81.6621	5.52583		-6.83585
86.2915	-15.9277		-36.7483
84.594	-15.3821		-37.5315
87.0797	-11.6375		-38.5672
87.3461	-16.5117		-36.0433
85.1307	-19.7329		-34.8438
88.1664	-22.8937		-25.0711
88.8517	-19.9083		-27.5204
87.6845	-24.7869		-22.9238
88.053	-23.8649		-26.2841
85.3271	-31.3672		-23.1052
84.598	-33.0834		-20.2652
83.9608	-32.7697		-24.1613
86.4303	-28.3057		-25.7943
86.726	-28.6738		-21.6612
85.8787	-29.4427		-16.4233
85.3155	-31.1449		-16.7676
86.471	-28.4024		-18.0242
85.4189	-28.722		-15.095
74.8141	-39.6557		-12.4232
74.2798	-40.6179		-12.9084
75.9795	-38.8016		-14.1012
74.6996	-38.595		-8.11686
79.7976	-36.2069		-13.504
80.2343	-37.0433		-15.9096
81.0792	-34.8236		-13.0936
79.2426	-34.3187		-10.4623
78.7006	-37.0677		-13.7405
87.9143	9.34181		-10.3237
87.9625	10.813		-10.4291
86.4758	5.94668		-9.48992
88.2259	9.29147		-10.69
87.9479	11.7049		-10.6602
89.3396	14.8788		-12.5974
87.599	11.6901		-10.6684
92.7946	-6.89345		-36.2711
91.7811	-11.4337		-33.7492
93.4792	-1.34204		-37.6617
94.0526	7.24568		-34.296
93.8251	6.25118		-34.0224
94.1824	6.57415		-35.1777
94.0087	8.8086		-32.7653
88.9437	10.2707		-12.4424
88.801	10.0565		-11.8951
88.4724	8.72658		-12.7041
89.4718	11.8091		-13.426
88.4166	9.22826		-11.0728
87.5434	6.12269		-11.0077
89.5495	13.3516		-12.533
91.963	-7.7318		-30.559
92.664	-4.83479		-30.8602
90.5976	-11.2146		-29.5128
88.1333	7.14089		-14.2535
88.5835	8.70593		-14.777
88.038	7.00067		-13.7783
88.4105	6.20782		-16.0402
88.9868	9.46214		-15.9599
89.475	9.01727		-17.9427
87.8991	-12.3337		-25.4693
88.5308	-14.1242		-26.5521
83.8775	-6.88174		-9.98579
85.104	-2.58271		-10.0482
83.7038	-6.83078		-8.8747
82.648	-11.4852		-10.0381
87.3708	2.93168		-14.0389
87.6446	4.66117		-13.4347
53.521	-57.027		-59.7365
53.8159	-52.4944		-62.4046
54.8934	-57.1423		-57.0115
24.496	-24.9368		83.5368
26.2833	-28.1284		82.9234
24.9619	-23.4592		83.4701
22.402	-24.8243		84.3347
19.3404	-23.3672		86.4146
19.8186	-24.3807		85.7951
19.7686	-20.7197		86.8375
18.2851	-23.9204		87.5216
52.1785	40.3206		66.9804
52.309	38.3545		67.5008
56.7131	36.0448		62.6818
52.2535	41.854		66.1366
47.0788	42.6876		70.8212
7.59427	-29.5605		94.3035
7.03183	-29.0553		95.39
7.30917	-30.2818		93.9898
8.75659	-29.5094		93.4736
9.50271	-26.5054		97.741
8.14536	-26.9495		98.3049
10.5353	-27.0677		95.5023
10.1555	-25.4688		98.7918
44.7508	18.808		66.5318
44.4836	19.4918		66.7634
15.5167	-18.2595		96.9879
15.5644	-19.2978		96.7894
15.8788	-18.0953		96.0896
14.5526	-17.5997		98.8258
83.9404	-23.6457		-32.6963
82.7397	-26.1206		-31.2675
82.6413	-22.1028		-34.1266
84.9511	-24.7342		-31.5826
65.442	78.2496		14.8842
63.0818	81.7003		15.9914
66.0559	73.7363		19.5195
67.5414	78.8487		5.17964
28.59	-59.2006		72.4995
29.246	-57.2406		71.6684
28.5955	-60.4139		72.5074
27.5145	-58.8046		73.6319
28.1839	-48.2611		72.0588
26.882	-48.4109		73.3675
27.9224	-47.2519		72.0727
28.9834	-50.1506		71.4743
-19.271	-102.962		78.692
-19.6061	-101.56		81.3049
-21.9377	-102.058		74.9728
-16.2638	-104.417		78.9736
-68.9659	-5.20825		48.3953
-69.7766	-1.37375		44.7589
-69.0732	-8.52277		47.6539
-67.3146	-4.16287		52.0785
-65.3808	-2.26963		54.8953
-62.8275	-3.57566		58.4632
-65.1616	1.98125		53.5996
-11.8254	40.1677		83.0438
-13.4235	38.1709		82.3044
-9.31436	36.3769		83.023
-9.31057	41.0508		83.5505
-15.2045	42.7843		82.7823
-8.92318	19.7247		80.5119
-8.39174	20.1773		81.2467
-9.338	21.3457		79.7019
-9.65764	18.6073		79.7779
-12.2683	20.0499		75.9792
-14.2031	18.4291		73.8169
-11.8037	18.3782		76.7536
-10.8529	21.8769		77.7895
-12.999	21.842		75.4204
-45.3071	16.4344		66.4296
-42.137	14.701		68.8013
-47.0342	17.7619		64.9612
-15.8646	11.9679		74.9174
-17.6102	10.9889		74.1545
-15.44	11.0403		76.0423
-15.5368	13.1131		74.5515
-25.9379	-54.0986		76.7648
-25.8161	-53.9657		77.0122
-25.8308	-54.0446		77.0677
-26.0555	-54.2026		76.3624
-24.8048	-52.8001		79.2681
-25.8887	-53.3081		78.091
-23.2285	-52.3372		80.9824
-24.927	-52.319		79.845
-28.9337	-51.6774		78.4307
-26.429	-54.3911		75.5982
-26.1814	-54.7634		75.9693
-27.1993	-54.3928		74.3794
-25.9524	-53.6052		76.2208
-21.486	-57.1186		83.2489
-21.9588	-57.9506		82.8916
-19.0242	-58.2589		86.5125
-21.3538	-56.4847		83.206
-24.1511	-55.8983		79.5968
-19.7959	-46.9581		88.0755
-19.3727	-45.6286		88.6603
-22.0562	-48.7939		85.44
-20.0514	-47.7641		87.6899
-16.8456	-45.4447		90.5792
-25.0808	-54.0956		77.9199
-23.4992	-54.1135		79.1277
-25.2093	-54.1012		77.7904
-25.1743	-54.1339		77.9016
-77.3683	-33.1859		-9.59915
-78.0847	-32.2474		-9.5276
-76.956	-36.5591		-12.7028
-76.7408	-33.4926		-8.8064
-85.9499	-24.3839		-20.9762
-86.5583	-22.6307		-23.5745
-86.4483	-25.705		-21.6582
-85.3756	-25.4584		-18.5699
-84.7926	-22.7604		-19.7679
-81.306	-30.1547		-11.3803
-82.1022	-31.343		-13.0282
-80.7872	-30.3651		-10.7702
-81.0118	-27.5504		-10.548
-80.9119	-18.0596		-14.3145
-80.8821	-17.1031		-15.1152
-81.3148	-19.5337		-14.7388
-81.1576	-18.5213		-12.9921
-80.9301	-16.3104		-14.0395
-86.5653	1.18088		-14.8897
-86.6222	1.73049		-13.961
-86.8515	1.95404		-15.4451
-86.0278	-0.767757		-15.6811
-90.0516	11.831		-18.9157
-90.0771	12.4169		-17.9163
-91.2571	12.9206		-22.0013
-89.6516	10.9042		-18.8939
-83.6225	-8.91373		-18.7921
-86.1232	-5.20619		-21.894
-82.9932	-11.2859		-19.2292
-82.8229	-9.95084		-15.8005
-84.6761	-5.20634		-17.7853
-89.2245	5.06732		-21.8937
-88.8241	3.56332		-21.6945
-88.0101	5.64256		-17.6907
-89.7929	6.63255		-22.685
-90.9111	4.49742		-26.7686
-80.9335	-27.7835		-32.5212
-82.2202	-26.354		-33.233
-79.7238	-27.6248		-33.0105
-80.707	-30.0314		-30.971
-91.7725	-8.32322		-33.4882
-92.1382	-7.23209		-34.4265
-90.9082	-11.3811		-33.0947
-91.6634	-8.10185		-32.9136
-92.4508	-5.63529		-36.0623
-92.6301	-3.51342		-34.9945
-92.7341	-2.64199		-37.2803
-92.3677	-6.34296		-37.1155
-87.0638	-21.07		-25.4892
-87.5545	-18.911		-27.2577
-87.511	-22.1134		-26.3156
-85.8364	-19.1582		-23.9156
-89.3451	-7.76196		-29.3634
-88.3058	-9.70043		-28.2483
-89.367	-6.42626		-29.0775
-90.6635	-8.05936		-31.2141
-87.3881	-12.7054		-27.3396
-88.0103	-14.4695		-28.4412
-85.9552	-13.7343		-24.9807
-78.8345	-25.2354		-7.24344
-78.5377	-24.4218		-6.59352
-79.4922	-24.8456		-8.10608
-79.0398	-27.4616		-8.07851
-78.4418	-22.8229		-5.79652
-78.024	-22.961		-4.92267
-78.8196	-20.8182		-5.71846
-80.1498	-13.9804		-5.86806
-80.6897	-10.8565		-5.98617
-80.505	-14.3172		-6.77608
-79.8649	-14.5207		-5.44489
-79.5189	-15.2906		-4.98728
-79.2777	-17.6406		-5.34799
-79.1501	-15.1479		-4.04532
-82.9628	-21.1889		-17.3836
-82.9811	-19.7022		-18.5946
-82.73	-22.1814		-15.6197
-82.9239	-9.40993		-14.299
-81.7752	-13.133		-14.1095
-83.3362	-8.2891		-13.0645
-84.1124	-5.67457		-14.5026
-81.2628	-14.919		-13.6564
-81.5028	-14.8528		-12.781
-92.6144	7.72916		-31.1336
-92.8517	6.54132		-32.895
-92.4581	7.31572		-30.5664
-92.7459	8.45836		-31.386
-92.7817	2.90754		-33.7415
-92.5909	1.83955		-32.3248
-92.5798	4.70471		-31.7929
-92.8928	4.20771		-34.5618
-92.8124	1.23841		-34.6545
-89.454	10.2807		-19.0699
-88.8282	9.421		-17.9384
-90.3119	10.3606		-21.7191
-91.3068	10.2113		-25.0401
-90.8727	9.16471		-24.3389
-91.8897	11.4803		-25.917
-92.4454	9.88738		-29.1344
-90.2993	7.94994		-23.449
-91.6551	7.39372		-27.6539
-89.0526	8.46394		-19.5491
-40.339	27.5219		71.9455
-37.4257	28.1256		72.7099
-42.8327	26.4891		70.7714
-26.0213	-100.796		69.708
-28.5074	-98.9592		69.4268
-25.0092	-102.086		65.8324
-47.7407	21.3879		65.9385
-48.6426	19.7751		64.7007
-46.5528	23.3413		67.5769
-51.7804	23.8216		64.8221
-50.7213	26.4646		66.6841
-53.9634	24.8519		63.6345
-51.9533	20.8182		63.3776
-49.8335	22.7769		65.6031
-71.0014	-45.3566		-5.71389
-70.333	-47.5302		-6.13956
-71.3425	-43.8196		-4.2781
-72.0536	-43.8593		-10.1139
-19.6124	17.4348		69.8709
-19.9685	16.739		69.7386
-19.8095	18.3792		69.9431
-17.8975	20.2037		71.2532
-19.2199	22.0958		71.5683
-17.4198	18.6381		71.2472
-7.70053	21.4633		82.0145
-7.70411	23.5968		81.8159
-7.08649	21.5555		82.8126
-19.6987	-52.1582		83.4596
-16.8918	-51.276		86.3001
-20.1392	-51.7865		83.8292
-20.336	-52.719		81.9132
-64.4416	-67.9686		-10.2696
-65.1999	-65.4305		-10.9973
-63.9947	-70.8271		-11.9221
-63.6289	-67.6947		-5.04095
-78.745	-3.00751		0.0848411
-77.6122	-10.0047		2.61935
-77.7216	-1.92016		4.60098
-79.7171	4.49744		-3.36006
-79.5862	-3.79385		-2.62821
-64.9046	-71.5642		-22.9712
-64.4157	-73.6818		-18.3302
-65.4606	-67.14		-23.5847
-64.4076	-73.9241		-24.506
-62.9508	-108.318		-26.7329
-63.1489	-117.102		-27.9356
-63.2773	-110.813		-20.5371
-62.7023	-99.0452		-26.9517
-61.2654	-104.816		-34.483
-25.4281	-54.5105		77.9518
-23.8027	-54.9233		79.5271
-25.2765	-54.3602		77.9827
-25.5572	-54.6524		77.9197
-27.0809	-54.1476		77.2382
-26.3016	-55.4476		77.8306
-21.0713	-56.0482		83.3864
-18.5783	-56.5886		86.6459
-21.2111	-55.5727		82.9729
-30.4776	-97.2235		69.2526
-30.4136	-95.4534		72.3123
-34.5349	-95.1188		63.3724
-48.5949	-60.1998		-66.3951
-47.6772	-63.3346		-66.1281
-51.2239	-59.0723		-62.7591
-47.2612	-56.4756		-70.4306
-55.3539	79.7665		34.271
-56.1629	75.5496		37.3855
-51.5212	82.8588		36.8963
-57.2509	81.9626		27.1077
-88.9863	-17.8628		-34.4173
-90.3826	-12.9758		-37.1996
-88.378	-17.9365		-35.6379
-87.7604	-21.9122		-31.9086
-89.5068	-17.0519		-33.4056
-83.7644	2.35091		-9.18699
-82.8416	-1.83134		-8.10026
-82.4917	2.5158		-8.43834
-84.6477	6.51547		-10.7643
-84.7564	2.26884		-9.86796
-80.8893	-18.4252		-9.15523
-80.4003	-19.0715		-8.11042
-80.9187	-16.7888		-8.77293
-81.2609	-18.6915		-10.7326
-81.2722	-20.9915		-10.4958
-80.6504	-24.7265		-9.70409
-80.171	-21.944		-8.40803
-81.5077	-24.4636		-11.0649
-91.4646	-7.37102		-39.5579
-91.9274	-7.35995		-38.7108
-92.1725	-1.32385		-40.554
-90.693	-7.38962		-40.3587
-89.6801	-7.27972		-41.0103
-88.8176	-12.691		-39.1206
-90.2026	-1.37762		-41.8362
-88.631	-7.0612		-41.3743
-81.3681	6.4379		-9.65715
-81.3805	4.82563		-8.48887
-81.1604	7.43678		-9.32362
-81.6534	8.6143		-11.4106
-85.6749	-16.1924		-38.5116
-83.9743	-15.6427		-39.268
-84.5472	-19.9898		-36.677
-86.7341	-16.779		-37.828
-86.4315	-11.9084		-40.2609
-87.6842	-23.1784		-27.1173
-88.3337	-20.1989		-29.4867
-87.5627	-24.1357		-28.3241
-87.2308	-25.0697		-25.0326
-84.9132	-31.5904		-25.3109
-86.3069	-28.9292		-23.8548
-85.9681	-28.5438		-27.9036
-83.5451	-32.9751		-26.3612
-84.2438	-33.3091		-22.5536
-85.5463	-29.7277		-18.7127
-85.1157	-29.036		-17.3564
-86.0934	-28.6734		-20.2821
-85.015	-31.4434		-19.055
-74.5978	-39.7983		-15.006
-74.5383	-38.784		-10.781
-75.731	-38.9531		-16.627
-74.071	-40.7365		-15.498
-80.0259	-36.1017		-15.7948
-80.1079	-37.1673		-18.3142
-78.5348	-37.2147		-16.2004
-79.8229	-34.3765		-13.1597
-81.5311	-34.8048		-15.539
-87.5895	8.70289		-11.9412
-87.8956	8.65796		-12.3085
-86.1578	5.30907		-11.1585
-87.6419	10.1678		-12.0235
-87.6277	11.056		-12.2402
-87.2819	11.038		-12.2457
-88.9969	14.2488		-14.1322
-93.4174	6.89075		-35.8569
-93.3924	8.43438		-34.3196
-93.5361	6.2303		-36.7394
-93.1953	5.89624		-35.5963
-88.5914	9.65016		-14.0457
-89.1095	11.1968		-15.0064
-88.1155	8.11207		-14.3278
-88.4557	9.43116		-13.5024
-88.081	8.5985		-12.693
-89.1999	12.7294		-14.0905
-87.2042	5.50333		-12.6742
-91.3881	-8.0657		-32.3301
-90.0382	-11.5446		-31.3363
-92.0826	-5.17158		-32.5928
-88.5906	8.88156		-17.5643
-88.2015	8.11453		-16.3951
-87.756	6.54778		-15.8952
-87.6661	6.40257		-15.424
-83.5338	-7.44489		-11.8834
-84.7646	-3.17488		-11.8632
-82.3035	-12.0146		-12.0277
-83.3704	-7.40379		-10.776
-86.9913	2.35517		-15.7469
-87.2735	4.07175		-15.1197
-87.2047	2.04408		-17.5341
-52.8995	-57.0236		-60.9319
-54.3047	-57.1336		-58.2784
-53.1306	-52.508		-63.5611
-25.0612	-24.7741		83.605
-22.7558	-24.6147		84.4696
-25.4507	-23.2041		83.519
-27.1184	-28.1222		82.9296
-19.4986	-23.0085		86.6737
-18.5668	-23.5156		87.6519
-19.8001	-20.2826		87.1375
-20.0681	-24.0096		86.0006
-52.6737	40.2216		66.7525
-53.0177	38.4556		66.981
-46.8739	42.6314		71.087
-52.5565	41.5759		66.1718
-57.3515	35.8849		62.1672
-7.58218	-28.3122		96.3929
-7.79748	-27.7676		97.1107
-8.20757	-28.7285		95.2358
-6.54867	-28.6168		97.0144
-8.01196	-27.0623		98.3149
-8.95585	-26.6135		98.1135
-6.90571	-26.8175		100.134
-47.6129	18.6054		64.6918
-47.2854	19.4101		64.9913
-15.5872	-17.9844		96.6413
-14.6188	-17.3421		98.3787
-15.9351	-17.8096		95.7892
-15.6626	-19.0067		96.4771
-65.12	77.1737		14.3022
-67.1767	77.9322		4.47817
-65.7795	72.538		18.9993
-62.7429	80.6449		15.4473
-27.5432	-59.8587		73.8329
