1852
77.5645	-23.0224		-3.1979
76.7731	-25.2228		-2.24272
78.8272	-16.0748		-3.77529
78.5389	-16.6286		-3.31389
79.2029	-16.4004		-4.67603
79.3368	-12.8977		-4.08416
78.1925	-17.4168		-2.80329
77.8037	-17.2884		-1.85811
77.9833	-19.7984		-3.02153
81.8573	-23.1514		-15.1406
81.6168	-24.2023		-13.2981
81.7519	-11.2627		-12.5528
80.5923	-15.0544		-12.1829
81.6851	-11.7724		-14.0538
82.9503	-7.46279		-12.9196
82.1398	-10.1358		-11.3494
92.0314	6.41796		-30.0324
92.1771	7.15858		-30.2999
91.8566	5.99122		-29.4553
92.3025	5.24972		-31.7801
92.2252	1.59753		-32.5629
91.9971	0.49378		-31.1162
92.2639	-0.0715872		-33.4494
92.3657	2.92129		-33.4105
91.9888	3.37672		-30.6384
88.5348	8.77973		-18.0203
89.4812	8.90775		-20.6633
87.8618	7.89185		-16.8706
90.5764	8.81703		-23.9756
90.109	7.74863		-23.2467
91.8326	8.56044		-28.0678
91.2049	10.1122		-24.8822
38.8684	23.997		73.4658
40.9298	22.71		72.5749
36.4498	24.9396		73.8885
23.5737	-99.823		67.7187
22.3237	-100.555		63.376
25.9409	-98.3661		67.7133
44.6604	18.3473		68.888
44.2278	19.8417		69.9748
45.2095	16.9137		67.8278
49.8106	19.5946		67.2075
52.894	20.4752		65.4548
50.1453	21.5944		68.2593
47.3479	19.1923		68.3859
49.6621	17.4571		65.9071
69.5202	-48.1587		-1.86032
70.5976	-46.4858		-6.64488
69.9158	-46.5891		-0.375483
68.7761	-50.3766		-2.27954
18.6713	18.8022		70.783
19.0619	18.0504		70.5964
18.7038	19.7039		70.896
17.7326	21.4615		71.9894
18.9233	22.7778		72.237
17.4989	20.1753		71.8008
8.99307	21.7154		83.0495
8.33063	21.7174		83.9502
9.09429	23.6958		82.9479
18.9889	-53.3857		87.669
19.3176	-53.935		86.328
19.4184	-53.0148		88.0942
16.6069	-52.4654		90.0911
61.6989	-70.7877		-7.93419
60.6985	-70.8106		-2.35237
61.1144	-73.45		-10.0178
62.6543	-68.2695		-8.40039
77.1542	-5.0422		1.54713
76.0602	-12.1983		4.50631
78.0713	-5.77547		-1.10269
78.2062	2.63095		-2.23814
75.9817	-4.04674		5.9482
62.6219	-73.6289		-21.6559
62.1135	-75.8416		-23.4533
63.4028	-69.2856		-21.9465
61.7679	-75.8698		-16.9897
59.9408	-109.068		-28.0701
60.3062	-117.639		-29.5348
58.6639	-105.587		-35.5876
59.7232	-100.068		-27.8215
59.9076	-111.509		-22.1316
23.656	-55.6505		82.8682
23.7901	-55.7974		82.8277
22.308	-56.0901		84.3707
24.0101	-56.0438		82.7939
20.1725	-57.3258		87.3649
20.231	-56.846		87.1379
17.8818	-57.5873		89.9014
27.7986	-96.9328		67.7996
31.5122	-94.7852		61.6821
27.9104	-95.425		71.5156
47.8724	-60.9948		-66.3715
46.7184	-57.1767		-70.4292
50.3935	-59.9696		-62.6001
46.9084	-64.1125		-66.1885
56.3963	79.3206		34.9324
58.0278	81.4485		27.7366
52.705	82.5146		37.6672
57.2683	75.0955		37.9559
88.261	-19.3677		-32.8013
89.7701	-14.3669		-35.7534
88.7706	-18.578		-31.7793
86.9352	-23.5196		-30.1303
87.6742	-19.4093		-34.0556
82.4544	0.548293		-7.93442
81.4961	-3.70792		-6.67653
83.4757	0.465578		-8.61001
83.3894	4.7888		-9.65298
81.1447	0.717383		-7.19992
79.668	-20.5299		-6.85695
79.1616	-21.2113		-5.74754
80.0828	-23.1143		-8.09212
80.0684	-20.7618		-8.46467
79.6773	-18.8747		-6.55988
79.3852	-26.9136		-7.12458
78.9389	-24.1212		-5.88908
80.2782	-26.6172		-8.53468
90.9533	-8.65491		-38.2639
90.1962	-8.65179		-39.0796
91.7384	-2.52603		-39.3815
91.4001	-8.6684		-37.3999
89.1935	-8.51763		-39.7462
88.2356	-14.0286		-37.7263
88.1479	-8.29035		-40.1201
89.7919	-2.5396		-40.6783
80.056	4.70775		-8.53527
80.4198	6.93756		-10.3642
79.8396	5.71667		-8.23401
80.0286	3.06088		-7.33297
85.008	-17.6077		-37.0389
83.3046	-17.067		-37.8244
85.8458	-13.2441		-38.9022
86.0657	-18.1963		-36.3279
83.7982	-21.4899		-35.0815
86.7584	-24.9252		-25.1644
87.4783	-21.8551		-27.6805
86.2552	-26.8885		-22.9589
86.6488	-25.8572		-26.3806
83.8727	-33.48		-23.0562
83.1251	-35.2944		-20.1227
82.5002	-34.8579		-24.1277
85.0038	-30.3248		-25.8329
85.2757	-30.8212		-21.6162
84.4147	-31.7712		-16.2426
83.8432	-33.4636		-16.5684
85.0147	-30.6711		-17.9065
83.9548	-31.0966		-14.8937
73.2629	-42.185		-11.982
72.7138	-43.1362		-12.4808
74.4338	-41.2795		-13.732
73.1796	-41.2463		-7.52383
78.2742	-38.6626		-13.0901
78.7019	-39.4282		-15.5477
79.5542	-37.289		-12.6992
77.7406	-36.875		-10.0104
77.1822	-39.5283		-13.3378
86.4329	7.03635		-10.8865
86.4951	8.51347		-11.0122
84.9406	3.57265		-10.008
86.7539	7.00777		-11.2513
86.4931	9.42057		-11.2553
87.9717	12.6953		-13.222
86.1215	9.39805		-11.262
91.611	-8.51064		-36.6458
90.5395	-13.149		-34.0645
92.3493	-2.89009		-38.0877
92.9548	5.65569		-34.7673
92.7131	4.64353		-34.484
93.0929	5.00857		-35.6453
92.9026	7.18427		-33.2455
87.5105	8.05198		-12.9996
87.3571	7.82324		-12.453
87.027	6.50088		-13.2367
88.0708	9.63516		-13.9966
86.9511	6.96274		-11.6267
86.0494	3.82657		-11.5123
88.1583	11.1675		-13.1337
90.7061	-9.52273		-30.8831
91.44	-6.59727		-31.2188
89.2981	-13.0592		-29.7883
86.7037	4.94614		-14.7498
87.1772	6.54125		-15.2942
86.5997	4.78871		-14.2768
87.007	4.06323		-16.5169
87.6076	7.33759		-16.482
88.1282	6.95321		-18.447
86.5371	-14.3081		-25.6826
87.1728	-16.0752		-26.7573
82.3101	-9.30887		-10.1992
83.5337	-4.97656		-10.3728
82.1153	-9.3008		-9.09069
81.0882	-13.9382		-10.1246
85.9066	0.700055		-14.4683
86.1853	2.42301		-13.8968
52.038	-57.9841		-60.6558
52.4188	-53.4159		-63.2544
53.3623	-58.1729		-57.9132
27.2872	-22.3216		82.5325
28.2262	-26.3859		82.3856
27.8276	-20.6305		82.2255
25.5781	-21.9061		83.4562
22.8605	-20.0587		85.7837
23.3279	-21.1382		85.1424
23.2903	-16.9765		86.0174
21.8169	-20.5943		87.1531
54.6147	34.8113		67.3735
54.8547	32.5013		67.6469
58.0004	30.7612		62.6269
54.4959	36.8477		66.6865
49.3771	38.2365		72.2774
10.5621	-26.061		96.5539
9.9385	-25.5773		97.8196
10.3056	-26.7416		96.3424
11.7787	-25.9971		95.5141
12.4848	-23.0203		99.9404
11.0512	-23.5775		100.741
13.601	-23.4692		97.3555
13.2039	-21.9878		100.953
43.8257	15.9021		67.7685
43.6691	16.5939		68.0074
18.8074	-14.4435		98.592
18.8693	-15.3684		98.3805
19.2144	-14.2192		97.5428
17.7781	-14.0175		100.636
82.561	-25.4844		-32.8763
81.3272	-28.0175		-31.4053
81.2697	-23.9225		-34.3277
83.5691	-26.5847		-31.7493
65.4606	76.4522		14.7619
63.1823	79.9918		15.9713
66.0642	71.7548		19.3862
67.409	77.2044		4.94128
26.075	-61.0647		77.3261
26.5512	-59.1577		76.6407
26.5399	-62.0912		76.5393
24.9653	-60.6645		78.765
25.6583	-49.921		76.8606
24.3711	-50.2194		78.5458
25.9588	-48.5594		76.0537
26.2667	-51.8838		76.3778
-17.258	-102.23		77.7907
-17.5658	-101.02		80.5552
-19.7647	-101.568		74.2541
-14.4638	-103.199		77.7519
-62.7151	-7.12435		47.4226
-64	-3.77073		43.599
-63.0229	-10.4137		46.8902
-60.708	-5.95539		50.9962
-58.7543	-4.17773		53.5408
-56.1895	-5.3737		57.198
-58.9254	-0.286074		51.9321
-12.7593	38.9422		86.7884
-14.3906	36.9013		85.7189
-9.77973	35.4045		86.4766
-9.97385	39.9757		87.5328
-16.4865	41.4342		86.397
-8.97819	20.2028		80.7693
-8.32358	20.435		81.6786
-9.51353	21.6828		79.9847
-9.9058	19.4283		79.7995
-13.3523	21.9283		75.328
-15.5798	20.9662		72.8287
-12.7951	20.3334		76.0248
-11.4763	22.7165		77.7562
-14.1409	23.3285		74.9277
-43.0309	15.4413		65.4642
-40.0438	14.26		67.5854
-44.6484	16.4659		64.1472
-16.9721	14.3208		74.0762
-18.6918	13.286		73.4028
-16.4356	13.2621		75.3235
-16.6908	15.4988		73.6449
-25.1855	-56.4886		81.7949
-25.0877	-56.3624		82.0464
-25.1001	-56.4239		82.1092
-25.2662	-56.6154		81.356
-23.9946	-55.097		84.3807
-25.1514	-55.6813		83.1844
-22.2455	-54.5207		86.0654
-24.0592	-54.618		84.9849
-28.0068	-54.0218		83.2915
-25.495	-56.8212		80.4885
-25.3298	-57.1174		80.8612
-25.9916	-56.8152		79.0106
-25.1141	-56.033		81.108
-20.15	-59.2415		87.8474
-20.6389	-60.0576		87.4147
-17.0122	-60.1369		90.8265
-20.0519	-58.6275		87.8577
-23.2918	-58.2086		84.5498
-17.4553	-48.9124		93.4381
-17.0124	-47.4785		94.0427
-20.1127	-50.8032		90.7923
-17.7167	-49.7469		93.044
-14.3914	-47.0825		95.8754
-24.3475	-56.4407		82.982
-22.7057	-56.3844		84.1742
-24.4731	-56.4524		82.8516
-24.4452	-56.481		82.9631
-75.7716	-36.9452		-8.3909
-76.4744	-35.9673		-8.32673
-75.4037	-40.3271		-11.5073
-75.1296	-37.2928		-7.56303
-84.4664	-27.3429		-20.1848
-85.1216	-25.442		-22.8532
-84.9874	-28.6632		-20.8451
-83.8545	-28.5396		-17.7121
-83.2681	-25.7432		-18.9893
-79.6777	-33.7185		-10.2606
-80.4952	-34.8787		-11.9073
-79.1467	-33.9744		-9.62596
-79.3543	-31.0512		-9.49541
-79.2279	-21.1799		-13.6187
-79.1877	-20.0993		-14.4931
-79.6603	-22.6741		-13.9734
-79.4391	-21.655		-12.292
-79.1971	-19.3515		-13.4388
-84.7527	-1.21279		-14.8191
-84.7715	-0.671516		-13.9161
-85.0617	-0.397338		-15.3874
-84.2489	-3.20468		-15.5511
-88.4266	9.88491		-19.0067
-88.4189	10.4648		-18.0323
-89.7644	11.0938		-22.0452
-88.0176	8.92563		-18.9724
-81.9841	-11.5068		-18.4306
-84.5869	-7.57081		-21.5935
-81.377	-13.9313		-18.803
-81.094	-12.6809		-15.4192
-82.9868	-7.71708		-17.5258
-87.6799	3.00738		-21.8126
-87.267	1.45187		-21.5863
-86.3118	3.47179		-17.6872
-88.2826	4.64496		-22.6213
-89.5479	2.5758		-26.5993
-79.7177	-30.4796		-31.8653
-81.0238	-28.9629		-32.5921
-78.518	-30.3217		-32.3814
-79.4562	-32.846		-30.2705
-90.6037	-10.3462		-33.0414
-91.0026	-9.19183		-33.9945
-89.7205	-13.5044		-32.6049
-90.4764	-10.1427		-32.4712
-91.3627	-7.50524		-35.647
-91.5167	-5.3622		-34.6143
-91.6813	-4.40609		-36.9006
-91.3073	-8.19695		-36.6898
-85.6627	-23.7641		-24.8146
-86.1916	-21.4753		-26.6391
-86.1368	-24.7938		-25.6297
-84.3804	-21.8707		-23.2745
-88.0397	-9.92895		-28.955
-86.9655	-11.9573		-27.8116
-88.0504	-8.57214		-28.6972
-89.4159	-10.167		-30.7855
-86.0237	-15.0888		-26.8459
-86.677	-16.8607		-27.9105
-84.5176	-16.2402		-24.4724
-77.0921	-28.79		-6.21829
-76.7756	-27.9677		-5.59028
-77.7604	-28.3556		-7.1061
-77.3458	-31.0726		-6.98
-76.6336	-26.3395		-4.84985
-76.2063	-26.5137		-3.95416
-76.9706	-24.2675		-4.85466
-78.1661	-17.1898		-5.31234
-78.6514	-13.9554		-5.57339
-78.5509	-17.509		-6.20859
-77.8795	-17.7596		-4.86356
-77.5375	-18.5692		-4.369
-77.3546	-20.9903		-4.62302
-77.1402	-18.4511		-3.42929
-81.3737	-24.247		-16.6003
-81.3987	-22.6537		-17.8909
-81.1242	-25.3096		-14.8125
-81.1364	-12.186		-13.9308
-80.0115	-16.0523		-13.6167
-81.4956	-11.0556		-12.7247
-82.3034	-8.3115		-14.2479
-79.5084	-17.909		-13.1006
-79.7233	-17.8489		-12.2168
-91.4003	6.0317		-30.9539
-91.6872	4.86649		-32.6779
-91.2233	5.59155		-30.3889
-91.5441	6.78668		-31.2124
-91.6345	1.17399		-33.4661
-91.4019	0.0408763		-32.0491
-91.3747	2.95544		-31.5648
-91.7737	2.52376		-34.2942
-91.688	-0.506866		-34.3466
-87.8216	8.29121		-19.1357
-87.1464	7.37711		-18.0118
-88.7843	8.45269		-21.7325
-89.9003	8.39867		-24.9889
-89.4336	7.30365		-24.2786
-90.5264	9.72328		-25.8697
-91.1798	8.18692		-29.0106
-88.8201	6.02463		-23.3894
-90.3267	5.58295		-27.5171
-87.4285	6.43518		-19.5689
-39.6492	25.6297		71.448
-37.112	26.3258		72.1825
-41.7491	24.5296		70.2872
-23.4082	-100.558		69.0189
-25.6112	-99.1838		69.2522
-22.4342	-101.237		64.4813
-45.6787	19.7498		65.3196
-46.2843	18.2586		64.0193
-44.8885	21.5403		67.0354
-49.7145	21.5871		64.2438
-49.1933	24.0901		66.2552
-51.7394	22.1717		62.9111
-49.3966	18.8507		62.6413
-47.8144	20.8703		65.0677
-69.3694	-49.7968		-4.1328
-68.6726	-52.0355		-4.57861
-69.7143	-48.2468		-2.64636
-70.4384	-48.0537		-8.73444
-20.6075	19.5318		69.066
-20.8971	18.7776		68.9146
-20.8057	20.3821		69.1942
-19.0833	22.2827		70.5478
-20.2564	23.5555		70.9502
-18.6577	20.9937		70.4008
-7.56263	21.4429		82.6702
-7.64296	23.4521		82.6628
-6.90856	21.461		83.6058
-18.1373	-54.2653		88.4078
-14.8268	-53.2336		91.204
-18.5038	-53.8919		88.8415
-19.0169	-54.8297		86.9097
-62.189	-72.603		-9.67596
-63.0688	-70.0248		-10.2554
-61.6806	-75.327		-11.5424
-61.2172	-72.6487		-4.30117
-76.3712	-6.03097		0.0920697
-75.2887	-13.3429		2.98474
-75.1483	-5.05794		4.48982
-77.4257	1.82001		-3.64172
-77.3177	-6.75133		-2.54686
-62.9535	-75.3923		-22.8098
-62.2561	-77.7456		-18.1937
-63.6391	-70.9719		-23.2513
-62.4677	-77.6294		-24.4813
-60.9097	-110.935		-27.9051
-61.2729	-119.361		-29.2182
-60.9631	-113.543		-21.8362
-60.6108	-101.975		-27.9062
-59.5366	-107.245		-35.5333
-24.7119	-56.8637		82.9974
-22.9855	-57.2119		84.5383
-24.554	-56.7072		83.035
-24.8453	-57.0129		82.9556
-26.3749	-56.5973		82.2753
-25.5673	-57.8476		82.7939
-19.7541	-58.1855		88.057
-16.569	-58.4865		91.0936
-19.9631	-57.7375		87.7161
-27.3402	-97.7866		69.482
-27.2904	-96.4743		72.7776
-31.0573	-95.5124		63.6051
-48.208	-61.6823		-66.6914
-47.2726	-64.8176		-66.4753
-50.7245	-60.7432		-62.9945
-46.9995	-57.7568		-70.6982
-55.7244	79.7695		32.7788
-56.5492	75.6084		35.5694
-52.1035	82.9425		35.6123
-57.3659	81.805		25.831
-87.8301	-20.1153		-33.842
-89.315	-14.9959		-36.6993
-87.2585	-20.1522		-35.0731
-86.5272	-24.3678		-31.2596
-88.3219	-19.3175		-32.8354
-81.7124	-0.213185		-9.2602
-80.7689	-4.56695		-8.04476
-80.4045	-0.0609273		-8.54226
-82.642	4.12917		-10.9393
-82.7343	-0.284264		-9.92078
-79.073	-21.6792		-8.42494
-78.5708	-22.3856		-7.34183
-79.0611	-19.9999		-8.10867
-79.4861	-21.8948		-10.0131
-79.534	-24.2852		-9.67556
-78.9451	-28.1662		-8.73266
-78.3987	-25.3437		-7.5233
-79.83	-27.8425		-10.1186
-90.4746	-9.16492		-39.1301
-90.9109	-9.18178		-38.2799
-91.2272	-2.93341		-40.1953
-89.728	-9.1618		-39.9394
-88.7348	-9.0319		-40.6045
-87.8049	-14.6521		-38.6483
-89.2996	-2.9468		-41.4908
-87.6899	-8.80635		-40.9852
-79.3172	3.97349		-9.85258
-79.2855	2.30879		-8.67727
-79.0949	5.00258		-9.56022
-79.6889	6.25039		-11.6491
-84.6225	-18.3119		-38.0276
-82.9355	-17.7624		-38.8202
-83.4415	-22.2806		-36.1361
-85.6705	-18.9146		-37.3159
-85.4326	-13.8585		-39.834
-86.3311	-25.8486		-26.4114
-87.0345	-22.7009		-28.8527
-86.2397	-26.7839		-27.6066
-85.8358	-27.8714		-24.2674
-83.5389	-34.5951		-24.4256
-84.8956	-31.8937		-22.9887
-84.6483	-31.3444		-27.1101
-82.1968	-36.0036		-25.4828
-82.811	-36.4903		-21.579
-84.0395	-32.9358		-17.7345
-83.5842	-32.2826		-16.3757
-84.6145	-31.7757		-19.364
-83.5117	-34.6939		-18.051
-73.0556	-43.6223		-13.8385
-72.9364	-42.738		-9.48333
-74.2231	-42.6668		-15.5225
-72.5281	-44.5749		-14.3406
-78.4606	-39.715		-14.6204
-78.5755	-40.7144		-17.1585
-77.0167	-40.8549		-15.0453
-78.228	-38.045		-11.9803
-79.9363	-38.3776		-14.371
-85.6681	6.44525		-12.1185
-85.9899	6.42155		-12.4746
-84.1901	2.90034		-11.2785
-85.7282	7.95211		-12.2393
-85.7268	8.88572		-12.4807
-85.3575	8.86086		-12.4928
-87.2078	12.2459		-14.3993
-92.3574	5.31615		-35.6101
-92.2878	6.84595		-34.1064
-92.5036	4.67267		-36.4735
-92.12	4.28427		-35.3392
-86.7562	7.50443		-14.1904
-87.3183	9.12804		-15.1638
-86.283	5.92399		-14.4358
-86.5979	7.26432		-13.6518
-86.1893	6.3799		-12.8429
-87.3898	10.6761		-14.3035
-85.3038	3.18063		-12.7527
-90.1795	-10.1312		-31.8916
-88.7918	-13.7418		-30.8518
-90.8939	-7.1522		-32.1982
-86.8922	6.80552		-17.6337
-86.4566	5.98302		-16.4671
-85.9863	4.35102		-15.9412
-85.879	4.18745		-15.4758
-81.645	-10.2249		-11.5788
-82.836	-5.8081		-11.7008
-80.4641	-14.9441		-11.5622
-81.4389	-10.2284		-10.482
-85.2118	0.0251349		-15.6931
-85.4753	1.77567		-15.1179
-85.495	-0.242407		-17.4505
-52.3513	-58.7918		-61.1087
-53.6698	-59.0405		-58.4176
-52.6686	-54.1408		-63.689
-24.7078	-23.1985		83.7097
-22.7886	-22.7455		84.6912
-25.0556	-21.6041		83.3871
-26.3731	-27.1257		83.4484
-19.7719	-21.005		87.0505
-18.6995	-21.5845		88.3641
-20.1245	-18.0285		87.1582
-20.3127	-22.0058		86.4315
-52.1064	37.8919		66.2846
-52.2101	35.9182		66.7502
-47.4286	40.7699		70.6649
-52.2346	39.5525		65.2406
-55.9893	32.9854		61.0183
-5.10178	-25.1452		99.3336
-5.31191	-24.6485		99.9657
-5.98273	-25.5661		98.1357
-3.87797	-25.4199		100.088
-5.5074	-24.0371		101.091
-6.65245	-23.5877		100.81
-4.17852	-23.9263		102.926
-45.1946	17.2255		63.9452
-44.9916	18.0081		64.2812
-14.6353	-15.1747		98.8337
-13.3514	-14.5377		100.718
-15.1738	-15.0703		97.8411
-14.7275	-16.1489		98.6854
-64.7356	76.7241		13.0913
-66.6962	77.4249		3.55156
-65.2879	72.0607		17.4895
-62.4924	80.2634		14.3356
-26.223	-62.0784		77.8362
-25.3247	-61.6901		79.1577
-26.3965	-63.0137		77.2249
-26.7817	-60.2655		77.0972
-25.9818	-51.2202		77.2969
-26.6319	-53.1933		76.7821
-25.9258	-49.7188		76.7368
-24.8316	-51.4611		78.8708
-8.22839	-23.1816		100.095
-8.77768	-22.1581		101.074
-9.68521	-23.8235		97.7766
9.99684	-24.1097		101.018
9.09817	-24.0723		102.861
9.59642	-24.733		99.8033
9.27533	-25.2394		99.1139
8.22165	-25.5988		99.8902
-6.73968	-26.175		96.9788
-8.06444	-26.2534		96.0622
-6.51353	-26.8521		96.7576
79.0453	-34.949		-26.2988
77.2611	-35.5305		-26.0534
79.7241	-31.8048		-28.9932
80.2221	-35.2886		-25.6689
77.7847	-38.2063		-22.8024
68.3332	-47.0256		13.6523
67.1313	-48.364		21.6991
67.2301	-51.6729		12.4156
69.5094	-45.3122		6.51203
69.2835	-42.2082		14.882
55.4549	-115.107		-8.67716
54.784	-104.765		-8.12269
52.7084	-116.094		-4.46275
56.6503	-125.628		-9.69077
57.6291	-113.925		-13.0301
57.7863	-133.268		-10.783
58.757	-139.277		-11.8264
59.5532	-131.492		-15.3928
55.3739	-135.112		-6.20957
48.2298	-98.966		1.74504
48.8043	-93.2222		3.04131
44.5505	-100.28		6.17356
48.4014	-106.589		0.625837
51.7956	-98.091		-3.03841
58.5841	-96.5089		-15.8645
58.6144	-103.443		-16.53
59.6894	-95.3201		-20.8991
58.7976	-91.1391		-15.3023
56.9042	-96.9711		-11.6079
60.455	-67.7088		23.7701
62.0651	-63.75		25.7992
58.5303	-69.8445		31.114
58.5651	-71.3799		21.2137
61.7631	-65.993		16.2021
70.7812	31.4461		24.2812
71.9512	39.3572		19.7894
66.8709	34.1818		35.3125
70.0127	23.9634		27.3014
74.3897	30.0138		12.421
78.0882	41.9104		-29.0249
77.6821	38.8765		-38.7408
76.7167	48.9748		-34.2121
78.2865	43.6562		-18.3526
79.0196	34.5112		-24.1672
5.17157	-114.463		37.4233
2.39788	-114.759		38.1769
5.79079	-121.425		36.0048
8.6119	-113.931		36.1869
5.40428	-110.593		39.6651
7.52362	-132.182		33.1082
9.04192	-143.183		29.738
11.007	-131.127		31.5046
4.34222	-132.508		34.309
2.67664	-151.584		29.2573
6.28741	-151.178		28.6488
2.1299	-144.023		31.4709
-0.80245	-151.651		29.5321
3.22853	-156.655		27.8705
65.6563	-53.445		-32.3275
68.162	-47.4496		-29.9624
64.9655	-59.7391		-27.0836
63.0723	-59.4655		-34.7621
66.6013	-45.9397		-36.5383
67.6164	-40.5565		-39.614
64.0047	-46.3155		-43.0588
68.6191	-35.8579		-42.0909
70.7077	-35.9596		-36.4044
60.6523	-124.704		-31.4229
60.8753	-131.452		-33.606
59.2388	-121.974		-38.0972
61.0999	-127.738		-25.1038
1.37397	-132.92		34.9946
0.379986	-122.17		37.7631
-1.44168	-132.999		35.296
65.7528	-49.4076		29.1073
66.721	-43.7883		29.6325
64.1629	-49.8575		35.9438
64.7114	-54.6308		28.1654
62.8882	-64.2805		8.30182
61.1192	-68.118		6.31694
63.6942	-63.3939		0.0814368
64.5436	-60.1682		9.82504
8.82158	-92.342		93.2084
5.11047	-92.6445		94.7714
8.70988	-96.412		91.3944
13.6375	-92.1011		90.4415
9.52798	-87.9467		93.5895
18.8791	-90.9105		86.9648
18.8528	-94.9462		85.139
23.8991	-88.9196		82.9499
18.8412	-86.2237		87.8874
3.47397	-83.6886		95.2586
6.42061	-83.4574		94.5173
3.56471	-78.7984		94.1417
0.602871	-83.7681		95.5237
3.0744	-88.6129		95.8164
9.19816	-99.7472		88.179
10.1467	-102.187		83.6162
13.9626	-99.1755		85.6332
5.55586	-100.049		89.7487
11.237	-103.633		77.7591
7.21743	-104.322		78.7218
11.3365	-104.293		70.9928
17.4532	4.43468		82.7277
18.2646	0.379899		85.1061
19.8616	2.64507		81.0427
16.8499	8.28219		80.1555
15.0471	6.53942		84.69
48.7914	-24.7234		70.6905
54.6085	-25.6142		64.6643
48.2464	-19.6539		70.9541
42.4415	-23.5951		75.4115
48.8446	-29.5954		70.4546
58.684	-15.4462		58.8826
62.4654	-14.869		52.469
57.307	-10.2301		59.9706
53.5064	-14.8524		65.3711
59.2889	-20.803		58.3336
66.0005	2.62329		41.7773
67.8164	1.30752		37.1711
65.457	9.7316		41.5332
63.9385	4.30372		45.8191
48.7005	-34.4779		69.9279
48.1882	-39.6024		69.5523
53.9305	-35.5045		63.9726
42.9118	-33.3533		74.8678
3.93227	3.82328		102.497
3.27739	9.14933		98.0598
2.21734	4.1049		102.611
4.59228	-0.807119		106.267
5.88928	3.29128		101.789
33.8226	68.4397		70.8354
28.6362	69.4768		73.1074
33.5668	62.0417		75.0485
39.2067	66.8098		67.8054
34.2778	74.4412		66.4547
2.96349	-106.235		64.4625
1.75735	-106.913		55.4654
6.25206	-105.845		63.7414
3.73238	-105.529		72.6239
-0.284027	-106.379		64.7521
62.1785	-49.841		42.666
59.6386	-49.4008		49.4684
60.5984	-56.5398		42.5494
63.3344	-43.4846		42.9361
2.75949	-100.384		90.3129
2.44358	-97.1153		93.4579
0.377484	-100.6		90.2939
3.49069	-103.094		85.2523
3.87504	-104.673		79.2782
0.734274	-104.822		79.4232
38.5454	-87.3256		61.9496
33.5736	-90.13		68.2008
37.5032	-89.8728		58.9865
43.0443	-84.0126		56.7176
39.0161	-84.1104		65.2432
40.8608	-89.9137		34.6565
37.6884	-93.1681		29.1969
44.7658	-86.8008		29.2958
43.6209	-87.223		39.5845
36.1556	-93.2462		39.8461
0.485405	-107.959		46.4826
3.21801	-107.879		45.7121
-2.13974	-108.003		46.688
-0.159675	-110.796		40.7163
9.58055	-5.68888		107.047
10.2338	-8.86116		109.569
12.2059	-6.50105		104.206
8.98106	-1.91384		103.778
7.18888	-5.0623		108.728
27.7946	-17.7839		82.2974
30.9187	-20.0697		80.8719
26.4496	-12.7516		82.6305
24.7259	-14.7578		84.3173
26.2505	-56.2894		81.9192
28.1915	-55.9375		81.3758
14.6874	-24.1629		94.9079
16.273	-22.5942		95.1939
13.9918	-25.1954		94.2957
16.5065	-24.116		92.7634
14.0333	-28.4671		92.445
14.4059	-29.9621		92.3114
16.363	-28.4147		90.3059
13.9594	-27.479		92.6571
12.016	-28.1349		94.3398
4.25834	-26.1856		103.271
4.48953	-25.4569		105.328
2.69316	-26.2494		103.566
4.2171	-27.0286		101.682
5.88489	-25.9677		102.303
18.8278	-27.5413		88.346
21.2864	-25.8416		86.5535
18.5177	-26.5001		88.7704
19.1857	-29.0838		88.2255
10.8939	-17.8683		111.962
8.64319	-18.5891		114.039
10.5474	-19.6494		110.804
13.3295	-17.185		108.424
11.0886	-16.2407		112.397
25.1278	-69.3021		83.479
28.1133	-67.1281		81.401
23.6988	-65.9796		84.5277
21.4904	-70.9236		86.0092
26.4991	-73.1432		82.3999
27.1835	-49.8285		84.5033
26.8978	-46.0089		85.7402
25.3365	-49.2187		86.2101
28.971	-50.3499		83.1072
4.36466	-31.0856		99.1103
4.45381	-33.305		98.8179
5.94635	-30.8294		98.6501
4.26629	-29.216		99.7666
2.41144	-31.2011		99.356
8.1917	2.46078		100.247
10.8666	1.22658		97.6762
7.56127	7.26091		96.206
21.0859	-15.4607		91.0783
20.2767	-13.9133		93.622
20.4931	-14.9095		93.4646
21.2561	-17.0354		90.0732
21.453	-15.0104		89.6086
7.13717	-27.4138		99.0993
7.00593	-28.9153		98.4795
8.47446	-27.5988		97.7959
7.18803	-26.5387		99.7835
5.84673	-27.6583		99.9395
7.17286	-25.8265		100.982
7.32793	-25.0614		102.805
19.688	-14.3231		95.9413
19.4194	-13.4763		96.3294
20.1045	-15.8156		94.7433
21.0078	-19.9396		89.027
20.467	-18.5736		91.5172
20.0203	-22.7951		88.8185
4.76615	-41.5406		99.5448
4.99648	-43.6269		99.8992
7.14131	-40.8729		99.1352
4.64931	-38.6294		99.0804
2.33065	-42.1057		99.8261
24.6516	-31.0902		85.0094
22.322	-31.3586		86.5996
25.4347	-36.1215		85.8124
26.7425	-31.114		83.805
23.925	-26.7576		84.718
9.78946	-67.894		92.4337
9.58724	-65.8594		93.1608
6.41913	-68.359		93.1267
9.89997	-70.4473		91.9229
13.4028	-67.1968		91.2041
23.009	-51.6429		87.0068
23.2019	-52.3497		86.2788
24.8332	-53.0558		84.0705
23.2675	-49.984		87.8883
19.1589	-12.8114		96.2385
19.1602	-11.8274		94.7221
17.7414	-12.1549		99.2705
16.8041	-66.3792		89.5223
17.1627	-68.8549		88.9022
19.8615	-65.2263		87.5392
16.4347	-64.4265		90.2094
3.68427	-68.5688		93.44
1.30374	-68.5721		93.6229
3.85863	-70.8262		93.054
3.3717	-66.74		94.1297
59.8816	26.3741		57.7034
59.1274	25.1711		59.4934
60.8595	21.4873		53.1713
60.4763	27.921		55.6607
43.4962	53.2747		71.558
38.0831	55.1048		75.9058
43.2074	48.2572		74.5939
48.9594	50.5656		66.7268
44.2865	58.7182		67.7207
54.2068	47.156		60.9477
54.1156	42.1597		64.0714
58.8872	43.0551		53.8839
54.9888	52.7621		56.7139
43.678	40.8631		76.8269
43.3722	43.1613		76.5742
37.9986	42.9548		81.9735
44.1156	38.4911		76.5136
61.4286	29.7919		52.2906
62.1143	33.0204		49.2097
58.3609	34.7097		59.8025
63.4379	24.0625		46.1782
25.7359	33.2816		83.1559
25.9078	31.6413		80.9422
29.6744	33.5173		82.0725
25.6273	35.268		85.3745
22.099	32.5192		83.2448
7.13951	18.133		87.092
9.88356	16.1249		84.7005
7.19971	20.1742		85.9073
4.39935	19.5888		88.6794
7.11262	15.4599		89.0403
30.6217	-2.73374		76.7243
32.361	-6.96852		77.538
36.9804	-4.19513		74.307
28.8217	0.956405		76.0536
25.1556	-0.839987		78.8513
56.4686	5.78035		56.2925
58.9465	5.03624		53.5238
57.3949	9.61291		55.2728
53.9003	7.15035		58.9657
54.3325	3.13806		59.2217
7.2662	11.7681		92.1401
9.98451	10.0365		89.9832
4.7737	13.045		93.5188
44.6194	36.2647		76.1472
50.1025	33.6221		72.2347
39.212	37.1007		79.784
44.6127	34.1193		75.7511
54.7806	30.4734		67.8581
54.223	28.5176		68.208
57.1781	27.3024		64.1937
53.7491	14.5126		60.813
54.3964	18.1829		62.3754
51.2216	14.8157		63.2061
52.9846	11.068		60.2213
55.6939	14.4689		58.687
41.208	20.0624		70.8812
42.5788	18.9042		69.7541
39.6767	21.1729		71.9052
38.0867	22.2834		72.5646
36.2928	23.1539		72.8394
38.3651	23.1341		73.0005
36.2313	24.0079		73.3054
40.2159	21.9488		72.2529
33.7924	23.801		72.8733
31.155	24.0078		72.8008
33.5439	24.5971		73.335
30.7217	24.791		73.234
28.6399	23.9042		72.5287
26.2311	23.2507		72.0576
23.6099	22.3714		71.5629
21.1413	21.6816		71.2515
22.4073	23.1273		71.9895
20.079	22.3272		71.6986
25.1388	23.9597		72.4494
19.4282	20.8266		71.0573
21.2246	23.6976		72.5212
24.2065	24.755		73.0734
33.4284	25.5362		73.9753
30.3725	25.7354		73.908
45.2177	14.4767		66.9687
45.7487	15.4555		66.9893
44.0622	13.722		67.4332
33.9811	33.3514		80.3198
38.914	32.9018		78.0289
34.0677	35.0694		81.647
33.7357	31.5419		78.7831
48.8117	23.6867		70.1373
45.8881	22.6424		71.0728
51.3659	25.1025		69.3092
45.1411	25.6114		72.7947
35.9998	8.4049		71.2617
40.6301	8.45433		69.4328
30.2536	9.15475		72.7232
36.8076	6.81264		71.2144
25.5065	10.7616		73.143
22.0174	12.7139		72.926
25.7552	9.22467		73.6816
18.5935	16.2943		72.1697
18.0347	17.3016		71.9295
19.4508	15.301		72.3063
34.8826	11.5005		71.2316
38.8017	11.6589		70.2148
29.877	12.126		72.1334
20.8562	16.0108		71.2356
22.4939	14.9707		71.623
20.0362	16.61		71.0097
19.4135	17.1149		70.9264
18.822	17.7691		70.933
15.6214	24.5816		76.1523
14.7676	26.2836		78.4826
16.3443	22.8319		73.8006
17.1208	25.9881		76.4358
17.5409	18.7546		71.8825
27.2745	25.5232		73.6075
16.8995	22.067		72.8284
16.4868	20.7359		72.7729
17.8143	23.3612		73.1221
34.7079	12.7307		71.1557
29.7839	13.3741		71.8894
20.7839	16.7864		70.6672
20.0455	17.1139		70.6014
22.4339	16.0914		71.0291
19.4733	17.5806		70.5325
43.2894	17.7293		68.7805
3.70573	33.3921		88.1189
0.318945	33.4785		88.0669
3.01156	31.0927		87.5246
6.43258	32.8926		87.6995
4.59859	35.8521		88.8211
20.1507	7.85053		76.7193
20.0014	9.83192		75.4913
18.4784	9.32233		77.1995
20.8446	5.02236		78.2451
22.8326	6.07139		76.1999
16.6973	10.8639		78.1312
14.6627	12.6081		79.7115
16.6953	16.1111		74.2534
15.1209	16.9383		75.8775
16.6912	17.7455		73.2451
11.571	23.8199		80.0533
12.6354	25.7047		79.9128
10.7845	24.7281		81.3247
20.3617	14.1119		72.622
20.0955	13.0069		73.4584
19.9891	11.5479		74.3655
22.0909	9.78675		74.4044
19.342	-54.0713		85.7835
19.2328	-53.9986		85.5465
21.8964	-54.5205		83.4844
16.6924	-53.2531		87.9264
23.3705	-54.768		82.3082
23.1262	-54.6509		82.263
5.21656	-47.1076		99.8276
7.94218	-46.6933		99.2727
5.18088	-45.8412		100.034
2.11446	-47.491		100.157
5.08899	-48.2958		99.4386
10.1047	-49.0724		97.2778
10.2731	-47.9318		97.985
7.69402	-49.1355		98.1426
9.64947	-50.1602		96.3728
12.2219	-49.2607		96.1702
14.3567	-49.6442		94.7129
14.5379	-48.5044		95.5253
14.168	-50.8034		93.5632
16.9945	-50.5095		92.4711
10.2984	-46.6514		98.5206
12.4662	-46.7938		97.5253
10.2639	-45.3555		98.8529
13.8974	-45.0704		97.078
14.428	-46.127		96.6444
13.6342	-43.9233		97.2075
11.8547	-44.6348		98.2625
19.7618	-52.1908		88.9559
19.905	-50.9853		90.309
8.85022	-51.1534		95.2257
6.44745	-51.0215		96.3602
8.22125	-51.6633		94.2528
11.4883	-51.3379		93.9165
14.1046	-51.8918		91.9919
13.9229	-52.4237		90.8805
24.1586	-53.6744		83.927
19.5419	-55.0274		86.3498
19.4652	-54.9602		86.13
16.7879	-54.3902		88.7978
19.6107	-55.2165		86.6387
20.1014	-56.3873		87.0739
19.911	-55.9537		87.029
17.5233	-56.2594		89.8161
14.7111	-56.4596		92.2327
14.5226	-55.6889		92.0383
11.7	-56.7577		94.182
15.0758	-57.2311		92.195
7.91011	-54.7418		95.2653
8.015	-55.9152		95.6175
11.1601	-54.7858		93.7587
7.90903	-53.7463		94.797
5.04881	-54.7118		96.1765
2.81997	-57.3754		97.1941
2.86077	-58.5607		97.2635
5.00904	-57.1761		96.7754
2.84068	-56.1518		96.983
0.856792	-57.4789		97.3475
23.6333	-56.1838		81.5173
23.4865	-55.6036		82.1574
23.6339	-57.5509		80.8466
21.9474	-56.068		83.0169
3.11274	-53.879		92.4864
3.18629	-53.2099		93.8304
5.12022	-53.9512		92.0614
2.91118	-55.3002		91.1015
1.30364	-53.8951		92.6705
2.96346	-59.7918		97.1909
0.874423	-59.8907		97.3448
3.11334	-60.9054		96.9713
5.19475	-59.5902		96.7949
3.19888	-64.9159		95.0766
5.85582	-64.5345		94.8093
3.15842	-63.2381		96.0046
0.907727	-65.0625		95.2011
9.99253	-44.4317		98.981
9.30254	-43.0654		99.067
7.80251	-44.3022		99.5725
2.96727	-54.8775		96.6067
1.03933	-55.0396		96.7881
3.08536	-53.8459		96.1536
3.15194	-53.3954		95.8159
5.26413	-53.2405		95.3646
3.24937	-53.1694		95.4567
1.25489	-53.4668		95.9191
7.93719	-53.3006		94.4206
10.9263	-53.4881		92.9806
7.95478	-53.1314		94.0949
3.2982	-53.0599		94.822
5.30527	-53.0122		94.4106
1.37388	-53.1122		94.9366
13.844	-53.8479		91.1037
13.786	-53.7184		90.7692
14.0255	-54.1834		91.3909
15.7021	-60.0443		91.8248
15.9577	-61.1726		91.4082
15.4945	-59.045		92.0629
12.6914	-60.716		93.6803
8.94528	-61.2786		95.2772
9.16938	-62.4578		94.7523
8.75208	-60.2626		95.5968
5.43264	-61.7557		96.2442
3.09684	-61.9966		96.6086
0.816359	-62.1544		96.7484
13.7722	-52.5651		90.1632
10.8798	-52.0328		92.0193
13.637	-52.4721		89.6196
26.2061	-55.1091		82.07
25.1693	-55.3722		82.1669
23.4692	-55.3665		82.8566
22.0766	-55.5291		84.2895
7.67102	-54.0956		91.2997
7.74775	-53.3513		92.511
10.546	-54.2613		90.1813
7.60367	-55.4449		90.1164
7.86518	-53.0967		93.4969
10.7583	-53.3226		92.0922
9.35243	-64.0022		94.0209
13.0538	-63.3499		92.6153
15.2606	-58.1068		92.1997
12.2425	-58.7313		94.144
16.1912	-62.7087		90.8464
18.8811	-61.7713		88.8205
13.389	-52.149		89.2972
10.7736	-51.5521		90.6224
12.9482	-50.9781		88.6832
15.9963	-52.7592		87.5377
8.07509	-51.2663		91.7129
5.83211	-51.0608		92.2174
8.54498	-50.097		90.4418
7.90918	-51.677		92.5934
12.5928	-48.1518		87.7212
10.5808	-47.6844		88.5678
12.7093	-44.275		86.904
14.7018	-48.679		86.5938
23.6393	-60.6304		80.1557
23.5138	-64.1014		79.8495
21.7824	-60.4631		81.722
2.64877	-58.194		89.8002
4.63924	-58.1799		89.5303
2.88654	-62.1591		89.0391
0.992074	-58.2509		89.9216
8.61486	-47.3591		89.1948
6.52646	-47.1136		89.6737
8.52964	-43.4983		88.4253
7.27464	-58.214		88.9436
7.42949	-62.2612		88.0399
10.244	-58.3601		87.9981
27.0546	-55.5253		75.6051
27.5337	-55.3868		74.707
13.0601	18.0671		78.3078
12.5405	16.3502		80.1976
79.9375	-8.75386		-43.5253
79.1303	-13.154		-42.7414
78.1651	-8.14818		-46.928
80.6323	-4.15565		-43.5442
81.3892	-9.25269		-41.7797
78.7132	9.73112		-6.12461
79.3008	12.6056		-10.4005
77.5794	11.8119		-1.25343
79.5879	14.7198		-15.6529
79.4426	20.173		-16.9881
79.964	9.74757		-16.6758
80.3849	14.3118		-22.7025
73.3151	-32.9811		-34.0255
75.7536	-30.7131		-32.3488
72.1637	-37.1402		-31.4004
74.605	-29.1034		-35.8866
75.7259	-25.4625		-38.0011
73.1557	-27.4551		-40.9127
76.973	-21.5062		-39.8652
77.9714	-24.276		-36.1007
82.8517	-9.19757		-40.8744
84.4137	-8.68209		-40.4982
82.1798	-13.3536		-39.9257
83.2965	-4.18733		-41.0988
84.3225	-27.372		-30.6976
85.5711	-23.3551		-32.8267
85.0064	-27.8064		-29.4611
82.9863	-31.337		-28.1245
89.0432	-17.6368		-30.8675
89.0162	-17.0726		-30.0808
77.2972	-39.8474		-19.6894
77.7542	-40.07		-18.9669
76.783	-40.5079		-17.5957
76.4862	-38.9927		-21.8168
78.0273	-32.4574		-6.91703
77.6859	-33.0767		-6.86178
77.2393	-34.0771		-7.06878
88.9504	-16.6963		-29.667
88.3928	-17.2847		-28.6936
92.2129	-2.135		-33.6792
92.3348	-1.49065		-35.211
92.0303	-3.44643		-32.0059
92.5728	8.07828		-31.2835
92.8761	9.4335		-31.4067
93.0107	11.5228		-30.3826
92.363	11.3334		-28.1523
93.2161	11.9852		-30.7896
92.6047	13.5867		-27.2849
81.5595	-9.64305		-7.72427
82.9391	-4.20149		-8.39745
80.9917	-8.90157		-6.3859
80.5403	-13.6765		-7.06916
75.9427	-25.6002		-0.290748
74.9552	-26.0158		2.52306
75.3649	-29.3344		-0.730551
76.5027	-21.305		0.140821
80.1221	-20.7619		-9.57182
80.4479	-22.7944		-10.068
80.1334	-18.8037		-9.73514
79.9524	9.24446		-16.6921
80.4674	10.5401		-20.2079
79.9827	9.24164		-16.4845
88.4816	16.7864		-17.2762
89.6359	18.4845		-20.4532
87.6413	17.1791		-18.4506
86.8459	13.6752		-14.2812
89.2449	16.0888		-16.2847
89.3099	19.1341		-25.5394
88.3909	18.8836		-22.486
89.6168	19.2724		-25.0466
89.9059	17.8641		-29.2364
88.4749	18.0773		-26.897
90.2938	3.76465		-39.8419
89.4801	3.29494		-40.023
90.6638	9.7443		-37.0109
91.3561	4.01371		-39.3042
83.9787	0.391782		-9.05282
84.2801	-0.84879		-9.70886
93.0523	3.16924		-36.7467
93.5386	8.30704		-34.5283
92.6894	0.362559		-36.9095
93.1124	3.07152		-37.1203
91.9659	14.4714		-23.2872
90.8719	13.9167		-19.258
91.7473	13.1198		-24.021
92.0654	15.4558		-22.6793
85.5884	1.17135		-11.881
84.9745	-0.588145		-11.2785
86.2201	3.48815		-12.632
92.52	3.85776		-34.0071
92.6351	1.80064		-35.8605
89.4938	6.50397		-22.3327
88.9519	5.15684		-21.5408
90.9748	6.01745		-26.5313
83.5851	-5.58275		-13.0259
83.7674	-5.3103		-13.7442
84.1015	-3.96493		-11.9444
88.8858	-4.78011		-27.1986
91.0535	-2.15513		-29.1619
88.6043	-4.33247		-26.5687
88.7534	-5.87411		-27.3483
77.0455	-17.3693		0.0463895
77.8255	-12.8302		-0.879029
76.149	-17.5784		2.64284
83.5777	1.06674		-39.6469
82.4574	0.478932		-40.794
83.4574	5.74171		-37.5321
84.5889	3.57143		-38.704
87.0362	8.53951		-36.0364
86.764	12.3137		-32.8145
89.4696	13.1865		-34.1463
87.1869	4.45895		-38.9337
88.3675	2.32343		-39.9816
87.1276	-3.19974		-40.7336
86.6163	-8.20295		-40.3249
79.745	-23.6365		-35.2305
78.651	-26.7478		-33.3577
80.6907	-20.4136		-36.9634
81.4756	-17.0338		-38.5966
79.8088	-17.2754		-39.6382
87.7786	-17.2162		-27.6545
77.5476	-29.6573		-31.5987
76.3079	-33.2662		-29.1972
78.7876	-29.3542		-31.1405
76.2342	-37.0306		-24.495
75.788	-37.0473		-24.8489
75.3761	-40.385		-19.7741
76.4945	-40.1558		-14.6972
75.9803	-40.4135		-14.5288
75.4027	-40.612		-14.2147
88.9743	-6.62059		-27.8258
91.0545	-5.25477		-30.0565
80.3483	-8.29456		-5.26899
79.5591	-7.88755		-4.02027
77.8919	-21.7783		-3.47655
78.2361	-21.9518		-4.15609
80.9549	-26.2761		-9.75052
81.93	-28.2892		-11.3549
81.1804	-25.1988		-10.6285
79.8989	-16.6651		-6.51416
80.3969	-16.8235		-8.75915
86.3853	14.13		-29.5966
83.9871	10.4575		-32.4139
85.3232	14.7526		-26.2282
83.0548	8.92387		-34.2113
82.6694	8.62265		-35.3044
82.3195	11.0456		-29.9173
80.0792	-16.8711		-11.6369
80.3086	-16.8018		-10.7501
91.6499	5.04765		-28.9142
91.4364	3.54166		-28.5587
84.2556	-4.61225		-15.2136
83.6016	-6.91706		-16.2502
85.3749	-3.39524		-17.9262
88.5679	-3.49371		-26.0664
90.4554	0.104041		-27.3179
87.9441	-3.43327		-24.6649
8.52944	85.7344		65.9745
8.6708	78.4074		71.8975
16.5574	84.7542		65.6139
8.65398	93.1941		58.4989
0.224555	86.0448		66.0245
8.7755	71.1989		76.8372
0.601093	71.2338		77.1241
9.47015	63.4968		81.3201
16.6011	70.7781		76.0298
32.4589	56.1815		79.4492
32.6611	51.7524		82.2363
28.2668	56.8629		81.196
4.80358	-24.7145		107.846
5.37831	-23.7141		110.138
3.3578	-24.7642		108.254
6.56533	-24.5311		106.354
6.48931	-15.2939		115.658
8.71869	-15.134		114.555
6.34384	-13.0913		115.085
4.17899	-15.3107		116.059
6.56785	-17.1938		115.669
6.50602	-18.991		115.175
4.31204	-19.1227		115.596
6.3521	-20.6365		114.158
4.23314	-27.9712		100.612
2.46854	-28.0982		100.876
4.56103	-35.922		98.8226
6.53903	-35.4372		98.4633
2.41048	-36.2485		99.0283
6.00754	-22.2173		112.472
7.90483	-22.0661		110.983
4.00762	-22.2895		112.992
6.00781	-10.7776		114.012
8.21637	-10.9511		113.074
5.55196	-8.07035		112.228
3.70674	-10.6367		114.298
7.92304	46.8575		88.8719
0.569071	47.2672		89.6567
7.16088	43.7669		89.5412
14.86	46.9314		88.0107
8.38385	50.6304		87.6361
2.40527	20.3373		89.2058
2.52383	17.6063		90.9791
2.42722	22.5451		88.1244
0.7959	20.5803		89.2876
2.53665	24.562		87.4585
4.51009	23.7492		86.9114
2.61123	26.6437		87.1431
0.730431	24.7676		87.6037
3.63454	-50.9403		92.4784
1.43907	-51.0009		92.7259
3.98737	-49.6714		91.3144
3.30857	-51.6874		93.8364
3.24687	-51.8757		94.8535
1.34772	-51.9675		94.9765
5.29233	-51.7793		94.4026
3.39063	-51.7319		95.7303
4.93256	-49.2968		98.8735
4.64497	-50.2146		98.0793
1.9798	-49.4898		99.217
3.99512	-51.0867		97.0111
1.65107	-51.2381		97.1629
5.1701	-44.8403		100.034
2.19463	-45.4001		100.351
4.13591	-46.9604		90.0258
4.00496	-43.1311		89.0955
1.5683	-46.9098		90.2266
23.1428	83.5764		64.7823
23.0676	76.9598		70.1701
29.1723	81.9553		63.5206
23.4937	90.4724		57.7385
21.7758	47.6654		87.1223
21.5226	45.1848		87.791
27.3896	48.2192		86.3206
21.3414	51.5184		85.7518
22.7404	42.2631		87.9288
24.1504	39.128		87.5458
27.9382	42.8482		87.0447
25.4997	36.9086		86.5614
21.2723	36.4136		87.5063
29.3637	37.6896		85.8121
26.6032	26.371		74.4227
26.3444	27.6907		75.8765
23.2518	25.5796		73.9296
30.0414	26.6576		74.6818
27.9215	24.6409		72.9427
25.9374	29.3793		77.9794
29.6526	29.6551		77.705
22.5652	28.702		77.8223
47.1648	86.4033		41.232
48.0907	91.9023		30.9326
41.5233	90.0644		43.8953
46.7861	80.5848		48.7531
34.6091	80.2618		61.5398
35.1805	86.3491		55.0411
40.2735	78.0271		58.6657
32.2326	48.031		84.7527
32.773	46.3942		85.149
37.5489	47.2456		81.4479
33.4969	38.3179		84.2696
33.4114	39.9709		84.937
33.1293	43.437		85.2549
33.2518	29.4455		77.0849
33.3262	27.7524		75.6634
37.6619	28.6683		76.0418
46.1909	75.2805		54.5995
51.9693	72.3228		49.304
45.55	69.9958		59.4723
43.3746	45.2942		75.8557
48.9281	42.6379		71.0935
39.6559	24.7432		73.8161
40.3621	25.9279		74.2968
36.9164	25.8654		74.4675
42.0525	23.4043		72.7337
44.253	31.8701		75.3702
43.1269	29.5044		75.025
49.3996	29.3467		72.0425
41.5351	27.4327		74.6783
44.8484	64.4596		63.785
50.5234	61.6295		58.6459
57.2203	69.934		42.4663
56.5413	64.3799		47.6844
61.7648	67.8004		34.3474
41.8279	20.71		71.1596
43.2844	19.3979		69.9251
44.2653	21.8722		71.225
45.7507	20.349		69.8236
42.6711	21.3052		71.3483
53.3097	26.8097		68.5382
54.8945	24.1823		65.9231
18.8665	31.2462		82.517
16.1344	29.6519		81.4674
19.2134	29.6656		80.1689
18.2069	32.5815		84.4484
17.1107	34.1034		86.2819
14.2832	32.2196		85.2801
19.5372	27.4625		77.1187
19.9537	25.879		74.9784
6.80983	39.7663		89.5733
1.06804	40.9216		89.6143
64.1127	-64.2204		-7.89997
65.8078	-59.0968		-5.91089
64.4429	-64.5686		-14.5635
79.3277	23.0205		-37.5025
79.1294	19.1312		-43.2351
78.3797	28.6573		-42.3085
79.5718	25.3045		-29.2817
80.3332	17.3279		-32.2573
75.8607	-7.85812		-52.868
74.784	-13.843		-51.3204
73.7269	-8.03445		-58.5365
76.8902	-2.03351		-52.9152
77.5721	4.17064		-52.5561
75.7143	5.91782		-59.0986
78.1908	9.69435		-50.698
79.4863	2.11036		-46.2335
69.7442	-31.1209		-45.0745
66.6404	-34.5155		-49.0075
71.5478	-25.3809		-47.5439
8.85887	56.7269		84.9166
0.931948	56.104		85.7202
16.1381	56.5732		84.1086
22.1684	56.7572		82.9142
23.1102	63.1458		79.1507
19.8246	-101.882		56.9566
17.215	-103.503		48.522
25.8532	-99.0586		51.0038
14.273	-103.858		60.645
45.7274	-84.7739		43.9063
40.8509	-88.7141		49.5316
49.7617	-81.1131		38.5612
46.858	-82.5479		47.8876
55.8893	58.5216		52.1975
60.5652	55.4058		44.7526
23.0165	70.3396		74.7456
66.2522	65.6794		24.618
70.0275	63.8264		14.4967
65.8317	59.0092		30.4379
23.6435	98.3441		47.7788
29.9473	95.9715		47.1457
23.7007	105.824		35.7285
16.6586	100.055		48.2792
63.1397	38.146		44.9906
64.045	45.1436		40.5781
45.8301	18.8572		68.826
58.2884	24.0012		60.8268
58.1312	19.4918		58.1591
56.9231	22.6722		62.374
55.3148	21.6048		63.7865
-0.262185	-115.072		38.6083
-2.69543	-115.149		38.7581
55.8142	-72.1658		38.9157
57.0513	-68.2374		41.3355
52.0422	-75.4362		45.9377
54.4506	-75.525		35.7011
8.80992	-40.9685		98.7914
10.5299	-41.324		98.2849
8.3307	-38.2346		98.4069
23.0875	-47.7579		88.6733
22.6314	-43.9183		89.68
20.9054	-45.8086		91.4082
11.605	-36.7809		96.6715
9.37768	-35.9111		97.5923
12.2255	-39.3313		96.9999
13.9368	-37.3761		95.3361
10.8782	-34.0663		96.326
30.6238	-50.6643		82.0043
30.1538	-54.1872		81.1769
32.9533	-51.3752		80.3192
30.6247	-46.8098		82.795
61.5925	15.7043		49.8741
59.7767	15.0662		53.0973
61.8672	9.89397		48.7898
63.1477	16.5329		46.4958
64.749	17.2493		42.6856
66.7455	17.209		37.3535
49.2131	15.1816		64.8785
48.9306	12.9515		64.1476
57.8993	14.4006		55.8443
81.5135	9.29294		-37.3602
81.4162	5.53543		-40.5736
80.192	11.3111		-41.4821
81.5559	11.8234		-33.3527
78.0069	-17.5151		-41.6053
75.9736	-18.0492		-44.8149
68.815	-51.4		-16.5815
70.6697	-47.0984		-14.1642
68.0921	-53.3871		-10.1817
66.7453	-56.9745		-19.2291
69.5673	-48.0669		-22.6169
81.1187	0.858897		-42.5839
73.9429	-26.8459		5.79701
73.2274	-31.0135		5.30481
74.603	-22.4769		6.04094
72.833	-27.6401		10.3212
70.1517	-0.118171		29.9168
70.1168	8.04358		28.7714
70.0186	-7.7399		31.0246
72.4768	-1.46157		21.2442
51.9759	8.3771		60.7247
50.0149	9.82075		62.6134
49.9761	6.69479		62.6698
48.1493	11.2859		64.3151
46.4935	10.275		65.5348
71.5662	-27.9428		16.8418
70.2549	-27.9955		23.832
70.8771	-32.7492		16.3043
72.3182	-22.7654		16.7041
25.0924	-8.0147		82.2687
28.5527	-9.80706		80.4952
23.6639	-3.41937		81.3669
22.1961	-5.85827		84.2661
33.9039	-11.8721		78.195
40.3433	-13.4879		75.3027
34.9456	-16.8346		78.7124
19.1215	-3.83121		87.1783
16.2145	-1.86492		90.7912
19.621	-7.30416		89.0067
22.5838	-14.0755		87.1872
21.2381	-11.9108		88.7766
18.7844	-16.9498		97.6854
17.5217	-16.6749		100.468
18.4218	-18.7149		96.8176
19.5178	-17.3229		95.6133
20.0268	-17.7879		93.6353
19.4597	-20.1125		92.6835
37.1635	-32.2201		78.4714
32.3977	-31.6743		81.0064
37.2193	-37.4327		78.4508
36.8395	-27.256		78.6077
35.7912	-21.8547		78.8108
7.13455	-30.8479		98.1193
7.49587	-33.0911		97.9738
8.44457	-31.1154		97.3328
56.3745	-48.2589		56.4291
57.5564	-41.9002		56.7046
52.1997	-46.7107		63.2864
54.7583	-55.0773		56.5034
26.1645	-41.4681		86.3207
24.1699	-40.7026		87.8915
28.1766	-41.8908		84.8215
37.1157	-42.7894		78.2999
36.8029	-48.0245		78.1052
41.986	-43.8389		74.481
33.0425	-42.2522		81.2555
7.92247	-35.446		98.099
52.8131	-61.9887		56.6911
55.651	-63.5187		49.8309
49.2321	-59.2321		63.6113
50.0054	-67.8517		58.4056
59.2101	-25.9365		58.0493
58.8885	-31.042		57.655
62.8032	-25.8857		51.0358
28.2969	-92.9199		74.6968
28.791	-89.9166		76.7326
23.3759	-95.6984		79.0661
38.929	-80.408		68.3151
42.9099	-76.9599		64.5969
37.6941	-76.5749		71.8001
34.1793	-83.3226		73.1304
55.5063	-5.67489		60.7679
53.2758	-1.48195		61.7963
50.136	-5.92822		66.393
44.1873	9.34149		67.1808
45.583	7.42239		66.3259
51.2061	1.36616		62.7555
46.4418	0.781563		67.1114
48.9673	3.59539		64.2025
42.0788	12.7375		68.5361
2.45562	-93.1068		95.3393
0.347261	-93.3813		95.4132
45.0736	-56.6038		69.4684
43.439	-61.4647		70.1373
46.1798	-51.1746		69.3953
40.376	-54.3251		74.4153
35.9534	-72.5404		74.7635
38.8017	-69.3233		72.8787
33.1736	-68.417		77.7855
32.0826	-75.1985		77.7264
43.7389	-5.37633		70.8633
45.5408	-9.75565		71.1246
41.8254	-1.57377		70.8414
47.2964	-45.2424		69.3565
47.111	-14.4333		71.0106
9.94783	-83.1221		93.1568
10.0712	-78.0295		92.2783
14.0867	-82.3024		90.9692
18.6476	-81.2046		88.1329
23.232	-79.5706		84.7562
18.2111	-76.359		88.1415
40.3728	1.14558		70.7382
39.1038	3.31858		70.8705
33.9886	2.07462		73.4444
47.1802	5.49931		65.21
43.2651	4.87445		68.3069
37.9335	5.17553		70.9561
31.7045	5.91327		73.1106
13.4777	-0.25693		94.564
14.1777	-4.14335		97.5148
12.8619	4.06949		91.1329
15.6456	-11.6976		103.739
15.3626	-10.1198		102.504
13.285	-11.3626		107.857
15.9285	-12.7875		104.075
12.3696	14.3171		82.026
12.3564	11.7297		84.3515
22.1064	0.737478		80.0978
2.88224	13.7975		94.0246
1.29046	14.1343		94.0686
61.419	4.4279		50.1153
12.5326	8.18752		87.5107
58.4277	-63.4427		42.8032
61.4246	-61.235		34.8171
65.8098	-13.8617		44.8786
65.8796	-20.2433		44.1051
67.9991	-13.7276		38.1486
64.3022	-37.4067		43.0787
65.0766	-31.5926		43.2363
61.816	-36.9266		49.9826
66.1077	-38.0435		36.4651
65.6341	-25.8784		43.522
67.5233	-26.6424		36.795
18.7251	-97.8884		82.7667
9.96096	-73.9103		91.8529
6.62911	-74.2168		92.7286
13.7256	-73.2603		90.388
17.6756	-72.4051		88.3909
25.7745	14.7991		71.5565
27.6791	3.68604		75.2365
26.9088	5.87299		74.6438
26.2926	7.5443		74.1113
3.74589	-74.3866		93.2323
1.0406	-74.3677		93.4493
6.61317	27.8929		85.8298
8.32974	26.9762		84.5492
7.43006	30.0051		86.2173
4.75178	28.386		86.6798
6.42133	25.3413		85.5698
18.2976	18.7374		71.1279
18.1041	19.9676		71.3176
16.5029	19.1718		72.92
9.75034	25.7853		82.908
10.7697	28.0036		83.299
2.74151	28.8845		87.168
0.568655	29.0177		87.2862
8.06553	-24.1783		104.856
8.87763	-23.1247		106.71
11.0403	-14.679		112.47
10.9592	-12.9656		111.984
13.5976	-14.1407		108.881
18.4909	-24.9083		89.5022
18.2086	-23.6905		90.8287
16.0988	-26.4213		91.1155
10.5877	-11.1901		111.246
6.97953	22.1561		85.3795
8.7461	32.2005		86.9228
10.6192	31.2852		85.7496
18.5048	21.2853		71.5507
12.2206	30.2252		84.1934
13.3389	28.9922		82.3243
14.1273	27.7313		80.5105
20.0804	-31.7874		88.3209
17.4833	-32.0536		90.4298
20.9011	-35.4912		89.0413
21.9317	-39.8446		89.5303
19.2371	-38.8079		91.6284
22.4861	-54.1817		82.4401
22.3117	-53.086		81.9192
20.7947	-54.0528		83.9356
23.1753	-52.8242		85.742
21.7755	-51.667		88.2661
22.1727	-50.0516		80.8677
19.4212	-49.7481		83.2891
22.0259	-46.1261		79.9592
15.0662	-32.2397		92.5032
12.6156	-32.0447		94.4604
15.7046	-34.9784		93.0773
16.6824	-38.068		93.4687
17.4405	-41.0125		93.8162
18.6792	-53.6108		85.6259
17.5524	-52.1674		85.7529
16.9526	-49.2389		85.1365
17.1657	-45.2399		84.0879
10.3764	-31.6009		96.1194
10.0594	-29.4741		96.0616
13.1012	-42.0072		97.1126
15.6773	-42.7546		95.5952
19.5353	-9.78144		91.3919
17.1707	-8.53787		95.9028
5.05341	-4.69623		109.568
3.03324	-4.46236		109.745
14.7194	-7.47386		100.488
9.85153	-21.4305		109.132
11.95	-20.788		106.038
14.2561	-20.2765		102.429
15.1479	-18.3909		103.514
16.367	-20.2485		98.6062
17.6209	-20.631		95.9328
18.1207	-21.5138		93.7824
18.2154	-22.5639		92.1317
15.9429	-13.8673		104.492
15.8465	-15.1615		104.634
15.6309	-16.6976		104.284
37.7985	-143.458		12.7972
33.2824	-145.025		15.9926
39.2337	-149.573		12.0229
41.8812	-141.771		9.53889
35.9254	-135.121		13.9131
33.7737	-123.526		15.3975
37.8501	-121.8		11.7852
32.4895	-113.3		16.8939
29.4498	-125.199		19.0085
35.3103	-96.8813		24.0524
39.3869	-94.24		19.473
30.9798	-99.5451		28.242
33.923	-101.1		20.2675
32.7618	-106.263		18.3043
28.3467	-108.333		22.4711
36.8166	-104.153		14.3563
41.5957	-65.7588		71.0043
44.5713	-69.1836		66.3236
37.7422	-62.3031		75.2651
46.9647	-72.6814		60.7556
47.7292	-76.3582		56.0717
47.698	-79.6626		51.7407
34.4241	-59.5709		78.028
35.4035	-56.3902		77.8625
31.4262	-57.6443		79.9075
32.5946	-62.2781		78.8122
29.542	-56.6558		80.8505
28.5444	-58.3668		81.0807
42.9696	-91.9066		15.1056
45.0737	-87.9778		18.5953
41.6446	-96.4402		12.1661
46.4612	-89.8968		10.1976
47.797	-84.4199		23.3522
50.3772	-82.3341		16.8956
50.4897	-81.2315		27.8093
52.7137	-78.4079		32.2136
54.9981	-76.1988		24.9389
41.7252	-119.965		8.08712
43.7273	-131.677		7.02972
45.5041	-118.552		4.21741
40.5877	-109.624		9.1264
45.5738	-140.157		6.15777
47.2768	-146.49		5.3243
49.0513	-138.58		2.48141
40.6909	-102.093		10.3642
68.926	-27.5437		30.5162
68.2755	-32.9706		30.2502
69.517	-21.5596		30.7488
56.6808	-74.498		18.202
54.6366	-77.4601		14.5651
58.0706	-72.9509		11.1598
69.8389	16.6098		28.4993
73.157	14.5744		17.6084
63.4652	-59.402		27.2689
64.8893	-57.7032		19.4972
67.5035	-38.4245		30.1069
68.8159	-38.2532		23.1821
69.8093	-14.5766		31.3898
71.5281	-15.9567		23.7707
70.0768	-37.5767		15.8396
71.3442	-36.3563		9.11556
55.1601	-87.0181		-4.95221
54.7721	-91.9124		-6.41509
57.3384	-86.646		-9.66782
55.7585	-82.6948		-3.14901
52.6168	-87.5712		-0.17025
54.5902	-97.4419		-7.31012
56.7328	-78.7031		-0.612786
54.7147	-79.5852		4.88136
58.564	-78.0314		-6.2499
57.9153	-75.0613		1.80363
74.4714	-2.50214		12.6848
75.1296	5.26312		9.97284
73.6844	-10.322		15.2206
75.8071	13.4507		6.8844
76.3902	21.204		4.21383
76.9528	29.1128		0.893592
78.5982	28.2602		-9.89128
77.5056	36.9871		-2.90429
65.9746	-56.0242		11.2229
