1817
-83.6907	-26.9892		-15.8192
-83.3203	-8.77974		-14.4316
-92.1756	5.65092		-32.1996
-91.8628	3.97733		-31.1196
-91.7997	-1.90546		-31.687
-91.5606	1.65549		-29.8648
-88.7832	7.27183		-19.4861
-91.3233	6.97995		-27.5843
-91.9042	9.27845		-28.4219
-90.465	3.95923		-26.002
-26.5002	-95.2495		54.6447
-70.4172	-50.1694		-9.02213
-69.4713	-51.6152		2.14542
-72.3594	-45.5184		-6.68199
-7.8399	18.803		78.0487
-18.4441	-54.3417		90.5065
-18.0005	-52.5226		93.1823
-62.7763	-67.3885		-2.3296
-62.944	-70.8562		-15.5373
-60.021	-73.975		-4.64422
-75.9574	-13.3904		8.24287
-77.8181	-14.1947		0.894425
-61.1576	-79.6323		-18.1185
-62.8178	-67.9899		-28.3233
-60.2058	-119.984		-22.4432
-58.6199	-113.46		-35.7316
-24.7458	-56.4141		85.5003
-24.6215	-55.4192		85.3083
-27.6393	-54.4733		82.9109
-28.3808	-54.9919		82.6725
-20.5288	-60.9665		91.6387
-20.2402	-59.367		91.7452
-30.5763	-90.6068		60.4131
-42.1925	-60.1458		-73.2055
-50.9427	-63.9054		-58.7159
-49.6579	-55.1942		-65.9528
-61.3867	74.9562		26.3376
-52.2624	78.1084		40.8329
-53.3277	86.9487		26.9174
-91.788	-3.19061		-38.4957
-90.4199	-2.8446		-40.012
-89.9756	-14.4771		-34.8838
-88.8284	-14.9226		-36.7266
-86.186	-24.4742		-31.7076
-87.403	-23.2996		-28.9536
-82.9007	-5.12797		-7.8356
-80.3592	-24.9787		-7.76903
-86.9316	-13.9924		-38.4197
-81.1093	8.0376		-12.7808
-79.9582	0.462443		-5.11874
-82.3249	-21.089		-36.2204
-81.6981	-38.1961		-21.3988
-84.8964	-33.5776		-19.5238
-86.1498	-29.2072		-24.5664
-83.9177	-32.1166		-27.5177
-83.5954	-34.4857		-14.9603
-84.9813	-30.3318		-16.9756
-74.8965	-42.0274		-19.8903
-80.8697	-39.2231		-15.7543
-78.0517	-41.1362		-16.9971
-82.987	-28.247		-13.0553
-81.7767	-31.6438		-10.6937
-88.0734	10.9244		-12.7232
-85.1135	4.46495		-10.1234
-92.9876	8.07903		-33.5785
-92.4233	2.49034		-35.9006
-88.4006	10.0053		-13.4834
-87.743	7.26179		-14.5861
-86.963	4.7565		-12.4273
-92.4669	14.0676		-26.8823
-92.0368	12.2785		-26.4715
-90.4487	-7.78957		-30.0413
-87.6968	5.15148		-17.3179
-89.401	0.352998		-24.8938
-88.5476	-13.1015		-28.7025
-80.5581	-19.8992		-11.2229
-80.9851	-23.6258		-11.8641
-81.4566	-15.4812		-11.4144
-81.5631	-15.1231		-9.41241
-83.8003	-5.42591		-9.48711
-83.7389	-7.1502		-11.8747
-86.6654	1.56941		-15.5992
-54.2686	-51.7829		-59.7952
-25.2024	-30.3372		86.6735
-23.376	-24.1768		87.0202
-30.6397	-29.1175		84.1447
-19.4317	-28.9253		90.2837
-20.1096	-23.6368		90.5457
-53.5772	15.3002		61.0989
-53.3616	20.4353		63.244
-33.7133	6.70516		72.5052
-54.5492	31.3484		65.3798
-45.4253	36.374		73.0783
-5.19332	-27.9096		101.072
-8.96322	-28.4671		98.3971
-6.01346	-29.6134		98.8679
-7.37081	-25.8416		102.555
-14.6194	-20.3008		100.084
-15.1877	-18.3889		98.6012
-16.8695	-21.534		97.2589
-64.0487	82.857		2.89464
-68.9716	70.8773		8.37515
-26.9351	-56.6537		79.7845
-26.8136	-53.1643		80.2659
-12.5499	-26.7806		98.3378
6.98247	-28.0038		101.004
-9.50299	-30.8144		96.3612
78.4727	-38.3723		-24.7263
78.7753	-33.4418		-29.7722
70.8966	-46.423		21.1622
68.5599	-55.6639		18.0644
73.1034	-42.7617		6.25082
57.262	-104.602		-14.2572
52.1399	-106.39		-5.92905
56.5537	-140.758		-8.74181
60.3359	-137.01		-18.1463
58.7177	-124.122		-15.7849
54.1726	-127.346		-7.04393
52.2661	-93.2742		-4.14326
45.1696	-95.7552		5.54916
44.7329	-109.132		2.94796
59.8827	-102.656		-23.198
60.4656	-90.2251		-22.1907
57.4203	-92.2227		-13.0092
65.3599	-63.3138		14.4422
61.8782	-66.2328		30.3851
57.9042	-72.9503		24.6243
61.0879	-70.4346		10.2077
76.9812	38.7374		8.69101
70.1412	43.3825		30.4376
68.6154	28.3293		39.57
76.1993	23.0124		15.9449
79.347	32.113		-33.2669
76.0247	45.2788		-43.6751
77.5571	51.2719		-22.9184
79.6888	36.3368		-13.4642
5.32433	-108.988		41.3233
5.25285	-120.27		36.8075
10.9864	-119.71		33.8819
11.2841	-108.981		38.7882
6.58361	-142.288		28.9859
13.9173	-141.251		26.3298
7.97704	-154.899		25.2098
0.237452	-142.543		29.9528
0.271479	-155.158		26.251
70.6617	-41.4324		-34.8902
68.4311	-54.1196		-26.8064
64.37	-52.4758		-40.8338
65.9898	-40.7799		-46.6299
72.8844	-32.1565		-39.3177
61.5163	-133.087		-28.7033
59.3684	-128.654		-41.2808
0.269595	-120.414		37.87
67.5708	-47.7172		36.5072
65.111	-58.0609		33.9323
67.0666	-60.4909		-1.08405
5.73625	-87.4652		87.8531
6.14734	-95.1154		83.0343
14.0341	-94.1022		79.7225
14.0912	-86.0875		84.5494
22.6354	-90.7948		74.0523
23.2042	-83.4432		78.3304
5.9543	-78.6743		90.2883
-1.04257	-79.0284		91.0578
-1.06717	-87.7456		88.7332
6.08345	-99.8082		75.6429
6.12042	-102.133		65.4222
14.7447	-0.93214		85.9007
20.4297	-5.46104		83.8105
19.3771	3.87022		77.9809
14.4266	6.71592		79.5305
53.278	-33.5916		69.7187
53.4987	-22.5509		70.4495
40.5566	-20.8366		79.6996
41.978	-30.6722		79.6734
63.0594	-23.9978		57.2378
51.9899	-11.2868		70.6521
70.6718	9.66592		37.6887
66.7741	11.3011		47.0606
42.7149	-40.5619		78.36
52.9506	-43.8199		67.2115
3.90326	5.04897		90.7136
0.0866881	5.96343		90.9224
0.74678	-2.63159		100.026
4.8301	-3.29367		99.327
27.5747	75.5022		63.5795
27.2395	62.1686		70.902
37.7721	60.4294		66.6706
38.8368	72.4554		59.2582
0.117831	-104.366		53.8314
5.63128	-104.231		52.592
-0.376573	-102.312		66.6352
61.6314	-46.9708		52.1833
59.0756	-58.2969		49.2831
-0.911905	-95.6787		83.6694
-0.756633	-99.997		76.5164
33.1387	-85.7381		63.9896
41.4336	-84.9926		47.8888
42.9768	-79.0077		55.7848
33.0053	-96.1165		30.9976
41.2632	-90.7188		21.3139
47.4359	-82.9484		30.1493
38.0967	-89.7461		40.6175
0.3834	-108.875		42.2216
5.35854	-10.4437		107.104
10.8162	-12.1627		102.973
9.94241	-5.41588		96.4189
29.1519	-19.7976		84.3336
22.1856	-16.2048		87.9574
30.1639	-56.5341		82.0131
15.9005	-27.379		95.9505
15.0271	-29.3624		94.6645
11.0808	-33.1126		96.1196
15.7855	-33.2053		93.1968
15.0379	-31.4013		93.5314
4.54461	-27.8454		103.177
1.21689	-27.8667		104.381
1.29316	-30.0505		101.592
4.5654	-29.6955		100.81
20.8417	-31.6266		90.0501
5.99488	-17.5963		111.011
5.96577	-21.3625		109.657
10.9571	-21.9602		104.948
11.4684	-18.3685		105.901
30.2353	-70.7445		77.3357
27.9812	-64.0252		81.8639
21.4607	-68.6237		86.2124
22.5277	-75.253		82.285
31.0046	-45.7323		86.0652
26.6448	-44.306		89.1894
0.883072	-35.9697		99.6845
4.8914	-35.6182		99.3373
4.68094	-31.9954		99.5047
1.25782	-32.3599		100.142
9.24724	2.46589		88.802
19.4512	-19.0877		93.6532
18.9562	-19.7191		95.5347
19.6239	-22.1255		94.314
7.12737	-32.2872		98.3197
18.7557	-26.0872		93.5488
-0.176374	-44.6216		101.789
5.58981	-43.396		101.343
5.14422	-39.4397		100.21
0.0656398	-40.0956		100.457
23.8523	-37.0513		89.8516
28.6318	-37.3193		87.2584
14.7528	-67.1825		92.7445
6.99959	-67.9966		95.2427
6.98089	-71.619		92.5047
14.8305	-70.8172		89.9224
23.3972	-50.591		90.883
27.3196	-52.7653		84.9049
16.0641	-15.5063		97.3741
20.781	-65.1885		89.0773
-0.31809	-68.7583		95.4898
-0.443501	-71.7469		93.2279
61.2644	23.9226		56.7687
64.4956	25.5492		50.5953
56.8505	36.0586		62.8244
35.9224	49.814		74.0472
47.345	46.3979		67.3562
49.5726	56.364		59.344
58.3366	40.6335		57.4125
60.3722	51.0032		48.0788
46.6637	41.7158		70.9682
36.0084	43.9872		77.5584
22.3459	28.5468		77.5432
29.3482	30.0709		77.8228
28.7433	32.9061		79.9658
21.0765	31.1159		79.8822
9.18545	9.39343		82.0021
2.96256	16.4509		81.1427
3.35477	12.1136		83.9271
26.7744	-8.93948		81.8583
38.7687	-10.697		78.0267
36.0951	-1.84535		75.754
24.7305	0.769354		77.5118
62.3254	12.4575		54.125
57.7039	14.5709		59.2498
54.6257	7.7026		62.9409
45.9833	33.6169		74.2162
37.312	38.4104		78.1826
37.7635	34.0339		77.7022
53.8088	29.4497		67.9771
57.7555	22.5975		61.2401
47.5168	19.9649		67.0288
37.6718	30.5903		76.7248
48.1342	24.0343		69.896
43.7539	27.0908		73.7277
16.5124	24.5441		75.8559
13.1314	19.5819		75.2073
18.2427	20.6297		72.8131
-0.889288	32.5325		81.0582
-1.16966	26.2687		80.1031
3.80272	25.8985		79.8604
6.95233	32.2629		81.2797
23.6863	5.96026		74.8124
10.9389	22.0876		76.9026
23.2182	9.31998		73.1908
18.2446	-54.3584		89.8662
24.2555	-54.0777		84.7016
6.2059	-48.5505		101.077
6.06242	-45.6469		101.592
-0.197127	-46.7598		102.1
-0.255521	-49.1966		101.677
11.6471	-48.8073		99.2386
6.03211	-51.2225		99.8049
11.8022	-51.581		97.6861
17.8196	-49.7878		95.5902
11.0863	-46.0373		100.078
17.4928	-47.4944		96.6021
4.85616	-53.1916		98.0459
11.7301	-53.4543		95.6514
28.1837	-54.1912		83.1115
18.558	-55.8755		90.7235
18.8238	-56.4221		91.3872
19.3565	-58.0061		92.0127
13.1763	-58.3636		97.0488
14.0626	-60.4706		97.0008
5.68366	-58.6014		99.7607
12.163	-56.0408		96.4059
4.94932	-55.9393		98.8861
-0.430154	-62.3234		100.334
6.34855	-61.0204		99.9807
-0.427267	-59.5192		100.205
24.6838	-55.0845		84.4449
-0.314646	-55.2835		96.8176
4.64026	-55.1809		96.4699
-0.365225	-64.6178		99.7258
6.95488	-63.0576		99.507
7.08806	-65.0317		98.1744
-0.302075	-66.2731		98.3915
9.50054	-43.812		100.484
-0.396184	-56.4439		99.2663
4.75587	-55.0865		98.0992
-0.347115	-55.3591		98.3316
11.7108	-55.2573		95.7055
14.7513	-64.3601		95.2549
14.488	-62.4613		96.5064
11.5768	-53.555		94.2436
11.4842	-55.4394		94.1152
11.2066	-51.7411		92.2822
16.5669	-52.5562		89.5573
24.496	-57.1035		83.1698
4.69876	-57.3336		93.5624
-0.308696	-57.3145		93.904
4.77021	-53.256		96.4764
5.73498	-51.1682		93.6508
11.6612	-57.4732		91.5098
26.1323	-47.1226		79.6999
28.9268	-51.6314		76.1247
10.3607	-44.9053		89.9853
15.4625	-45.4704		87.8026
26.6285	-63.5831		77.4776
22.8321	-64.5778		81.3361
5.33089	-44.4966		90.9616
11.1473	-64.1766		88.4863
4.97879	-63.9395		90.3283
28.8448	-59.1764		75.1794
81.3699	-13.6994		-41.1609
77.897	-13.3434		-46.1737
79.4752	-3.39081		-46.9172
82.6862	-4.854		-41.8974
81.2899	1.09657		-4.8636
82.2928	8.61824		-12.6308
80.0493	19.6424		-6.42903
79.1507	3.64507		2.66345
80.9556	19.0271		-25.1719
81.7957	10.9617		-21.0845
77.953	-28.0167		-34.8821
75.8344	-35.1086		-30.8963
75.3699	-23.1652		-43.4451
79.8414	-21.2116		-38.4116
85.4416	-2.92869		-40.5219
84.6811	-13.5311		-39.558
83.0321	-31.2765		-30.0689
85.6266	-22.9591		-34.5319
79.9504	-39.3071		-23.32
77.5573	-41.2655		-20.1432
80.5556	-36.4886		-11.0163
90.6222	-13.5118		-30.8816
93.0521	0.87022		-34.8719
85.659	-23.7088		-20.5862
77.9192	-23.0983		2.17285
76.6865	-31.5525		0.911236
81.9785	-19.7979		-9.11334
82.1754	-23.8658		-9.70943
81.7274	10.2567		-19.6758
89.3651	-3.05201		-40.7704
91.4617	17.8228		-19.1039
89.7651	18.9139		-21.2633
88.4369	17.9371		-23.5415
94.1502	8.36526		-34.601
88.9162	7.75133		-14.3908
86.7739	1.93541		-10.4275
91.8897	-3.99676		-29.6843
91.6571	-1.22994		-28.3172
83.2708	4.96478		-38.5051
85.279	7.54492		-35.3215
81.0609	-27.3408		-33.323
87.4109	-9.64082		-23.9029
83.9703	11.6425		-28.277
83.0893	10.622		-30.867
91.0962	10.027		-20.9888
-1.18688	78.3857		66.2659
15.0104	77.4906		65.6756
15.5262	91.6599		54.5276
-0.874837	93.2467		54.6372
-1.4667	63.4379		73.9557
14.8484	62.8563		73.1994
25.5521	50.2872		77.5522
5.12029	-25.5245		106.188
1.12712	-25.1845		107.98
5.86957	-14.3973		110.229
1.04395	-14.0347		111.452
1.21068	-17.57		112.417
1.20226	-21.2588		111.287
0.850956	-9.85002		107.985
-1.23395	49.1578		79.9858
-0.781521	42.5127		81.6608
13.3486	41.1502		81.2312
13.4984	49.1688		78.919
-0.61053	12.9849		84.1119
-1.14654	17.3876		81.2711
2.80307	20.7046		79.8792
-1.27518	21.412		80.1137
-0.316802	-53.4352		96.8619
-0.242475	-50.9173		93.8867
-0.365427	-53.498		98.3356
-0.320384	-51.5737		100.424
-0.0839524	-44.3812		91.1228
28.4619	88.2524		53.2165
26.1961	44.1891		80.4024
27.8005	37.315		81.1944
30.6321	27.8522		75.7725
23.6667	25.4339		74.5941
41.6268	96.0002		31.3652
40.0052	83.6825		49.4262
37.7584	28.1956		75.6171
50.9693	67.591		51.3472
45.1062	29.9946		74.2989
61.7855	62.8426		38.4801
51.3023	26.4025		69.1876
14.7741	27.4509		78.1788
67.6519	-59.7416		-14.8063
80.966	14.5415		-37.1327
78.0088	23.8248		-48.7833
72.6827	-15.1673		-56.8287
75.1605	-1.25432		-58.9646
76.6212	12.3111		-57.0353
80.4208	6.88099		-44.1909
69.1068	-28.3669		-52.4611
12.4803	-103.434		49.2574
23.4896	-100.496		41.018
51.3507	-77.3911		38.282
70.9727	57.5475		20.0828
29.4542	102.663		33.5436
15.7339	107.088		34.2137
53.2927	-70.0813		47.7419
8.31085	-39.7828		99.6811
20.8022	-42.4493		93.3854
7.67456	-35.8408		98.6132
14.0894	-40.9664		97.3979
12.3875	-36.8938		96.6915
34.7034	-54.4879		80.6383
35.3219	-47.6309		82.6941
73.2848	-44.9757		-22.0075
74.7982	-34.01		8.70751
76.1132	-24.6265		9.88832
75.6141	6.5354		20.0297
74.6202	-10.2207		23.5868
51.5403	11.8644		64.4008
73.6495	-24.4713		23.78
72.5349	-35.9982		22.6654
15.5507	-9.57664		92.3571
15.7802	-23.3288		99.4643
17.9767	-24.6267		96.1303
34.0919	-38.296		84.3332
51.0167	-54.8899		64.7419
42.0952	-50.8471		76.323
47.3708	-64.1594		63.729
62.8411	-35.6204		54.8704
40.9288	-71.7498		66.0121
32.7952	-78.4277		70.6658
49.5664	-1.9876		70.0129
47.0759	3.95573		69.7055
40.0043	-58.6553		74.9752
36.1476	-64.9802		75.0666
14.2497	-77.6468		87.2689
34.1989	3.57958		74.2031
11.4101	-15.5611		105.297
69.6691	-23.8976		40.4202
68.8927	-36.5296		38.7402
7.84649	24.4559		78.7227
18.1602	-37.0348		93.27
22.2339	-52.6474		85.4046
21.0242	-46.0018		84.1555
32.0535	-136.603		15.2955
34.9901	-150.217		13.0843
43.5387	-147.516		6.95853
40.2913	-133.468		8.58615
37.7338	-100.525		13.6565
30.1068	-104.81		21.9803
29.0121	-116.03		18.9406
37.0825	-112.84		10.9159
32.4146	-59.3659		80.0878
47.8701	-86.7255		10.8634
52.8613	-79.2879		17.8302
47.5201	-130.382		1.43569
50.7936	-144.354		-0.233442
56.9983	-76.828		4.94732
58.4496	-82.9852		-10.5885
53.8674	-84.2067		-0.55814
58.9539	-96.7703		-36.4186
75.4801	-38.0142		-1.70552
60.4908	-81.0008		-34.5397
54.4266	-124.206		-54.0711
53.6288	-107.501		-51.9684
22.8765	-139.031		21.5601
25.6431	-152.421		18.3561
20.4283	-107.989		31.9133
19.5247	-118.39		27.5974
26.7299	-59.9394		83.8816
18.3717	-55.9796		89.5479
18.3423	-57.6642		87.8435
16.3568	-154.01		22.5417
17.4212	-64.5453		85.3276
76.5633	53.8634		-1.1991
48.6692	-82.166		-59.8865
54.1325	-88.0491		-49.7753
47.6043	-102.888		-61.9634
47.9656	-120.433		-64.5461
57.071	-67.3693		-48.3768
29.7647	113.407		5.88922
15.4522	118.333		5.70961
15.6325	111.233		-64.0526
30.2456	107.404		-60.8827
28.8207	88.4015		-89.4397
14.6361	91.1854		-93.0295
27.7841	63.7345		-105.982
14.4868	65.8793		-109.532
30.2841	115.783		-27.0853
15.6816	120.446		-28.9125
0.0163895	121.992		-29.5116
-0.201086	120.031		5.36068
26.8972	37.5986		-114.046
14.2698	39.6892		-117.589
25.88	10.1158		-115.797
13.3669	11.7421		-119.687
24.2999	-15.6887		-110.684
22.5648	-39.356		-98.5258
11.6782	-38.9152		-100.951
12.4939	-14.177		-114.66
0.38221	-13.6016		-116.037
0.387364	12.1723		-120.998
10.2704	-75.3369		-84.9765
20.7592	-76.7237		-82.6875
19.7664	-95.4474		-81.8742
9.93644	-94.2703		-83.5159
9.91802	-112.954		-83.0813
0.311593	-112.789		-83.3571
0.304537	-93.335		-83.8807
22.2151	-57.3783		-88.0913
11.3306	-55.4799		-90.873
0.314357	-55.532		-91.2054
0.300561	-74.9944		-85.4442
54.7457	95.1025		3.73046
42.9005	105.523		5.22256
52.8759	76.8537		-75.8904
52.2156	55.1909		-91.4003
40.9432	59.9925		-99.5953
41.6893	83.6082		-83.498
42.6351	101.162		-56.4854
53.9108	91.9879		-51.1783
55.561	97.0339		-23.8705
43.6989	107.845		-25.3913
50.886	31.3548		-99.5134
39.7922	34.7094		-107.634
48.7241	6.71055		-101.422
38.2146	8.28464		-109.428
45.5333	-17.9397		-96.8969
35.9692	-17.1853		-104.399
44.1169	-40.867		-84.9052
33.9752	-40.6646		-92.7614
33.0717	-59.2456		-82.449
39.0855	-98.8949		-71.5914
29.7823	-97.1502		-78.0727
31.4574	-78.0313		-77.6776
40.9261	-79.0378		-69.9689
29.7699	-114.79		-78.8831
19.7072	-113.503		-81.8901
63.892	80.1408		-44.3758
72.2447	66.0752		-34.2517
70.244	57.5702		-55.578
62.2292	68.2595		-66.9782
72.9548	68.9501		-12.3688
65.4929	83.8961		-20.6177
61.3254	49.2912		-82.0404
59.9161	27.4731		-90.1955
58.051	4.57896		-91.26
54.3048	-18.536		-86.8962
51.7849	-39.4863		-76.6047
74.2466	33.012		-59.8474
61.5756	-18.2378		-76.4506
65.1026	2.51074		-80.9508
70.8817	0.503177		-69.8061
67.6057	-16.8831		-66.5503
66.8738	22.8205		-80.1423
72.5282	17.2199		-68.6604
68.6101	41.8948		-71.4618
57.8058	-36.7744		-68.5113
63.5294	-32.9038		-60.3511
59.7491	-48.063		-53.855
93.7864	9.12378		-35.2311
91.9813	9.82019		-36.4577
91.0325	17.9519		-28.6119
92.9245	16.7879		-27.4608
87.2578	14.0623		-15.1827
89.028	13.1279		-13.1964
85.0812	13.4651		-18.2028
90.2317	8.22711		-37.4134
89.8317	16.5342		-29.9326
92.949	-2.86176		-37.4649
92.2276	16.5987		-18.3128
93.5497	15.5066		-27.0176
-0.525526	108.816		34.1563
0.169648	112.558		-65.0037
39.5821	-117.172		-73.0266
0.284699	91.9662		-94.2292
0.331658	66.421		-110.706
0.376926	40.3973		-118.793
0.347473	-39.2886		-101.254
-69.6827	-47.14		20.5432
-71.8478	-43.0621		6.30113
-67.5083	-55.7645		18.2879
-56.9755	-103.6		-11.0298
-51.9659	-105.278		-2.23958
-56.1112	-140.257		-6.4405
-53.8129	-126.572		-4.05869
-58.3209	-123.396		-12.9723
-59.8666	-136.525		-15.9129
-52.2166	-91.9066		-0.50195
-44.6412	-107.987		7.01363
-45.3381	-94.1748		9.95668
-57.1351	-91.0597		-9.92862
-59.9496	-89.323		-19.586
-59.4691	-101.819		-20.4301
-64.7166	-62.427		15.4847
-60.8232	-68.9375		12.117
-58.2455	-70.9281		26.2107
-62.044	-64.6402		30.8577
-75.717	38.0609		8.21075
-74.6106	22.099		15.4234
-66.8422	27.3143		39.2539
-68.7558	42.7044		29.9108
-78.5282	31.807		-33.463
-78.695	35.86		-13.8085
-76.7789	50.9214		-23.2725
-75.33	45.053		-43.8952
-4.51933	-108.865		41.7475
-10.2747	-108.764		39.9037
-10.3357	-119.5		35.0306
-4.65747	-120.167		37.321
-13.4306	-141.037		27.3385
-6.08996	-142.189		29.4473
-7.43848	-154.825		25.6187
-69.7632	-41.3692		-34.0609
-63.5028	-52.2495		-39.7615
-67.5036	-53.8065		-25.6452
-72.0027	-32.1904		-38.697
-65.1732	-40.6959		-45.8418
-60.9964	-132.64		-26.6624
-58.8003	-128.275		-39.547
-64.3449	-58.1791		34.3329
-66.6664	-48.3595		35.9239
-66.2187	-59.8277		0.060747
-7.97543	-86.759		87.907
-15.495	-85.3971		84.8462
-15.4978	-93.4642		80.1932
-8.11701	-94.719		83.0914
-23.6349	-82.8036		79.1894
-22.937	-89.7308		75.7275
-7.95271	-78.4582		90.1777
-7.76318	-99.4088		76.012
-6.8537	-101.852		65.9117
-14.1275	-1.87199		85.6791
-14.1761	5.86155		79.2643
-19.1848	2.75627		77.8458
-19.5969	-6.10236		83.5028
-52.6805	-33.4784		68.6878
-41.7752	-30.9791		78.6153
-40.2778	-21.0504		78.7685
-51.5127	-22.6247		70.7615
-62.2038	-23.3736		55.6462
-50.2895	-11.4458		70.4143
-65.1715	10.7416		46.0992
-68.9383	8.52631		36.7954
-42.6278	-41.1509		77.0944
-52.729	-44.6685		65.7402
-3.60747	4.91971		90.4865
-3.34169	-3.29411		99.1716
-29.0336	76.4853		62.814
-39.6083	73.6138		58.3099
-38.5624	62.2538		65.6917
-28.9924	63.9252		70.0822
-5.26512	-104.085		53.1579
-61.1699	-47.7575		50.9457
-58.4708	-58.8464		49.1358
-32.4063	-85.0577		66.1361
-41.6058	-79.3224		57.4367
-40.0306	-84.8436		50.2596
-32.6152	-95.1111		34.473
-37.149	-89.1305		43.3238
-46.8251	-81.9716		33.9207
-41.044	-89.5323		25.8041
-3.67168	-10.4568		106.921
-8.80273	-5.74022		95.9669
-9.25877	-12.3742		102.692
-21.008	-16.4707		87.6378
-28.6738	-20.3966		83.712
-29.8267	-56.5778		81.8944
-14.824	-27.8429		95.81
-14.1334	-29.746		94.525
-10.109	-33.2555		95.975
-14.214	-31.7417		93.4288
-15.1257	-33.6434		93.0341
-2.30321	-27.8369		103.23
-2.34131	-29.6883		100.891
-20.5214	-32.1098		89.6055
-3.89067	-17.6778		110.949
-9.62831	-18.4166		105.811
-9.20783	-22.0034		104.868
-3.84987	-21.4388		109.59
-30.0386	-71.0721		77.5349
-22.9335	-75.0308		82.5438
-21.8776	-68.5367		86.0511
-27.7778	-64.2468		81.9065
-29.9731	-45.7441		86.0412
-25.5854	-44.2105		89.3658
-2.57824	-31.9391		99.5932
-3.60478	-35.6972		99.2206
-8.79624	2.0094		88.3727
-18.2047	-19.6049		93.4578
-18.3368	-22.6967		94.3253
-17.6205	-20.2442		95.5017
-5.88712	-32.2036		98.1945
-17.6946	-26.6875		93.4019
-5.02258	-39.5733		99.9676
-6.02484	-43.3778		100.993
-27.9845	-37.6145		86.9044
-23.4031	-37.4055		89.5207
-15.3126	-66.6676		92.7755
-15.8349	-70.2772		89.8374
-8.05828	-71.4563		92.4806
-7.36877	-67.96		95.2392
-23.066	-50.7847		90.61
-27.0706	-52.7481		84.7852
-14.7111	-16.0017		97.1153
-21.0964	-65.0637		88.8724
-55.592	34.909		62.5156
-62.8848	24.6382		50.0657
-59.8914	22.8964		56.1115
-49.261	57.6556		58.2636
-46.3654	46.752		67.1093
-36.5626	50.3042		74.024
-59.3563	51.0651		47.3719
-57.2057	40.2663		56.5999
-36.6631	44.5132		77.0581
-45.2288	41.3881		71.2116
-23.2069	28.3935		76.6799
-21.6827	31.7442		78.6657
-29.3223	33.0751		78.5606
-30.0901	29.9182		77.1216
-9.37851	8.89757		81.4246
-4.20223	11.9137		83.5977
-4.76378	16.1952		80.639
-26.2182	-9.58315		81.3686
-24.5559	-0.166968		77.2194
-36.3505	-2.13623		74.8173
-38.7116	-10.5676		76.9148
-54.065	7.39705		61.6168
-56.9634	13.7663		57.9763
-61.3463	12.0036		52.6472
-45.2087	32.1672		73.8891
-37.1223	33.0156		77.7436
-37.2473	37.9455		78.3014
-52.7752	27.995		67.4049
-56.7292	21.4529		60.3328
-37.2627	29.624		76.5337
-48.3795	23.035		68.8673
-44.2479	25.9219		72.9352
-13.6349	19.0125		74.5359
-17.3854	24.3187		75.2571
-19.8359	21.1177		72.2775
-8.36491	32.5073		80.3386
-5.96733	26.024		79.4914
-23.7357	5.00709		74.5507
-11.8152	21.6845		76.2495
-23.7985	8.58703		72.7561
-18.4157	-54.3476		89.4894
-24.0143	-54.1285		84.5806
-6.75827	-48.5686		100.675
-6.52487	-45.5725		101.209
-12.2008	-48.7361		98.6138
-12.2738	-51.4766		97.1782
-6.5925	-51.2107		99.4733
-18.0579	-49.9617		94.8787
-11.6685	-45.9359		99.4011
-17.7963	-47.6411		95.8092
-12.1544	-53.3816		95.1695
-5.45636	-53.2197		97.753
-19.063	-56.3907		90.9931
-18.721	-55.8323		90.3301
-19.6837	-57.9074		91.6331
-14.2586	-60.1027		96.8697
-13.4044	-58.1145		96.8327
-6.16461	-58.7043		99.6283
-5.63974	-56.0073		98.6628
-12.5463	-55.8803		95.998
-6.53509	-61.1479		99.9349
-24.4445	-55.1688		84.3752
-5.21907	-55.1914		96.1822
-6.76135	-63.2718		99.5553
-6.80448	-65.1226		98.3067
-10.0236	-43.7124		99.9004
-5.41603	-55.1331		97.8291
-12.1458	-55.1299		95.2218
-15.1549	-63.9436		95.1595
-14.8423	-62.0836		96.3454
-11.9613	-53.4768		93.7794
-11.8802	-55.3309		93.6769
-16.747	-52.5466		89.1561
-11.5724	-51.7149		91.8624
-24.2279	-57.2188		83.1217
-5.24169	-57.2646		93.3851
-5.32466	-53.2606		96.1913
-6.20601	-51.1521		93.3583
-12.0236	-57.3132		91.2261
-25.5921	-47.3105		79.4089
-28.3644	-51.943		75.8327
-15.4052	-45.6331		87.4746
-10.4848	-45.0603		89.657
-26.3056	-63.8622		77.5441
-22.7671	-64.6668		81.3391
-5.54801	-63.7936		90.2605
-0.318114	-63.8678		90.8466
-5.50166	-44.5882		90.7518
-11.5773	-63.9565		88.3556
-28.3471	-59.554		75.0838
-80.4606	-13.8723		-40.8894
-81.7908	-5.05549		-41.7406
-78.6216	-3.54843		-46.756
-77.0372	-13.4671		-45.8849
-77.7059	2.87366		2.23441
-78.8188	19.0342		-6.76649
-79.9891	18.6397		-25.3212
-80.7455	10.5325		-21.1883
-77.0092	-28.1339		-34.3779
-74.8813	-35.1682		-30.2542
-78.9153	-21.3583		-38.0287
-74.5022	-23.252		-42.9982
-84.5219	-3.15267		-40.4061
-83.7459	-13.7077		-39.3086
-82.0563	-31.3647		-29.5629
-84.6655	-23.0944		-34.1639
-78.9551	-39.3358		-22.6662
-76.5289	-41.2675		-19.471
-89.6122	-13.7456		-30.7104
-92.0861	0.621556		-34.8524
-76.556	-23.7214		1.91109
-75.3977	-32.0106		0.853859
-80.7472	-20.2498		-9.12474
-80.9779	-24.2734		-9.64345
-80.6592	9.81276		-19.8041
-88.4618	-3.22222		-40.6701
-88.7338	18.5105		-21.4907
-90.398	17.4024		-19.3535
-87.4319	17.5479		-23.7177
-85.5385	1.3933		-10.6508
-93.2	8.09986		-34.6641
-90.8799	-4.28034		-29.6411
-90.6392	-1.53422		-28.3113
-84.3499	7.26409		-35.3333
-82.3746	4.71608		-38.4605
-80.0869	-27.4719		-32.8535
-81.0838	-4.06424		-5.86767
-82.9926	11.2931		-28.3578
-82.1382	10.2989		-30.8936
-90.0229	9.61874		-21.1454
-86.3384	-9.9511		-23.8067
-17.1213	91.8974		54.1378
-17.075	78.1127		65.1291
-17.3809	64.0958		72.548
-27.1687	51.2437		77.0471
-2.99997	-25.4771		106.257
-3.94054	-14.4555		110.127
-16.0042	49.4921		78.7613
-14.762	41.229		80.2782
-4.92123	20.5005		79.4594
-29.6905	88.6671		52.5581
-27.0425	44.0298		79.1856
-28.4933	37.2432		79.3265
-31.6104	27.2003		75.1906
-24.7827	25.0501		73.9221
-40.7451	84.1601		48.6058
-42.1802	96.0141		30.7074
-38.5644	27.3328		75.1144
-50.9326	68.3314		50.4097
-44.8312	28.4991		73.6788
-61.1653	62.8327		37.6691
-50.4814	24.9691		68.57
-15.8227	27.5805		77.5439
-66.7857	-59.2001		-13.4922
-80.0868	14.2701		-37.1847
-77.2496	23.6337		-48.8678
-74.3776	-1.34511		-58.8288
-71.8853	-15.2208		-56.5239
-79.5672	6.67808		-44.1454
-75.8604	12.1807		-57.0191
-68.3027	-28.3715		-51.9378
-12.0164	-103.111		50.3196
-23.041	-99.7658		43.1649
-50.7362	-76.531		40.6698
-70.0526	57.1028		19.4469
-16.7462	107.101		33.9365
-30.2888	102.688		33.0493
-50.4416	19.7692		64.8705
-52.3308	-70.3521		48.8054
-8.4493	-39.8652		99.2536
-20.5965	-42.564		92.9767
-6.93027	-35.9769		98.383
-11.9074	-37.0448		96.3895
-14.3621	-41.043		96.7311
-34.4675	-47.949		82.3501
-33.999	-54.7632		80.4327
-72.3096	-44.8862		-21.1721
-73.4415	-34.5946		8.37376
-74.6664	-25.4167		9.32873
-73.9258	5.45863		19.2585
-73.013	-11.453		22.4793
-51.5135	11.1491		62.8864
-72.1807	-25.6669		22.5609
-71.2067	-37.0473		21.5865
-14.5396	-10.2478		91.8953
-16.6531	-25.2141		96.1258
-14.3344	-23.6827		99.4121
-33.5829	-38.9449		83.709
-50.5661	-56.1284		63.8301
-41.7714	-51.8719		75.3149
-46.5288	-65.4088		63.5447
-62.2371	-35.9212		53.2743
-32.2103	-78.5025		71.7344
-39.9688	-72.713		66.3948
-48.582	-1.43977		69.0343
-46.5616	3.8385		68.711
-39.605	-59.7339		74.2553
-35.6539	-65.8894		74.8217
-15.5748	-77.1922		87.2359
-34.7307	2.85728		73.4663
-9.64205	-15.6601		105.137
-68.5555	-24.5263		38.6345
-67.9176	-37.2713		37.3404
-9.50159	24.5211		78.1688
-17.8686	-37.4008		92.9219
-21.9961	-52.7593		85.2701
-20.6769	-46.1401		83.8868
-31.6453	-136.09		17.6261
-39.933	-132.813		11.3729
-43.0933	-147.084		9.02425
-34.5252	-149.869		14.838
-37.7397	-98.9219		18.5134
-29.6557	-103.737		26.078
-36.8932	-111.905		14.9277
-28.5783	-115.45		22.3086
-31.8241	-59.662		80.0706
-48.1726	-84.9085		15.1452
-53.0972	-77.3924		21.4361
-47.1816	-129.629		4.43489
-50.3532	-143.866		2.01095
-56.91	-75.2202		7.63706
-53.8278	-82.688		2.76552
-58.1087	-81.7667		-7.82933
-58.3616	-96.1361		-34.3048
-74.2508	-38.2843		-1.50356
-59.6808	-80.3803		-32.696
-53.0536	-107.101		-50.3948
-53.8195	-123.909		-52.6932
-25.1487	-152.167		19.6848
-22.4187	-138.666		23.2554
-19.6649	-107.421		34.3285
-18.8773	-118.063		29.795
-26.537	-60.0589		83.8527
-18.5149	-55.9392		89.2211
-18.4888	-57.6189		87.5768
-15.8354	-153.852		23.3957
-17.6393	-64.4299		85.2033
-75.6759	53.4009		-1.70476
-48.0427	-81.8593		-58.7266
-47.006	-102.6		-60.7752
-53.4984	-87.598		-48.1863
-47.3391	-120.211		-63.4865
-56.3108	-67.0193		-47.0773
-15.8462	118.287		5.52456
-30.1179	113.315		5.5362
-15.2957	111.204		-64.1194
-14.1214	91.1716		-93.0535
-28.2777	88.3864		-89.5166
-29.9196	107.345		-61.0162
-14.1048	65.8644		-109.493
-27.1588	63.735		-106.042
-30.2495	115.692		-27.3093
-15.6469	120.4		-29.0275
-13.5695	39.6883		-117.605
-26.1643	37.598		-114.105
-12.5974	11.7472		-119.716
-25.1212	10.1256		-115.852
-23.5416	-15.6707		-110.725
-11.7317	-14.1705		-114.686
-10.9785	-38.9045		-100.928
-21.8594	-39.3302		-98.4665
-9.64123	-75.308		-84.8403
-9.30716	-94.2355		-83.3609
-19.1266	-95.3789		-81.5507
-20.1332	-76.6597		-82.3877
-9.29363	-112.925		-82.9211
-19.0794	-113.442		-81.5645
-10.6895	-55.465		-90.7818
-21.5655	-57.3388		-87.8887
-43.137	105.378		4.73798
-54.7673	94.9067		3.15421
-52.3595	76.7854		-76.049
-41.1611	83.5664		-83.6166
-40.2929	59.9802		-99.6854
-51.588	55.1601		-91.5113
-53.568	91.8604		-51.4291
-42.3152	101.071		-56.6821
-55.3992	96.8469		-24.2699
-43.6303	107.708		-25.7159
-50.1936	31.3483		-99.5984
-39.075	34.7125		-107.711
-37.4704	8.29793		-109.497
-47.9989	6.72056		-101.478
-44.8062	-17.9135		-96.8653
-35.23	-17.1618		-104.419
-33.2745	-40.6252		-92.6143
-43.4164	-40.8135		-84.6351
-32.4173	-59.1731		-82.0867
-38.4483	-98.7126		-70.8009
-40.3088	-78.8477		-69.1784
-30.8404	-77.9165		-77.1598
-29.1354	-97.0332		-77.5462
-29.1395	-114.689		-78.3609
-63.446	79.9805		-44.6833
-61.6907	68.1614		-67.1759
-69.6363	57.4211		-55.8088
-71.6141	65.8918		-34.624
-72.3635	68.6375		-12.8471
-65.1476	83.6658		-21.0633
-59.2361	27.4509		-90.2756
-60.7053	49.2383		-82.1701
-53.5908	-18.5179		-86.764
-57.3399	4.57673		-91.2719
-51.0822	-39.4255		-76.2057
-73.5642	32.8795		-59.9643
-60.8514	-18.231		-76.2278
-66.8526	-16.9		-66.2672
-70.1407	0.453571		-69.7119
-64.3859	2.49213		-80.9117
-71.8175	17.1394		-68.6815
-66.1891	22.7766		-80.2025
-67.9734	41.8102		-71.5964
-58.9972	-47.9213		-52.9997
-62.7743	-32.8693		-59.8113
-57.0863	-36.7191		-68.016
-92.8425	8.86894		-35.2986
-91.0621	9.57442		-36.5118
-91.9404	16.4475		-27.637
-90.0773	17.6169		-28.7819
-87.8475	12.6198		-13.4486
-86.1103	13.5721		-15.4125
-83.9932	13.0061		-18.384
-89.3297	7.99249		-37.4383
-88.8949	16.218		-30.0644
-91.9968	-3.07908		-37.398
-91.1476	16.1652		-18.5542
-92.5571	15.1635		-27.1805
-38.9514	-117.017		-72.2554
16.4222	-98.9331		69.0437
13.6957	-99.9211		69.1994
18.7109	-98.481		65.6356
17.0952	-97.5736		71.751
66.5403	-6.70776		51.5212
64.7553	-5.69241		54.9126
66.7085	-10.2324		51.0588
67.9382	-3.03423		47.3834
63.044	-3.99383		57.2195
63.2705	0.344798		55.5031
60.542	-5.35317		60.7087
13.0354	34.9039		81.9277
15.5485	33.8642		81.6587
16.7732	38.1858		81.6843
9.9174	36.2291		81.9344
9.70167	31.4996		80.9491
9.79993	15.1671		77.4079
10.7484	14.4587		77.105
10.2691	16.6862		76.7649
9.09234	15.4212		77.8311
14.1903	16.6036		74.3231
16.2527	15.7571		72.9491
14.7833	18.1689		73.9575
12.214	17.6315		75.5147
13.7241	15.0945		74.9349
44.7682	16.8425		68.0507
41.6432	14.9905		69.9205
46.3795	18.2354		66.9392
17.8723	10.633		74.2122
17.6016	11.5507		73.8425
17.2944	9.61871		75.2183
19.3811	10.1283		73.7641
26.9485	-54.5387		82.5615
26.8526	-54.426		82.8211
27.0298	-54.6542		82.0846
26.8676	-54.4823		82.8837
25.877	-53.4162		85.3168
26.1594	-53.9682		83.8992
26.8783	-53.7456		84.0851
25.9789	-52.9578		85.9757
24.3787	-53.2166		87.1805
29.8295	-54.4435		82.6082
29.8547	-51.9991		84.1167
27.2528	-54.8697		81.1443
26.9209	-54.1059		81.8572
27.7315	-54.8877		79.5184
27.0874	-55.1516		81.5167
22.8177	-59.263		88.5407
23.1368	-60.0516		88.0268
25.3131	-56.7584		85.2662
22.7317	-58.5561		88.6526
20.2174	-61.9839		91.6774
20.3996	-48.2458		94.3996
19.8704	-46.8075		94.9878
17.1353	-46.6211		96.9549
20.7163	-49.0945		94.0277
23.0326	-49.8202		91.697
26.1693	-54.5805		83.7897
26.2491	-54.613		83.7735
26.2991	-54.5641		83.6532
24.6873	-54.8148		85.0532
78.0637	-36.7584		-7.99138
77.4774	-37.2153		-7.15381
77.5403	-40.1202		-11.1771
78.655	-35.7797		-7.87392
86.3017	-27.0781		-19.5447
86.8495	-25.1547		-22.2034
85.2028	-25.483		-18.335
85.7958	-28.3055		-17.0721
86.7655	-28.386		-20.2141
81.2119	-33.5665		-9.64794
81.3924	-30.9459		-8.90032
80.5574	-33.8812		-8.90824
81.8625	-34.7779		-11.3045
81.5248	-20.9499		-12.7759
81.462	-19.8459		-13.6816
81.5148	-19.0961		-12.5156
81.7838	-21.4456		-11.4175
81.9323	-22.4737		-13.2072
86.9535	-0.844019		-13.5401
86.4265	-2.84614		-14.3213
87.2308	-0.0257636		-14.1097
87.0141	-0.296588		-12.6088
90.3203	10.2407		-17.6649
90.3565	10.8353		-16.6756
89.926	9.28335		-17.636
91.4808	11.4041		-20.7435
83.958	-18.5065		-19.7864
83.0372	-17.0632		-18.3601
83.4557	-22.394		-17.1792
86.1438	-21.5789		-22.5829
86.2608	-15.9428		-23.6798
88.7268	0.617598		-20.0383
89.1055	1.77715		-20.3895
87.5623	0.116744		-16.2133
88.665	-0.702512		-21.108
91.8957	-10.0985		-32.1978
91.792	-9.88986		-31.6171
91.0403	-13.2339		-31.8163
92.253	-8.95293		-33.1434
92.5512	-7.27551		-34.7941
92.7402	-5.13952		-33.7133
92.4589	-7.96911		-35.8579
92.8235	-4.19501		-36.0191
87.3168	-23.4664		-24.155
87.7799	-21.1724		-25.9539
87.7356	-24.4896		-24.9782
89.554	-9.65105		-28.0706
88.5463	-11.6718		-26.9641
90.8241	-9.8981		-29.9206
89.5778	-8.29248		-27.7807
79.6363	-28.748		-5.4826
79.6507	-31.0129		-6.25412
80.2583	-28.2796		-6.36963
79.4122	-27.9245		-4.79339
79.3252	-26.3014		-3.9908
79.6799	-24.2051		-3.92673
78.9466	-26.5031		-3.08024
80.8719	-17.0191		-4.18497
80.6087	-17.6037		-3.74609
81.2064	-17.3326		-5.10383
81.3575	-13.7267		-4.36382
80.2897	-18.4322		-3.26787
79.9416	-18.3255		-2.30862
80.0844	-20.8865		-3.59465
83.4765	-24.0101		-15.9019
83.2932	-25.1081		-14.0731
83.4302	-11.8713		-12.8534
82.3224	-15.7663		-12.6141
83.3217	-12.3607		-14.4068
84.5739	-7.97376		-13.095
83.8379	-10.7595		-11.5908
92.7539	6.25005		-29.8571
92.8822	6.99964		-30.1117
92.6031	5.81677		-29.2882
92.9752	5.07104		-31.6175
92.9002	1.38168		-32.4565
92.7224	0.260265		-31.0263
92.9231	-0.300824		-33.3716
93.0051	2.72328		-33.285
92.7135	3.17408		-30.5048
89.7338	8.6502		-17.8152
90.559	8.78064		-20.4638
89.135	7.75768		-16.6911
91.5128	8.68318		-23.7784
91.0948	7.60298		-23.0828
92.6017	8.41955		-27.8648
92.0737	9.98688		-24.6457
40.3704	26.2347		73.9972
42.5922	25.4204		72.934
37.6756	26.6221		74.5494
22.3089	-97.7128		60.7355
21.3283	-98.6246		57.2041
24.5861	-96.3873		60.5898
47.3356	21.4804		68.2064
46.229	22.9456		69.821
48.2031	20.1432		66.9287
51.3179	23.1028		67.2769
53.4633	24.174		66.2366
49.7082	25.0513		69.6186
49.3273	22.5293		68.1463
52.0607	21.0233		65.5075
71.5753	-49.7432		-3.9732
72.5044	-47.8785		-8.57696
72.0631	-48.2589		-2.43037
70.7443	-51.9089		-4.50118
20.0026	15.6911		70.3325
20.4032	15.1359		70.2128
20.0399	16.5458		70.3979
18.8911	17.8449		71.3025
20.1032	19.8036		71.626
18.6838	16.4176		71.1675
8.10758	16.4006		78.2467
7.33428	16.3845		78.8101
8.00052	18.3852		77.9883
20.8755	-53.923		89.5869
21.5192	-54.3147		88.0107
21.2693	-53.4674		90.0343
17.878	-53.7354		92.3653
62.7382	-71.6853		-10.5065
61.7544	-71.753		-5.1538
62.0364	-74.2738		-12.499
63.7939	-69.1972		-10.9463
79.3897	-5.65267		1.58203
78.3895	-13.1802		4.37218
80.2271	-6.39233		-1.1459
80.2969	2.35608		-2.09742
78.3425	-4.64862		6.12591
63.432	-74.239		-23.693
62.8481	-76.3901		-25.412
64.3077	-69.9354		-23.9499
62.566	-76.5422		-19.201
60.1413	-109.139		-29.5799
60.4277	-117.515		-30.9199
58.8971	-105.549		-36.934
60.0167	-100.279		-29.437
60.0778	-111.679		-23.7604
26.4963	-54.9835		83.7935
26.6323	-55.1272		83.731
24.9515	-55.7252		85.4117
26.8526	-55.3696		83.6524
22.467	-58.2296		88.9432
22.5717	-57.5507		88.6697
19.941	-60.4864		92.1804
26.4475	-95.04		60.558
30.227	-93.2284		55.1524
26.6161	-93.5922		63.7995
48.2216	-60.8501		-66.7383
47.0335	-57.0074		-70.6247
50.7885	-59.8966		-63.0865
47.2547	-63.9398		-66.5723
56.1943	79.6931		33.5012
57.8777	81.7567		26.6918
52.3163	82.7519		35.9736
57.1821	75.6242		36.3954
89.1029	-19.8212		-33.1829
90.4737	-14.7378		-35.9716
89.6355	-19.0254		-32.1446
87.8994	-24.0517		-30.6648
88.4793	-19.8585		-34.4381
84.243	0.224197		-7.83116
83.3653	-4.18086		-6.66869
85.2069	0.142122		-8.50354
85.0881	4.60874		-9.47031
83.0003	0.391815		-7.09211
81.5877	-21.5248		-7.46631
81.1375	-22.2575		-6.3879
81.9586	-24.1344		-8.80164
81.9247	-21.7183		-9.07946
81.6028	-19.8323		-7.10193
81.3248	-28.0565		-8.02668
80.9275	-25.2409		-6.6653
82.1466	-27.7031		-9.40863
91.5368	-8.95198		-38.3277
90.7606	-8.94825		-39.1483
92.2392	-2.76376		-39.3109
92.0073	-8.96438		-37.4607
89.7433	-8.81672		-39.8204
88.8907	-14.3908		-37.9455
88.6998	-8.58366		-40.2
90.2656	-2.77846		-40.6271
81.8624	4.49632		-8.41841
82.1068	6.77123		-10.1868
81.6646	5.53269		-8.13457
81.8955	2.79907		-7.21415
85.776	-17.9935		-37.3811
84.1037	-17.4257		-38.1584
86.5293	-13.5731		-39.1203
86.8208	-18.6065		-36.6826
84.6602	-21.9317		-35.554
87.8896	-25.5386		-25.7867
88.5064	-22.3911		-28.1879
87.4697	-27.5681		-23.6597
87.7458	-26.4671		-27.0246
85.1117	-34.2597		-23.9962
84.4694	-36.1626		-21.1691
83.6985	-35.6484		-25.1198
86.1412	-31.0088		-26.6307
86.5542	-31.5891		-22.472
85.8884	-32.6723		-17.2027
85.3116	-34.3885		-17.5966
86.4205	-31.5139		-18.7923
85.4901	-32.0313		-15.8524
75.0299	-43.3759		-13.6096
74.4495	-44.307		-14.1462
76.1387	-42.3992		-15.2811
75.1422	-42.6071		-9.17453
79.9694	-39.7854		-14.4769
80.2708	-40.4841		-16.9087
81.2517	-38.4021		-13.9887
79.586	-38.0967		-11.36
78.8812	-40.6633		-14.781
87.9533	6.88207		-10.6596
88.0068	8.40361		-10.7649
86.5559	3.33401		-9.83272
88.2495	6.84639		-11.0201
87.9934	9.34148		-10.9989
89.3227	12.6717		-12.9158
87.6647	9.33045		-11.0082
92.2374	-8.80174		-36.7134
91.2804	-13.5063		-34.2676
92.889	-3.12504		-38.0189
93.5199	5.48836		-34.5852
93.3013	4.46666		-34.3245
93.6329	4.83491		-35.4651
93.5032	7.02904		-33.0442
88.9272	7.92026		-12.7833
88.7952	7.67872		-12.231
88.4602	6.33427		-13.0536
89.4254	9.53526		-13.7609
88.4318	6.79545		-11.4051
87.5773	3.58296		-11.351
89.5087	11.0845		-12.8399
91.5254	-9.87092		-31.0326
92.2091	-6.91097		-31.2793
90.1985	-13.4629		-30.0526
88.1036	4.74486		-14.6173
88.5345	6.37613		-15.1309
88.0201	4.5873		-14.1419
88.3425	3.84163		-16.4
88.9063	7.19172		-16.3145
89.3442	6.79294		-18.2904
87.6467	-14.7948		-26.0485
88.234	-16.5666		-27.1531
84.037	-9.93104		-10.387
85.2163	-5.46733		-10.4269
83.8839	-9.93363		-9.25966
82.857	-14.6983		-10.4784
87.3646	0.398221		-14.4211
87.6449	2.16114		-13.8055
52.4635	-57.9609		-61.1977
52.8173	-53.3896		-63.6675
53.8207	-58.1943		-58.5543
26.6084	-26.7701		86.1429
27.8346	-29.4687		86.114
27.1415	-25.5958		85.7938
24.862	-26.6483		86.9964
22.0915	-25.284		88.9694
22.5649	-26.2331		88.4877
22.4638	-23.0368		88.9068
20.9918	-25.6494		90.2995
50.8304	38.0461		69.3637
50.6324	36.001		70.4023
56.2793	34.4348		64.4514
51.4064	39.7441		67.8414
46.453	39.6425		72.2464
9.30331	-29.6348		97.6589
8.68624	-29.0625		98.5156
9.03092	-30.2859		97.4963
10.5562	-29.7053		96.9998
11.1816	-26.8513		99.8902
9.68771	-27.1191		100.443
12.4059	-27.5451		98.2671
11.8227	-25.9521		100.497
46.9779	19.0555		66.7949
46.7129	19.7034		67.0544
17.4151	-19.5997		98.5312
17.5054	-20.6405		98.493
17.8741	-19.5285		97.7781
16.1952	-18.7151		99.8853
83.5168	-25.9927		-33.4952
82.3556	-28.5708		-32.1278
82.2303	-24.3784		-34.8952
84.5182	-27.1348		-32.4025
65.634	76.837		14.3766
63.2115	80.2904		15.4768
66.4265	72.3296		18.8978
67.5432	77.4375		4.84967
27.8257	-60.5761		77.063
28.3841	-58.6417		76.646
27.9424	-61.9856		75.9996
26.9552	-60.1601		78.696
27.8819	-49.7911		78.2554
26.7791	-49.9105		79.8851
27.8973	-48.769		77.6907
28.4679	-51.6755		77.5211
-16.9722	-98.3236		70.2972
-17.8095	-96.8969		73.0055
-18.9229	-97.8479		67.183
-14.3847	-99.4011		70.2049
-65.3632	-6.58214		49.8014
-66.6496	-3.36198		45.7942
-65.6203	-10.0336		49.2068
-63.4394	-5.29067		53.5445
-61.5418	-3.36451		56.1821
-59.0097	-4.55697		59.8119
-61.7748	0.790045		54.5004
-13.7832	35.6102		80.266
-15.5175	33.437		79.7486
-10.8402	31.8173		79.9098
-10.9255	36.8435		80.5664
-17.4928	38.0162		80.1551
-10.2961	14.5196		76.7095
-9.67757	14.7864		77.0947
-10.7622	16.0289		76.0703
-11.0983	13.772		76.4407
-14.5893	16.1669		73.7448
-17.142	15.6029		72.2173
-14.0007	14.5417		74.3786
-12.6499	17.0364		74.8671
-15.4453	17.8416		73.3074
-45.6038	16.0981		66.4221
-42.6016	14.4188		68.4445
-47.2198	17.4373		65.2174
-17.9117	9.99045		73.8741
-19.5279	9.4139		73.4546
-17.142	8.84044		74.9796
-17.8101	11.0711		73.382
-26.6817	-54.5749		82.4556
-26.5953	-54.465		82.722
-26.6134	-54.516		82.7831
-26.7448	-54.6948		81.9724
-25.6184	-53.4099		85.2584
-26.6767	-53.7625		83.9459
-24.1279	-53.2568		87.0563
-25.7102	-52.9403		85.8816
-29.4706	-51.9742		83.9448
-26.9283	-54.9243		81.0264
-26.7839	-55.2029		81.4051
-27.3373	-54.9765		79.3892
-26.6099	-54.1555		81.7312
-22.8696	-59.5526		88.416
-23.2412	-60.1959		87.8466
-20.6315	-61.7366		91.3642
-22.7898	-58.822		88.4986
-25.0739	-56.8485		85.2316
-20.4699	-48.4916		93.7548
-20.0067	-47.0571		94.302
-22.7127	-50.0741		91.368
-20.7571	-49.3408		93.4128
-17.4576	-46.7276		96.158
-25.9269	-54.6349		83.7264
-24.4474	-54.8867		85.0055
-26.0555	-54.6169		83.5865
-26.007	-54.6634		83.7057
-76.9908	-37.0913		-7.57997
-77.6958	-36.1391		-7.50064
-76.4437	-40.2678		-10.6641
-76.3825	-37.4513		-6.75537
-85.2045	-27.3314		-19.2606
-85.7697	-25.3984		-21.9185
-85.6794	-28.6235		-19.9113
-84.6842	-28.566		-16.7983
-84.083	-25.7599		-18.0652
-80.8021	-33.881		-9.41065
-81.5258	-34.9649		-11.0478
-80.3014	-34.1531		-8.77895
-80.5419	-31.2717		-8.64215
-80.341	-21.3499		-12.6634
-80.2742	-20.2263		-13.553
-80.7506	-22.829		-13.036
-80.5892	-21.8514		-11.3372
-80.3176	-19.5143		-12.4557
-85.7593	-1.33196		-13.6846
-85.8061	-0.798346		-12.7723
-86.0452	-0.506905		-14.2528
-85.2419	-3.31907		-14.4346
-89.2045	9.79423		-17.8498
-89.2284	10.3768		-16.8722
-90.41	10.993		-20.9125
-88.807	8.83598		-17.8142
-82.9192	-11.576		-17.4023
-85.3787	-7.61714		-20.5546
-82.3036	-13.9899		-17.7958
-82.1407	-12.7933		-14.3991
-83.9395	-7.80408		-16.46
-88.3985	2.92854		-20.7003
-88.0032	1.37511		-20.4794
-87.1935	3.38455		-16.5458
-88.9609	4.56488		-21.5105
-90.0751	2.50264		-25.5287
-80.1066	-30.1811		-30.9175
-81.3798	-28.685		-31.6529
-78.9169	-30.0158		-31.4184
-79.8689	-32.5241		-29.3349
-90.9011	-10.3304		-32.0713
-91.2673	-9.18108		-33.0276
-90.039	-13.4598		-31.6446
-90.7929	-10.1306		-31.4963
-91.5767	-7.49911		-34.6877
-91.7604	-5.37816		-33.6399
-91.859	-4.41952		-35.9408
-91.491	-8.18076		-35.7379
-86.2482	-23.7014		-23.8751
-86.7246	-21.4065		-25.6926
-86.6776	-24.7113		-24.6842
-85.0537	-21.8376		-22.3311
-88.52	-9.92491		-27.9621
-87.5006	-11.943		-26.8296
-88.5411	-8.57779		-27.6928
-89.8064	-10.1575		-29.8031
-86.5928	-15.0596		-25.8734
-87.1893	-16.813		-26.9487
-85.1839	-16.2246		-23.501
-78.4549	-29.1461		-5.37166
-78.172	-28.3532		-4.74328
-79.0822	-28.6849		-6.24646
-78.6624	-31.3818		-6.14055
-78.0623	-26.7621		-3.99812
-77.6716	-26.9709		-3.11521
-78.3989	-24.696		-3.97996
-79.5683	-17.5821		-4.34578
-80.0424	-14.3139		-4.56041
-79.9155	-17.8773		-5.23952
-79.3004	-18.1687		-3.90885
-78.9787	-18.9986		-3.4299
-78.7881	-21.4236		-3.71273
-78.6157	-18.9103		-2.49767
-82.3221	-24.319		-15.6685
-82.3082	-22.6986		-16.9542
-82.138	-25.4196		-13.8827
-82.2279	-12.3338		-12.8863
-81.1222	-16.2104		-12.6013
-82.618	-11.2367		-11.6605
-83.3716	-8.44808		-13.1701
-80.6376	-18.083		-12.102
-80.875	-18.0509		-11.2182
-91.7592	5.94429		-29.9187
-91.9912	4.7846		-31.6583
-91.6026	5.50621		-29.3489
-91.8915	6.69519		-30.1781
-91.9171	1.11227		-32.4596
-91.7288	-0.0190813		-31.03
-91.7178	2.8817		-30.5368
-92.0302	2.45701		-33.2939
-91.9438	-0.556844		-33.3526
-88.6148	8.20619		-17.9853
-87.9972	7.29943		-16.8617
-89.4746	8.36811		-20.6101
-90.4664	8.30983		-23.8985
-90.0372	7.22301		-23.1941
-91.0427	9.62123		-24.7742
-91.5965	8.09168		-27.9566
-89.4646	5.94449		-22.2908
-90.8102	5.5002		-26.4536
-88.2251	6.35601		-18.4368
-41.2761	25.2196		73.2631
-38.8259	25.7113		73.8926
-43.4424	24.3538		72.0747
-21.9412	-97.1516		62.5102
-24.1564	-95.7614		62.4916
-20.6828	-98.2072		58.775
-47.9016	20.4811		66.6738
-48.7495	19.2433		65.281
-46.8609	21.9027		68.5765
-51.0019	22.266		66.3749
-49.3229	23.9526		68.91
-52.5886	23.0267		65.5255
-51.6601	20.0361		64.2813
-49.6407	21.5724		66.7922
-70.5105	-49.5714		-3.30607
-69.7161	-51.6537		-3.72612
-70.9538	-48.1759		-1.86143
-71.4397	-47.7513		-7.86489
-22.6268	15.996		68.9423
-22.8884	15.4367		68.87
-22.8215	16.8765		69.0506
-21.0643	18.1036		70.1741
-22.2045	19.7925		70.6588
-20.5985	16.7344		70.1264
-8.90691	15.8268		77.5431
-8.88058	17.8434		77.3298
-8.2536	15.872		78.1079
-20.8949	-54.0088		89.2571
-18.1102	-53.7359		91.8772
-21.2544	-53.5753		89.689
-21.4396	-54.4313		87.7756
-62.1418	-70.6674		-8.5162
-63.1484	-68.2542		-9.13225
-61.4723	-73.2485		-10.3568
-61.2438	-70.6134		-3.10832
-77.9632	-6.38848		1.19954
-76.9485	-13.9396		3.9347
-76.8499	-5.47915		5.60869
-78.927	1.67066		-2.41673
-78.8387	-7.07144		-1.44952
-62.597	-73.4872		-21.7334
-61.8834	-75.6556		-17.0531
-63.4423	-69.2663		-22.198
-62.0205	-75.6613		-23.4177
-59.6807	-108.457		-27.1208
-59.96	-116.924		-28.599
-59.6765	-110.924		-21.0439
-59.5205	-99.5345		-26.9932
-58.3738	-104.95		-34.7773
-26.2626	-55.0492		83.7164
-24.7174	-55.7791		85.3464
-26.1142	-54.9016		83.7687
-26.387	-55.1924		83.6586
-27.8511	-54.5861		82.857
-27.0613	-55.9809		83.363
-22.5366	-58.4182		88.7509
-20.3663	-60.2155		91.7972
-22.6001	-57.7118		88.4593
-25.9779	-94.3666		62.5338
-26.4626	-92.6984		65.704
-29.28	-92.7573		57.212
-47.5581	-60.6878		-65.9589
-46.6038	-63.7656		-65.7659
-50.1099	-59.7155		-62.2342
-46.3659	-56.881		-69.9784
-56.1733	79.7266		32.6755
-57.0558	75.7046		35.5476
-52.4935	82.8333		35.1713
-57.8176	81.6637		25.9116
-88.1151	-19.9915		-32.8965
-89.5084	-14.913		-35.7554
-87.5087	-20.0138		-34.1387
-86.8908	-24.2127		-30.3178
-88.6356	-19.2131		-31.8824
-82.9628	-0.361775		-8.06978
-82.0682	-4.77588		-6.89995
-81.7082	-0.203765		-7.3386
-83.8293	4.03903		-9.7102
-83.9378	-0.436319		-8.73646
-80.3482	-21.9936		-7.48501
-79.8901	-22.7341		-6.42012
-80.3485	-20.3214		-7.15482
-80.7038	-22.1584		-9.05972
-80.7546	-24.5565		-8.74818
-80.1885	-28.4414		-7.85992
-79.7081	-25.6787		-6.63175
-81.0126	-28.0773		-9.2301
-90.5913	-9.13109		-38.1838
-91.0515	-9.15423		-37.3252
-91.307	-2.95566		-39.2385
-89.8255	-9.11828		-38.9975
-88.8193	-8.97723		-39.6625
-87.9502	-14.5456		-37.7158
-89.3559	-2.95176		-40.5362
-87.7833	-8.74083		-40.0374
-80.6014	3.89702		-8.63467
-80.609	2.20026		-7.45543
-80.397	4.93823		-8.34557
-80.8892	6.19767		-10.4001
-84.8296	-18.1448		-37.0822
-83.1597	-17.5884		-37.8551
-83.7028	-22.0742		-35.193
-85.8722	-18.7529		-36.3833
-85.5949	-13.7348		-38.8826
-86.8373	-25.7399		-25.466
-87.4722	-22.5961		-27.8984
-86.7045	-26.6434		-26.6676
-86.4038	-27.7718		-23.325
-84.0833	-34.3692		-23.4932
-85.4909	-31.7536		-22.0592
-85.1175	-31.1348		-26.1776
-82.7047	-35.7194		-24.559
-83.445	-36.2815		-20.6468
-84.8195	-32.8982		-16.8277
-84.4291	-32.2926		-15.4801
-85.3376	-31.7196		-18.4419
-84.2718	-34.6116		-17.1472
-73.9571	-43.3597		-12.9541
-74.0202	-42.6423		-8.63889
-75.0702	-42.4031		-14.6412
-73.3895	-44.2618		-13.4499
-79.3704	-39.5722		-13.7113
-79.3713	-40.4824		-16.2154
-77.9026	-40.6769		-14.1428
-79.2625	-38.036		-11.1186
-80.8419	-38.2883		-13.4627
-86.7284	6.33815		-10.9053
-87.0312	6.31148		-11.2637
-85.3122	2.77383		-10.0717
-86.7847	7.85677		-11.0158
-86.7748	8.79926		-11.2522
-86.4347	8.78594		-11.261
-88.1467	12.1605		-13.1702
-92.5629	5.22973		-34.6158
-92.5365	6.75122		-33.0962
-92.6822	4.58751		-35.4857
-92.3393	4.20702		-34.3449
-87.7333	7.41047		-13.0029
-88.2488	9.03989		-13.9791
-87.2663	5.82841		-13.2579
-87.5935	7.16298		-12.4579
-87.2178	6.26954		-11.6411
-88.329	10.5759		-13.0862
-86.3578	3.05779		-11.5673
-90.5195	-10.1201		-30.9134
-89.1809	-13.7032		-29.8844
-91.2117	-7.16678		-31.2021
-87.7618	6.72737		-16.4834
-87.3726	5.89856		-15.3068
-86.9316	4.26124		-14.7869
-86.8416	4.09654		-14.3173
-82.7996	-10.4305		-10.4984
-83.9722	-5.98766		-10.5826
-81.6301	-15.1662		-10.5248
-82.6294	-10.4557		-9.39888
-86.1833	-0.0794533		-14.5613
-86.4585	1.67231		-13.9703
-86.4046	-0.335068		-16.3291
-51.7721	-57.7791		-60.3258
-53.121	-57.9953		-57.6221
-52.1212	-53.2457		-62.9036
-26.1329	-27.2539		85.6628
-24.2076	-27.0895		86.6169
-26.4714	-25.9483		85.3409
-27.68	-30.0643		85.5124
-21.1089	-25.7322		88.7927
-20.0168	-26.1673		90.1045
-21.3995	-23.3591		88.7149
-21.6494	-26.555		88.2739
-49.9707	36.5779		69.1151
-50.0086	34.51		69.8354
-45.2666	38.9374		72.2931
-50.3455	38.5891		67.6946
-55.0389	33.0192		64.244
-6.56362	-28.4899		99.4003
-6.82635	-27.9958		99.8762
-7.32186	-28.9968		98.5104
-5.23148	-28.6765		100.043
-7.05479	-27.3546		100.692
-8.17847	-27.0787		100.449
-5.78487	-26.9619		102.082
-47.751	18.2458		65.0845
-47.4567	18.9298		65.45
-15.9664	-20.0133		98.4798
-14.725	-19.0963		99.7355
-16.4567	-19.9486		97.7231
-16.0597	-21.0427		98.4803
-65.278	76.559		13.6883
-67.1618	77.1285		4.2368
-65.9609	72.0466		18.1863
-62.969	80.0476		14.7791
-27.3674	-60.9076		77.1266
-26.5708	-60.3943		78.7437
-27.5176	-62.3333		76.0099
-27.897	-58.9558		76.6221
-27.3389	-49.9339		77.9916
-27.9568	-51.8422		77.2599
-27.3313	-49.016		77.3779
-26.2662	-49.9935		79.6841
-9.71179	-26.919		99.8793
-10.2926	-26.031		100.501
-11.0653	-27.7489		98.194
8.59618	-27.4434		100.663
7.61501	-27.018		102.06
8.27347	-28.1083		99.8575
8.00898	-28.5794		99.4038
6.91701	-28.7855		99.9846
-7.99923	-29.6601		97.614
-9.31335	-29.8174		96.9395
-7.75095	-30.2791		97.4351
80.2534	-35.6672		-27.3338
78.5356	-36.2448		-27.1367
80.8529	-32.4342		-29.8802
81.4011	-36.037		-26.7064
