1826
65.6613	-26.2312		50.5918
27.3632	-96.799		71.071
28.1249	-93.995		73.3659
22.892	-98.1019		76.6785
37.4568	-84.5543		65.3058
41.7102	-80.4123		61.7896
36.5999	-79.6968		69.8281
32.9984	-87.9728		70.0071
59.2414	-1.92095		58.1971
56.9973	2.31197		58.8583
53.3709	-1.80578		63.4369
48.6632	12.1131		60.7004
49.8154	10.5366		60.5357
55.0744	5.17814		59.2384
50.0235	3.84568		63.6795
52.9159	7.30879		59.9212
46.6557	14.9085		61.3919
1.76524	-94.3254		93.6748
-1.96576	-94.4251		93.7994
44.7347	-57.5284		69.3694
43.0021	-62.4995		69.8344
45.9577	-51.93		69.3513
39.8611	-55.1351		75.2798
35.0946	-74.8615		73.8624
37.9424	-71.1038		72.2154
32.3806	-69.7803		78.2125
31.4466	-77.7637		76.7285
46.4228	-2.33727		67.7604
47.9039	-6.37578		67.9467
44.7771	0.876231		67.6561
47.173	-45.5728		69.0764
49.1215	-10.7222		67.8707
9.09787	-84.6273		92.8478
9.07576	-78.9738		92.1701
13.6947	-83.9628		90.4657
18.5514	-83.1838		87.3301
23.1605	-81.9643		83.7711
17.9146	-77.8301		87.7376
43.44	3.00405		67.5169
42.1124	4.71297		67.4494
36.0175	2.5331		70.476
51.3433	8.97014		60.1968
47.1216	7.09896		63.9165
41.136	6.13711		67.3328
34.0947	5.72656		70.0419
11.8454	1.24594		91.6536
12.0002	-2.93646		94.1278
11.8962	5.54082		88.884
12.5223	-11.0772		99.5634
12.4256	-9.44929		98.4214
9.88346	-10.0173		103.948
12.7373	-12.2702		99.8488
12.755	14.678		81.3088
12.4477	12.4422		83.396
22.351	0.270071		76.906
0.822968	16.3102		94.328
-0.943601	16.6013		94.4269
65.2378	6.57213		47.8657
12.1801	9.31317		85.9715
60.2667	-66.4114		42.8951
64.1468	-64.876		36.0642
69.4562	-14.3606		44.7738
69.2881	-21.6297		44.4276
71.8038	-15.6656		38.4264
67.2425	-40.3029		43.757
68.2054	-34.0563		43.8695
63.9803	-38.5725		50.1894
69.7154	-41.4856		37.5336
68.9365	-27.8717		44.0151
71.2294	-29.7432		37.7281
18.7697	-99.4336		80.5234
9.00371	-74.0202		91.6266
5.44581	-74.1546		92.4626
12.9907	-73.7126		90.2081
17.0357	-73.3389		88.3032
28.4743	13.5077		69.3949
28.5792	3.25334		72.5255
27.9588	5.1711		72.0117
27.5936	6.65199		71.5779
2.22854	-74.2134		92.8957
-0.826323	-74.1131		92.9671
6.34557	27.7746		87.5448
8.38725	26.8779		86.0916
7.56952	29.2688		87.5047
3.82541	28.4195		88.6417
6.00718	25.819		87.4674
19.8289	17.4496		69.4681
19.6158	18.7546		69.7198
17.863	17.9351		71.3929
10.1038	25.716		84.2174
11.1951	27.4891		84.3903
1.25516	28.8987		89.2419
-1.31804	29.0781		89.4224
5.26983	-21.9277		101.926
5.69293	-21.0214		103.377
6.98284	-12.807		109.141
7.06742	-11.1783		108.61
10.0801	-12.9529		104.86
16.7311	-24.2104		87.615
16.333	-23.2054		88.7023
14.7551	-25.6456		89.2109
6.7871	-9.38734		107.929
6.64216	22.9901		87.1468
9.24483	30.9685		87.8681
11.0946	30.0646		86.5792
20.0735	20.1791		69.9719
12.6369	29.134		84.9685
13.8016	28.2381		83.1053
14.8365	27.1908		81.0093
19.0863	-30.6651		87.1214
16.5714	-30.8907		88.9998
19.8833	-34.172		88.4716
20.7314	-38.0207		89.6656
18.057	-37.0769		91.1495
21.3209	-53.846		85.1018
21.0922	-52.7087		84.3594
19.4982	-53.5676		86.2197
21.9845	-52.0791		88.076
20.4887	-50.465		89.7102
20.9472	-49.4607		82.8452
18.0539	-48.8212		84.7113
21.0826	-45.2681		81.2492
14.1773	-31.0692		90.9702
11.5086	-30.7272		92.9529
14.7592	-33.5637		91.8062
15.5309	-36.3929		92.596
16.0821	-39.0991		93.2299
17.3213	-52.9839		87.2605
16.1208	-51.3227		86.9317
15.5696	-48.0565		85.9361
15.9372	-43.928		84.619
9.01514	-29.898		94.6507
8.6143	-27.814		94.4735
11.3156	-39.9284		96.2546
14.0291	-40.7892		94.9702
17.4707	-10.3139		87.4724
14.8844	-8.52927		91.9564
1.25552	-2.49993		106.676
-0.751938	-2.28234		106.842
12.1279	-6.59884		96.6449
6.20235	-19.4365		105.589
8.75966	-19.4134		102.039
11.3199	-19.7229		98.4564
11.9651	-18.0439		99.3114
13.6805	-20.3124		94.9233
15.0719	-20.9656		92.6169
15.7711	-21.6972		90.9606
16.1283	-22.4053		89.6811
12.6932	-13.3904		100.254
12.5336	-14.7541		100.436
12.3673	-16.3681		100.034
37.9917	-143.363		14.2896
33.4909	-144.679		17.3877
39.4818	-149.594		13.2031
42.0865	-141.908		11.1097
36.0334	-134.779		15.8495
33.6563	-122.72		18.0359
37.7753	-121.556		14.457
31.9963	-112.125		20.1148
29.3778	-123.795		21.5741
34.3611	-97.2213		27.4211
38.9006	-95.7141		22.9282
29.765	-98.6697		31.5183
32.7683	-100.96		24.0291
31.9888	-105.27		21.9387
27.517	-106.003		26.1541
36.3016	-104.257		17.9224
40.9609	-67.0877		70.4444
43.876	-71.3064		64.732
37.0014	-63.1124		76.1151
46.3624	-75.6097		58.3004
47.225	-79.4959		53.3127
47.2359	-82.6284		49.2652
33.7342	-60.2371		79.752
34.7601	-57.0146		79.6454
30.8188	-57.9044		82.265
31.8571	-62.976		80.4741
28.8839	-56.6564		83.5514
27.8402	-58.4766		83.7318
43.1629	-94.0547		18.7082
45.8311	-90.3295		22.1854
41.6196	-98.1334		15.8063
47.4376	-92.3793		13.7518
49.0496	-87.0419		26.2357
52.2816	-85.3366		20.2955
52.1133	-84.0759		29.7552
54.3549	-81.372		33.3803
57.5879	-79.4004		27.1947
41.7875	-120.229		10.7865
43.9216	-131.979		9.10732
45.757	-119.251		6.88983
40.5335	-110.059		12.3254
45.8227	-140.507		7.79315
47.5628	-146.848		6.62647
49.3695	-139.123		4.16102
40.6378	-103.036		13.9041
73.0965	-31.0374		31.0553
72.4162	-36.7193		31.1451
73.6544	-24.8883		30.9128
59.721	-77.8907		20.8374
57.3881	-80.7675		17.5125
61.229	-76.463		13.8624
73.4772	15.6387		26.3717
76.6327	13.4839		16.1432
66.8327	-63.5747		29.2064
68.6678	-62.0153		21.5226
71.6192	-42.3205		31.0937
73.0742	-42.6281		24.1703
73.9588	-17.5931		31.028
75.7499	-19.4588		23.2244
74.2852	-41.7581		16.9422
75.3949	-40.1669		10.2975
57.0748	-89.6263		-1.98469
56.4129	-94.2669		-3.46175
59.3135	-89.1868		-6.88423
57.9552	-85.5401		-0.20987
54.3984	-90.2052		3.00615
55.9655	-99.5453		-4.42311
59.2255	-81.7905		2.25149
57.1838	-82.7368		7.90417
61.0392	-80.9866		-3.53824
60.7091	-78.3511		4.57172
78.2635	-4.6761		12.0579
78.6648	3.67489		9.17156
77.6828	-13.1014		14.814
79.027	12.4361		5.96955
79.3014	20.6738		3.25549
79.5611	29.0201		-0.00134478
80.9557	28.1969		-10.3857
79.7988	37.2633		-3.66571
69.7683	-60.2077		13.305
70.4458	-58.6726		5.1508
77.1022	-20.1433		16.35
78.2126	-20.6872		10.3584
49.7263	-118.194		2.58616
51.2751	-129.465		1.24124
54.9824	-83.9839		14.1691
52.7878	-87.3786		10.9356
52.7657	-137.63		0.045815
54.2674	-143.63		-1.28271
60.1136	-114.514		-15.0484
60.7452	-123.861		-16.668
61.1513	-88.6066		-11.7775
62.4931	-86.8331		-16.9612
61.8879	-84.2101		-10.6456
62.8771	-79.8894		-9.2123
61.3784	-130.874		-18.3661
61.9329	-136.383		-20.4693
70.8234	-57.9116		-2.22498
76.3748	-38.5931		5.73336
77.4455	-36.6319		2.37151
75.6232	-42.3675		4.48265
79.0532	-20.6687		6.34043
61.6079	-94.1432		-25.4
60.6012	-89.8503		-32.3146
62.3303	-88.0187		-24.0944
63.4014	-82.2611		-22.9698
63.2271	-75.7817		-29.1486
67.4658	-65.8149		-19.136
75.1185	-47.4104		-11.2582
76.3851	-44.4652		-18.1144
57.5649	-120.009		-44.3104
57.7488	-127.62		-45.8823
54.4294	-117.243		-51.4077
57.4813	-111.872		-42.6347
73.3868	-45.2586		-25.9696
75.8759	-41.5964		-24.3796
77.5782	-39.885		-23.7499
28.8444	-145.797		20.2756
27.1263	-137.171		22.2135
24.1846	-146.842		22.8455
30.3325	-151.91		18.801
22.7293	-106.405		30.6489
18.2306	-106.484		34.5595
22.9011	-113.468		28.1995
23.594	-102.621		32.7861
29.8741	-96.7844		45.2994
27.263	-97.8764		40.5546
31.988	-95.9302		49.2284
24.9534	-99.9449		35.9498
20.3214	-100.745		40.0732
24.8109	-124.526		25.2366
20.2853	-125.746		28.5275
29.9883	-65.824		81.1406
27.8813	-62.5233		83.1454
33.6163	-95.1137		52.5987
26.4631	-60.3769		84.2189
24.3824	-62.2532		85.2842
25.2678	-58.7245		84.9129
24.3185	-57.3673		85.334
22.632	-58.7501		86.4264
27.5623	-80.5204		79.9367
28.3439	-85.5964		77.7901
28.6249	-90.4275		75.2686
18.406	-55.1049		88.6573
15.7763	-55.0252		90.4743
17.9896	-54.4303		87.7285
20.7496	-54.9134		86.3114
17.9737	-54.6779		87.3577
15.1294	-53.8555		88.9489
17.9342	-55.2169		86.9431
17.966	-56.7617		86.166
14.9537	-54.5391		88.1055
17.956	-60.1783		85.1015
17.9874	-64.3237		84.2651
14.8991	-59.3968		86.3542
13.9875	-106.451		37.6819
14.7643	-103.188		39.998
14.1915	-114.7		35.1062
19.476	-147.958		25.1288
17.9816	-139.484		27.5439
14.8232	-148.809		27.0588
20.7993	-153.738		23.4254
15.9597	-126.852		31.4077
8.03324	-101.629		47.1071
11.2332	-101.591		45.6859
8.35063	-102.247		53.9352
10.7342	-149.42		28.4415
11.8505	-154.962		26.6967
9.36993	-103.677		61.7202
12.0289	-53.1632		90.5803
11.9349	-53.3716		89.9553
11.8128	-53.8949		89.3586
11.9749	-55.3787		88.3696
11.9285	-58.6811		87.3035
12.0802	-63.0295		86.4953
75.1246	48.0875		13.5977
77.9724	46.3811		2.82179
75.2923	55.8939		8.61196
71.4631	50.7892		24.153
81.4196	27.0796		-20.0803
74.9452	-20.5304		-49.0359
72.0895	-22.325		-53.9584
51.5974	-95.9372		-53.883
52.3668	-85.8427		-52.6271
54.478	-99.1062		-48.3015
51.3856	-106.072		-55.2249
48.5342	-93.5824		-58.9025
51.5032	-114.948		-56.7149
51.9003	-123.394		-58.0717
48.3566	-113.208		-61.4901
58.6397	-84.1776		-39.7181
57.7756	-93.6089		-40.4332
56.1479	-79.5977		-46.2146
60.1743	-75.8595		-38.1916
24.325	113.783		22.998
31.1878	110.977		22.6942
24.1002	118.417		7.2751
17.128	115.747		23.3263
23.2941	102.849		-79.1991
24.0051	111.623		-63.1957
30.4381	100.818		-77.2859
22.4474	91.8997		-92.4584
15.8006	104.275		-80.6374
21.9192	79.9057		-102.057
28.8253	78.2464		-100.032
21.5694	66.6489		-109.292
14.9031	80.6841		-103.683
24.1813	117.563		-45.9457
31.4191	115.061		-44.3094
16.6281	119.385		-47.0172
24.1855	120.618		-27.8804
8.92544	124.145		-10.6243
0.916008	124.557		-10.7387
9.03487	121.777		7.09242
16.6655	122.909		-10.3369
8.85098	123.77		-29.0908
21.2551	53.5901		-114.23
27.7079	52.2256		-112.165
20.9105	40.0611		-117.495
14.7125	54.3676		-115.701
20.3694	25.928		-119.283
26.7258	24.9473		-117.075
19.8308	11.9846		-119.429
14.0272	26.8803		-120.803
17.6195	-26.7789		-108.271
23.4454	-27.5702		-106.05
17.2472	-38.6507		-100.725
12.0353	-26.6522		-109.461
18.4795	-14.0828		-114.256
6.7583	-0.0768878		-120.581
0.339953	0.00765413		-120.913
7.00604	13.1406		-122.035
13.0252	-0.514372		-119.556
6.41824	-12.9755		-116.969
14.9971	-85.8966		-82.8473
15.3911	-76.3396		-83.7951
20.2599	-86.6985		-81.4758
14.729	-95.3698		-82.5286
9.93408	-85.4403		-83.6299
4.73757	-103.928		-83.2672
9.67986	-104.383		-82.9641
4.82589	-113.592		-83.116
-0.023379	-103.704		-83.3619
4.87589	-94.2438		-83.5491
17.3371	-48.034		-94.4771
22.6278	-48.6437		-92.8747
16.8896	-56.4068		-89.7984
11.6167	-47.553		-95.5083
16.0266	-65.9671		-86.112
21.6327	-67.1267		-84.3298
10.7526	-65.1403		-87.1291
5.4483	-64.85		-87.5853
5.7498	-55.4689		-91.3019
5.11521	-75.4128		-85.1462
0.116677	-65.0385		-87.6315
49.649	98.8602		19.2665
55.3823	93.3337		17.7478
50.4008	102.509		5.37752
43.7875	103.493		20.8376
47.976	71.1555		-89.8972
53.479	68.0117		-85.6195
47.5804	59.1118		-96.71
42.089	73.829		-93.7602
48.4099	82.0968		-80.6862
48.7992	91.6457		-68.6098
43.0835	95.278		-71.8786
49.4915	98.7318		-54.3966
54.3629	87.2113		-65.0111
50.243	103.053		-39.5689
56.0258	97.3567		-37.8358
44.3893	107.759		-41.1586
51.0911	104.612		-24.6073
50.9076	104.581		-9.49796
44.8007	109.674		-9.28352
56.733	98.7153		-9.70664
46.9035	46.9108		-101.635
46.1867	34.2441		-104.888
40.9686	48.8346		-105.615
52.3737	44.6617		-97.2749
45.1786	21.4184		-106.702
50.5501	19.9389		-102.293
44.1592	8.42696		-106.778
39.4915	22.5748		-110.589
42.8116	-4.15826		-105.264
41.4311	-17.1391		-101.629
37.5411	-3.78009		-108.977
47.6546	-4.95942		-100.991
40.5247	-29.8675		-95.5879
45.2649	-29.6734		-91.6629
39.8344	-40.9598		-89.0075
35.1967	-29.1819		-99.6093
39.1173	-50.5896		-83.1655
38.284	-60.1781		-78.1397
33.9129	-50.3047		-86.9769
43.7155	-50.8895		-78.7756
35.8317	-88.6976		-73.2595
34.8505	-98.6176		-74.2739
30.8025	-88.1986		-76.7404
36.8638	-79.1294		-73.0959
40.3867	-89.7476		-69.1564
24.5888	-105.996		-79.9747
24.7587	-114.844		-80.2297
19.5365	-105.268		-81.4339
24.9123	-96.927		-79.6907
29.7027	-106.948		-77.842
37.5494	-69.7852		-74.6849
42.2112	-70.2413		-70.0253
32.6562	-69.0544		-78.5353
68.4603	70.6773		-51.6266
69.6201	74.6286		-40.1328
72.4808	63.8179		-45.8261
67.5939	64.4924		-62.1082
64.1271	76.7017		-56.8434
70.4577	76.8734		-28.7592
74.2632	68.9507		-23.7103
66.1332	84.2722		-32.8033
70.916	77.8449		-17.5372
70.1546	78.6304		-6.67998
73.003	71.1123		-2.09493
66.4417	85.651		-8.81876
57.1868	42.3793		-92.6945
57.9058	53.6724		-87.7469
61.5545	39.6824		-87.8138
56.4231	30.4439		-95.9128
58.2925	64.7126		-81.1093
58.7554	74.3112		-72.3953
62.8078	60.7732		-76.154
52.4362	-5.73237		-95.9218
54.2624	6.34611		-97.3606
57.0179	-6.6487		-90.2647
50.6363	-17.8894		-92.6791
55.4317	18.2573		-97.4982
59.9456	16.8284		-92.3234
49.4966	-29.276		-87.4226
53.6285	-29.3429		-82.1801
48.8472	-40.5274		-80.4384
47.8163	-50.3401		-74.3902
51.5153	-48.8189		-70.2528
46.8587	-71.0238		-64.2008
50.769	-73.6722		-57.5114
45.7595	-81.0387		-63.4069
78.3336	35.0557		-47.229
77.4624	29.072		-54.6584
76.3283	40.6139		-52.922
60.5292	87.2084		16.83
61.2604	90.8006		3.65774
79.4681	45.2196		-7.83315
78.7453	53.1514		-12.7833
67.5951	-7.65969		-74.1164
64.4522	-7.67593		-79.3607
69.1219	1.90291		-75.6708
70.5073	-8.09324		-68.4502
65.6893	-17.6572		-71.1338
69.9851	11.5489		-76.4181
67.0117	13.3958		-81.9645
70.8873	20.6963		-74.9905
72.8098	9.3657		-70.2546
71.7752	29.9634		-71.6608
68.7435	33.5069		-77.3898
72.7703	38.4311		-66.1923
74.4647	26.0263		-65.6591
59.8841	-43.1804		-59.2437
57.1761	-45.3632		-62.8581
61.6759	-35.3838		-63.3273
62.6047	-41.0759		-55.3827
58.2962	-51.0986		-55.3221
69.3099	-23.8955		-58.6749
67.3482	-31.3708		-55.2088
66.6163	-25.451		-62.8885
71.2736	-16.2848		-61.213
53.7593	-76.4217		-51.7229
55.3033	-67.4138		-51.7067
77.6675	-40.4953		-3.11624
78.353	-36.914		-1.20519
75.9722	-43.6844		-0.697519
78.36	-35.2016		0.19794
82.1208	-8.542		-2.57065
82.8785	-3.00155		-4.87841
94.1626	3.53761		-38.2725
94.326	9.47719		-35.94
94.7927	3.11205		-37.5612
83.9173	-37.5113		-23.6627
82.6696	-40.5482		-20.0996
93.9417	14.2581		-32.4697
92.9817	14.5886		-32.9527
93.2864	17.4227		-28.4046
94.8281	13.562		-31.9117
87.676	8.71126		-11.8745
86.3529	8.71581		-12.5298
92.555	18.71		-24.2075
93.4821	17.97		-23.4612
89.1316	-20.1367		-34.5065
85.3318	-38.5628		-16.0729
84.6835	-38.5585		-13.3732
83.5887	-40.7162		-16.4584
83.2883	-0.259946		-6.67748
89.2734	16.8409		-19.75
87.3742	13.586		-17.0587
88.2021	15.947		-21.2575
85.0336	9.00366		-13.9362
84.1515	9.4622		-15.4908
92.3399	14.4372		-33.1559
83.3904	9.22887		-16.8916
84.6221	11.3388		-19.55
86.1496	13.3869		-23.1288
83.976	11.1493		-24.1121
88.342	-29.0423		-27.0265
88.3946	-30.9727		-19.27
82.0034	-41.9518		-16.8875
83.9659	-37.7886		-11.1008
85.2083	-34.7881		-11.2018
86.2062	-32.3053		-12.1728
86.7174	-30.6513		-13.1702
94.9818	2.78167		-37.143
95.431	8.51997		-34.9033
92.0941	15.0791		-16.0774
92.2706	14.3951		-15.7643
93.2545	16.8521		-19.1345
92.2368	13.7558		-15.6019
93.4642	15.6148		-18.6045
92.0615	12.645		-15.7525
95.2104	12.9884		-31.5482
94.6804	15.9065		-27.4778
95.3279	12.4556		-31.4013
94.0485	17.231		-22.9682
94.2787	16.6024		-22.8278
94.2897	15.991		-22.5519
94.8324	14.8137		-27.0929
95.2875	12.0678		-31.0793
94.4113	-1.71059		-36.0256
91.791	11.2991		-16.2665
89.2305	3.68603		-13.6751
93.6803	11.1906		-24.6289
93.8938	-5.06035		-30.827
93.9557	-3.1219		-30.558
93.8893	-1.20715		-30.0026
93.6906	0.313836		-29.1226
93.3471	1.54101		-27.8951
92.4488	2.34657		-25.3722
84.7148	-27.0848		-11.0087
85.9076	-28.6649		-12.6418
87.2974	-3.33443		-10.527
83.5911	-18.8678		-9.33846
86.8265	-29.8744		-13.7061
35.861	27.972		72.286
36.2161	95.711		47.2293
37.1558	101.926		35.5429
9.69178	102.899		50.9241
9.56744	110.472		38.1237
1.42212	103.241		51.1072
37.5584	107.651		21.8316
37.8873	111.872		6.8767
9.28329	116.98		23.5123
1.12943	117.428		23.4639
24.0088	120.862		-9.93095
31.2662	117.928		-9.53383
38.0985	114.25		-9.41555
38.2965	114.243		-25.9826
67.1494	54.5969		34.0285
74.5839	63.4307		3.14622
76.4709	62.0874		-7.52479
61.774	92.5999		-9.83046
62.0264	92.3866		-22.8312
8.77579	120.508		-47.568
8.63639	114.302		-65.2054
0.813823	120.888		-47.7155
37.9545	111.933		-42.5114
37.583	106.55		-59.2688
76.8822	61.0057		-18.2292
76.6197	59.5338		-29.048
61.1299	91.3076		-35.7835
60.2211	88.0235		-48.5405
75.6483	56.8772		-39.8084
74.6636	52.5122		-50.0357
73.6712	46.4201		-58.8511
70.5571	51.5735		-64.8807
44.7947	-91.7085		-64.1581
44.1028	-101.751		-65.5795
44.1861	-111.133		-66.6758
44.4019	-119.762		-67.9325
39.3577	-109.204		-71.396
8.27016	105.228		-81.295
7.92728	93.6754		-94.8605
0.722054	105.427		-81.6757
7.82706	81.1221		-104.609
7.79675	67.9107		-111.672
0.5743	81.2492		-104.917
7.78651	54.8169		-116.585
7.61772	41.569		-119.853
0.469548	55.0192		-116.86
7.2972	27.5379		-121.732
0.416358	27.5788		-122.057
19.2251	-1.2053		-117.851
25.4021	-2.16386		-115.473
6.04995	-26.4311		-110.276
5.97313	-38.7752		-101.937
0.270373	-26.5366		-110.421
5.90295	-47.6608		-95.7762
0.196316	-47.8718		-95.7281
4.99795	-84.9472		-84.0391
0.0353357	-84.7265		-84.1652
35.544	76.2345		-97.2576
36.1507	87.97		-87.7055
35.0472	63.5081		-104.272
36.8283	98.2891		-75.0027
34.4095	50.6931		-109.217
33.8329	37.473		-112.439
33.1566	23.9058		-114.145
32.4914	10.1256		-114.158
31.6026	-3.0071		-112.466
30.534	-15.8567		-108.849
29.3854	-28.3645		-103.177
28.5226	-39.8164		-96.4413
28.3054	-49.4914		-90.3475
28.0399	-58.6229		-85.3387
27.2121	-68.0819		-81.8641
26.4213	-77.9227		-79.9176
25.6901	-87.3861		-79.4244
34.708	-107.899		-74.9756
34.9782	-116.744		-75.6228
59.2977	82.4599		-61.1425
66.8738	56.7221		-70.5461
66.1899	46.9621		-77.5923
65.3078	36.9697		-82.7895
64.4992	26.1635		-86.0183
63.6563	15.2932		-87.3033
62.6536	4.02589		-86.6334
60.8941	-7.40387		-84.7815
58.9553	-18.3866		-81.6695
57.1744	-28.5579		-77.4644
60.5167	-28.0516		-72.281
55.7476	-38.5358		-71.8643
54.4359	-47.1101		-66.6415
56.9663	-59.3057		-52.3358
59.1602	-57.8846		-48.8555
76.525	22.7091		-60.1131
75.7968	15.2243		-63.2104
78.4497	18.775		-54.0177
72.8861	-8.25322		-63.3954
74.1984	-0.227122		-64.4104
63.5876	-26.8667		-67.6021
75.0361	7.80709		-64.6781
65.3681	-38.7579		-51.6449
63.6352	-46.0965		-48.258
15.5484	-101.45		43.4871
62.6342	-75.0044		6.91633
51.1653	-91.1092		8.51147
12.7648	-45.3565		95.6296
15.5908	-46.4137		93.9644
18.575	-48.2571		91.6502
8.25497	-56.4866		95.283
8.59132	-57.5913		95.3883
8.85011	-58.7248		95.3768
21.9596	-64.3167		86.6671
21.1551	-62.3809		87.4712
20.4118	-60.6829		88.1624
16.9596	-42.1005		93.2521
35.6052	-53.1824		79.5852
28.4459	-30.6566		81.7896
28.958	-35.9927		83.4
29.3294	-41.1625		84.5288
59.8811	-36.5676		56.5934
21.7883	24.1775		72.2385
80.1949	14.8953		-47.5365
83.051	13.1807		-28.3807
83.7399	11.1096		-25.97
74.5381	-46.8104		2.96623
28.3123	12.2024		69.8075
54.3469	44.7849		64.1536
8.6178	-26.2376		94.4534
47.9422	21.322		61.2207
12.3084	-25.4363		91.642
83.6294	10.8752		-24.8976
57.4338	-102.953		-41.5335
62.6679	-67.6774		-36.1821
61.882	-60.8775		-41.5296
61.9186	-54.8378		-45.3718
21.6051	-22.3161		82.7002
12.7731	-54.9171		92.5265
22.3884	-55.0633		85.4181
6.64228	-50.5821		92.6907
-72.2136	-50.9622		14.502
-73.2328	-46.1803		15.4569
-73.2758	-48.8399		7.36371
-71.0731	-55.4346		13.4424
-70.8348	-52.7008		22.4862
-56.798	-116.975		-6.62964
-56.436	-106.976		-5.86203
-59.0542	-115.769		-11.0388
-57.7872	-127.115		-7.92637
-53.9406	-117.943		-2.36427
-58.7998	-134.499		-9.25109
-56.3195	-136.28		-4.69062
-60.625	-132.736		-13.8607
-59.6739	-140.278		-10.5122
-49.8178	-101.471		4.36964
-53.621	-100.556		-0.552078
-49.705	-108.778		3.07211
-45.7594	-102.715		8.8837
-50.709	-95.9387		5.73553
-60.5329	-98.6971		-13.7436
-58.874	-99.2721		-9.3835
-60.9239	-93.4251		-13.1859
-61.5876	-97.3659		-18.8752
-60.3476	-105.49		-14.4549
-64.3743	-69.9146		24.7289
-65.6957	-68.86		17.5404
-62.4518	-73.6028		22.6768
-62.0158	-71.3011		31.2895
-65.8655	-66.3206		26.4397
-73.361	31.5547		22.0254
-76.7041	29.8975		10.7775
-73.0761	23.6625		24.4811
-69.2329	34.7433		32.7906
-73.9315	39.7638		18.2341
-78.6021	42.3125		-28.9154
-79.8814	34.7073		-24.2313
-78.9918	44.0257		-18.4698
-76.8816	49.5407		-33.9499
-78.0339	39.3032		-38.4819
-5.26479	-107.294		40.8378
-5.34507	-103.816		43.3669
-8.621	-107.418		39.6023
-6.39877	-116.274		38.6629
-2.73503	-107.212		41.5656
-8.20761	-129.233		34.7751
-9.69351	-141.486		30.7855
-5.15739	-129.34		35.9285
-11.5448	-128.389		33.2411
-3.3888	-150.196		29.8747
-3.86795	-155.587		28.3364
-2.9452	-142.051		32.3921
-6.9449	-149.89		29.3308
-67.6927	-55.2807		-30.986
-68.5205	-47.516		-35.3496
-64.962	-61.2194		-33.3607
-67.1864	-61.7875		-25.6059
-70.3714	-49.3044		-28.7368
-69.3914	-41.9346		-38.5295
-72.6001	-37.3926		-35.4382
-70.2741	-37.0714		-41.1011
-65.6683	-47.6233		-41.8651
-61.8078	-125.825		-29.9923
-62.2382	-128.922		-23.63
-60.381	-122.982		-36.7376
-61.8631	-132.329		-32.3808
-2.31968	-129.624		36.549
-1.39915	-116.609		40.3738
-68.7989	-54.0276		29.9622
-67.7605	-58.8922		29.3393
-66.4628	-54.2181		36.3334
-70.0171	-48.3203		29.9541
-66.6619	-67.3065		9.73694
-68.3632	-63.4428		11.0987
-67.1809	-66.3402		1.57564
-64.7775	-71.0123		7.94458
-13.1763	-94.0391		90.6783
-12.7147	-89.6894		92.0063
-17.0112	-93.6136		88.1847
-13.2143	-97.9623		88.3563
-9.35374	-94.2449		92.4073
-20.996	-92.5072		84.9063
-20.9281	-88.0828		86.0268
-24.95	-91.2599		80.5848
-20.7478	-96.4845		82.9311
-5.06747	-84.9946		94.7846
-5.36021	-90.0959		94.675
-4.67394	-79.3971		93.8237
-8.53246	-84.8221		93.8265
-12.9683	-100.911		85.2738
-9.34318	-101.17		86.7965
-16.6911	-100.417		83.012
-12.7588	-103.114		80.8381
-12.421	-104.292		75.152
-11.7441	-104.196		68.71
-8.40495	-104.812		76.2226
-16.1314	2.76067		80.9747
-13.9782	5.59073		83.4157
-16.1304	5.94202		78.5722
-18.3114	0.685997		78.845
-16.3678	-0.615059		82.7751
-47.6191	-23.9413		68.2742
-48.1921	-29.0365		67.8822
-41.4196	-22.8236		72.289
-46.9709	-18.7874		68.5015
-53.6768	-24.8397		63.2245
-58.5995	-14.4574		57.9754
-59.2862	-20.1251		57.4329
-52.6104	-13.8878		63.7927
-57.3188	-9.01302		58.6627
-64.2256	-14.8053		50.8578
-69.341	1.80581		39.3446
-66.6366	4.30101		43.5214
-68.6655	9.28958		38.5152
-71.4629	-0.0725481		34.7991
-48.4232	-34.3207		67.2747
-42.449	-33.2334		72.2119
-54.1968	-35.9892		61.3789
-48.1241	-40.2534		67.0122
-2.42913	7.044		100.093
-4.16096	6.35174		99.5401
-2.54752	2.03769		103.372
-2.50642	12.1071		96.9035
-28.9157	70.5139		75.4535
-30.2974	76.467		70.5885
-34.6718	68.9907		72.3301
-27.2307	63.5819		80.52
-23.6149	71.4258		77.6971
-3.63905	-104.256		62.9966
-4.17697	-105.195		70.3238
-6.82361	-103.923		62.2407
-2.75696	-102.72		55.4474
-63.7913	-53.7187		42.1304
-65.1943	-47.5505		42.2289
-62.0949	-59.9541		41.9748
-60.6754	-52.7357		47.8927
-5.50011	-101.422		87.6043
-5.24806	-103.875		82.6448
-5.53006	-98.3434		90.9793
-4.76246	-105.126		76.7343
-37.4971	-90.1382		56.7098
-38.1508	-87.2479		59.9946
-42.2158	-86.4409		52.0151
-36.2465	-92.3894		54.0172
-32.8168	-93.511		62.8508
-40.4766	-91.946		35.1052
-35.556	-94.3994		39.385
-43.3688	-89.3655		38.6338
-45.3348	-89.3825		30.5961
-37.4087	-94.8513		30.7824
-1.36161	-101.798		48.5443
-0.285933	-103.163		44.3672
-3.77178	-101.939		47.8832
-7.05439	-3.95172		104.02
-4.70781	-2.99234		105.746
-6.59864	0.358871		101.2
-9.6917	-5.47561		101.025
-7.59865	-7.34417		106.241
-24.4131	-19.5748		79.7835
-21.0622	-16.8522		81.7731
-23.0985	-14.6378		79.9733
-28.539	-20.8797		78.0136
-28.125	-54.4127		81.9421
-26.151	-54.5937		82.5713
-26.739	-53.5531		82.4504
-11.574	-24.1081		93.1012
-13.2215	-24.4084		91.0662
-10.9881	-24.8926		92.7371
-12.9086	-23.0436		93.0278
-11.3385	-27.9541		91.0484
-9.57028	-27.2958		92.7425
-11.1055	-27.0442		91.2995
-13.5883	-28.1876		88.9295
-11.8724	-29.4102		90.8946
-1.39167	-23.8617		101.275
-3.15945	-23.7023		100.382
-1.38685	-24.6328		100.043
-1.58323	-23.1586		102.786
-16.0917	-27.4686		86.7196
-16.702	-28.8866		86.6199
-15.5871	-26.51		87.1636
-18.3169	-25.8955		84.7348
-7.87393	-16.2434		108.351
-8.0883	-14.5981		108.852
-10.2098	-16.4916		104.526
-7.54286	-18.0054		107.182
-5.47672	-16.2447		110.877
-25.7843	-69.8709		82.5479
-27.2275	-74.5164		80.8776
-22.4464	-71.7181		84.9448
-24.3357	-66.0582		84.0383
-28.511	-67.2924		80.6788
-26.5913	-47.7961		84.557
-28.4953	-48.6644		83.2166
-24.672	-46.7869		86.0476
-26.1598	-43.6005		85.209
-1.70006	-28.5529		97.6911
-1.49493	-26.6629		98.3812
-3.64672	-28.4449		97.0915
-1.91942	-30.8967		97.3273
-6.36216	5.00026		98.2054
-6.51379	9.56595		95.0567
-9.03563	2.99038		95.5972
-17.2649	-17.4596		88.2643
-17.7152	-17.036		86.8201
-17.408	-18.9458		87.3816
-16.6225	-16.6508		90.6019
-16.494	-15.6208		90.6915
-4.90235	-25.1922		97.3856
-3.29332	-25.2614		98.4082
-4.84938	-24.3356		98.0096
-6.42269	-25.6724		95.9438
-4.80701	-26.7293		96.8047
-4.66006	-23.6997		99.063
-4.66003	-22.9808		100.515
-15.8683	-15.7848		92.9863
-16.2119	-17.4294		91.8795
-15.661	-14.8619		93.3086
-17.2811	-21.2013		86.7224
-16.6366	-23.3605		86.8352
-16.5995	-20.1191		89.0433
-2.57604	-39.2357		98.0766
-2.45335	-36.3394		97.5699
-5.14465	-38.588		97.6259
-2.90442	-41.1847		98.4327
-22.753	-30.7828		83.4006
-21.2393	-26.9112		82.8997
-25.0524	-30.6955		82.0741
-24.1539	-34.7702		84.2895
-20.3803	-30.9746		84.9703
-10.7209	-67.102		91.6216
-14.3895	-66.764		90.3712
-11.0924	-69.6842		91.0547
-6.88255	-67.4061		92.4349
-10.5316	-64.965		92.406
-22.6235	-49.4211		86.7356
-22.7066	-47.4806		87.3474
-24.6088	-51.1166		84.5201
-22.8795	-50.2346		86.2271
-15.5045	-14.1749		93.2017
-14.2442	-13.0087		96.1408
-15.6853	-13.294		91.6717
-17.651	-66.4405		88.7684
-17.2334	-64.4449		89.5922
-20.7843	-65.4177		86.8516
-18.1195	-69.0172		88.0107
-3.58997	-67.591		92.795
-3.37087	-65.8325		93.3969
-3.72032	-69.9474		92.4747
-59.4038	28.5439		55.5512
-60.4872	29.9816		53.5254
-61.3196	23.2427		50.2443
-58.1264	27.4577		57.4052
-39.1498	55.0344		75.2008
-39.8835	61.0447		71.8811
-45.7692	52.9102		69.2311
-38.7938	49.4928		77.6638
-33.2241	56.4357		80.097
-52.5908	49.8601		62.0498
-53.7046	55.511		58.1938
-58.952	45.5537		53.4107
-51.6723	44.6768		65.3993
-39.4861	40.2957		78.912
-39.1374	43.3238		78.9354
-39.8138	37.1475		78.4533
-34.4343	41.2914		83.9072
-62.1951	31.4562		50.0061
-65.4284	24.8229		42.8072
-57.1068	36.9652		59.7857
-63.4622	34.3637		46.7857
-23.7289	28.9872		82.832
-20.7592	28.4683		83.1897
-23.3428	29.9903		84.1869
-27.0526	29.477		81.8548
-24.1393	27.778		80.575
-7.63565	18.7433		88.3649
-7.3354	16.5969		89.7496
-5.03745	20.7044		90.3514
-7.96401	20.3788		87.3608
-10.1233	16.0257		85.1617
-28.9379	-4.02726		73.8296
-23.2646	-2.59062		76.097
-27.1545	-1.07318		73.3912
-36.1141	-4.553		71.1338
-30.8358	-7.6384		74.2422
-57.0778	8.70518		53.4268
-54.6393	5.27649		56.4712
-54.0866	10.3751		55.4335
-57.955	13.2083		52.2229
-59.8583	7.1962		51.2452
-6.8538	13.5432		92.1115
-4.45452	15.3081		93.6418
-9.34946	11.0586		89.6777
-40.0035	34.7811		77.8393
-39.7486	32.7663		77.1911
-34.8698	35.5953		82.3871
-44.9857	34.745		74.1289
-49.9596	33.6483		69.7638
-54.0967	30.1899		64.5534
-49.0708	31.5688		70.0492
-53.5236	17.2304		56.5849
-55.6052	17.4309		54.9984
-52.8843	14.4357		56.1467
-51.2654	16.8314		57.9804
-53.5773	20.3185		58.385
-40.8597	19.9267		66.3491
-39.1693	20.8643		67.86
-42.3663	18.9109		64.6073
-37.4242	21.7258		69.0313
-35.2715	22.1726		69.7167
-37.5061	22.4225		69.6665
-39.5141	21.595		68.4278
-35.0893	22.8343		70.3469
-32.5342	22.3109		70.0812
-29.7509	22.1443		70.1914
-32.2311	22.9324		70.6701
-29.2894	22.746		70.7497
-27.1662	21.6857		70.0188
-24.7412	20.7735		69.6137
-22.5804	19.5762		69.0966
-21.1136	18.4877		68.6977
-21.6196	20.2537		69.6603
-23.7515	21.2855		70.101
-20.3286	19.1837		69.2697
-20.2853	17.4735		68.3586
-20.6723	20.7339		70.3199
-22.8796	21.9334		70.8872
-31.996	23.6817		71.5081
-28.8708	23.4761		71.6369
-45.8362	15.0203		60.4132
-44.7259	14.0295		61.0143
-30.8819	29.938		80.5284
-30.9988	28.5176		78.5571
-30.7737	31.6474		82.2735
-35.1282	30.3434		78.6026
-45.449	25.1244		68.9168
-43.8854	23.3054		68.2998
-42.4178	26.2312		71.4341
-46.8433	27.318		69.5997
-35.4861	5.99674		67.3787
-29.204	5.96093		69.3627
-40.7973	7.14925		64.9146
-36.207	4.75757		67.5229
-24.4235	7.37255		70.2719
-24.6858	6.03463		70.8314
-21.3215	9.16395		70.4922
-18.423	12.9795		70.0217
-19.0676	11.7501		70.2846
-18.1293	13.8981		69.7574
-34.3832	8.76898		67.0536
-28.8847	8.65667		68.5564
-39.1592	9.90173		65.1602
-20.686	12.534		68.7502
-20.062	13.1944		68.5562
-21.914	11.4468		69.001
-19.5887	13.7405		68.5096
-19.1969	14.4116		68.5102
-16.2109	21.9342		75.4154
-15.2879	23.8213		78.7382
-17.3969	23.2689		75.7991
-17.3071	20.0447		72.0595
-18.0182	15.3986		69.6468
-25.7886	22.9202		71.4096
-17.884	19.0824		70.7388
-18.7819	20.4755		71.0174
-17.361	17.6012		70.6504
-34.2726	10.1179		66.8777
-28.7722	9.8783		68.2371
-20.8543	13.3447		68.0932
-21.9908	12.58		68.3243
-20.2394	13.7354		68.0617
-19.9121	14.1416		67.9459
-43.3939	17.9318		62.9729
-4.17261	32.0003		89.5588
-4.12324	34.4624		90.0287
-7.27706	31.0277		88.9341
-3.93316	30.1756		89.3087
-19.4091	4.43194		74.8788
-21.6923	2.89368		74.0663
-19.6629	2.10405		76.2651
-17.8282	6.11012		75.566
-19.3278	6.29285		73.6571
-16.1457	8.15901		76.7651
-14.3047	10.7762		78.693
-16.6326	12.8885		72.5821
-16.8944	14.4778		71.4404
-15.3312	14.0226		74.4595
-12.2968	21.9952		80.7992
-11.5829	23.1099		82.5002
-13.3056	23.6098		80.7278
-19.9033	10.5168		70.4411
-19.592	9.4363		71.3653
-19.3412	7.98398		72.4734
-21.3463	6.28102		72.1497
-19.3468	-52.5316		85.448
-16.569	-51.9865		87.2549
-21.739	-52.7635		83.8114
-19.2318	-52.4686		85.2175
-23.2541	-53.0528		82.8411
-22.9835	-52.9408		82.7548
-3.13421	-44.698		98.4089
-3.08606	-46.0168		98.0253
-3.0977	-43.39		98.5945
-5.99987	-44.2378		97.8046
-8.36115	-47.0331		95.853
-10.7221	-47.2704		94.6885
-8.08738	-48.3532		94.9989
-5.94594	-47.0825		96.6964
-8.4067	-45.6086		96.5505
-13.1735	-47.6067		93.2494
-16.002	-48.485		91.1868
-13.1229	-49.0697		92.2377
-13.3015	-46.2443		93.9021
-8.38628	-44.1365		97.0402
-8.30623	-42.7729		97.3304
-10.7613	-44.3825		95.9203
-12.4519	-42.5313		95.241
-13.1116	-43.6071		94.8009
-9.94149	-42.061		96.6516
-12.0162	-41.4297		95.4229
-19.3069	-50.2988		88.107
-19.1375	-48.8235		89.247
-7.66479	-49.6065		93.8509
-10.4952	-49.8575		92.5672
-7.38799	-50.2627		92.8888
-5.10003	-49.4387		94.876
-13.4187	-50.4817		90.7828
-13.4397	-51.1759		89.809
-24.0043	-51.813		84.3854
-25.1214	-53.2359		82.9022
-19.5815	-53.5778		86.0586
-19.6864	-53.81		86.3527
-16.7849	-53.4354		88.1499
-19.5131	-53.5009		85.8104
-20.3449	-55.2488		86.9523
-18.0254	-56.0996		89.5158
-20.0803	-54.7283		86.866
-15.1759	-56.4233		91.9497
-15.6696	-57.3033		91.9257
-12.3531	-56.25		93.6243
-14.8647	-55.5293		91.6891
-8.05285	-53.7873		94.2987
-5.11751	-53.8722		95.1106
-7.63951	-52.6331		93.7008
-11.2723	-54.0528		93.0216
-8.62418	-55.0118		94.7173
-3.08727	-56.7417		96.1996
-2.9027	-55.4532		95.9339
-5.80992	-56.3199		95.8285
-3.2225	-57.934		96.3028
-23.5052	-54.527		82.0221
-23.3724	-53.8948		82.6985
-21.8472	-54.4099		83.3697
-23.4876	-56.0419		81.2537
-2.32223	-52.6467		91.398
-2.30162	-51.954		92.6263
-2.34068	-54.1417		90.0687
-4.47322	-52.7035		91.0498
-3.26359	-59.1239		96.2576
-6.20969	-58.6108		95.9612
-3.34855	-60.2207		96.058
-3.3078	-64.0332		94.2851
-3.34875	-62.4616		95.1398
-6.45123	-63.4541		94.1324
-8.0513	-41.8902		97.4312
-5.81787	-41.7672		98.0673
-7.37433	-40.5561		97.5016
-2.72682	-54.0402		95.4744
-2.49781	-52.7655		94.8808
-2.37537	-52.1238		94.4172
-2.38885	-51.8772		94.0517
-4.65805	-52.0367		94.0764
-7.42283	-52.0924		93.2671
-7.29355	-51.8833		92.9086
-10.4515	-52.3925		92.031
-2.40517	-51.7835		93.5076
-4.50636	-51.7576		93.1715
-13.5727	-52.9771		90.3195
-13.9162	-53.5021		90.7424
-13.4179	-52.7708		89.9137
-16.4673	-60.2206		91.5024
-16.7465	-61.2958		91.0098
-13.6825	-60.3037		93.1834
-16.2208	-59.2624		91.7854
-10.2133	-60.1908		94.6186
-10.3815	-61.3785		94.0976
-6.37585	-60.6546		95.5134
-9.98816	-59.2098		94.9256
-3.3645	-61.2848		95.6987
-13.39	-51.3574		89.2611
-13.2445	-51.2804		88.7765
-10.2545	-50.7157		90.9845
-23.3741	-53.6265		83.3906
-21.9739	-53.816		84.5934
-7.13528	-52.8567		90.3916
-7.0642	-52.1083		91.4811
-7.33495	-54.2861		89.2232
-10.1283	-53.113		89.3747
-7.12565	-51.8496		92.3562
-10.1002	-52.1588		91.1234
-10.3841	-62.9816		93.3475
-14.0093	-62.9196		91.9773
-15.9438	-58.2767		91.9338
-13.1121	-58.3688		93.6838
-16.9744	-62.7522		90.3597
-19.7074	-61.8426		88.4362
-12.9089	-50.9046		88.4213
-15.7206	-51.4469		86.8518
-12.2589	-49.4756		87.6767
-10.0934	-50.2327		89.6421
-7.24875	-49.893		90.6563
-7.15824	-50.3264		91.5177
-7.55577	-48.5838		89.3294
-4.91552	-49.6474		91.1146
-11.6386	-46.3854		86.5793
-13.9154	-46.8325		85.5389
-11.494	-42.5058		85.614
-9.47514	-45.9608		87.3856
-23.6545	-59.5881		80.3175
-21.9708	-59.4782		81.6996
-23.8643	-63.899		79.5597
-2.3643	-57.2043		88.8096
-2.70635	-61.2953		88.0735
-4.58709	-57.182		88.5707
-7.39205	-45.6435		87.9905
-7.1163	-41.7538		87.0865
-5.22106	-45.384		88.4469
-7.41845	-57.2856		88.0361
-7.75735	-61.5548		87.1961
-10.5119	-57.6257		87.1584
-26.7028	-54.6738		75.7169
-27.362	-54.9651		74.3092
-13.3582	15.8814		77.7711
-12.6719	14.764		79.8288
-81.1555	-9.31078		-43.0386
-82.6712	-9.86995		-41.3153
-81.7602	-4.60367		-43.1092
-79.2672	-8.60978		-46.393
-80.4539	-13.8396		-42.2051
-81.0963	8.8333		-6.85193
-80.1081	10.9025		-2.22972
-81.359	11.9094		-10.9685
-81.3788	14.2152		-16.0394
-81.9043	13.9226		-22.8603
-81.8599	9.08106		-16.9885
-81.0033	19.8655		-17.3274
-75.2729	-34.4406		-33.1638
-76.4428	-30.4093		-35.106
-74.2849	-38.7859		-30.4502
-77.7507	-32.1734		-31.5809
-77.4296	-26.602		-37.2841
-79.7224	-25.4349		-35.4472
-78.5448	-22.487		-39.2153
-74.777	-28.5536		-40.1077
-84.1719	-9.8449		-40.4233
-84.5198	-4.73627		-40.7093
-83.5988	-14.1179		-39.4263
-85.7183	-9.31412		-40.0741
-84.4087	-26.7452		-32.2409
-85.4547	-27.8977		-31.112
-83.07	-25.1122		-33.6977
-86.257	-28.7385		-30.0489
-87.3537	-24.5398		-32.2431
-85.0861	-32.9146		-27.3983
-86.9957	-29.2215		-28.8015
-90.7718	-18.6937		-30.4348
-92.0599	-13.9713		-33.6752
-90.7667	-18.1378		-29.6769
-79.9257	-42.002		-18.7731
-80.2492	-40.1888		-21.9365
-79.0263	-41.0395		-20.9387
-79.5305	-42.7634		-16.6862
-80.4128	-42.275		-18.0258
-82.1178	-35.0379		-6.65263
-81.8056	-35.5978		-6.59511
-81.1549	-36.8091		-6.8114
-90.7131	-17.7672		-29.2776
-90.21	-18.4121		-28.3076
-93.5272	-2.65605		-33.4583
-93.5813	-1.95407		-34.986
-93.4314	-4.05031		-31.7819
-93.7592	7.77955		-31.2073
-94.0283	9.17789		-31.3402
-94.1513	11.3077		-30.3548
-93.8104	13.3671		-27.3346
-94.3299	11.7977		-30.7555
-93.5908	11.0552		-28.1588
-84.2857	-11.3424		-7.94907
-85.5092	-5.63769		-8.74394
-83.3799	-15.5678		-7.19726
-83.7903	-10.6213		-6.68799
-79.4044	-28.2626		-0.193128
-79.9192	-23.8235		0.0500331
-78.8833	-32.1245		-0.442441
-78.5704	-28.8433		2.56142
-82.9785	-22.8062		-9.39458
-82.9439	-20.7704		-9.6006
-83.3352	-24.8625		-9.83455
-81.8657	8.5037		-16.9278
-81.9046	8.49902		-16.7266
-82.1979	9.91546		-20.3463
-90.0537	16.5005		-17.688
-90.9807	18.2843		-20.7581
-90.8558	15.7596		-16.703
-88.6546	13.2298		-14.7598
-89.1803	16.9271		-18.8384
-90.4835	19.0454		-25.66
-89.7266	18.7445		-22.7431
-89.6776	17.9843		-26.9841
-90.9509	17.8148		-29.2266
-90.7595	19.1781		-25.1814
-91.284	3.56515		-39.5753
-92.3572	3.80604		-39.0534
-91.6153	9.64805		-36.8097
-90.4882	3.08379		-39.7427
-86.4082	-0.822017		-9.47815
-86.6857	-2.08478		-10.0775
-94.1486	2.86197		-36.5395
-94.5995	8.0854		-34.3966
-94.1976	2.7607		-36.9033
-93.8379	0.000438994		-36.6735
-93.3014	14.2024		-23.4414
-92.3935	13.5502		-19.5196
-93.3978	15.2113		-22.8566
-93.0905	12.8113		-24.1379
-87.8261	0.104285		-12.2138
-88.3617	2.54336		-12.9806
-87.289	-1.7514		-11.5971
-93.7019	3.50848		-33.8517
-93.7937	1.44586		-35.6645
-85.9613	-6.89319		-13.2032
-86.4768	-5.25022		-12.1727
-86.108	-6.58416		-13.9101
-90.5523	-5.58107		-27.0412
-92.5531	-2.81037		-29.01
-90.4365	-6.70748		-27.1711
-90.295	-5.13768		-26.4326
-80.3941	-19.7141		-0.197501
-79.6472	-20.0465		2.30716
-81.0459	-14.9218		-1.2536
-84.755	0.617114		-39.335
-85.7373	3.16474		-38.4488
-84.6205	5.35281		-37.3009
-83.586	0.0603748		-40.4491
-88.1286	8.29496		-35.8465
-88.259	4.17443		-38.6774
-90.4946	13.0948		-34.0172
-87.9032	12.101		-32.7087
-89.4261	2.05579		-39.6945
-88.2687	-3.61538		-40.3897
-87.8637	-8.76168		-39.9318
-81.5177	-24.7966		-34.5961
-82.3427	-21.435		-36.375
-80.5489	-28.0544		-32.6762
-83.0062	-17.9232		-38.0528
-81.3083	-18.1451		-39.0797
-89.6461	-18.3822		-27.2856
-79.5568	-31.0999		-30.8692
-78.4709	-34.8892		-28.4117
-79.3897	-42.5211		-13.8454
-78.8721	-42.8017		-13.7031
-78.3222	-43.0111		-13.3775
-78.0329	-42.529		-18.9071
-90.6476	-7.46499		-27.6287
-92.5737	-5.98348		-29.8545
-83.2082	-10.0203		-5.62828
-82.4907	-9.63087		-4.42439
-81.1083	-24.1432		-3.43583
-81.4167	-24.2897		-4.09099
-83.9333	-28.4925		-9.38384
-84.0871	-27.3154		-10.2941
-84.899	-30.4876		-10.8524
-82.8229	-18.6944		-6.56935
-83.205	-18.7653		-8.72309
-87.6099	13.9105		-29.5749
-86.6759	14.4671		-26.2906
-85.2073	10.1157		-32.2924
-84.2746	8.55638		-34.0511
-83.6424	10.6703		-29.8398
-83.8304	8.26851		-35.1225
-92.9953	4.59919		-28.8512
-92.8324	3.03695		-28.4829
-86.5127	-5.81407		-15.3471
-87.4735	-4.46842		-17.9985
-90.2651	-4.28735		-25.9543
-89.709	-4.26983		-24.5866
-92.0052	-0.540299		-27.224
-6.10695	87.4118		69.6629
-6.59415	94.7592		61.8305
-13.6542	86.4375		69.3504
-5.75788	80.1487		75.786
-5.15627	72.9308		80.7248
-12.1516	72.5126		80.1728
-4.71083	65.1373		84.9476
-27.375	57.2609		83.477
-21.8555	57.4264		85.6496
-27.8488	51.4193		85.8691
-1.83587	-22.3613		104.838
-3.63338	-22.3466		103.509
-2.31282	-21.3238		106.934
-3.04505	-12.7838		112.769
-3.06106	-14.4968		112.814
-3.03543	-10.8303		112.187
-5.5397	-12.8514		111.43
-3.0541	-16.248		112.307
-3.01341	-17.9507		111.222
-1.43908	-25.4756		99.1669
-2.19102	-33.6787		97.3111
-4.49359	-33.4616		96.8874
-2.80519	-19.6929		109.369
-4.9383	-19.7722		107.759
-2.90388	-8.86834		111.193
-2.76084	-6.11593		109.299
-5.31975	-9.05949		109.962
-5.07133	45.5987		91.0799
-5.03526	50.3215		90.3828
-11.4823	45.2341		90.3344
-5.06705	41.837		91.0828
-3.12179	21.6525		91.0543
-3.35577	23.563		90.1768
-2.81773	19.3623		92.3307
-3.5608	25.3179		89.5899
-3.74888	26.9534		89.2855
-5.65412	24.3016		88.8583
-2.59974	-49.4911		91.3362
-2.34622	-50.2481		92.6314
-2.8292	-48.1094		90.1225
-2.34692	-50.4028		93.5114
-2.42008	-50.2334		94.2232
-4.50302	-50.3359		93.1421
-3.06717	-47.1639		97.4563
-2.94805	-48.3105		96.6218
-2.67005	-49.3975		95.5188
-3.10489	-42.3759		98.5778
-2.76537	-45.2095		88.7729
-2.47419	-41.3203		87.7763
-19.9602	85.3063		68.5377
-20.9197	92.0685		61.0806
-25.8513	83.7712		67.2733
-19.1333	78.7797		74.2796
-17.1731	46.198		89.5067
-16.772	50.0753		89.1351
-22.7843	47.2012		88.3551
-18.3671	41.155		89.0936
-20.2222	36.8922		87.9747
-22.1037	33.097		86.3935
-25.2679	37.8099		86.9121
-22.9654	31.2077		85.2483
-26.6415	32.1117		84.4602
-19.2097	30.74		85.9374
-25.0841	23.5664		72.4564
-28.4839	24.1731		72.6342
-21.944	22.616		72.0031
-24.8414	24.6889		74.3712
-26.4548	22.2228		70.5505
-24.4571	26.0225		77.0399
-21.4762	25.3981		77.0457
-27.7797	26.5781		76.7872
-45.4181	88.0182		43.4435
-44.6553	82.4462		51.4041
-39.562	91.6453		46.3628
-46.7005	93.2935		32.6954
-31.3338	82.1666		65.1984
-37.2294	80.0303		62.1393
-32.5387	88.0879		58.2258
-28.2204	47.9338		86.5946
-33.2057	47.332		84.4165
-28.9614	43.5142		86.5596
-30.9345	33.4788		83.4851
-30.4778	35.8296		84.6882
-29.5785	39.6067		85.9187
-31.1374	26.7981		76.1024
-35.0075	26.7787		74.7898
-31.6168	25.5354		74.0357
-43.6123	77.3604		57.6809
-42.4595	72.2686		62.9924
-50.1418	74.4147		51.7496
-38.9344	45.9248		78.5811
-44.6714	44.3588		73.3254
-38.3158	24.092		71.1756
-40.8545	23.2524		69.5977
-35.2483	24.4283		72.0523
-38.5224	25.2387		72.195
-39.7103	30.7248		76.1105
-44.225	30.9064		73.4427
-39.2556	28.7098		74.8802
-38.8782	26.7196		73.4328
-41.0778	66.849		67.7233
-48.0066	64.1706		61.6207
-56.2066	71.8096		44.0951
-61.3987	69.4219		35.1772
-55.4834	66.5721		49.436
-41.3184	20.5819		66.813
-42.8628	19.4704		64.9428
-43.0839	22.1355		67.6202
-44.5242	20.7402		65.475
-41.9503	21.2591		67.2487
-48.0916	29.626		70.0383
-51.2602	26.7432		65.7175
-18.1635	27.6906		82.9313
-17.3765	28.806		84.6868
-18.5447	26.2464		80.2302
-16.087	26.5242		82.1184
-16.1449	30.1394		86.2776
-14.2378	29.0098		85.9465
-19.1465	24.4571		76.5284
-19.6021	22.8932		73.4737
-4.893	38.2598		90.6588
-67.2487	-66.9159		-6.33396
-67.2379	-67.0512		-12.967
-69.0833	-61.933		-4.50777
-80.1045	23.1037		-37.2968
-81.3835	17.1875		-32.1598
-80.5427	25.3322		-29.2583
-78.8888	28.9276		-42.0231
-79.8102	19.2135		-42.9273
-76.7734	-8.16878		-52.276
-77.6991	-2.21931		-52.381
-74.4674	-8.20743		-57.918
-75.8396	-14.3235		-50.6618
-78.2857	4.10518		-52.0739
-80.4133	1.87159		-45.8044
-78.8519	9.70527		-50.2621
-76.2195	6.01824		-58.5886
-71.2391	-32.1442		-44.1643
-72.894	-26.2161		-46.7267
-68.0215	-35.4553		-48.0333
-5.17337	57.446		88.1553
-10.9726	57.1534		87.7788
-16.5814	57.296		86.8755
-17.3143	64.9183		83.423
-19.861	-101.125		55.48
-14.6181	-102.499		59.2334
-25.6001	-98.758		49.5674
-17.3634	-101.086		48.5209
-45.6168	-86.8329		41.7321
-46.726	-84.6943		44.7708
-50.5966	-83.3628		37.622
-39.8914	-90.7269		46.0917
-54.7496	61.0045		53.8875
-60.6045	57.4806		45.2301
-18.1541	72.1286		79.1209
-66.3581	66.9604		24.8704
-66.284	60.3877		30.4137
-70.3526	64.8292		14.4725
-21.627	99.7658		50.5586
-14.7548	101.455		51.0936
-22.0767	107.068		37.9415
-27.8661	97.4425		49.8772
-64.68	39.5354		42.9655
-65.3078	46.6797		39.4513
-45.5745	19.2997		63.3085
-56.8258	26.3016		58.8793
-55.1243	25.0454		60.2893
-57.6118	21.7333		54.9856
-53.3015	23.804		61.4017
-0.367852	-107.284		41.9356
-58.0024	-73.5254		38.2937
-56.7922	-77.0629		35.3742
-52.9187	-77.3084		43.6257
-59.0623	-69.8599		40.3282
-6.85926	-38.6033		97.2313
-6.42948	-36.1472		96.8247
-8.60352	-38.9407		96.6776
-22.3309	-45.0493		87.838
-19.8678	-43.0641		89.8928
-21.5806	-40.9998		88.2822
-9.80779	-34.9403		94.9337
-9.0834	-32.4429		94.5165
-12.2978	-35.6945		93.4868
-10.4502	-37.2426		95.2614
-7.58263	-34.0464		95.8898
-30.1606	-49.2475		82.0841
-30.161	-45.2892		82.3798
-32.356	-50.4927		80.3576
-29.9107	-52.7178		81.5051
-62.967	17.1705		46.8092
-65.1706	17.2474		43.3604
-63.5915	11.1673		46.2268
-60.487	17.3397		49.981
-67.5281	17.3466		39.1732
-70.1023	16.7157		33.6804
-48.9567	16.5472		59.2283
-48.9892	14.792		58.5462
-58.2488	17.2925		52.5291
-82.5696	9.03178		-37.1252
-82.6823	11.5458		-33.2197
-81.0738	11.1822		-41.1704
-82.4419	5.2506		-40.2616
-79.4478	-18.3425		-41.0107
-77.3169	-18.8062		-44.1578
-71.6273	-53.8274		-15.3316
-72.1078	-50.219		-21.4155
-69.3822	-59.3078		-17.8118
-71.1989	-56.0918		-8.917
-73.6036	-49.5882		-13.0677
-82.1798	0.50998		-42.2084
-77.7175	-29.8696		5.76472
-76.7954	-30.9131		10.1618
-78.3439	-25.3266		5.79216
-77.0053	-34.1641		5.4934
-74.0668	-2.2829		27.5506
-76.3226	-3.61705		19.3116
-73.965	-10.2701		29.0329
-73.8315	6.50615		26.1205
-52.0633	11.4619		56.5893
-50.3262	8.79499		58.3419
-50.2451	12.4265		57.6174
-48.7576	13.1574		58.4806
-47.2642	11.5439		59.6352
-75.7077	-31.5488		16.3926
-76.4345	-26.1129		15.9686
-74.9771	-36.5321		16.204
-74.4061	-31.8733		23.006
-22.3565	-9.25415		79.3288
-19.6343	-6.85957		81.2272
-21.3885	-4.49929		78.3966
-26.0447	-11.0863		77.4475
-32.4109	-12.2092		74.7423
-33.5173	-16.9244		75.2403
-39.5717	-13.064		71.8119
-16.8268	-4.6844		84.2605
-16.9497	-8.52661		85.8789
-14.1325	-2.0347		88.2219
-18.9935	-16.1413		84.383
-17.9104	-13.8137		85.8098
-14.9289	-18.1891		94.8152
-15.6271	-18.7972		92.8011
-14.5833	-19.9246		94.0867
-13.8179	-17.5119		97.3379
-16.1481	-19.3715		90.9421
-15.6793	-21.3853		90.2978
-36.2947	-32.2747		76.1761
-35.8081	-27.0489		75.7846
-36.8664	-37.5702		76.5209
-31.4684	-31.3937		78.8874
-34.5255	-21.7083		75.5358
-5.10986	-28.7371		96.4306
-6.62371	-29.2585		95.4714
-5.567	-31.065		96.2727
-56.9615	-50.8566		54.077
-55.2579	-57.5045		53.9564
-52.3885	-48.6405		60.7427
-58.313	-44.2025		54.3763
-25.2821	-39.0351		85.0457
-27.45	-39.7829		83.739
-23.0877	-38.1706		86.3875
-36.8813	-42.9788		76.8635
-32.7136	-41.6119		80.1249
-41.8317	-44.5795		72.6198
-36.5352	-48.0519		77.2033
-6.05904	-33.5448		96.4596
-53.1731	-64.1449		53.7804
-50.0849	-69.9059		54.9472
-49.2771	-60.7402		60.8482
-56.5802	-65.9403		47.5211
-59.791	-25.8213		56.3653
-64.7274	-27.566		49.1479
-59.8271	-31.8484		55.4486
-28.1852	-96.3509		70.0186
-23.8269	-98.0029		76.2654
-28.8826	-93.5164		72.4777
-38.3296	-83.5638		63.4888
-33.8341	-86.9956		68.7013
-37.294	-79.1787		68.0429
-42.2875	-79.5192		60.1186
-55.5632	-4.07705		59.0428
-49.6843	-4.51983		64.0549
-53.0262	0.232931		59.7762
-44.7982	9.42587		61.8433
-45.9615	7.92514		61.5699
-51.0001	2.95702		60.2166
-48.941	4.91286		60.8583
-45.9223	1.48366		64.381
-42.6224	12.1274		62.7021
-5.52554	-94.4059		93.4124
-44.9675	-57.6291		67.2857
-40.15	-54.7001		73.1921
-46.1872	-52.3142		67.1839
-43.2689	-62.3054		67.8795
-35.7568	-74.3219		72.1486
-32.3237	-77.3473		75.172
-33.3493	-69.0974		76.2257
-38.5535	-70.5456		70.303
-43.6736	-4.65421		67.726
-41.7031	-1.53354		67.7497
-45.2953	-8.80149		67.9911
-47.3274	-46.4347		66.9439
-46.2173	-13.6367		68.3161
-12.2779	-84.5137		92.1942
-16.3099	-83.8143		89.7577
-11.7941	-78.6846		91.5177
-20.5472	-82.909		86.5465
-19.797	-77.4516		86.8321
-24.5924	-81.5105		82.8744
-39.9995	0.64867		67.6552
-32.7446	0.428317		70.5383
-38.4766	2.15768		67.6982
-47.3249	6.48462		61.2304
-42.992	4.52147		64.7143
-37.2793	3.48904		67.6061
-30.5311	3.42805		69.9669
-11.5471	0.529126		92.3231
-11.614	4.71235		89.3339
-11.8032	-3.72614		94.8382
-12.5047	-11.7434		100.143
-12.6912	-12.9066		100.407
-10.4232	-10.5193		104.146
-12.3531	-10.1294		99.0852
-12.2451	13.413		81.6764
-11.9746	11.3506		83.8308
-20.3519	-1.07348		77.5716
-2.55934	16.2119		94.2929
-63.1149	5.58914		48.0708
-11.7834	8.26494		86.4921
-60.0352	-65.9705		41.8094
-64.1644	-63.9636		34.9746
-68.5509	-15.3998		43.481
-71.3685	-16.3211		36.8424
-68.522	-22.7126		42.9835
-66.4087	-41.367		42.295
-68.923	-42.3636		36.3049
-63.3295	-39.8258		48.3307
-67.4182	-35.2727		42.3549
-68.1303	-29.1491		42.5873
-70.6967	-30.5521		36.2203
-20.2932	-99.3533		80.368
-11.4208	-73.5581		90.9416
-15.2473	-73.1834		89.306
-7.66669	-73.8229		92.0692
-18.9037	-72.8627		87.2718
-24.5261	11.1017		68.5598
-26.1742	1.17563		72.711
-25.558	3.02358		72.0278
-25.1208	4.57435		71.3861
-4.07842	-74.0264		92.7318
-7.90333	26.8585		87.6003
-7.59369	25.0178		87.4601
-6.11123	27.6456		88.5735
-8.77967	28.3214		87.6786
-9.43325	25.8507		86.2815
-18.9381	15.4174		68.604
-19.0172	16.6282		68.6956
-17.0929	15.9606		70.8479
-10.6499	24.4375		84.4542
-11.6691	26.1012		84.7344
-3.85863	28.5798		89.2001
-5.22267	-22.2538		101.957
-5.96297	-21.286		103.511
-8.09181	-13.0241		108.946
-10.6149	-13.3981		105.015
-8.1094	-11.3529		108.444
-15.3468	-25.1135		87.8315
-13.0382	-26.3241		89.7442
-14.9306	-24.1152		89.0078
-7.81072	-9.58348		107.785
-7.93643	22.1486		86.988
-9.64174	29.9515		88.0118
-11.4483	28.7849		86.842
-19.4496	17.9749		68.9599
-12.8626	27.6837		85.3287
-13.8761	26.4105		83.4051
-14.5272	25.156		81.3045
-18.0954	-31.3459		86.709
-19.3635	-34.3917		87.3879
-15.3586	-31.567		88.9092
-20.6877	-37.5962		87.8781
-17.8987	-36.8713		89.7285
-22.2817	-52.4766		82.783
-20.6597	-52.3463		83.9544
-21.9832	-51.3946		82.0931
-22.9155	-50.793		85.8152
-21.2887	-49.4172		87.6766
-21.6087	-48.3568		80.735
-21.3748	-44.6051		79.3668
-18.8673	-47.8615		82.7315
-12.9026	-31.5016		90.9815
-13.9739	-33.8996		91.3268
-10.5481	-30.9276		92.7532
-15.2588	-36.3453		91.5412
-16.1923	-38.6995		91.7891
-18.6078	-52.0762		85.2146
-17.2448	-50.5115		85.0967
-16.3215	-47.3279		84.2654
-16.2192	-43.4466		83.0829
-8.51733	-30.0205		94.2681
-8.04661	-27.9941		94.1956
-11.3768	-39.6343		95.3738
-14.3595	-40.2715		93.6097
-16.4961	-11.2914		88.1652
-14.289	-9.32734		92.6772
-2.65895	-2.51151		106.614
-12.0002	-7.31766		97.3633
-6.86913	-19.7176		105.594
-8.82279	-19.8817		102.384
