1846
19.8974	-58.3624		88.5265
23.3955	-58.8071		86.2125
23.8991	-60.064		86.5892
23.6858	-59.6046		86.5766
20.8035	-60.6042		89.501
17.7274	-60.7907		91.8961
17.4694	-59.9803		91.7573
14.6943	-60.7132		93.5742
18.1391	-61.6255		91.7997
10.2294	-58.5324		94.5705
10.7169	-59.6357		94.805
13.8234	-58.7243		93.2324
9.81533	-57.5617		94.2183
6.89101	-58.5413		95.3051
4.46729	-61.544		95.9268
4.58595	-62.7418		95.849
7.57823	-60.9525		95.6537
4.31293	-60.2799		95.8595
1.73557	-61.8481		95.9744
27.6318	-59.3389		80.849
27.5657	-58.8241		81.5903
27.439	-60.5606		79.9517
25.9603	-59.3484		82.4042
3.84686	-57.7862		91.5512
3.86954	-57.1172		93.0437
6.22681	-57.8388		91.2342
3.81172	-59.1978		89.8797
1.68157	-57.8111		91.6117
4.7004	-63.9347		95.6097
1.76658	-64.277		95.6212
4.79274	-64.9832		95.2163
8.13826	-63.2027		95.4261
4.99266	-68.2477		92.374
8.50864	-67.6278		92.4073
4.92421	-66.8661		93.8234
1.93671	-68.496		92.3048
9.57391	-48.0161		98.3505
8.80069	-46.7009		98.4192
7.21946	-47.8933		98.9605
4.14374	-58.9729		95.6344
1.71582	-59.1812		95.6981
3.99511	-57.8119		95.2707
3.92566	-57.3158		94.9704
6.44504	-57.1276		94.7049
3.9786	-57.0841		94.6554
1.73503	-57.4793		95.004
9.6083	-57.1275		93.918
13.0908	-57.4186		92.5983
9.4881	-56.9583		93.6337
3.99799	-56.9736		94.0719
6.33376	-56.8864		93.7872
1.71076	-57.0774		94.052
16.4715	-57.8748		90.8294
16.3618	-57.7037		90.4607
16.7399	-58.2763		91.1333
18.7299	-64.2641		91.0437
18.8973	-65.1903		90.3926
18.5652	-63.4166		91.4381
15.8153	-64.4815		92.5819
12.2569	-64.6098		93.8648
12.3781	-65.69		93.0853
12.0987	-63.6909		94.3377
8.50086	-65.0935		94.5827
4.85459	-65.8853		94.6745
1.84688	-66.2108		94.6446
16.3012	-56.3674		89.8002
12.8839	-55.866		91.5783
16.121	-56.2763		89.2218
30.2753	-58.242		81.4315
29.2681	-58.581		81.5796
27.5813	-58.6222		82.3304
26.1211	-58.862		83.7879
9.25124	-57.9667		90.5973
9.23888	-57.2035		91.9631
12.6563	-58.1564		89.5854
9.38719	-59.3218		89.1399
9.32101	-56.9347		93.0193
12.7696	-57.2205		91.6698
12.3178	-67.1291		91.8775
15.9811	-66.8155		90.7945
18.3386	-62.5299		91.71
15.3967	-62.6492		93.3372
19.0111	-66.4582		89.394
21.8305	-65.6085		87.6685
15.7595	-55.9195		88.8517
12.6598	-55.3537		90.1454
15.0795	-54.6756		88.1675
18.8599	-56.485		87.2032
9.42715	-55.0505		91.1859
6.76639	-54.8397		91.5957
9.77593	-53.8687		89.8941
9.32261	-55.4736		92.0787
14.3064	-51.8772		87.0645
11.8591	-51.4806		87.9118
13.928	-48.189		85.9951
16.8724	-52.3388		85.9516
27.0261	-63.3654		78.7334
26.2521	-66.6031		77.834
25.2286	-63.4847		80.3441
3.81608	-61.8983		88.029
6.26081	-61.8802		87.886
4.18473	-65.4736		86.3906
1.74266	-61.9399		88.0301
9.49512	-51.2168		88.5279
7.04417	-51.0037		88.9545
9.05182	-47.5487		87.4892
9.38215	-61.9224		87.454
9.54359	-65.6231		85.7776
12.7443	-62.1132		86.6525
30.0869	-58.2541		74.5904
30.4332	-57.9768		73.4403
13.6541	16.1485		76.3908
13.1106	14.509		78.4063
80.7058	-9.02631		-43.8438
79.9523	-13.3951		-43.1053
78.8695	-8.39198		-47.1314
81.3676	-4.46579		-43.8326
82.1852	-9.54265		-42.1559
80.6616	8.88899		-7.27469
81.069	11.8466		-11.363
79.7019	10.9316		-2.48856
81.1661	14.0448		-16.4317
80.9274	19.5359		-17.62
81.5382	9.06038		-17.5359
81.7061	13.7129		-23.3259
74.5539	-33.1128		-34.6574
76.9885	-30.9079		-33.0823
73.5127	-37.2512		-32.0919
75.758	-29.2613		-36.4763
76.7867	-25.6342		-38.5302
74.1877	-27.56		-41.3142
77.9463	-21.6981		-40.3372
79.0419	-24.4878		-36.7154
83.6616	-9.50784		-41.2753
85.2035	-9.01008		-40.9143
83.0409	-13.6353		-40.3794
84.0776	-4.5453		-41.4568
85.4335	-27.6919		-31.5099
86.5839	-23.6822		-33.5578
86.1429	-28.1455		-30.3114
84.2073	-31.6592		-29.0243
90.0122	-18.0438		-31.6454
90.0052	-17.4958		-30.8861
78.8797	-40.1873		-20.8987
79.3543	-40.4268		-20.1998
78.4392	-40.8774		-18.9144
78.0329	-39.2862		-22.9557
79.91	-33.3013		-8.8147
79.5762	-33.9111		-8.76228
79.1313	-34.8833		-8.95717
89.9518	-17.1298		-30.4848
89.4359	-17.7298		-29.5511
92.9803	-2.6018		-34.2306
93.0549	-1.9384		-35.7262
92.851	-3.93208		-32.6054
93.3598	7.54246		-31.7779
93.6464	8.89492		-31.8803
93.7978	10.9695		-30.857
93.2321	10.7532		-28.6727
93.983	11.4357		-31.2473
93.4861	12.9977		-27.803
83.3295	-10.5773		-9.23902
84.6833	-5.10681		-9.77102
82.8179	-9.86722		-7.94057
82.3333	-14.629		-8.69379
78.0027	-26.7401		-2.45362
77.0974	-27.2672		0.195297
77.4442	-30.4315		-2.91495
78.5485	-22.475		-1.96904
81.8568	-21.621		-11.1936
82.18	-23.6192		-11.7046
81.8623	-19.6689		-11.3126
81.5288	8.54525		-17.5372
81.9057	9.87908		-20.9378
81.5647	8.53971		-17.3307
89.8103	16.1255		-18.009
90.7766	17.8387		-21.0588
88.9585	16.5455		-19.1544
88.3468	12.9859		-15.1393
90.5787	15.4064		-17.043
90.2892	18.5534		-26.0053
89.527	18.2861		-23.0588
90.5836	18.6871		-25.511
90.737	17.3203		-29.6249
89.4575	17.518		-27.369
90.8771	3.35395		-40.1693
90.0762	2.8907		-40.3485
91.2795	9.28737		-37.3325
91.9415	3.59019		-39.6415
85.6993	-0.479841		-10.3053
85.9631	-1.71585		-10.9611
93.6909	2.71212		-37.1634
94.2048	7.80218		-34.9383
93.3436	-0.0747128		-37.3525
93.7402	2.61625		-37.5254
92.9865	13.842		-23.8896
92.0588	13.2444		-19.9675
92.7538	12.4942		-24.6184
93.098	14.8223		-23.28
87.1751	0.352811		-13.0219
86.5933	-1.42441		-12.4727
87.7707	2.691		-13.7043
93.2481	3.36953		-34.4901
93.3163	1.34536		-36.3256
90.6468	5.86289		-23.0822
90.148	4.50265		-22.3258
91.9545	5.43013		-27.1742
85.1801	-6.38492		-14.269
85.3403	-6.09673		-14.9583
85.7164	-4.79425		-13.1854
89.9355	-5.32385		-27.965
91.9783	-2.68362		-29.8413
89.6802	-4.88705		-27.3497
89.8056	-6.41132		-28.1232
79.0765	-18.5357		-1.97563
79.8351	-13.9558		-2.74776
78.2489	-18.8341		0.485626
84.3708	0.654615		-39.9999
83.2197	0.095568		-41.1243
84.299	5.27608		-37.8956
85.3862	3.13626		-39.0649
87.8095	8.06569		-36.4
87.6285	11.7982		-33.211
90.2033	12.6886		-34.4973
87.8857	4.03334		-39.2777
89.012	1.92222		-40.3205
87.8001	-3.56289		-41.1101
87.3357	-8.539		-40.7514
80.8151	-23.8727		-35.8758
79.8019	-26.9764		-34.073
81.685	-20.6629		-37.5416
82.3985	-17.296		-39.1092
80.724	-17.5127		-40.1203
88.8637	-17.6794		-28.5471
78.7716	-29.8782		-32.3763
77.6287	-33.4772		-30.0612
80.0135	-29.5957		-31.9337
77.7118	-37.2832		-25.5347
77.2525	-37.2922		-25.8739
76.9953	-40.681		-21.0105
78.2227	-40.6081		-16.1722
77.7178	-40.861		-16.0185
77.1571	-41.0589		-15.7141
90.0084	-7.14785		-28.5957
91.9614	-5.75823		-30.7494
82.2212	-9.28366		-6.85336
81.484	-8.90676		-5.63621
79.8279	-22.8213		-5.41405
80.1499	-22.9721		-6.0642
82.6958	-27.0953		-11.4524
83.6207	-29.0427		-12.9977
82.8968	-25.9951		-12.2728
81.7083	-17.6281		-8.22356
82.1404	-17.7244		-10.3599
87.3582	13.5822		-30.0466
84.9449	9.9326		-32.8363
86.4319	14.1704		-26.7496
83.9963	8.40877		-34.6218
83.5616	8.12448		-35.7047
83.3972	10.4984		-30.4092
81.7721	-17.6871		-13.1284
82.0178	-17.6482		-12.257
92.5415	4.49131		-29.5036
92.3493	2.98362		-29.1745
85.7777	-5.37055		-16.3623
85.1101	-7.64898		-17.4051
86.7915	-4.10479		-18.9609
89.6582	-4.05868		-26.8531
91.4516	-0.460372		-28.0164
89.0925	-4.02063		-25.4954
8.64756	86.6638		65.3344
8.45003	79.7187		70.8043
15.9326	85.7819		64.8306
8.96683	93.7096		58.229
1.1329	86.9098		65.5642
8.00911	72.8131		75.2407
1.36672	72.6437		75.6928
7.50313	65.3438		79.1848
14.5326	72.5824		74.3693
27.6157	57.8291		77.2742
27.6235	51.7002		80.4078
23.4228	58.1314		79.0276
3.02849	-28.7363		108.31
3.41254	-26.9436		111.124
1.51908	-28.6113		108.924
5.05744	-28.7361		106.697
4.22985	-16.7652		117.71
6.85231	-16.7249		116.401
4.203	-14.6849		117.028
1.83765	-16.7723		118.099
4.24055	-18.583		117.784
4.21225	-20.4524		117.267
1.8813	-20.5192		117.715
4.1014	-22.3914		116.107
2.9505	-34.1045		100.254
1.21744	-34.2646		100.42
3.69421	-40.9074		98.3156
5.79573	-40.3421		97.9593
1.50533	-41.2309		98.4456
3.86511	-24.6568		113.959
6.16353	-24.5937		112.318
1.74595	-24.6446		114.517
3.99514	-12.4113		115.772
6.6246	-12.6746		114.594
3.67483	-9.48432		113.536
1.60651	-12.2853		116.076
6.51925	46.6897		86.4185
1.08228	47.4176		86.8353
6.0259	43.2522		87.0432
11.4067	46.0312		85.8901
6.82876	51.0319		85.1654
3.23821	19.5422		89.0603
3.04454	16.9375		90.7633
3.41141	21.681		87.9221
1.64413	19.8258		89.2017
3.55965	23.6763		87.1092
5.4877	22.9298		86.4706
3.65209	25.7171		86.5558
1.78609	23.9005		87.3153
4.17596	-54.7105		91.7301
1.61285	-54.7702		91.8436
4.40819	-53.4627		90.5702
3.91888	-55.4765		93.0925
3.92982	-55.6556		94.0968
1.67626	-55.7775		94.1176
6.31156	-55.5584		93.7651
4.03243	-55.4976		94.9531
4.69512	-52.9461		98.1896
4.59636	-53.9449		97.3368
1.61842	-53.1464		98.4302
4.33967	-54.7956		96.2928
1.66261	-54.9965		96.3115
4.55979	-48.5192		99.3897
1.58244	-49.1235		99.6037
4.32374	-50.8555		89.2073
4.01506	-47.2279		88.0945
1.45563	-50.7849		89.2771
21.9838	84.7026		63.9101
21.1787	78.535		68.9102
27.6233	83.2021		62.5868
22.8917	91.1334		57.2273
17.1801	46.2263		85.0913
16.4585	42.5837		85.9439
22.341	46.8551		84.2986
16.8278	50.9904		83.7037
17.3175	38.494		86.2105
18.5569	34.6436		85.8373
22.0998	39.2145		85.4341
20.1311	32.4818		84.7911
17.2662	32.4153		85.4133
24.0181	33.3347		84.1802
25.1276	24.9935		73.1851
24.5123	25.9896		74.5948
21.9553	24.1416		72.4668
28.794	25.5614		74.0264
26.7341	23.6521		71.8554
23.4791	27.1795		76.641
27.1059	27.5587		76.7236
20.6554	26.6602		76.3556
46.7101	86.8284		40.8179
48.0185	91.8795		30.7831
40.9999	90.4436		43.5144
45.8714	81.5028		48.0902
32.866	81.6077		60.5811
34.1145	87.1886		54.3927
38.5374	79.4536		57.7201
27.2831	47.0141		82.8193
27.7661	44.5993		83.4557
33.0807	46.8079		79.8167
29.2813	34.7684		82.9756
29.1024	36.4404		83.4693
28.2052	40.6509		83.7899
31.3589	27.7419		76.6007
32.1527	26.6721		75.3594
36.2377	27.5636		76.0326
44.7327	76.6906		53.6988
51.1241	73.5809		48.5173
43.4784	71.933		58.39
39.8395	45.3612		75.1591
46.5037	43.1804		70.9919
39.8041	24.5956		73.8129
40.0564	25.6383		74.4511
36.399	25.4104		74.3738
42.5854	23.529		72.6571
41.9757	30.7184		76.2413
41.4076	28.742		75.721
47.086	30.0804		73.9336
40.615	26.9378		75.0743
41.9868	66.93		62.5482
48.8252	63.7638		57.5456
57.1023	70.862		41.7871
56.2909	65.6995		46.8604
62.3149	68.3391		33.7922
42.978	20.7149		70.446
44.6467	19.1925		68.7201
45.0649	22.107		70.8974
46.8303	20.4282		68.9882
43.7157	21.3667		70.7705
51.3436	28.6099		70.9315
54.6991	25.744		67.1219
16.6777	28.6235		80.7293
15.4524	27.7779		79.9253
17.6457	27.518		78.6018
15.5888	29.4765		82.3127
14.5675	30.694		84.0288
13.2511	29.6433		83.229
18.6138	25.6727		75.5947
19.3361	24.1352		73.2135
5.75461	38.9568		87.2292
1.79023	40.5962		87.1689
66.3074	-64.0321		-8.74906
67.9473	-59.1233		-7.20365
66.5319	-64.3305		-15.1105
80.1039	22.538		-37.6246
79.7634	18.6931		-43.2764
78.9697	28.1807		-42.2603
80.5782	24.7715		-29.5541
81.2946	16.8177		-32.5853
76.4354	-8.0509		-52.8944
75.4452	-13.992		-51.4033
74.1774	-8.18112		-58.4124
77.4187	-2.27502		-52.9153
78.0667	3.87971		-52.5252
76.048	5.65534		-58.8998
78.6936	9.35338		-50.6666
80.1385	1.78303		-46.385
70.7216	-31.1165		-45.2986
67.5645	-34.4147		-49.0697
72.4102	-25.4309		-47.7241
7.20474	57.9958		82.5022
1.45981	57.4066		83.1803
12.7474	57.7707		81.777
17.8021	57.8093		80.7083
18.9062	65.3986		77.0468
21.4381	-101.399		56.7084
19.815	-102.853		51.8454
27.8479	-98.7407		51.6231
15.7683	-102.852		59.9237
47.0908	-82.8606		43.6098
41.8353	-87.4682		48.4056
51.4834	-78.9106		38.7398
47.927	-80.3338		47.0267
55.5111	60.1398		51.2208
61.3702	56.5077		43.8877
20.1558	72.3016		73.0944
67.2537	65.8169		24.161
71.201	63.6595		14.1498
67.1271	59.361		29.8015
23.5047	98.4876		47.6149
29.6006	96.1976		46.8931
23.83	105.498		35.8535
16.7798	100.145		48.2106
65.6315	38.8864		43.808
66.1204	45.8198		39.5706
47.451	18.5889		67.2132
59.8799	25.1733		60.6985
60.4785	19.8003		56.9712
58.2903	23.8317		62.2533
56.5951	22.5752		63.4652
1.07639	-111.559		47.8063
-1.46358	-111.383		47.9238
57.3356	-70.1368		38.6565
58.5197	-66.583		40.8372
53.234	-73.0021		45.5166
56.1895	-73.4112		35.6306
8.25623	-44.7553		98.1219
10.1211	-45.0952		97.5643
7.76206	-42.3176		97.7236
25.9711	-51.1164		87.715
24.9722	-47.3802		88.3687
22.9881	-49.1541		90.3562
11.3582	-41.0591		95.727
8.89492	-40.4663		96.8777
12.1105	-43.2865		96.0434
14.1464	-41.5788		94.085
10.5767	-38.8131		95.4215
34.266	-53.6961		81.0874
33.948	-57.0663		80.2199
36.398	-54.3038		79.3325
34.0534	-50.1619		81.7692
64.9066	14.903		48.2511
62.7678	14.4692		51.5057
65.1202	8.30283		47.1274
66.6944	15.5434		44.8094
68.4152	16.3048		40.872
70.4116	16.2959		35.3125
51.3673	14.8605		62.6803
51.1672	12.6384		61.8755
60.6298	13.9829		54.2115
82.3505	8.84029		-37.6789
82.1753	5.13145		-40.854
80.9152	10.8913		-41.6561
82.4973	11.3217		-33.7464
78.8979	-17.7272		-42.0168
76.8147	-18.2202		-45.1091
70.6624	-51.4954		-17.6555
72.51	-47.3651		-15.4965
70.0883	-53.5532		-11.5214
68.6037	-56.8736		-19.9633
71.2376	-48.1253		-23.4894
81.8493	0.503549		-42.857
76.1747	-28.2379		3.25496
75.4798	-32.3586		2.7301
76.8011	-23.8792		3.5765
75.1758	-29.249		7.46106
73.0123	-1.75896		27.4391
73.2717	6.65327		26.559
72.5865	-9.68251		28.3928
75.0919	-2.98739		18.8573
54.2974	7.77237		58.7337
52.2563	9.3941		60.4426
52.0775	5.48833		60.6176
50.3655	10.8886		61.9942
48.6016	9.58985		63.1381
74.0654	-29.9067		13.4612
72.8929	-30.299		19.9677
73.4232	-34.6999		12.8554
74.7242	-24.6553		13.5371
26.0192	-13.9633		79.9266
29.3556	-15.6129		78.1373
24.9033	-8.65136		78.6143
23.2667	-11.4844		81.8025
34.695	-17.1869		75.7765
41.2817	-18.5792		72.944
35.623	-22.0731		76.5627
19.9124	-8.67515		84.9725
16.5777	-5.4793		89.1051
20.2899	-12.6438		87.042
22.8784	-20.7579		85.3377
21.6992	-18.1472		86.9154
18.5528	-21.1648		96.2134
17.1326	-20.3023		99.2596
18.2002	-23.1495		95.3276
19.3912	-21.9683		94.0216
19.8758	-22.8711		92.0673
19.1667	-25.4069		91.243
38.8969	-36.9125		77.2626
33.9339	-36.1649		79.8994
39.6295	-41.7947		77.3534
37.9059	-32.2133		77.2527
36.4938	-26.9618		77.0443
6.34722	-36.5366		97.7411
6.77929	-38.3944		97.5154
7.81905	-36.5266		96.8253
57.7069	-51.5201		55.5376
58.9453	-46.5915		55.6317
53.8343	-50.5311		62.1785
56.0591	-56.472		55.6483
28.7072	-45.0178		85.02
26.347	-44.2703		86.4987
30.9673	-45.4752		83.6536
39.9586	-46.6677		77.1931
39.8061	-51.3681		77.056
44.5571	-47.8881		73.2975
36.0703	-46.0163		80.1608
7.26716	-40.2303		97.5349
54.0388	-61.4683		55.836
56.9283	-62.6013		49.0982
50.6523	-59.6075		62.6193
51.1167	-66.2364		57.2274
60.7334	-31.5878		56.5645
60.3743	-36.6132		56.2963
64.4989	-31.6062		49.5117
28.4537	-93.3481		68.2644
29.0189	-90.4249		70.2482
23.3775	-96.3749		71.5353
39.0711	-79.6477		64.7364
43.2491	-75.4857		62.1075
38.0275	-75.9258		68.4921
34.2972	-83.4934		68.2236
57.7888	-9.99334		58.8818
55.4983	-5.02906		59.9721
52.0702	-10.1704		64.2094
46.013	7.88649		64.8849
47.3447	5.66441		64.112
53.3779	-1.53808		60.8677
48.065	-2.54509		65.0877
50.9475	1.17415		62.2081
43.9175	11.3775		66.2484
2.67289	-93.517		85.8311
1.03967	-93.4596		85.9748
46.9888	-58.0782		68.225
45.141	-61.7736		68.7145
48.2682	-54.0051		68.1869
42.9381	-56.5545		73.1106
36.7736	-72.4913		71.6972
39.8887	-69.0287		70.4938
34.7053	-69.2819		75.0501
32.8585	-75.7005		73.7506
44.998	-9.65248		68.5243
46.9197	-14.5194		68.7721
42.9966	-5.39222		68.5415
49.41	-49.24		68.1285
48.4511	-19.6852		68.7448
10.3907	-84.7109		85.6438
11.2877	-80.1204		85.8245
14.9599	-83.9243		83.7893
19.5999	-82.8183		81.5028
24.0548	-81.0062		78.9868
19.589	-78.4728		82.5511
41.3086	-2.37862		68.4903
39.8165	-0.0171446		68.6974
34.3966	-1.61842		70.9369
49.0534	3.45131		63.1222
44.5914	2.14728		66.2132
38.4921	1.98963		68.8283
31.8678	2.56495		70.6636
13.4921	-2.78702		93.3315
14.0635	-6.86426		96.3815
13.0624	1.7678		89.697
15.1109	-14.4893		102.921
14.9125	-12.9115		101.611
12.5341	-13.5652		107.837
15.3645	-15.6816		103.269
12.8735	12.4755		80.2617
12.7628	9.90082		82.6363
23.2598	-3.74994		77.1749
2.93019	13.4118		93.4838
1.37276	13.7459		93.5629
64.4731	1.81679		48.4812
12.8437	6.16929		85.9003
59.9398	-62.6177		41.9192
63.2494	-61.1031		33.3492
67.879	-18.7221		43.4152
67.7095	-25.1904		42.7863
70.1512	-17.4043		36.3952
66.0742	-41.9957		41.683
66.864	-36.6411		41.8294
63.349	-42.0516		48.7628
68.282	-41.7132		34.4114
67.4141	-30.9868		42.1996
69.6155	-30.6803		34.8652
19.0234	-98.1633		74.2906
11.875	-76.13		86.4044
8.13691	-76.5087		87.1252
15.846	-75.5875		85.2158
19.551	-74.8547		83.7491
24.9079	11.8312		69.3502
28.3043	-0.241319		72.394
27.2829	2.07976		71.9173
26.4332	3.86938		71.4635
4.84847	-76.8126		87.4847
1.82426	-76.8521		87.5948
7.51591	27.0106		84.8225
9.18942	26.1914		83.5599
8.17425	28.9149		84.9066
5.68287	27.4974		85.7246
7.37277	24.5961		84.8519
18.0293	16.2898		68.7764
17.9561	17.5766		68.9845
16.6515	16.7218		70.5447
10.6687	25.0789		81.8731
11.4998	27.0033		82.0356
3.73697	27.9887		86.2241
1.60923	28.1721		86.382
6.79068	-28.5078		104.96
7.6335	-26.7654		107.012
9.7743	-16.4993		113.633
9.79757	-14.8147		113.006
12.8277	-16.4654		108.936
18.0223	-30.3612		88.407
17.7422	-29.0748		89.6829
15.6672	-31.8474		89.8952
9.42277	-13.0308		112.214
7.94578	21.4543		84.7035
9.09013	30.7134		85.2634
10.902	29.636		84.1053
18.3156	18.95		69.3006
12.3823	28.5736		82.5952
13.5455	27.5831		80.9106
14.5545	26.5191		79.0933
20.3385	-36.615		87.1314
17.613	-36.9179		89.1173
21.8052	-39.6942		87.6526
23.6417	-43.5779		88.0728
20.4052	-42.6838		90.1153
26.4939	-57.4614		81.905
26.1679	-56.3866		81.3012
24.6914	-57.4141		83.4744
27.0432	-56.0755		85.2897
25.1074	-54.9721		87.7117
25.6324	-53.4533		80.1548
22.5727	-53.2449		82.621
24.8373	-49.6614		79.2195
15.0942	-37.1469		91.1952
12.4192	-37.0278		93.3629
16.0004	-39.5224		91.7037
17.3638	-42.1647		92.0746
18.4672	-44.7742		92.4978
22.2176	-57.1487		85.2481
20.7015	-55.7303		85.2983
19.6158	-52.8398		84.5097
19.2392	-48.9674		83.2587
9.94677	-36.7469		95.3475
9.50901	-34.9313		95.3946
13.288	-45.754		96.1974
16.502	-46.4325		94.4977
19.9715	-15.1338		89.6091
17.3147	-12.5396		94.3082
3.3985	-5.59232		110.081
1.32311	-5.32146		110.217
14.463	-10.2627		99.4389
8.62397	-24.224		109.72
11.1346	-23.9703		105.844
13.6489	-23.9826		101.575
14.5397	-21.7248		102.688
15.974	-24.4472		97.3861
17.3558	-25.251		94.5359
17.7722	-26.5829		92.4214
17.8018	-27.8649		90.8481
15.3477	-16.8066		103.747
15.2044	-18.1046		103.946
15.0137	-19.7931		103.522
39.7884	-142.735		15.2447
35.1769	-144.217		18.4833
40.876	-148.708		13.901
43.9389	-141.098		11.9258
38.4241	-134.644		17.1469
37.0934	-123.543		19.7367
41.2398	-121.894		15.8285
36.5847	-113.961		21.9748
32.6164	-125.023		23.6209
39.2662	-97.3383		28.467
43.4036	-94.5354		23.4289
34.8756	-99.9098		33.1874
38.2286	-102.02		25.1615
37.198	-107.313		23.3721
32.652	-109.187		28.1719
41.2411	-105.141		18.8939
42.9445	-65.438		69.2489
45.5197	-67.9838		64.5561
39.7791	-63.2386		73.5043
47.7712	-70.7772		59.0635
48.5159	-74.1007		54.547
48.5914	-77.2411		50.5418
37.1716	-61.4643		76.4268
38.4033	-58.5328		76.5315
34.86	-60.2045		78.5417
35.1232	-64.1525		76.894
33.3265	-59.4584		79.7257
32.2377	-61.2224		79.7992
47.0103	-91.7603		18.596
48.6794	-87.415		21.5561
45.8921	-96.8663		15.9046
50.2872	-89.5851		13.0773
50.8442	-83.2737		25.1999
53.5389	-81.3093		18.6119
53.097	-79.5004		28.7654
54.8207	-76.345		32.4714
57.4218	-74.5195		25.0465
45.0956	-120.048		11.8058
46.3382	-131.293		9.97536
48.7675	-118.534		7.59013
44.6123	-110.173		13.2493
47.664	-139.507		8.45998
48.9915	-145.686		7.11305
51.139	-137.927		4.67608
44.9583	-102.797		14.3835
71.406	-30.3527		27.4728
70.8297	-35.9274		27.0853
71.8891	-24.0972		27.9027
59.2699	-73.1219		17.8505
57.4939	-76.3048		14.9569
60.6584	-72.0301		10.6157
73.169	15.5854		26.5949
76.0122	13.5515		15.908
65.5754	-59.6155		25.031
67.1363	-58.1595		16.6093
70.0884	-41.2824		26.8496
71.5012	-40.6714		19.2333
72.1969	-16.9252		28.7053
73.9549	-17.9605		20.6265
72.6275	-39.4608		12.4161
73.7204	-37.8348		6.23097
58.1281	-86.517		-3.49343
57.7946	-91.4981		-4.60957
60.0835	-86.1449		-8.45569
58.6662	-82.1387		-2.07949
55.8576	-87.0976		1.64177
57.6173	-97.0876		-5.21633
59.5121	-78.0831		-0.0209139
57.6901	-78.8659		5.70894
61.1927	-77.501		-5.79456
60.5878	-74.4406		1.85871
76.8717	-3.87098		10.5423
77.5931	4.10539		8.19274
76.0274	-11.9141		12.6692
78.2348	12.5048		5.45355
78.6916	20.4236		3.07445
79.0299	28.4585		0.0428598
80.2501	27.6208		-10.5189
79.2588	36.4122		-3.50043
68.2103	-56.5295		8.64569
69.0085	-55.2428		1.00254
75.3285	-18.6596		13.6141
76.4832	-19.2178		7.63878
52.3349	-116.979		2.96906
53.3464	-128.173		1.66749
55.7826	-79.9179		12.1707
54.2809	-83.8147		9.45025
54.4177	-136.236		0.410086
55.5927	-142.197		-1.00378
61.3983	-112.38		-15.3635
61.9274	-121.881		-16.7891
61.6777	-85.6582		-13.3612
62.7701	-83.9783		-18.5582
62.1564	-81.091		-12.5355
62.857	-76.6076		-11.422
62.4101	-128.983		-18.4091
62.8113	-134.6		-20.4798
69.5276	-54.7072		-5.87805
74.7115	-36.3265		1.98583
75.7996	-34.4787		-1.1116
73.9988	-39.9021		0.629103
77.3664	-19.231		3.69581
62.0325	-91.6479		-26.4411
60.7827	-87.479		-33.322
62.5422	-85.3818		-25.4272
63.3963	-79.5133		-24.6007
62.9505	-73.2226		-30.7645
66.7527	-62.962		-21.5797
73.7595	-44.9128		-14.3349
75.0755	-42.2565		-20.7609
57.9688	-118.201		-44.3838
58.1224	-125.916		-45.8518
54.7145	-115.542		-51.4136
57.893	-109.97		-42.8501
72.2491	-43.1969		-28.2282
74.6427	-39.6398		-26.6743
76.305	-37.9942		-26.0494
30.3666	-145.466		21.4936
29.1066	-137.442		23.8967
25.5029	-146.602		24.161
31.5501	-151.252		19.6855
27.2979	-110.512		33.4026
21.5684	-111.323		38.3369
26.7886	-116.661		31.101
28.4703	-105.999		35.4322
33.5549	-95.7762		46.5744
31.4282	-98.7074		42.4263
35.3002	-93.5157		50.0906
29.729	-102.198		38.3889
24.0832	-103.825		43.5978
27.6528	-126.096		27.6251
22.5281	-127.439		31.1881
32.9409	-66.7657		77.4934
31.5861	-64.4687		79.2954
36.5678	-91.5596		53.2068
30.7198	-63.0143		80.3072
28.5011	-64.7376		81.5516
29.9233	-61.8009		81.0618
29.2101	-60.6303		81.6337
27.4711	-62.0695		82.9235
28.652	-78.7864		76.156
29.1633	-82.8013		74.1451
29.4155	-86.9904		71.9838
23.3307	-59.1884		86.6189
20.2422	-59.2525		89.2005
23.0637	-58.5677		85.538
26.0089	-58.6013		83.2131
23.1014	-58.7682		85.0384
19.6114	-58.2301		87.7435
23.0486	-59.2228		84.5414
22.9157	-60.5258		83.6037
19.5247	-58.8995		86.5406
22.4025	-63.4027		82.3133
21.6231	-66.7826		81.2923
19.171	-62.9628		84.1359
15.9007	-111.674		42.3575
16.8639	-107.858		44.8616
16.0696	-118.234		39.0363
20.561	-147.758		26.5069
19.2687	-139.885		29.4575
15.6801	-148.617		28.4797
21.7408	-153.215		24.4393
17.5482	-128.541		34.2558
8.23783	-105.676		52.2828
12.3352	-105.724		50.6513
9.9349	-104.265		56.779
11.3976	-149.211		29.8863
12.5021	-154.473		27.7753
11.3581	-103.628		61.7697
16.1473	-57.6809		89.8948
16.017	-57.9064		89.1204
15.8931	-58.447		88.337
16.1213	-59.7275		87.0933
15.9785	-62.49		85.5588
15.677	-66.1826		84.1146
74.835	46.7911		14.1777
77.5335	45.2202		3.21364
74.8587	54.3935		9.06627
71.2294	49.2147		24.8755
80.587	26.5004		-20.3141
73.8919	-19.8383		-50.0125
71.0979	-21.6719		-54.7988
51.7055	-94.218		-54.1421
52.3378	-84.0766		-53.1039
54.6823	-97.2463		-48.641
51.5749	-104.412		-55.298
48.5785	-92.0074		-59.0622
51.709	-113.344		-56.6556
52.0959	-121.852		-57.918
48.5043	-111.704		-61.3579
58.6258	-81.9922		-40.6591
57.9731	-91.5008		-41.0926
56.0125	-77.6222		-47.0367
59.932	-73.617		-39.4122
23.6833	111.748		22.0067
30.4747	108.917		21.7738
23.5393	116.283		6.75101
16.5662	113.746		22.2643
22.7356	100.87		-78.2847
23.4503	109.534		-62.4953
29.8106	98.8607		-76.419
21.9025	90.0541		-91.358
15.3158	102.28		-79.6845
21.3953	78.1984		-100.82
28.2315	76.5624		-98.8547
21.074	65.0853		-107.953
14.4505	78.9624		-102.396
23.6438	115.399		-45.4778
30.8128	112.917		-43.8765
16.1644	117.207		-46.5243
23.6644	118.416		-27.6831
8.55405	121.953		-10.7539
0.620555	122.383		-10.8806
8.6317	119.667		6.51768
16.218	120.711		-10.4617
8.47964	121.557		-28.8693
20.7775	52.1698		-112.832
27.1823	50.8222		-110.824
20.4405	38.7848		-116.083
14.2939	52.9282		-114.262
19.9191	24.8057		-117.876
26.2196	23.8406		-115.722
19.4063	11.0117		-118.049
13.6379	25.7414		-119.356
17.3084	-27.2839		-107.17
23.0784	-28.0176		-105.035
16.9812	-38.8501		-99.8843
11.7801	-27.1837		-108.31
18.1316	-14.7986		-112.99
6.48774	-0.937006		-119.169
0.137369	-0.862052		-119.477
6.70848	12.1419		-120.58
12.6911	-1.36266		-118.177
6.1822	-13.7085		-115.625
14.9948	-85.1233		-82.3772
15.3443	-75.6735		-83.3639
20.241	-85.8678		-81.0494
14.7595	-94.5182		-82.0063
9.9514	-84.6985		-83.1319
4.82626	-103.036		-82.6573
9.75082	-103.482		-82.3674
4.93074	-112.633		-82.4571
0.0839274	-102.814		-82.7457
4.94363	-93.4255		-82.9893
17.1156	-47.9588		-93.8526
22.3607	-48.5154		-92.3113
16.7195	-56.1027		-89.3086
11.4484	-47.5104		-94.8426
15.9192	-65.464		-85.6816
21.4917	-66.544		-83.9619
10.6809	-64.6829		-86.6613
5.41969	-64.4001		-87.1005
5.67817	-55.216		-90.753
5.12864	-74.7925		-84.6654
0.135244	-64.5836		-87.1416
48.8264	96.7543		18.6955
54.5678	91.2371		17.3432
49.6334	100.414		5.08156
42.9802	101.395		20.1227
47.19	69.5625		-88.9701
52.644	66.4603		-84.7864
46.8117	57.6677		-95.7073
41.3596	72.2012		-92.7432
47.6147	80.3629		-79.8644
48.0052	89.7841		-67.9297
42.3374	93.3772		-71.1332
48.7085	96.7685		-53.8822
53.5277	85.399		-64.3987
49.4756	101.019		-39.2279
55.2225	95.3812		-37.5152
43.6663	105.681		-40.7928
50.336	102.541		-24.4507
50.1584	102.491		-9.55363
44.0891	107.548		-9.38041
55.9615	96.6698		-9.70662
46.161	45.6098		-100.579
45.4752	33.0872		-103.805
40.2904	47.4962		-104.455
51.5743	43.406		-96.3317
44.5032	20.4024		-105.616
49.8136	18.9803		-101.333
43.5167	7.5618		-105.723
38.8795	21.5128		-109.392
42.2019	-4.85362		-104.28
40.855	-17.6073		-100.782
36.9879	-4.53698		-107.876
46.9862	-5.57275		-100.146
39.9911	-30.0288		-94.9682
44.6782	-29.7371		-91.1884
39.3578	-40.7965		-88.6218
34.7155	-29.4518		-98.8396
38.7122	-50.1315		-82.9628
37.967	-59.4494		-78.0577
33.5535	-49.9702		-86.6332
43.2683	-50.2892		-78.7363
35.7893	-87.5831		-73.0662
34.8689	-97.4887		-73.9696
30.7627	-87.1979		-76.4509
36.7348	-78.0607		-73.0064
40.3551	-88.4986		-69.071
24.6254	-104.998		-79.4726
24.8033	-113.793		-79.6746
19.5802	-104.317		-80.8912
24.9245	-95.973		-79.2518
29.7392	-105.883		-77.3936
37.328	-68.8438		-74.6389
41.9705	-69.1384		-70.1394
32.457	-68.2496		-78.3619
67.5567	69.0784		-51.2366
68.7476	72.9565		-39.8189
71.5755	62.33		-45.5225
66.6703	62.9947		-61.642
63.2364	75.0172		-56.3727
69.6325	75.1421		-28.4986
73.4697	67.3395		-23.4649
65.2974	82.4439		-32.5218
70.1428	76.0623		-17.3128
69.4289	76.7899		-6.49747
72.3474	69.3659		-1.84551
65.6793	83.7307		-8.69604
56.3396	41.1722		-91.8656
57.0397	52.3168		-86.9547
60.6664	38.5346		-87.1047
55.6003	29.3921		-95.0737
57.4181	63.2079		-80.3712
57.8806	72.672		-71.7388
61.9006	59.3268		-75.5184
51.7074	-6.24184		-95.2524
53.4967	5.63192		-96.5964
56.2282	-7.03982		-89.7859
49.9484	-18.1475		-92.1566
54.6392	17.3677		-96.6777
59.0994	16.0121		-91.6512
48.858	-29.2346		-87.1085
52.9358	-29.1639		-82.0605
48.27	-40.1224		-80.3776
47.3245	-49.6084		-74.525
50.9675	-47.9788		-70.5576
46.6012	-69.7135		-64.5169
50.5347	-72.1152		-58.0334
45.6379	-79.6414		-63.6078
77.3662	34.1637		-47.2123
76.4668	28.2899		-54.6413
75.3612	39.5766		-52.7735
59.744	85.1403		16.5953
60.4938	88.7792		3.57788
78.8819	44.1216		-7.60621
78.0808	51.8453		-12.5419
66.675	-7.7604		-74.1477
63.572	-7.86394		-79.23
68.1799	1.56065		-75.5621
69.549	-8.09061		-68.657
64.8015	-17.468		-71.3491
69.0297	10.9909		-76.1941
66.0891	12.7417		-81.5835
69.9191	19.9646		-74.7093
71.823	8.92313		-70.2059
70.7995	29.068		-71.3528
67.7926	32.5112		-76.9376
71.7955	37.3934		-65.8912
73.4695	25.2505		-65.5068
59.1767	-42.1107		-60.0084
56.5269	-44.3545		-63.4731
60.8926	-34.5967		-63.9262
61.8324	-39.9439		-56.3035
57.6799	-49.7491		-56.2166
68.3707	-23.2926		-59.371
66.4502	-30.4845		-56.0972
65.7241	-24.8956		-63.4507
70.303	-15.943		-61.7386
53.5648	-74.6469		-52.4128
54.9387	-65.7031		-52.5577
76.1105	-38.2069		-6.47523
76.7421	-34.7831		-4.52003
74.4193	-41.1919		-4.3029
76.724	-33.1374		-3.11314
80.7366	-7.74695		-4.30248
81.619	-2.45928		-6.29569
92.9381	3.48194		-38.9172
93.1394	9.2513		-36.4784
93.558	3.08091		-38.2249
82.6047	-35.7719		-25.884
81.3464	-38.5793		-22.5798
92.8032	13.9127		-32.9311
91.8475	14.2304		-33.4141
92.1972	17.009		-28.812
93.6742	13.2406		-32.3892
86.624	8.72602		-12.6808
85.3045	8.72556		-13.3384
91.5054	18.2789		-24.5861
92.4175	17.5607		-23.8668
87.8473	-19.3002		-35.8717
83.9224	-36.6424		-18.7133
83.2563	-36.5814		-16.1544
82.2249	-38.6738		-19.162
82.0879	0.166405		-7.94441
88.2505	16.5055		-20.2221
86.3579	13.396		-17.6578
87.1585	15.649		-21.7756
83.9918	9.02392		-14.73
83.1103	9.47676		-16.2711
91.1866	14.0764		-33.6343
82.3522	9.24531		-17.6843
83.5869	11.2536		-20.2514
85.1065	13.1964		-23.7384
82.9458	11.07		-24.8206
87.0039	-27.7498		-28.8877
86.9751	-29.4775		-21.4944
80.6577	-39.8414		-19.5988
82.4955	-35.7956		-13.9651
83.7036	-32.9514		-13.9338
84.6976	-30.6035		-14.7732
85.2173	-29.0499		-15.6632
93.7421	2.77787		-37.8258
94.223	8.34302		-35.473
91.0394	14.807		-16.611
91.2041	14.1624		-16.3335
92.195	16.4977		-19.5882
91.168	13.5463		-16.2015
92.3892	15.3167		-19.1292
90.98	12.4654		-16.391
94.0437	12.693		-32.0437
93.5562	15.5439		-27.9325
94.1518	12.1879		-31.9177
92.9669	16.8478		-23.406
93.1828	16.2482		-23.2975
93.1876	15.6556		-23.0473
93.6913	14.4906		-27.5908
94.1077	11.8082		-31.6112
93.1516	-1.5616		-36.8491
90.6922	11.1602		-16.952
88.0538	3.86275		-14.6763
92.5288	11.0076		-25.2573
92.6078	-4.73377		-31.8561
92.6783	-2.86278		-31.5356
92.6245	-1.00909		-30.9353
92.4384	0.469137		-30.0273
92.1066	1.66637		-28.7847
91.2232	2.47071		-26.2805
83.1927	-25.597		-13.4539
84.3989	-27.1415		-15.0774
86.0397	-2.83678		-11.8789
82.1372	-17.6875		-11.4888
85.3322	-28.324		-16.1359
32.674	25.7718		74.4662
35.2095	93.699		45.4495
36.2758	99.883		34.2726
9.05099	101.359		48.438
9.00388	108.714		36.3453
0.910186	101.836		48.4522
36.7905	105.57		21.005
37.194	109.746		6.42611
8.80956	115.021		22.3777
0.746376	115.523		22.2628
23.4867	118.669		-10.059
30.6719	115.751		-9.66339
37.4406	112.096		-9.53501
37.641	112.09		-25.823
66.794	52.5784		34.7073
74.0293	61.7908		3.48695
75.8318	60.5468		-7.22845
60.9977	90.6094		-9.76867
61.2267	90.4328		-22.6432
8.38867	118.324		-47.0599
8.23236	112.19		-64.4513
0.504538	118.709		-47.2012
37.2877	109.816		-42.1163
36.9	104.51		-58.6575
76.1494	59.5325		-17.9865
75.7944	58.1155		-28.8349
60.3042	89.3971		-35.4812
59.3713	86.1779		-48.1208
74.7579	55.518		-39.588
73.7267	51.2341		-49.7871
72.7082	45.2471		-58.5705
69.6052	50.2918		-64.4758
44.7919	-90.2958		-64.1941
44.1707	-100.356		-65.4655
44.2806	-109.752		-66.4531
44.493	-118.406		-67.6333
39.4208	-107.951		-71.0845
7.86083	103.221		-80.3182
7.52786	91.8022		-93.6848
0.389894	103.418		-80.682
7.44653	79.3883		-103.285
7.4458	66.3116		-110.249
0.268452	79.5065		-103.57
7.43742	53.3621		-115.111
7.27876	40.2608		-118.364
0.197239	53.552		-115.36
6.97636	26.3839		-120.251
0.168518	26.4149		-120.55
18.8325	-2.04149		-116.515
24.9568	-2.9877		-114.191
5.85602	-26.9863		-109.082
5.82331	-38.9997		-101.037
0.137974	-27.1009		-109.207
5.79311	-47.6229		-95.0948
0.145959	-47.8338		-95.0415
5.0417	-84.213		-83.526
0.108399	-83.9908		-83.6462
34.8812	74.5756		-96.1537
35.4704	86.1698		-86.7272
34.4085	61.9957		-103.076
36.1396	96.3574		-74.1904
33.8029	49.3194		-107.958
33.2674	36.2324		-111.146
32.6041	22.8169		-112.857
31.9671	9.17743		-112.896
31.122	-3.84002		-111.249
30.072	-16.4852		-107.752
28.9613	-28.7328		-102.272
28.1521	-39.8841		-95.772
27.991	-49.2723		-89.8788
27.7907	-58.1475		-85.0064
27.039	-67.4004		-81.5801
26.3245	-77.094		-79.6149
25.6568	-86.479		-79.0589
34.7518	-106.749		-74.5906
35.022	-115.567		-75.1785
58.4313	80.7025		-60.5978
65.9406	55.3441		-70.022
65.2574	45.7319		-77.028
64.3861	35.8869		-82.202
63.5939	25.2445		-85.4403
62.7703	14.5509		-86.7724
61.7868	3.49507		-86.1993
60.0589	-7.68859		-84.4816
58.16	-18.3969		-81.5333
56.4332	-28.2753		-77.5172
59.724	-27.6512		-72.5199
55.0699	-37.9156		-72.1381
53.8394	-46.1858		-67.1
56.4609	-57.7168		-53.278
58.5967	-56.2028		-49.9611
75.5152	22.0454		-60.1017
74.783	14.7156		-63.2453
77.4296	18.2505		-54.169
71.8938	-8.16681		-63.7516
73.1939	-0.3667		-64.6305
62.7475	-26.383		-68.0057
74.0239	7.4631		-64.7814
64.5287	-37.5844		-52.7138
62.8645	-44.6393		-49.4735
18.0662	-105.086		47.883
62.0534	-70.9227		3.72502
53.2027	-88.057		7.42568
15.6072	-50.7577		95.3608
18.8976	-51.5952		93.3389
22.2252	-53.2261		90.5596
11.1499	-60.6531		94.8908
11.5638	-61.6342		94.8385
11.8427	-62.6942		94.6653
25.6489	-66.7011		83.4283
25.2479	-65.269		84.4121
24.8516	-63.952		85.3301
19.8183	-47.6214		92.3925
39.3302	-55.1955		76.7443
30.2709	-35.7398		81.5011
31.8765	-40.8074		82.018
33.1886	-45.6703		82.1296
59.946	-41.564		55.6908
19.5491	22.8843		71.7178
79.1638	14.5208		-47.8601
82.0339	12.9907		-28.9859
82.696	11.0079		-26.6808
72.9582	-44.1021		-0.949755
24.9505	10.4479		69.8435
53.0602	40.3869		66.2884
9.5398	-33.3458		95.448
45.7438	17.6159		67.0316
13.2401	-31.6524		92.4204
82.5921	10.7971		-25.6445
57.7763	-100.951		-41.9415
62.2004	-65.4167		-37.7043
61.2979	-58.8976		-42.9203
61.2642	-53.0954		-46.6673
23.6701	-28.6343		83.4195
17.0039	-59.0341		91.5373
27.553	-58.5751		81.9938
9.36802	-55.5815		92.9428
-69.8083	-49.5543		9.8356
-70.8336	-45.1193		11.2014
-70.9567	-47.3554		3.10167
-68.6536	-53.6313		8.47661
-68.5085	-51.6241		17.7549
-57.6779	-113.978		-6.86301
-57.2916	-103.684		-6.55762
-59.6584	-112.789		-11.4574
-58.4328	-124.396		-7.9336
-55.1528	-114.983		-2.3529
-59.198	-131.982		-9.19031
-56.8537	-133.814		-4.49764
-60.8957	-130.21		-13.904
-59.8721	-137.973		-10.4222
-51.5162	-97.8338		3.76726
-54.6829	-96.9484		-1.50767
-51.5523	-105.583		3.01473
-48.2518	-99.2619		8.76282
-52.0034	-91.8836		4.6061
-60.6329	-95.5272		-15.1086
-59.2007	-95.9246		-10.6932
-60.8016	-90.2239		-14.909
-61.4754	-94.392		-20.2698
-60.6387	-102.407		-15.4134
-61.9272	-67.031		19.4804
-63.2278	-65.8045		12.1608
-60.1292	-70.1097		17.53
-59.9131	-68.5716		27.0885
-63.466	-63.9616		21.3299
-73.1972	31.2004		22.6931
-76.3554	29.4684		11.1804
-72.79	23.3814		25.4654
-69.2905	34.5315		33.4829
-73.8168	39.278		18.5086
-78.1266	41.4791		-28.9608
-79.3488	34.0169		-24.338
-78.5942	43.2331		-18.5052
-76.4433	48.564		-33.93
-77.495	38.4543		-38.5055
-8.86624	-110.898		46.3039
-9.26921	-106.699		48.924
-11.9821	-110.585		44.9463
-8.77516	-118.395		43.3475
-6.37899	-111.039		47.1645
-9.48362	-129.956		37.9805
-10.2645	-141.332		32.8828
-6.16237	-130.226		39.1114
-13.154	-128.954		36.5294
-3.3311	-149.779		31.3584
-3.6906	-154.956		29.4433
-3.11349	-142.081		34.4513
-7.03252	-149.414		30.8264
-66.41	-53.6527		-33.2302
-67.2565	-46.2284		-37.3232
-63.8217	-59.4362		-35.4298
-65.8794	-59.8163		-28.1318
-68.9517	-47.8584		-31.07
-68.1697	-40.8816		-40.29
-71.2821	-36.4545		-37.2498
-69.0872	-36.2092		-42.6712
-64.5582	-46.4366		-43.5173
-61.7475	-123.461		-30.1999
-62.2855	-126.47		-23.8024
-60.231	-120.749		-36.9298
-61.734	-130.16		-32.4314
-3.03145	-130.608		39.6782
-3.17853	-119.018		44.9607
-66.7695	-53.3232		25.8233
-65.655	-57.6646		24.6573
-64.6956	-54.3989		33.3619
-67.8897	-48.2756		26.4434
-64.385	-64.412		4.81775
-65.9632	-60.8953		5.99339
-65.2111	-63.6123		-2.71878
-62.7355	-67.8054		3.39195
-6.89567	-92.0691		83.918
-7.09679	-88.2478		85.0311
-11.4293	-91.4592		81.6359
-6.99007	-95.7632		81.7505
-3.285	-92.5786		85.3153
-16.4749	-90.2015		78.7617
-16.6475	-86.2145		80.0826
-21.4225	-88.3826		75.5241
-16.2604	-94.2719		76.6143
-1.10973	-85.2554		87.3138
-0.806863	-89.2206		87.0644
-1.44835	-80.966		87.208
-4.08694	-84.7013		86.6174
-7.22322	-98.7483		78.7842
-3.63958	-99.2117		80.1158
-11.6004	-98.2755		76.556
-7.86711	-100.972		74.7583
-8.78541	-102.166		70.3826
-9.29988	-102.585		66.1288
-4.94394	-102.789		71.2523
-15.2861	1.3869		80.8178
-12.6942	4.01444		82.963
-14.7492	5.78779		77.952
-17.8831	-0.53102		78.9248
-15.8674	-3.13775		83.4124
-46.8386	-28.2778		71.0202
-47.6167	-33.4858		70.5379
-41.1371	-26.9967		74.9381
-46.254	-23.0125		71.1
-52.5103	-29.203		65.7702
-57.2897	-18.4807		60.1872
-57.6783	-24.3475		59.6896
-51.6866	-18.1989		66.1533
-56.611	-12.6847		60.6411
-62.4904	-18.732		52.7038
-68.6625	0.131294		40.5059
-66.4962	2.19434		45.0201
-68.5485	8.26074		39.9096
-70.3873	-0.981706		35.5068
-48.0597	-38.8176		69.6784
-42.6874	-37.5291		74.5683
-53.1326	-40.3132		63.7284
-47.9864	-44.432		69.1204
-0.3641	3.78168		101.804
-2.1889	3.18518		101.113
-0.496438	-0.996061		105.924
-0.257719	8.90877		97.3364
-28.893	70.8923		69.541
-30.2507	76.4383		65.1822
-34.7011	69.3117		66.4787
-27.2112	64.5076		74.3545
-23.5847	71.7886		71.8494
-2.02713	-103.906		62.8769
-1.89833	-103.7		67.3939
-5.34897	-103.542		62.3146
-2.39731	-104.14		58.1416
-62.1584	-54.8685		40.7747
-63.3658	-49.4602		41.3814
-60.535	-60.0727		40.4435
-59.0799	-54.7955		48.2516
-0.894886	-99.75		80.5645
-1.35118	-101.986		76.2109
-0.76904	-96.8845		83.6229
-1.75226	-103.181		71.7239
-36.2375	-85.8013		58.5954
-36.6403	-82.8806		61.6272
-41.1596	-82.353		54.1888
-35.2976	-88.3986		55.8827
-31.2913	-88.8024		63.2867
-41.3737	-88.8028		35.3744
-36.7537	-91.7168		40.8049
-43.2808	-85.7077		39.1721
-45.8405	-85.5372		29.7819
-39.7393	-92.1399		31.3878
-3.17561	-104.997		53.6438
-4.19459	-106.928		50.2864
-5.97576	-104.844		53.0374
-5.54048	-7.03775		107.03
-2.95549	-6.17449		109.077
-5.06957	-2.68417		103.287
-8.47585	-8.39395		103.546
-5.97108	-10.5719		110.09
-24.0578	-23.4565		82.1456
-20.7513	-20.5779		84.0633
-22.6951	-18.3306		82.2885
-28.3336	-24.9049		80.4014
-31.4037	-59.6315		79.6304
-29.372	-60.0088		80.1999
-30.0941	-58.9895		80.2341
-10.9995	-29.4948		94.1934
-12.7362	-29.5621		92.0901
-10.3442	-30.6527		93.6392
-12.4929	-27.8051		94.3844
-10.6711	-33.89		91.7483
-8.82959	-33.7379		93.5468
-10.4793	-33.0273		91.9882
-13.0153	-33.6662		89.7139
-11.1917	-35.1978		91.5865
-0.254011	-31.5937		103.023
-2.05841	-31.3364		102.107
-0.433595	-32.8558		101.341
-0.218662	-30.2065		105.382
-15.6151	-32.6761		87.81
-16.2479	-34.0974		87.6592
-15.1394	-31.6734		88.2448
-17.9035	-30.9195		86.2504
-6.10116	-19.864		113.105
-6.26473	-18.1359		113.659
-9.1082	-19.7281		108.418
-5.84831	-21.9461		111.746
-3.18018	-20.2605		115.9
-24.7809	-71.7052		79.2856
-25.4715	-74.8305		77.4907
-20.5778	-73.6484		81.2951
-23.9579	-69.0286		81.0391
-28.356	-69.6204		77.6885
-29.3227	-53.5887		83.3943
-31.5431	-54.1588		81.8798
-26.8713	-52.8682		85.2571
-28.0855	-49.9476		84.9298
-0.781818	-37.156		98.7573
-0.675445	-35.3983		99.407
-2.5725	-36.7634		98.2928
-0.755636	-39.0463		98.4472
-4.63893	1.95542		99.4528
-4.5773	6.52318		95.3217
-7.58276	-0.0879749		96.6648
-17.1283	-21.2978		90.3342
-17.5383	-20.8718		88.9711
-17.227	-22.9438		89.4214
-16.5509	-20.3359		92.6706
-16.4171	-19.2332		92.7628
-3.83667	-33.2327		98.624
-2.36809	-33.572		99.5884
-3.81577	-32.1559		99.3668
-5.33501	-33.3203		97.1685
-3.77915	-34.7935		98.0307
-3.60792	-31.1373		100.723
-3.54749	-29.9069		102.695
-15.8027	-19.0667		94.9818
-16.1661	-20.9692		93.8826
-15.5883	-18.0716		95.2776
-17.0165	-25.5511		88.5666
-16.2775	-28.0767		88.3455
-16.4241	-24.2086		90.8991
-0.925529	-45.5538		98.9509
-0.875384	-43.1333		98.5424
-3.4615	-44.9622		98.6382
-1.21818	-47.4097		99.3087
-22.9007	-35.9134		84.7461
-20.9538	-31.9225		84.6107
-25.3666	-35.7855		83.647
-25.0244	-40.3671		85.2021
-20.3381	-36.1217		86.0823
-8.62547	-71.0796		88.4712
-12.5114	-70.8008		87.3221
-8.85942	-73.2666		87.1463
-4.67053	-71.3298		89.1251
-8.4129	-69.1694		90.0042
-24.8646	-55.4024		85.7601
-24.509	-53.7568		86.8258
-27.7102	-56.7679		82.7336
-25.3777	-56.1089		84.993
-15.386	-17.3742		95.1414
-13.9746	-16.029		98.1598
-15.5267	-16.6525		93.6333
-16.1191	-70.1707		85.9435
-15.8482	-68.4989		87.3004
-19.6648	-69.0066		84.2418
-16.311	-72.2433		84.5656
-1.13487	-71.6614		89.2732
-1.01041	-69.9424		90.6604
-1.24325	-73.5464		88.298
-60.8841	29.3362		56.8015
-61.7714	30.3728		54.5471
-62.6993	22.8129		51.8201
-59.8083	28.5481		58.8116
-39.2663	55.9236		70.0817
-40.2713	61.4451		66.1624
-46.3316	53.2012		65.0493
-38.674	50.8584		73.4956
-33.0195	57.7784		74.4604
-53.3067	49.8139		59.0378
-54.1677	55.1827		54.6453
-59.5005	45.4275		51.8698
-52.3724	45.6218		63.3669
-39.4872	42.8267		76.6425
-38.8843	45.5074		76.0608
-40.2461	39.8859		76.7637
-33.798	43.8912		80.9136
-63.1955	31.4968		50.7924
-66.0706	24.3543		44.3696
-58.0689	38.2747		59.5574
-64.098	34.3289		47.3318
-20.8097	33.3642		80.626
-17.6319	32.4822		80.7627
-19.9602	34.6864		81.7664
-25.1467	33.8747		79.9482
-22.1075	31.8751		78.8743
-5.01572	17.2391		86.3343
-4.89415	14.5395		88.1796
-2.10867	18.7618		88.4072
-5.08967	19.408		85.2199
-7.77543	15.0673		83.3156
-29.2935	-5.85888		74.8832
-23.3825	-4.19577		76.8677
-27.4914	-1.74536		74.0228
-36.6581	-6.69141		72.5377
-30.955	-10.5827		75.9305
-58.583	6.67584		54.9627
-55.9855	3.47362		58.0051
-56.1075	8.52569		56.9827
-59.7064	11.0538		53.6424
-60.8425	5.01436		52.8492
-4.6566	10.9574		91.2928
-2.05159	12.5787		92.9008
-7.42051	8.6733		88.8866
-40.9295	37.6467		76.5598
-41.0255	35.7761		76.2733
-34.9716	38.8441		80.2326
-46.6274	37.6477		73.551
-51.4115	36.5709		70.1064
-55.8129	32.626		65.4803
-50.8386	34.6121		70.6412
-55.8143	16.4138		58.1622
-57.6905	16.3047		56.4799
-55.2154	12.9316		57.7184
-53.8301	16.6752		59.7267
-56.0236	20.7542		60.0232
-44.1749	22.6443		68.5542
-42.4306	23.8124		70.0341
-45.668	21.0258		66.7155
-40.3545	24.7717		71.214
-37.8799	25.4995		72.0083
-40.4739	25.6093		71.7631
-42.8041	24.6486		70.5268
-37.6632	26.3378		72.5569
-34.9946	25.9449		72.3981
-32.0244	25.8307		72.3345
-34.6242	26.6934		72.8734
-31.4108	26.5172		72.7192
-29.1563	25.2693		71.9024
-26.5478	24.2719		71.2828
-23.9162	22.8515		70.4052
-21.6364	21.3334		69.4303
-22.5856	23.4911		70.6538
-25.3458	24.829		71.5318
-20.3544	21.9089		69.7162
-20.1914	19.9692		68.6592
-21.2115	23.9332		70.9963
-24.17	25.5053		72.0198
-34.2719	27.5616		73.5013
-30.7687	27.3235		73.3121
-48.9608	15.8868		62.4307
-47.8659	14.9684		62.9985
-30.1574	33.9738		79.1613
-30.7731	32.4015		77.7808
-29.667	35.7971		80.3457
-35.5631	33.7586		77.8879
-48.369	28.0408		70.1879
-47.0338	26.1816		69.9035
-45.2221	29.2891		72.4144
-49.3507	30.3561		70.6332
-37.9418	7.49151		69.0613
-30.9193	7.64005		70.8502
-43.5125	8.36843		66.4358
-38.3953	5.76748		69.0612
-25.0511	8.97171		71.1065
-24.9471	7.19727		71.5829
-21.1622	10.6815		70.7974
-17.5519	14.897		69.8007
-18.307	13.5353		70.1729
-17.1778	15.8905		69.541
-37.1065	10.7401		69.1627
-31.1648	10.8119		70.4792
-42.3188	11.7283		66.9189
-20.7383	14.6331		68.965
-19.9186	15.3117		68.6219
-22.4338	13.5328		69.5532
-19.2768	15.8637		68.4956
-18.7265	16.5577		68.4636
-14.2788	24.0078		74.139
-13.1081	25.9502		76.6712
-15.73	25.705		74.5433
-15.5867	21.958		71.5663
-16.9556	17.4826		69.4731
-27.3287	26.6096		72.7513
-16.3904	21.1344		70.5126
-17.6017	22.6916		70.8483
-15.7967	19.6012		70.4337
-36.9612	12.1387		69.2153
-31.1501	12.1471		70.3705
-21.0042	15.5723		68.3493
-22.6032	14.8654		68.945
-20.1824	15.9379		68.1559
-19.7451	16.3656		67.9805
-46.656	19.428		64.9685
-1.88989	33.098		85.9895
-2.47405	35.9801		86.2101
-4.47932	32.6741		85.3408
-1.18798	30.5433		85.9525
-18.4537	4.83718		74.5529
-21.3139	3.16979		73.9992
-19.1494	1.93344		76.0155
-16.4858	6.63087		75.0654
-18.1403	7.05295		73.4407
-14.4231	8.62521		76.1287
-12.3586	10.8835		77.7495
-14.8635	14.4692		72.2026
-15.2579	16.3041		71.1445
-13.2137	15.3806		73.871
-9.85355	23.4217		78.511
-8.97007	24.4291		80.0015
-10.8945	25.383		78.3206
-19.2319	12.1865		70.4935
-18.5486	10.7899		71.4202
-18.1033	9.01912		72.3991
-20.6298	7.14208		72.3127
-20.8776	-58.0503		84.4219
-17.1595	-57.4806		86.8623
-24.3714	-58.3174		82.0601
-20.7819	-57.9731		84.1824
-26.2453	-58.5481		80.8506
-25.9054	-58.4325		80.8262
-1.47821	-50.7674		99.2575
-1.46617	-51.9921		98.8379
-1.42784	-49.5168		99.4659
-4.31464	-50.2999		98.818
-7.16275	-52.8657		96.7664
-10.2703	-53.1494		95.4254
-7.11147	-54.0115		95.794
-4.43401	-52.8291		97.647
-7.04041	-51.6226		97.5415
-13.4832	-53.575		93.7119
-16.7731	-54.4365		91.4251
-13.4589	-54.8082		92.6397
-13.4834	-52.4096		94.4605
-6.90329	-50.2922		98.0844
-6.77121	-49.0395		98.3951
-9.90316	-50.6677		96.8235
-11.9579	-49.0267		96.0876
-12.8794	-50.0732		95.5607
-8.70972	-48.4185		97.6861
-11.3662	-47.9334		96.3133
-20.4768	-56.0565		87.8709
-20.2434	-54.8055		89.2747
-6.69199	-55.073		94.609
-10.1942	-55.4206		93.114
-6.35075	-55.6334		93.6018
-3.73422	-54.9273		95.6257
-13.7308	-56.0241		91.058
-13.6554	-56.6493		89.9527
-27.0724	-57.4339		82.5403
-28.4056	-58.7585		80.7631
-21.0728	-59.07		84.9433
-21.0982	-59.2767		85.1991
-17.199	-58.8476		87.6851
-21.0413	-58.9966		84.7221
-21.4712	-60.5164		85.5612
-17.8274	-61.0564		88.5883
-21.3114	-60.0745		85.5429
-14.55	-61.3038		91.1538
-14.931	-62.135		91.0062
-11.2105	-61.1691		93.1397
-14.3615	-60.4533		91.0371
-6.62153	-58.916		94.4204
-3.3333	-58.8762		95.2348
-6.39747	-57.9046		94.063
-10.5196	-59.166		92.9075
-6.91625	-60.026		94.64
-0.842949	-61.7083		95.9011
-0.749417	-60.4251		95.826
-3.63429	-61.2929		95.5915
-0.909833	-62.9081		95.8348
-26.4033	-59.9029		79.8912
-26.3254	-59.389		80.6403
-24.3771	-59.8952		81.4256
-26.1306	-61.119		78.9621
-0.502119	-57.867		91.4978
-0.496225	-57.218		92.9785
-0.454058	-59.2593		89.8243
-2.93768	-57.9822		91.1396
-0.928124	-64.0587		95.6166
-3.84304	-63.5314		95.3879
-0.963419	-65.0621		95.249
-0.94582	-68.2938		92.3854
-0.95908	-66.9254		93.8531
-4.09962	-67.8083		92.3691
-6.43205	-48.1316		98.515
-4.08233	-47.9562		99.0932
-5.69486	-46.8296		98.5868
-0.695868	-59.0796		95.5889
-0.571622	-57.9268		95.2319
-0.503528	-57.4458		94.9424
-0.572587	-57.2126		94.6186
-3.06726	-57.3668		94.6008
-6.26503	-57.4253		93.7527
-6.19343	-57.2487		93.4778
-9.99649	-57.7857		92.3033
-0.607846	-57.0916		94.0113
-2.99224	-57.0811		93.6881
-13.6002	-58.325		90.214
-13.8044	-58.7299		90.4995
-13.5515	-58.1669		89.8782
-15.4641	-64.8023		90.1518
-15.6408	-65.7484		89.4763
-12.233	-64.9613		91.9766
-15.2998	-63.948		90.5754
-8.04514	-64.9557		93.648
-8.20843	-65.9924		92.8595
-3.93587	-65.375		94.6033
-7.83795	-64.056		94.1459
-0.960265	-65.9518		94.7101
-13.5547	-56.8164		89.2566
-13.4332	-56.7258		88.7146
-9.88204	-56.159		91.3523
-26.3363	-59.1619		81.3607
-24.5212	-59.3606		82.7599
-6.05626	-58.1949		90.4167
-6.0139	-57.4487		91.817
-6.16763	-59.5599		88.8922
-9.65736	-58.501		89.2283
-6.06106	-57.2045		92.8773
-9.72241	-57.5721		91.4257
-8.2459	-67.4134		91.64
-12.3906	-67.3388		90.134
-15.0966	-63.0488		90.8792
-11.8451	-63.1365		92.8036
-15.7429	-67.038		88.5013
-18.9023	-66.0834		86.5997
-13.1299	-56.3694		88.3981
-16.3917	-56.9957		86.5175
-12.5485	-55.066		87.7941
-9.80417	-55.6416		89.9022
-6.3701	-55.2422		91.0723
-6.16607	-55.6715		91.9736
-6.9022	-54.0436		89.7757
-3.61904	-54.9592		91.5327
-11.9112	-52.1679		86.8333
-14.6239	-52.6724		85.6041
-11.6183	-48.4196		85.9539
-9.31458	-51.6947		87.7844
-25.4498	-63.9359		77.7544
-23.4152	-64.0055		79.3483
-24.2387	-67.1575		76.9494
-0.323562	-61.9443		87.9567
-0.534368	-65.5307		86.2693
-2.77609	-62.0038		87.7194
-6.80888	-51.3494		88.4596
-6.50604	-47.6814		87.5034
-4.24806	-51.0764		88.9233
-5.98084	-62.1632		87.1397
-6.04934	-65.8335		85.3503
-9.54789	-62.4771		86.1408
-28.7241	-59.0104		73.9558
-28.9361	-58.7045		73.0066
-11.0775	16.8073		76.5053
-10.4543	15.0841		78.3526
-80.0613	-9.27024		-43.8669
-81.5343	-9.79794		-42.1816
-80.7176	-4.67538		-43.8246
-78.237	-8.60997		-47.1372
-79.3085	-13.6778		-43.1658
-80.0843	8.60499		-7.27513
-79.1466	10.6669		-2.47582
-80.4606	11.626		-11.3656
-80.5339	13.8792		-16.4363
-81.0489	13.5598		-23.3155
-80.9104	8.82352		-17.5509
-80.2739	19.4392		-17.6057
-73.8879	-33.5849		-34.988
-75.0992	-29.7043		-36.7431
-72.8379	-37.7515		-32.4983
-76.316	-31.3874		-33.3871
-76.1361	-26.0366		-38.7381
-78.3836	-24.8956		-36.9113
-77.2996	-22.061		-40.4912
