1857
4.11047	-30.0385		97.2691
3.95555	-31.4618		96.7794
5.55693	-30.5121		96.0127
4.15237	-29.0528		97.8832
2.70886	-30.0669		98.1277
4.07002	-28.2114		98.9163
4.15026	-27.2369		100.388
16.0447	-18.7315		93.2599
15.8289	-17.7453		93.4596
16.4247	-20.4582		92.2695
17.4153	-24.4481		87.522
16.7608	-23.4131		89.6976
16.5511	-27.0451		87.8796
1.85557	-42.8519		97.783
2.1581	-44.8861		98.154
4.26228	-42.2029		97.3369
1.58929	-40.1125		97.3412
-0.648063	-43.4414		98.0658
22.4102	-34.3014		84.3834
19.9345	-34.6398		85.8054
23.6598	-38.7275		85.0747
24.7511	-34.2668		83.2554
20.985	-30.4004		84.0878
8.86684	-69.2916		91.3632
8.80661	-67.3596		92.1413
5.6933	-69.4421		92.1494
8.96178	-71.7061		90.686
12.2819	-68.9404		90.0947
21.701	-53.3884		85.8828
21.9857	-54.0565		85.2719
23.9098	-54.8112		83.3482
21.7847	-51.8442		86.6674
15.6205	-17.0053		93.2675
15.7437	-16.0617		91.74
14.145	-15.7877		95.9959
15.3947	-68.3829		88.5124
15.609	-70.8181		87.7488
18.3579	-67.2325		86.6592
15.1395	-66.4477		89.2943
2.90047	-69.5413		92.56
0.190617	-69.567		92.8031
3.04607	-71.8056		91.986
2.70207	-67.7592		93.3298
60.0715	30.9399		57.4584
58.8706	30.1233		59.0374
61.6966	25.0181		52.7327
61.1176	31.9164		55.6975
42.3826	56.833		71.3316
36.4065	58.2676		75.3762
41.7115	51.9204		74.3768
48.6057	54.3549		66.8386
43.5912	62.3333		67.4881
54.6724	50.7299		61.4081
53.7146	46.6008		64.7285
60.235	45.8991		54.6236
55.8316	55.9724		57.2776
41.7401	45.1298		76.6138
41.5816	47.205		76.3263
35.8879	47.0417		81.2022
42.1211	42.8883		76.3604
62.7191	32.7738		52.676
63.9136	35.2511		49.8298
58.3359	39.2512		60.5528
65.3991	26.061		46.5047
22.0684	36.2808		82.4106
22.725	34.2784		80.3514
26.2652	36.9786		81.5821
21.3905	38.3495		84.3407
18.6553	34.8256		82.144
5.76631	15.7196		83.426
8.09333	13.5451		81.5376
5.75135	17.695		82.4747
3.43277	17.2916		84.7576
5.65046	13.2683		85.0793
28.6846	-5.12175		74.9498
30.5475	-9.58218		75.7087
35.8356	-5.62653		73.0298
26.7508	-1.23719		74.311
22.7956	-3.89646		76.7318
57.3572	10.5862		55.7906
59.7603	8.3479		53.8052
58.3064	15.3214		54.4654
54.8324	12.5669		57.6652
55.0884	6.45886		58.9458
5.58154	10.0233		87.6762
7.96748	7.9453		86.0084
3.30636	11.5571		88.7983
42.4862	40.7055		76.0458
47.2823	38.708		72.9766
37.0352	41.4545		79.3433
42.3349	38.491		75.699
51.574	36.2726		69.3764
50.8082	34.3139		69.6578
55.2947	32.9112		64.8555
54.5357	19.8787		58.6282
54.5793	23.1394		60.2682
52.4456	19.6805		60.2149
53.9917	16.9527		58.2475
56.3342	19.8889		57.0507
41.9703	23.0731		69.022
43.6301	22.0208		67.2773
40.1691	24.0179		70.5856
38.117	24.8248		71.8146
35.8674	25.3671		72.6032
38.3544	25.7459		72.2388
35.7431	26.2955		73.0717
40.6195	24.9314		70.9595
33.0907	25.6276		73.0865
30.2159	25.519		73.228
32.8045	26.5028		73.5022
29.6912	26.3676		73.6089
27.2891	24.9959		73.0646
24.5747	23.8906		72.639
21.6747	22.1836		71.9206
18.9728	20.2566		71.1644
20.3668	22.7706		72.2141
17.8615	20.7286		71.4888
23.3761	24.5628		72.9416
17.1211	18.5447		70.6729
19.14	23.1946		72.6031
22.3541	25.3094		73.4221
32.5786	27.5504		74.046
29.2106	27.4189		74.17
47.1972	18.1293		63.3223
47.6329	19.1959		63.2765
46.0697	17.0494		63.9809
31.4165	37.2764		79.9705
36.836	37.0714		77.6981
31.3397	39.0741		81.1639
31.4644	35.1059		78.4869
47.0156	28.4727		69.7797
45.2824	26.6953		69.7898
48.5744	30.4874		69.824
43.7612	29.8357		72.2161
36.4311	8.28687		70.218
41.9523	9.71161		67.7727
29.8107	8.07792		71.8113
36.9616	6.84769		70.1545
23.8186	9.01019		72.1795
19.8037	10.4832		72.028
23.7872	7.38011		72.5043
16.1719	13.6305		71.6046
15.6477	14.5022		71.4179
17.038	12.8084		71.6606
35.514	11.1405		70.3933
40.4484	12.7894		68.3251
29.852	10.9841		71.6226
18.6324	13.8125		70.7325
20.5331	12.9895		71.0916
17.7474	14.285		70.5413
17.0983	14.6752		70.4756
16.503	15.1692		70.4992
13.3193	22.527		74.7111
12.5694	24.8451		76.5082
13.8239	20.1199		72.9118
14.8396	24.8754		75.1884
15.1324	15.7615		71.3877
25.6937	26.7008		73.9396
14.4174	19.2111		72.1445
14.0075	17.4985		72.154
15.4742	21.2525		72.4601
35.2979	12.4412		70.4852
29.7405	12.2711		71.5828
18.6251	14.6213		70.2389
17.8042	14.8212		70.1718
20.5071	14.1878		70.6457
17.1864	15.1748		70.1132
44.7518	20.9161		65.6789
2.71034	33.0013		84.665
0.209432	32.9492		84.624
2.33426	29.8539		83.7605
4.79495	32.7327		84.3845
3.44063	36.2973		85.8578
17.4311	5.23357		75.0788
17.2998	7.27603		74.1111
15.7727	6.69482		75.5389
18.1332	2.23097		76.3607
20.1718	3.55609		74.5583
14.0687	8.19109		76.3932
12.242	9.82204		77.7255
14.1995	13.1251		73.4641
12.6421	13.762		74.9016
14.2491	14.6321		72.6318
9.60487	21.4463		77.5861
10.535	23.7942		77.4929
8.83157	22.4534		78.607
17.9863	11.7101		71.8669
17.5845	10.5277		72.5462
17.3682	9.04485		73.2327
19.5297	7.41326		73.1402
18.0663	-55.7419		84.692
17.9336	-55.6624		84.4522
20.8359	-56.1554		82.6391
15.3109	-55.1205		86.756
22.5214	-56.511		81.5863
22.218	-56.3754		81.5365
2.40742	-48.3576		98.1791
5.22734	-47.977		97.565
2.36042	-47.0831		98.3392
-0.735569	-48.7646		98.515
2.36054	-49.5821		97.8377
7.71864	-50.5686		95.647
7.7292	-49.3991		96.2675
5.20699	-50.4525		96.5922
7.47987	-51.6216		94.8944
10.0475	-50.9079		94.476
12.4381	-51.4659		92.9132
12.5091	-50.3622		93.5645
12.402	-52.598		91.9661
15.1986	-52.5696		90.5871
7.67147	-48.031		96.7428
10.0354	-48.4442		95.6041
7.58078	-46.7455		97.0169
11.6382	-46.8156		94.9349
12.2665	-47.9515		94.4953
11.2584	-45.6675		95.1171
9.19129	-46.1363		96.3469
18.2569	-54.0812		87.4286
18.2485	-53.0063		88.5234
6.98676	-52.5413		93.9836
4.41495	-52.3637		94.9909
6.60998	-53.0203		93.1844
9.78712	-52.9291		92.5903
12.5454	-53.7312		90.5612
12.4785	-54.2902		89.5926
23.2549	-55.4117		83.1788
18.3094	-56.6693		85.2379
18.2264	-56.6077		85.0239
15.4868	-56.3204		87.6571
18.3843	-56.8586		85.5304
18.8855	-58.0519		86.1189
18.6977	-57.6208		86.0175
16.3584	-58.2706		88.9561
13.5815	-58.4277		91.4845
13.351	-57.658		91.2323
10.8824	-58.4573		93.4089
13.9629	-59.2252		91.481
7.05402	-56.1554		94.371
7.50415	-57.3171		94.7283
10.143	-56.4877		92.8762
6.70604	-55.1495		93.8834
4.21425	-55.9707		95.2744
2.17572	-58.5595		96.4825
2.2956	-59.7236		96.5719
4.82308	-58.3976		95.9206
2.03228	-57.3415		96.2301
-0.258203	-58.6453		96.7432
22.7361	-57.9347		80.8217
22.6053	-57.3533		81.4628
22.6556	-59.2953		80.1137
20.8927	-57.7229		82.2429
1.54419	-55.1644		91.6606
1.54045	-54.4828		92.9064
3.62359	-55.2812		91.1959
1.5306	-56.5485		90.3696
-0.354451	-55.1477		91.8865
2.41521	-60.93		96.5064
-0.239132	-61.0383		96.7629
2.54119	-62.0298		96.2794
5.2751	-60.7413		95.9464
2.61166	-65.9597		94.3316
5.58839	-65.6799		93.9356
2.63092	-64.3336		95.2744
-0.111325	-66.1071		94.5189
7.27839	-45.7812		97.1241
6.55336	-44.3762		97.2112
5.02185	-45.555		97.7895
1.89778	-56.0912		95.8013
-0.296921	-56.1815		96.0497
1.73452	-55.0597		95.2887
1.6198	-54.6189		94.921
3.84525	-54.5212		94.4168
1.64521	-54.3924		94.5155
-0.369055	-54.6336		95.057
6.52477	-54.6686		93.4895
9.56715	-55.148		92.0247
6.42957	-54.4975		93.1587
1.64985	-54.3047		93.8512
3.71244	-54.2909		93.419
-0.382028	-54.3185		94.0159
12.4972	-55.7739		90.035
12.3905	-55.6328		89.6273
12.7269	-56.1233		90.3919
14.5792	-62.0758		91.1188
14.8004	-63.1796		90.6593
14.392	-61.0939		91.3724
11.8172	-62.4817		92.9177
8.75667	-62.6261		94.3885
8.83741	-63.8379		93.8451
8.62207	-61.6012		94.7204
5.54004	-62.907		95.3742
2.61477	-63.1178		95.8879
-0.212373	-63.2728		96.1228
12.3619	-54.4511		88.9343
9.45759	-53.6738		90.8918
12.2103	-54.3646		88.3796
25.4949	-56.9603		81.4235
24.4293	-57.2007		81.489
22.5883	-57.0956		82.1282
20.9842	-57.1502		83.4293
6.22859	-55.5486		90.3738
6.20914	-54.7813		91.5481
9.13682	-55.9415		89.1466
6.34303	-56.8801		89.2255
6.28862	-54.4864		92.5307
9.26449	-54.9701		91.0317
8.7665	-65.4738		93.0678
12.0239	-65.21		91.7068
14.1591	-60.1382		91.5133
11.4696	-60.4569		93.397
14.9754	-64.7172		90.0209
17.6271	-63.7334		88.0495
11.9296	-54.0179		88.0333
9.27092	-53.215		89.4067
11.3995	-52.7852		87.3904
14.5583	-54.6173		86.3276
6.46173	-52.7288		90.5879
4.12123	-52.4224		91.1362
6.79931	-51.6134		89.2522
6.3553	-53.1115		91.5315
10.876	-49.9999		86.3674
8.7299	-49.4462		87.2541
10.7495	-46.3087		85.4439
13.1112	-50.5725		85.2628
22.3692	-62.4002		79.4219
21.791	-65.9106		79.2113
20.5468	-62.232		80.9284
1.4913	-59.3769		89.1166
3.57429	-59.4411		88.7642
1.80636	-63.3344		88.3317
-0.273429	-59.3976		89.2951
6.63565	-49.0421		87.9353
4.44489	-48.7299		88.4685
6.36856	-45.4622		87.0036
6.238	-59.6285		88.0786
6.40395	-63.667		87.2229
9.1329	-59.9868		87.0568
25.6384	-57.3942		75.3221
25.9094	-57.3127		74.6311
10.8133	14.978		76.7237
10.3844	13.392		78.1552
81.2113	-8.55017		-42.9508
80.4232	-12.9958		-42.1507
79.4032	-7.95747		-46.3729
81.8968	-3.90321		-42.9787
82.681	-9.04461		-41.1996
80.6176	10.2477		-5.3606
81.1308	13.1688		-9.63771
79.6121	12.3811		-0.455141
81.318	15.3058		-14.909
81.1538	20.8344		-16.2333
81.6534	10.2476		-15.9606
81.9698	14.86		-22.0101
74.7602	-33.0475		-33.2891
77.1789	-30.7411		-31.6387
73.6469	-37.2593		-30.6217
76.0138	-29.1217		-35.1853
77.1044	-25.4389		-37.3323
74.5302	-27.4706		-40.2351
78.3199	-21.4375		-39.2267
79.3485	-24.2271		-35.4438
84.1439	-8.98409		-40.3007
85.6904	-8.46128		-39.9352
83.4861	-13.1839		-39.3381
84.5822	-3.92102		-40.5306
85.6749	-27.3519		-30.0529
86.8995	-23.2872		-32.2049
86.3543	-27.7919		-28.8205
84.3657	-31.3683		-27.4522
90.3634	-17.4939		-30.2624
90.3419	-16.9209		-29.474
78.7506	-39.9987		-18.9307
79.198	-40.2228		-18.2161
78.2243	-40.6642		-16.8454
77.9383	-39.122		-21.0693
79.3353	-32.5907		-6.31306
78.9912	-33.2188		-6.25507
78.5462	-34.2238		-6.45188
90.279	-16.5402		-29.0587
89.7294	-17.1338		-28.0799
93.5114	-1.82223		-33.1024
93.6187	-1.17518		-34.646
93.343	-3.14358		-31.4172
93.9136	8.51185		-30.6904
94.2149	9.88143		-30.815
94.3652	11.9985		-29.7856
93.7532	11.8158		-27.5331
94.5637	12.4651		-30.1967
94.0111	14.0997		-26.6643
83.1043	-9.44427		-7.07471
84.5605	-3.91149		-7.71777
82.5608	-8.69997		-5.73509
82.0247	-13.5459		-6.44349
77.2277	-25.7215		0.244606
76.1966	-26.185		3.01664
76.6194	-29.4971		-0.188328
77.8432	-21.3714		0.68515
81.5123	-20.7153		-8.95124
81.8251	-22.7703		-9.45291
81.5457	-18.7275		-9.11059
81.6403	9.74424		-15.9677
82.0881	11.0361		-19.5052
81.6732	9.74283		-15.7563
90.1334	17.3985		-16.5741
91.1909	19.0991		-19.7635
89.2883	17.8004		-17.7535
88.5707	14.2616		-13.5596
90.892	16.692		-15.5777
90.7835	19.7429		-24.8862
89.946	19.5098		-21.817
91.0803	19.8855		-24.3835
91.2982	18.4352		-28.6135
89.9405	18.6678		-26.2657
91.5267	4.11851		-39.3049
90.7252	3.64305		-39.4831
91.9291	10.1767		-36.453
92.5886	4.3724		-38.7671
85.6556	0.760191		-8.34945
85.9283	-0.50204		-9.01378
94.3161	3.52788		-36.1912
94.8283	8.72825		-33.9578
93.9541	0.691943		-36.3573
94.3702	3.427		-36.5633
93.445	15.0135		-22.639
92.4313	14.4694		-18.5819
93.2114	13.6414		-23.373
93.556	16.0147		-22.0259
87.224	1.55075		-11.1872
86.6021	-0.237357		-10.5883
87.8663	3.90309		-11.9334
93.8219	4.23507		-33.4342
93.9134	2.1497		-35.3028
90.9854	6.94957		-21.6803
90.4528	5.58785		-20.8797
92.3889	6.44494		-25.9053
85.1417	-5.30352		-12.3575
85.3205	-5.02472		-13.0759
85.6849	-3.66573		-11.2696
90.2722	-4.48304		-26.5807
92.4069	-1.83067		-28.557
90.002	-4.02917		-25.9476
90.1352	-5.5906		-26.7305
78.4578	-17.3737		0.612446
79.3394	-12.7542		-0.272788
77.5384	-17.6214		3.18142
84.8768	1.39086		-39.069
83.7468	0.790245		-40.2184
84.7836	6.12297		-36.9447
85.882	3.93162		-38.1294
88.3512	8.9638		-35.4545
88.1319	12.7958		-32.21
90.7995	13.6725		-33.566
88.4582	4.82753		-38.3741
89.6273	2.6624		-39.4372
88.3813	-2.92253		-40.188
87.8804	-7.97908		-39.7701
81.1109	-23.5758		-34.5867
80.0391	-26.7223		-32.6912
82.035	-20.3182		-36.3397
82.7996	-16.9031		-37.9926
81.1383	-17.1502		-39.0262
89.1253	-17.0665		-27.038
78.9574	-29.6663		-30.9086
77.7446	-33.3195		-28.479
80.1834	-29.3573		-30.4612
77.6794	-37.129		-23.7591
77.2411	-37.147		-24.1048
76.8312	-40.532		-19.0196
77.9042	-40.3163		-13.9709
77.3914	-40.576		-13.8027
76.8186	-40.7764		-13.4792
90.3457	-6.34628		-27.2097
92.3874	-4.96791		-29.4554
81.9397	-8.09278		-4.61705
81.1717	-7.695		-3.36707
79.2561	-21.8057		-2.90078
79.6022	-21.9739		-3.57606
82.3103	-26.2994		-9.14499
83.2819	-28.3265		-10.7381
82.546	-25.1946		-10.0208
81.3376	-16.5846		-5.90531
81.8327	-16.7259		-8.13939
87.8136	14.6492		-28.9687
85.3723	10.9149		-31.7882
86.8175	15.295		-25.5711
84.429	9.34856		-33.6003
84.0311	9.03518		-34.7043
83.762	11.5113		-29.2775
81.5235	-16.7635		-10.9939
81.7505	-16.6962		-10.1139
93.0227	5.45642		-28.3027
92.8107	3.93397		-27.9437
85.7999	-4.31422		-14.5454
85.1185	-6.64893		-15.5882
86.895	-3.07821		-17.2618
89.9747	-3.17819		-25.4428
91.8459	0.458502		-26.6996
89.3711	-3.11582		-24.0336
8.74926	86.6722		65.7558
8.70424	79.3099		71.2807
16.5035	86.0492		65.3538
8.99096	94.1231		58.6297
0.782064	86.6371		65.9223
8.49055	72.0188		75.798
0.932964	71.4405		76.182
8.48652	64.3323		79.8311
15.8356	72.1876		75.0233
30.6834	58.9106		78.4291
30.3111	54.5409		81.4032
26.1793	59.2231		80.0976
1.17448	-26.1878		104.596
1.46806	-24.8363		106.635
-0.382469	-26.1397		105.028
3.10137	-26.2399		103.272
1.90262	-15.4492		111.748
4.38676	-15.5586		110.669
1.97335	-13.4429		111.093
-0.476259	-15.4098		112.056
1.90402	-17.262		111.851
1.90095	-19.1713		111.414
-0.449839	-19.167		111.795
1.87587	-21.0473		110.436
1.06864	-30.2738		98.7474
-0.643618	-30.3719		98.9511
1.38067	-37.7858		97.1417
3.38788	-37.3281		96.7809
-0.734358	-38.1006		97.3155
1.74078	-22.9655		108.805
3.96009	-23.0416		107.419
-0.392782	-22.9497		109.255
2.0206	-11.419		109.965
4.323	-11.7993		109.062
2.14408	-8.97313		108.05
-0.221373	-11.2595		110.207
6.55824	47.6162		86.623
0.282566	47.5893		87.1814
5.75519	44.6636		87.2351
12.2992	48.5726		85.925
6.91547	51.2939		85.5283
1.70465	18.1046		85.2419
1.53287	15.6338		86.7957
1.83135	20.2121		84.2387
0.254594	18.3718		85.36
1.99063	22.2982		83.569
3.65772	21.3504		83.0932
2.02669	24.5038		83.2728
0.350046	22.54		83.7375
1.82744	-52.2472		91.434
-0.452016	-52.2707		91.718
2.05668	-51.0465		90.2238
1.59292	-52.9425		92.8288
1.61478	-53.0953		93.8442
-0.391113	-53.1616		94.0148
3.7256	-53.0579		93.3631
1.69032	-52.9342		94.6256
2.35059	-50.5923		97.33
2.20989	-51.5308		96.6133
-0.683817	-50.7831		97.6874
1.93519	-52.3181		95.743
-0.522797	-52.466		95.9327
2.34836	-46.0831		98.3105
-0.719938	-46.6685		98.6458
1.98775	-48.5215		88.8628
1.74903	-45.0006		87.7985
-0.614864	-48.4357		89.0999
22.9331	85.1767		64.5417
22.5314	78.7073		69.5999
28.8911	83.8471		63.3386
23.5349	91.9197		57.8133
18.914	49.8958		85.4728
17.9259	47.9119		86.0114
24.6622	50.7859		85.1461
18.6	53.5247		84.1907
18.5496	45.3291		86.2867
19.7713	42.4276		86.1467
23.778	46.2752		85.8671
21.1904	40.1362		85.356
17.256	38.9625		85.9687
25.444	41.3488		84.7719
24.8284	27.6271		74.6092
24.3323	29.2271		75.8119
21.291	26.0898		74.0677
28.7318	28.5525		74.8559
26.4786	25.778		73.4123
23.4936	31.3148		77.6047
27.5484	32.2796		77.4862
20.1048	29.8514		77.2281
47.6546	88.2895		41.7815
48.7164	93.4866		31.5883
41.8669	91.8229		44.3633
47.1318	82.7981		49.1847
34.3524	82.4016		61.4562
35.2006	88.2319		55.2155
40.1569	80.4016		58.7407
29.8888	51.0457		83.6819
30.13	49.5252		84.2196
35.5954	50.6259		80.6784
30.6993	42.3952		83.4167
30.5934	43.9934		84.0136
30.1451	47.1537		84.4056
31.5327	32.4327		76.8575
32.0883	30.2644		75.5147
36.1561	31.8827		75.5951
46.3488	77.8096		54.879
52.551	74.8775		49.8335
45.4975	72.8778		59.5945
41.6916	49.1603		75.628
47.6489	46.9548		71.3781
39.2922	27.7572		73.0244
39.6218	29.1495		73.5531
36.0747	28.4358		74.0802
41.976	26.7681		71.5153
41.9744	36.1554		75.2777
41.1938	33.5971		74.7321
46.2813	34.446		72.7313
40.2442	31.0677		74.1321
44.4915	67.7286		63.7075
50.8292	64.8434		58.9513
58.2252	72.3269		43.1905
57.563	67.0636		48.3814
63.1275	69.9301		35.2063
42.4934	23.8399		69.3227
44.1753	22.6812		67.4895
44.29	25.4962		69.5768
46.0545	24.1548		67.6059
43.1698	24.5961		69.5348
49.9064	32.519		69.7822
52.8679	29.6411		66.0311
15.897	32.595		81.009
13.6529	29.8419		79.4636
16.5362	30.4925		78.853
15.0819	34.2878		82.7957
13.9684	35.83		84.4184
11.6149	33.2371		83.0151
17.1784	27.4696		76.2061
17.6804	25.3041		74.3532
5.50888	40.7378		87.2267
1.04555	41.4177		86.9889
66.1818	-64.7067		-6.60115
67.5863	-59.4827		-4.80173
66.5809	-65.1191		-13.2684
80.6414	23.5874		-36.8951
80.3621	19.6203		-42.6726
79.5943	29.2391		-41.7414
81.021	25.9529		-28.6126
81.7413	17.8677		-31.6174
77.0363	-7.69788		-52.3545
75.9986	-13.7412		-50.7768
74.842	-7.90958		-58.07
78.0475	-1.81243		-52.4144
78.7165	4.4559		-52.061
76.7759	6.17672		-58.6616
79.3447	10.0444		-50.1927
80.7105	2.41281		-45.6905
71.1231	-31.2025		-44.3888
68.0209	-34.6596		-48.3204
72.8609	-25.399		-46.9155
7.65042	57.4107		83.107
0.685632	56.1325		83.8335
14.1716	57.9232		82.4887
19.9044	58.6178		81.5256
21.5532	65.2497		77.8793
18.4998	-103.732		57.0187
17.5075	-105.471		49.7955
24.9627	-101.228		52.366
12.8478	-105.151		59.8809
44.6708	-85.1262		46.8556
38.5519	-90.0801		51.7793
49.6856	-80.9051		41.7396
44.8276	-82.5603		50.6026
56.8785	61.466		52.8333
62.1687	57.9501		45.6146
22.0274	72.2344		73.8321
67.8449	67.5088		25.5321
71.6858	65.3952		15.4121
67.6634	60.9924		31.3994
23.8953	99.5887		48.1488
30.1797	97.3995		47.5215
24.0757	106.861		36.3091
16.9685	101.113		48.6632
65.3077	40.1382		45.7704
66.2617	47.2447		41.5018
46.9202	22.5798		65.7963
57.7034	29.1092		60.2895
58.2788	24.3445		56.9971
56.1193	27.8524		61.5704
54.5783	26.7045		62.579
1.77262	-117.196		40.2747
-0.845855	-117.198		40.3227
55.016	-71.002		42.1961
55.7509	-66.9655		44.6152
50.1298	-74.5609		49.2142
54.5162	-74.6847		38.7097
5.97552	-42.3414		96.9469
7.78537	-42.7976		96.3884
5.34265	-39.7609		96.6083
21.5837	-49.6554		87.2884
20.9765	-45.7174		88.1462
19.1698	-47.7085		89.5069
8.84896	-38.8608		94.7986
6.40434	-37.8742		95.8267
9.57428	-41.1666		95.0408
11.5449	-39.6991		93.3133
8.11368	-36.5828		94.5416
29.8081	-52.7346		81.7704
29.461	-56.1233		80.8197
31.9252	-53.5543		80.3836
29.4932	-49.1242		82.6677
62.9706	18.5493		49.6486
60.7117	19.1624		52.4248
63.279	12.4418		49.1155
65.0023	18.3812		46.6518
67.0614	18.5847		43.0885
69.4435	18.1144		37.8747
50.7742	19.5852		61.4006
50.6481	17.5843		60.8401
58.6499	19.5318		54.788
82.8451	9.71458		-36.7646
82.7048	5.90166		-39.9988
81.4647	11.7341		-40.908
82.9459	12.2888		-32.7332
79.3243	-17.4039		-40.9929
77.2668	-17.9618		-44.2127
70.4733	-51.7125		-15.6256
72.191	-47.348		-13.3009
69.7212	-53.7208		-9.2113
68.5901	-57.387		-18.1514
71.1901	-48.336		-21.7081
82.3862	1.16785		-42.0182
75.1168	-27.0825		6.22345
74.3597	-31.2967		5.73657
75.8452	-22.6516		6.48777
73.9022	-27.9791		10.6304
72.1466	0.0201434		30.5116
72.6098	8.43873		29.4584
71.3733	-7.8103		31.6519
74.4166	-1.30665		21.8467
53.0992	13.7699		58.8916
51.4419	14.9418		60.0791
51.1923	10.8044		61.0158
49.9548	15.8356		61.1681
48.4683	14.1766		62.4665
72.4747	-28.4367		16.929
70.9464	-28.6188		23.7338
71.7343	-33.3074		16.3485
73.3315	-23.165		16.9011
22.3591	-11.7065		79.9221
26.0131	-13.3003		78.4158
21.1794	-6.94948		78.9537
19.4609	-9.54347		81.6162
32.0299	-14.7134		76.4754
38.5802	-15.2771		74.2058
33.0485	-19.7505		77.181
16.302	-7.35652		84.3348
13.402	-4.82118		87.4632
16.6574	-11.1477		86.1223
19.1955	-18.2632		84.8731
17.9274	-16.2071		86.266
15.1312	-21.2665		94.9578
13.8043	-20.5015		97.4762
14.8125	-23.2058		94.31
15.8414	-21.9982		93.1541
16.3276	-22.6034		91.4891
15.8262	-24.8485		90.9641
35.35	-35.2054		78.383
30.7525	-34.7235		80.64
35.5462	-40.5518		78.7329
34.8684	-30.2152		78.0864
33.8564	-24.8834		77.6987
4.08859	-33.3141		96.4587
4.39693	-35.3321		96.3206
5.48789	-33.6874		95.658
53.4906	-49.8997		59.4865
54.7889	-44.2769		59.476
49.2674	-48.9281		65.7475
51.8014	-55.5509		59.732
24.6104	-43.5632		85.5398
22.4768	-42.7015		86.7585
26.7827	-44.1931		84.3578
35.5169	-45.7619		78.8332
35.1888	-50.6544		78.7523
39.9448	-46.7466		75.4839
31.6895	-45.1456		81.4088
4.84207	-37.3633		96.3875
49.8064	-61.4149		59.8542
53.2426	-62.5126		53.2111
45.9814	-59.5577		66.2867
46.6497	-66.9783		61.3427
57.1947	-27.6662		59.9442
56.5459	-33.3351		59.8517
61.0896	-27.858		53.4377
23.2206	-97.2145		71.2162
23.8495	-94.0695		73.5449
18.8464	-99.1332		74.9708
33.9141	-82.0477		68.5816
38.3126	-77.5243		65.9299
33.0799	-77.5975		71.9783
29.0821	-86.3711		71.9241
55.2903	-4.33252		61.709
53.4473	0.429657		62.2439
49.5305	-4.88356		66.6338
45.9347	11.9854		64.8179
46.9781	10.0754		64.4703
51.7251	3.76658		62.7229
46.6469	2.20807		66.7779
49.7482	6.22352		63.533
43.9786	15.0487		65.7722
2.0065	-93.7723		90.229
-0.922528	-94.2039		90.2717
42.1713	-57.872		71.3454
40.2144	-62.0373		71.8937
43.4752	-53.2624		71.2441
38.087	-56.2391		75.5569
32.0434	-73.5971		74.7166
35.0101	-69.8783		73.5453
30.1767	-69.7577		77.4455
28.2193	-76.8647		76.946
42.849	-5.3651		70.3391
44.2311	-10.081		70.6791
41.3261	-1.41601		70.1476
44.7342	-47.8925		71.031
45.4606	-15.185		70.7421
8.40403	-84.2098		90.2234
8.74621	-79.4532		90.1892
12.2024	-83.6794		88.276
16.1489	-83.0593		85.7448
20.0479	-81.6749		82.889
16.0567	-78.3005		86.3557
40.1059	1.38199		69.9634
38.8927	3.55778		69.9781
32.7725	1.02942		72.2157
48.3175	8.17959		63.9919
43.9966	6.3432		67.2413
37.8796	5.36546		70.0164
30.6948	4.95943		71.9467
10.8071	-2.55665		90.4436
11.2183	-6.5622		93.38
10.4726	1.71888		87.2221
11.905	-14.4595		100.108
11.7725	-12.8699		98.7948
9.48473	-13.2664		103.979
12.1148	-15.6535		100.524
10.2529	11.5374		79.5078
10.1837	9.14056		81.3812
19.5784	-2.48331		77.8949
1.54832	12.358		89.2581
0.0439597	12.6569		89.3338
62.5142	6.36523		51.0173
10.2576	5.75276		84.0501
56.842	-62.3509		46.0336
60.7903	-60.6235		37.3024
65.5114	-14.4647		47.0653
65.0481	-21.4918		46.4352
68.3328	-14.4196		39.5246
62.7505	-39.4236		45.6015
63.6723	-33.7085		45.6866
59.6459	-39.1534		52.7407
65.2812	-39.4271		38.4269
64.4785	-27.6495		45.9242
67.05	-28.0814		38.4526
15.1596	-100.189		78.2197
8.95371	-75.2001		90.2464
5.74298	-75.4346		91.1934
12.4568	-74.7672		88.7918
15.9066	-74.2922		86.9477
24.6373	13.2659		71.3018
25.4961	1.62712		73.6419
24.7376	3.94021		73.1605
24.2047	5.69466		72.769
2.82472	-75.708		91.7535
0.00542987	-75.7818		92.0182
5.11188	26.0466		82.2471
6.55912	25.0784		81.2385
5.69705	28.9614		82.762
3.69717	26.5271		82.8973
5.01626	23.0282		82.0495
15.9381	15.9918		70.6649
15.7121	17.1651		70.8055
14.0579	15.9393		72.3487
7.85177	23.7402		79.9118
8.6972	26.6305		80.3048
2.14295	27.1062		83.3114
0.241397	27.2609		83.4498
4.76274	-26.1646		101.843
5.41326	-24.8714		103.418
7.00566	-15.6986		108.523
7.04983	-14.0878		107.969
9.69788	-16.0767		105.041
15.2026	-29.0934		88.6279
14.8528	-27.9893		89.7955
13.0103	-30.5921		90.0615
6.78304	-12.3753		107.206
5.57313	19.6775		81.9632
6.73018	32.2355		83.7998
8.39631	31.253		82.7914
16.1357	18.7445		71.0533
9.89475	30.0376		81.465
11.0513	28.3623		79.7533
11.9092	26.6578		78.1636
17.5846	-35.1726		87.3347
14.9148	-35.5802		89.2096
18.876	-38.1375		87.6659
20.1324	-41.8809		88.0082
17.2379	-40.9814		89.7727
21.4722	-55.8788		81.6734
21.2631	-54.824		81.1311
19.5777	-55.6746		83.0142
22.0408	-54.5157		84.7888
20.3215	-53.4723		86.8896
21.0052	-51.9355		80.11
18.0565	-51.5638		82.2658
20.6113	-48.2606		79.3205
12.5191	-35.73		91.0181
9.96738	-35.3148		92.8126
13.3929	-37.9015		91.2862
14.5989	-40.3806		91.4023
15.3948	-42.9764		91.6768
17.3369	-55.2982		84.5209
16.143	-53.9284		84.5885
15.4691	-51.0979		83.9082
15.4748	-47.308		82.8757
7.55924	-34.4837		94.4524
7.23209	-32.6444		94.3978
10.6103	-43.7704		95.0754
13.4526	-44.6602		93.4539
16.3461	-13.8796		88.4459
13.9904	-12.0804		92.4135
2.09526	-5.60293		105.012
0.231411	-5.32237		105.166
11.4533	-10.0915		96.4912
6.13011	-22.8905		105.515
8.36512	-23.1286		102.5
10.6918	-23.5813		99.3264
11.3656	-21.7028		100.217
12.8973	-24.2568		96.0137
14.163	-25.0348		93.7603
14.6342	-26.0591		92.1036
14.7938	-27.0048		90.8226
12.0782	-16.781		101.01
11.9224	-18.1361		101.256
11.7457	-19.901		100.928
40.3654	-145.95		14.5075
35.6438	-147.517		17.5753
41.4364	-151.854		13.4498
44.624	-144.24		11.3478
38.9896	-137.933		16.0078
37.5833	-126.861		18.0599
41.9119	-125.086		14.5229
36.9457	-117.163		20.0468
32.9265	-128.504		21.5412
39.5262	-99.9565		27.672
44.1882	-97.0692		23.073
34.427	-102.68		31.9315
38.5953	-104.794		23.8108
37.4926	-110.305		21.6774
32.4886	-112.427		25.7855
41.9567	-108.047		17.6745
37.986	-66.0561		72.4347
40.5736	-68.8899		68.3483
35.0137	-63.4785		75.8723
43.0753	-72.2935		63.0783
44.2773	-75.9756		58.504
44.8922	-79.3333		54.3673
32.5266	-61.2621		78.1274
33.7499	-58.2664		78.1725
30.3749	-59.5223		79.573
30.6272	-63.8822		78.5611
28.7789	-58.5451		80.3689
27.6431	-60.2475		80.4879
48.0579	-94.3169		18.6455
49.5592	-89.6895		22.2549
46.9805	-99.6029		15.4624
51.4366	-92.0523		13.4598
51.1223	-85.483		26.8057
54.2284	-83.2371		20.1582
52.6485	-81.5842		30.997
53.7207	-78.041		35.2219
56.9722	-75.9961		27.5268
45.9378	-123.13		10.8465
47.1432	-134.398		9.28225
49.7391	-121.519		6.94645
45.5107	-113.157		12.2633
48.4457	-142.577		8.02942
49.7456	-148.709		6.89945
52.0071	-140.926		4.38308
45.9635	-105.668		13.6047
69.1395	-28.3474		31.162
68.3581	-33.9065		30.8878
69.9389	-22.2381		31.3777
59.1751	-74.3375		20.3398
57.8399	-77.8666		17.0418
60.7007	-73.1296		13.0287
72.607	17.3422		29.2637
75.6937	15.2374		18.4381
63.603	-59.2889		28.7897
65.6102	-57.9625		20.2475
67.4415	-39.4354		30.9231
69.343	-39.101		23.0504
70.6162	-15.0047		32.0572
72.5989	-16.3262		24.0282
70.8867	-38.1907		15.9312
72.343	-36.7814		9.46305
59.0236	-88.529		-2.53481
58.8082	-93.7091		-3.90113
60.9071	-88.0538		-7.44987
59.397	-83.9221		-0.839249
56.8404	-89.2426		2.4927
58.7138	-99.4665		-4.73475
60.0548	-79.6096		1.55943
58.3094	-80.5176		7.31056
61.6793	-78.9639		-4.27977
60.8959	-75.712		3.78379
76.3288	-2.31724		13.3101
77.2556	5.67125		10.7136
75.1938	-10.3731		15.6857
78.0547	14.0704		7.70997
78.6439	21.9905		5.09067
79.1128	30.0306		1.79367
80.4625	29.0811		-9.06548
79.484	37.9936		-2.02068
67.0506	-56.3666		11.9817
68.1694	-55.1829		3.95779
74.1923	-17.1442		16.8294
75.5272	-17.8372		10.6317
53.4002	-119.854		2.62314
54.3357	-131.095		1.38253
56.486	-81.7418		13.7569
55.2257	-85.8889		10.5369
55.3667	-139.159		0.250278
56.515	-145.101		-1.04006
62.5231	-114.863		-15.0798
63.0575	-124.468		-16.6166
62.4518	-87.4827		-12.3366
63.4928	-85.7025		-17.5394
62.7871	-82.7192		-11.3091
63.3175	-78.0101		-9.96347
63.5315	-131.624		-18.2831
63.9263	-137.281		-20.3956
68.9585	-54.7916		-3.28953
73.5706	-35.3843		5.00966
74.833	-33.5884		1.75064
72.903	-39.1153		3.62712
76.5369	-17.9457		6.52931
62.9264	-93.5996		-25.8226
61.6179	-89.3083		-32.7858
63.3165	-87.1423		-24.6218
64.0392	-81.0595		-23.6003
63.5062	-74.5686		-29.8122
66.9234	-63.7832		-19.9858
73.3683	-44.7591		-12.0563
74.9186	-42.1569		-18.7578
59.0515	-120.613		-44.4908
59.2188	-128.407		-46.0191
55.7598	-117.903		-51.6351
58.9459	-112.273		-42.8736
72.3044	-43.3231		-26.6199
74.6509	-39.5964		-24.9523
76.3063	-37.8761		-24.2808
30.7205	-148.853		20.4046
29.422	-140.959		22.2585
25.7594	-150.081		22.919
31.9102	-154.534		18.9708
26.6489	-114.321		30.034
20.6337	-115.751		33.7688
26.5549	-120.466		27.8471
27.5481	-109.665		32.3286
31.0831	-98.3733		47.9248
29.7666	-101.308		42.008
31.9474	-96.2422		52.6614
28.4987	-105.249		36.3603
22.4936	-107.173		40.1532
27.7823	-129.774		25.0715
22.547	-131.327		28.229
28.5441	-66.5995		79.2687
27.1166	-63.8446		80.4653
32.5683	-94.5034		56.4029
26.1445	-62.0288		81.0592
23.9691	-63.7432		82.393
25.2137	-60.5449		81.4903
24.4245	-59.2839		81.7638
22.6227	-60.52		83.0981
24.3203	-79.7579		79.6367
24.5209	-84.6677		77.9012
24.4543	-89.8278		75.678
18.3664	-57.2169		85.9835
15.8331	-57.1088		88.4849
18.0218	-56.6503		84.8293
20.8756	-56.9369		82.8688
18.0496	-56.8751		84.4207
15.1704	-56.238		86.8639
18.0404	-57.3237		84.0742
18.0375	-58.682		83.4502
15.065	-56.9058		85.8706
17.8129	-61.7862		82.7346
17.3434	-65.5663		82.3965
14.836	-61.0602		84.4242
15.0566	-116.401		36.6617
15.5708	-112.258		39.0848
15.6731	-122.713		34.2741
20.7238	-151.324		25.1345
19.3828	-143.639		27.4097
15.7645	-152.272		27.0043
21.9182	-156.641		23.491
17.4852	-132.603		30.944
7.20925	-109.343		46.3652
11.0534	-109.229		45.075
7.73949	-107.175		53.8131
11.4205	-152.941		28.336
12.538	-158.039		26.6646
8.63807	-105.908		61.8046
12.1742	-55.6401		89.0622
12.0393	-55.889		88.3535
11.942	-56.4167		87.7132
12.1406	-57.6448		86.7624
11.9803	-60.4767		85.845
11.8342	-64.5189		85.1876
75.0423	48.4877		15.851
77.8026	46.8922		4.6739
75.218	56.1167		10.4481
71.4691	50.8701		26.669
80.9101	27.8259		-19.132
74.3996	-19.7019		-49.3093
71.6605	-21.6546		-54.275
52.6265	-96.2246		-54.2688
53.1772	-85.8555		-53.0845
55.6349	-99.318		-48.6654
52.5527	-106.603		-55.5367
49.4666	-93.9664		-59.2912
52.7196	-115.662		-56.9681
53.1242	-124.265		-58.2788
49.476	-113.989		-61.7594
59.4125	-83.6775		-40.2315
58.8753	-93.4432		-40.8455
56.7717	-79.2073		-46.7332
60.5825	-75.0362		-38.778
23.8728	113.328		22.3279
30.7696	110.537		22.1594
23.7315	118.028		6.87656
16.6494	115.27		22.5334
23.2273	102.488		-79.4345
23.8839	111.304		-63.397
30.3835	100.463		-77.4957
22.4365	91.4804		-92.7219
15.7168	103.907		-80.895
21.958	79.4197		-102.336
28.8796	77.7663		-100.295
21.655	66.0849		-109.58
14.921	80.1917		-103.976
24.0083	117.262		-46.1235
31.2552	114.766		-44.4511
16.4424	119.077		-47.2257
23.9583	120.31		-28.063
8.60986	123.783		-10.9616
0.587597	124.178		-11.1187
8.63952	121.35		6.55283
16.363	122.56		-10.6296
8.59689	123.445		-29.3434
21.3719	52.9596		-114.519
27.8541	51.5912		-112.439
21.0361	39.3597		-117.791
14.7962	53.7328		-116.006
20.5046	25.1568		-119.577
26.89	24.1773		-117.353
19.9742	11.146		-119.715
14.1328	26.1079		-121.113
17.7707	-27.7481		-108.524
23.616	-28.5005		-106.304
17.4336	-39.5671		-101.025
12.1648	-27.6429		-109.717
18.6357	-15.0448		-114.503
6.84926	-0.984489		-120.876
0.400375	-0.904606		-121.216
7.0894	12.296		-122.346
13.1454	-1.41838		-119.841
6.51372	-13.9448		-117.24
15.5294	-86.9712		-83.2467
15.8606	-77.3186		-84.2008
20.8371	-87.7183		-81.8667
15.3056	-96.5422		-82.9117
10.4303	-86.5571		-84.0399
5.26497	-105.259		-83.6508
10.2466	-105.684		-83.3334
5.36232	-115		-83.4696
0.465781	-105.062		-83.7603
5.3818	-95.4834		-83.9567
17.5811	-48.9015		-94.8282
22.8846	-49.4645		-93.2253
17.2002	-57.2583		-90.1844
11.8475	-48.453		-95.865
16.4141	-66.862		-86.5133
22.049	-67.9567		-84.7299
11.1181	-66.0769		-87.5361
5.80315	-65.8102		-88.0034
6.03581	-56.3815		-91.7036
5.5392	-76.4625		-85.5715
0.462005	-66.0213		-88.0623
49.3847	98.4635		19.3066
55.1786	92.9656		18.0504
50.1477	102.188		5.47505
43.4657	103.079		20.6544
48.0289	70.7198		-90.0837
53.5188	67.6032		-85.7687
47.6775	58.6107		-96.9191
42.1493	73.3727		-93.9774
48.4135	81.7214		-80.8378
48.7473	91.3225		-68.7129
43.0349	94.9412		-72.0244
49.3878	98.4444		-54.4422
54.3047	86.9066		-65.0616
50.0956	102.783		-39.5561
55.8829	97.1059		-37.7428
44.2369	107.479		-41.2082
50.9068	104.346		-24.5378
50.6865	104.299		-9.3982
44.5575	109.373		-9.29953
56.5356	98.4581		-9.46682
47.0385	46.3407		-101.858
46.3516	33.6052		-105.119
41.1145	48.233		-105.859
52.4902	44.1326		-97.4739
45.3638	20.7126		-106.934
50.7113	19.2945		-102.512
44.3499	7.67109		-107.007
39.6894	21.8227		-110.83
42.9968	-4.93647		-105.497
41.6048	-17.8985		-101.875
37.7382	-4.62541		-109.208
47.8127	-5.65084		-101.224
40.6991	-30.5494		-95.8757
45.4144	-30.2412		-91.9652
40.0384	-41.5454		-89.3466
35.382	-29.967		-99.882
39.3798	-51.1012		-83.5495
38.6398	-60.6544		-78.5539
34.1866	-50.9437		-87.3455
43.9555	-51.2514		-79.1812
36.5515	-89.4493		-73.6393
35.6492	-99.5247		-74.6197
31.4752	-89.0603		-77.1211
37.4697	-79.728		-73.5037
41.1616	-90.3818		-69.5383
25.2973	-107.164		-80.3081
25.4857	-116.093		-80.5293
20.1917	-106.488		-81.7794
25.5898	-97.9932		-80.0541
30.4735	-108.053		-78.1644
38.0278	-70.2875		-75.1076
42.6938	-70.5806		-70.4681
33.1206	-69.6864		-78.9451
68.3462	70.4956		-51.4397
69.4798	74.4868		-39.8157
72.3333	63.7226		-45.5169
67.5175	64.2703		-62.0251
64.0399	76.4615		-56.7546
70.3068	76.7622		-28.2918
74.1034	68.9416		-23.0408
65.9894	84.0932		-32.4925
70.7693	77.7522		-16.8986
70.018	78.5262		-5.88718
72.8917	71.0996		-1.01117
66.2859	85.48		-8.24031
57.2775	41.9005		-92.8662
57.9639	53.2469		-87.8908
61.6131	39.2641		-87.9542
56.5384	29.9156		-96.1038
58.3122	64.3394		-81.2163
58.733	73.9873		-72.4523
62.8015	60.4462		-76.2105
52.5569	-6.30639		-96.162
54.3884	5.76394		-97.579
57.0888	-7.08313		-90.5051
50.7496	-18.4184		-92.9503
55.5601	17.69		-97.7036
60.0316	16.3537		-92.5123
49.6112	-29.7119		-87.7403
53.6941	-29.6131		-82.513
48.9835	-40.827		-80.8161
48.0171	-50.5371		-74.8221
51.6542	-48.8437		-70.705
47.3427	-71.1559		-64.6738
51.2824	-73.5988		-58.0117
46.4309	-81.3326		-63.8438
78.0649	35.2363		-46.9078
77.2248	29.2043		-54.4819
76.1311	40.6552		-52.6836
60.381	86.8808		17.4188
61.0824	90.5487		4.15083
79.2258	45.7152		-6.40187
78.5494	53.4436		-11.6126
67.4799	-7.67324		-74.3437
64.4041	-7.83154		-79.5971
69.0268	1.81235		-75.8482
70.3145	-7.94847		-68.6647
65.552	-17.5584		-71.4207
69.9105	11.4006		-76.5487
66.9984	13.1248		-82.1179
70.8148	20.5352		-75.0725
72.6616	9.36375		-70.3566
71.6903	29.8118		-71.6837
68.7158	33.249		-77.4571
72.6631	38.311		-66.1384
74.3155	26.0005		-65.634
59.7918	-42.722		-59.7179
57.1749	-45.0639		-63.3308
61.5398	-35.0352		-63.7419
62.402	-40.4502		-55.8566
58.2823	-50.5523		-55.8503
68.988	-23.3797		-59.0089
67.01	-30.7181		-55.6133
66.3831	-25.074		-63.2316
70.9721	-15.8844		-61.4785
54.3213	-76.1741		-52.2416
55.6129	-66.97		-52.2604
75.376	-37.5871		-3.82235
75.9347	-34.003		-1.8092
73.571	-40.612		-1.53112
75.871	-32.2739		-0.358182
80.406	-6.50526		-1.99966
81.4191	-1.19306		-4.16795
93.5822	4.27902		-38.023
93.7812	10.1654		-35.5764
94.1952	3.88719		-37.3075
82.6541	-35.5314		-24.1703
81.2769	-38.3568		-20.7289
93.4135	14.9417		-31.9808
92.4611	15.25		-32.481
92.7548	18.1395		-27.7771
94.2812	14.2749		-31.4147
86.7421	9.99763		-10.9534
85.4128	9.98487		-11.6307
91.998	19.4916		-23.431
92.9049	18.779		-22.6851
88.2491	-18.8499		-34.6401
83.7629	-36.2735		-16.6806
82.9988	-36.1471		-13.9796
82.0453	-38.3901		-17.1642
81.959	1.4353		-5.91671
88.5819	17.7421		-18.8518
86.5914	14.638		-16.1567
87.4861	16.8568		-20.4475
84.1031	10.2688		-13.0715
83.2355	10.7061		-14.6755
91.8021	15.0882		-32.7056
82.483	10.4487		-16.1303
83.7949	12.4401		-18.8143
85.4128	14.354		-22.447
83.2196	12.1785		-23.5381
87.1987	-27.3589		-27.3387
86.9695	-28.9652		-19.6242
80.4775	-39.6085		-17.6104
82.1427	-35.2787		-11.6797
83.3815	-32.353		-11.6736
84.4307	-29.964		-12.5732
84.9955	-28.3926		-13.5218
94.3766	3.58737		-36.8869
94.8564	9.26991		-34.529
91.349	16.102		-15.1343
91.5094	15.4606		-14.8477
92.5975	17.7724		-18.2482
91.4684	14.8403		-14.7057
92.7758	16.5837		-17.7606
91.269	13.7407		-14.8785
94.6464	13.7302		-31.0496
94.1046	16.6788		-26.8503
94.7515	13.2215		-30.9043
93.4469	18.0674		-22.2031
93.6574	17.4645		-22.0807
93.6518	16.865		-21.8057
94.2277	15.6164		-26.4708
94.6994	12.8392		-30.5791
93.74	-0.811418		-35.8135
90.9717	12.4103		-15.4318
88.1807	5.06805		-12.9515
92.9827	12.1274		-24.0114
93.0762	-3.94345		-30.6251
93.1527	-2.03768		-30.3133
93.0979	-0.14591		-29.7145
92.8996	1.36925		-28.7928
92.5445	2.60462		-27.5228
91.6023	3.46306		-24.943
82.8889	-24.8258		-11.2543
84.1531	-26.4394		-12.9314
86.0136	-1.65545		-9.94962
81.8536	-16.7129		-9.32647
85.1321	-27.6648		-14.0241
32.4597	28.6706		74.6418
35.9426	94.9928		46.181
36.782	101.383		34.8881
9.02474	102.17		48.8257
8.96538	109.874		36.6886
0.687845	102.469		48.8043
37.1844	107.226		21.458
37.5639	111.515		6.67587
8.78515	116.475		22.6074
0.622814	116.892		22.4646
23.718	120.525		-10.1765
30.9883	117.602		-9.72078
37.8363	113.937		-9.52831
38.0889	113.951		-26.0683
67.1955	54.1329		36.5009
74.4904	63.5222		4.58191
76.3349	62.229		-6.34031
61.5988	92.3783		-9.43845
61.8656	92.1728		-22.5357
8.57369	120.192		-47.8037
8.48296	113.968		-65.4566
0.594392	120.562		-47.9758
37.7956	111.645		-42.6127
37.4765	106.244		-59.4061
76.7063	61.1294		-17.3207
76.4267	59.609		-28.3899
60.9886	91.0841		-35.5971
60.1096	87.7788		-48.4466
75.4572	56.8946		-39.358
74.4972	52.4761		-49.7525
73.5332	46.3374		-58.6954
70.4729	51.3906		-64.805
45.6445	-92.2178		-64.543
45.0623	-102.457		-65.9098
45.1998	-111.994		-66.9572
45.4262	-120.756		-68.1796
40.2768	-110.152		-71.6915
8.16572	104.853		-81.5713
7.87363	93.2429		-95.1562
0.596516	105.044		-81.9684
7.81874	80.6238		-104.914
7.82898	67.3332		-111.984
0.536271	80.7448		-105.232
7.83744	54.1775		-116.9
7.68057	40.8634		-120.173
0.485296	54.3752		-117.184
7.3709	26.7631		-122.052
0.457219	26.7987		-122.384
19.3739	-2.10655		-118.121
25.5783	-3.0636		-115.724
6.15364	-27.4374		-110.535
6.13162	-39.7318		-102.25
0.349871	-27.5513		-110.686
6.12492	-48.5808		-96.1433
0.409546	-48.8084		-96.1064
5.47155	-86.0926		-84.4606
0.485308	-85.8976		-84.6
35.6051	75.7627		-97.5003
36.1599	87.5657		-87.9243
35.1553	62.9625		-104.527
36.7794	97.9414		-75.1844
34.5577	50.0689		-109.479
34.0189	36.7706		-112.696
33.3532	23.1398		-114.399
32.6969	9.29132		-114.403
31.8093	-3.90977		-112.695
30.7185	-16.7643		-109.085
29.5687	-29.2335		-103.438
28.7349	-40.6218		-96.7508
28.5741	-50.235		-90.7037
28.3871	-59.335		-85.7293
27.6538	-68.8246		-82.2665
26.9639	-78.7522		-80.3157
26.3141	-88.333		-79.8082
35.548	-108.928		-75.2846
35.834	-117.874		-75.8981
59.2273	82.1805		-61.131
66.8309	56.4583		-70.5402
66.1818	46.6561		-77.6498
65.3272	36.6227		-82.8951
64.5362	25.7891		-86.1609
63.6972	14.9129		-87.4759
62.6824	3.6747		-86.8355
60.9106	-7.70124		-85.0223
58.9612	-18.6033		-81.956
57.182	-28.6726		-77.8073
60.4502	-27.9929		-72.6314
55.7712	-38.5153		-72.272
54.5114	-46.9778		-67.1077
57.08	-58.742		-52.8971
59.1667	-57.1477		-49.435
76.3071	22.8096		-60.0398
75.5841	15.3312		-63.2147
78.1522	19.0302		-53.8927
72.6148	-7.96568		-63.5924
73.954	-0.0240103		-64.5438
63.4442	-26.6495		-67.9527
74.8144	7.9424		-64.7474
65.0477	-37.9765		-52.1183
63.3558	-45.2038		-48.7947
16.455	-108.495		43.2892
62.0942	-71.9214		6.00019
54.3085	-90.372		8.08818
12.424	-49.13		94.0946
15.2779	-50.2833		91.975
18.1593	-52.007		89.2209
7.86834	-58.3683		94.9223
8.18431	-59.4098		94.9803
8.41067	-60.5194		94.9288
21.2733	-65.5884		84.464
20.7115	-63.807		85.0644
20.174	-62.1927		85.5929
16.426	-46.0206		91.3648
34.7276	-54.7242		78.4077
27.3491	-34.3232		82.0713
28.2999	-39.5866		82.7891
28.998	-44.609		83.048
55.9088	-38.6103		59.4799
17.9503	23.8084		73.219
79.7998	15.328		-47.3516
82.3941	14.0453		-27.8425
82.9945	12.0701		-25.4346
71.9527	-43.5259		1.99717
24.5145	11.9057		71.6098
53.2646	43.9088		66.5303
7.29743	-31.2136		94.4668
45.4616	21.451		65.7186
10.7285	-30.3228		92.1762
82.868	11.878		-24.3767
58.7715	-103.098		-41.8518
62.7183	-66.5377		-36.8454
61.7961	-59.8528		-42.1574
61.772	-53.8993		-45.9726
20.5275	-26.5189		83.551
12.955	-56.7905		90.8898
22.5656	-57.0757		81.8131
6.39952	-53.1995		92.4248
-69.6662	-48.4943		14.1641
-70.5239	-43.6653		15.3357
-70.9038	-46.6467		7.03897
-68.6983	-53.0479		12.9238
-68.2134	-50.1128		22.404
-57.3349	-119.071		-7.63181
-56.846	-108.83		-7.07878
-59.4212	-117.649		-12.0344
-58.2979	-129.267		-8.71539
-54.6788	-120.296		-3.37257
-59.2594	-136.624		-9.88854
-56.8657	-138.558		-5.29766
-60.9962	-134.731		-14.5278
-60.0833	-142.369		-11.0395
-50.6735	-103.754		2.89323
-54.0892	-102.403		-1.9554
-50.731	-111.354		1.80132
-47.1177	-105.52		7.37645
-51.2804	-97.7709		4.17678
-60.4305	-99.8905		-14.9684
-58.9014	-100.607		-10.6713
-60.6403	-94.3438		-14.4532
-61.3647	-98.4356		-20.0401
-60.4281	-106.96		-15.5883
-62.4344	-67.7726		24.6569
-63.7329	-66.9334		16.7158
-60.7322	-71.9838		21.9161
-60.351	-68.6394		33.1492
-63.7503	-63.8464		26.9439
-71.9446	31.9834		24.1284
-75.4567	30.406		12.4666
-71.5113	24.4105		26.9381
-67.6339	34.8324		35.0566
-72.7166	39.9174		19.8399
-78.184	42.2264		-28.6843
-79.3092	34.7657		-23.8275
-78.4704	44.0201		-18.0371
-76.6138	49.3364		-33.8701
-77.7086	39.148		-38.3972
-8.93757	-116.945		38.5827
-9.31883	-112.542		40.8661
-12.2576	-116.604		37.244
-8.74723	-123.925		37.1056
-6.19732	-117.069		39.464
-9.45789	-134.854		33.9027
-10.2888	-145.787		30.3266
-6.19426	-135.007		35.0604
-13.0526	-134.014		32.3648
-3.42442	-153.802		29.6461
-3.79953	-158.798		28.1791
-3.18947	-146.343		31.9687
-7.12368	-153.516		29.0756
-66.6481	-54.9345		-31.7214
-67.512	-47.18		-35.9458
-64.0266	-61.1011		-34.1794
-66.0828	-61.417		-26.4656
-69.1886	-48.7547		-29.35
-68.4522	-41.6383		-39.0404
-71.5601	-36.951		-35.835
-69.3795	-36.8169		-41.5453
-64.8219	-47.5056		-42.4834
-61.9418	-127.516		-30.7342
-62.4582	-130.709		-24.3412
-60.4312	-124.6		-37.489
-62.0165	-134.08		-33.0161
-3.11115	-135.274		35.7065
-3.18769	-124.32		38.8637
-66.0757	-51.5015		31.714
-65.2786	-56.2227		30.8108
-63.7228	-51.6816		40.0315
-67.0183	-45.9684		31.9046
-64.8026	-65.5954		8.80859
-66.3104	-61.4268		10.3028
-65.5203	-64.9667		0.629001
-63.1505	-69.6765		6.90208
-10.5939	-94.3203		87.5769
-10.2546	-89.7241		89.3567
-14.2752	-94.0269		85.5485
-10.6174	-98.4061		85.0361
-6.94078	-94.481		89.0537
-18.1386	-93.0794		83.0915
-18.3195	-88.1242		84.8225
-22.3953	-91.5763		79.8983
-17.5964	-97.6534		80.7122
-3.47159	-85.434		92.1061
-3.65983	-90.1081		91.4637
-3.30839	-80.6163		92.1159
-6.64595	-85.1674		91.4137
-10.4109	-101.346		82.1283
-7.03752	-101.349		83.5457
-13.8251	-101.169		80.2813
-10.4718	-103.389		78.4621
-11.0072	-104.577		73.9442
-11.5278	-105.102		68.4503
-7.40334	-104.958		74.7172
-15.1868	0.874105		80.7427
-12.5889	3.33734		82.5027
-14.6043	4.83201		78.4434
-17.8357	-0.926875		79.0752
-15.8402	-3.13011		82.8734
-43.6735	-27.4588		75.5913
-44.5689	-32.3918		75.2926
-38.4886	-26.0379		78.4152
-43.1039	-22.391		75.4546
-49.3237	-28.4687		71.1854
-53.9383	-17.8316		65.8185
-54.5202	-23.4275		65.4862
-48.1205	-17.7658		71.3148
-53.2053	-11.9584		65.7913
-59.71	-16.9782		58.1273
-66.8833	2.15629		43.1679
-64.3144	4.08015		47.7376
-66.798	9.72351		41.7351
-69.0014	1.10232		37.8909
-45.1205	-37.325		74.6878
-39.9505	-36.1205		78.5536
-50.4727	-38.5069		69.3913
-45.2598	-42.4548		74.3384
-1.1512	3.44703		96.9582
-2.93997	2.81866		96.4942
-1.3811	-1.17624		101.006
-1.29604	8.29019		92.7415
-30.3711	68.542		70.4276
-31.2787	74.6325		66.0816
-35.616	66.9645		67.7228
-29.3856	61.6973		75.2588
-25.3826	69.5196		72.4741
-4.19746	-106.587		62.8425
-4.20894	-105.876		69.7466
-7.50769	-106.331		62.2467
-4.15702	-107.539		55.2515
-60.9924	-51.4124		47.6789
-61.9703	-45.7523		47.9939
-59.6918	-57.0917		47.4918
-57.7738	-50.9296		55.0101
-3.83051	-101.356		84.3579
-4.04552	-103.731		80.0781
-3.72473	-98.3505		87.4736
-4.18945	-105.105		75.2375
-36.88	-89.2388		62.0759
-37.1451	-85.8893		65.4666
-41.8826	-84.7529		58.1468
-36.0899	-91.9288		59.0924
-31.7648	-93.0812		66.4939
-41.6192	-93.0357		36.5619
-37.0475	-95.8391		41.4645
-44.0758	-89.1511		41.6708
-45.8287	-90.1287		31.3763
-39.1468	-97.1285		30.9588
-3.93671	-109.311		47.3412
-3.78673	-112.658		42.2132
-6.70592	-109.286		46.5794
-6.33523	-7.09142		102.713
-3.87385	-6.12371		104.282
-5.68365	-2.86697		99.1095
-9.08287	-8.61398		100.122
-6.98242	-10.3463		105.446
-24.4756	-20.8015		82.405
-21.1321	-17.8807		83.8038
-22.9168	-15.7497		82.0662
-28.1431	-22.913		81.4524
-28.3115	-59.0305		83.451
-26.335	-59.2444		83.864
-26.9808	-58.2766		83.7967
-12.3397	-27.8357		94.3515
-14.0139	-27.8933		92.6676
-11.7733	-28.7705		93.907
-13.6157	-26.5578		94.4409
-12.0165	-31.9299		92.3613
-10.2236	-31.5109		93.7086
-11.8248	-30.9986		92.5861
-14.3164	-31.8324		90.5955
-12.5579	-33.2703		92.1808
-2.14106	-28.2412		100.945
-3.89965	-28.0689		100.152
-2.29282	-29.2216		99.6609
-2.10108	-27.2807		102.558
-16.7624	-30.6931		88.7729
-17.322	-32.137		88.6733
-16.3293	-29.7235		89.1509
-18.9478	-28.6845		87.0562
-7.57082	-19.1218		108.044
-7.69832	-17.3894		108.475
-10.0085	-19.4351		104.724
-7.35898	-21.0607		106.959
-5.20338	-19.1657		110.165
-24.4784	-71.3933		84.2913
-25.4972	-75.0444		82.7715
-21.0343	-73.0803		86.1679
-23.3365	-68.3343		85.614
-27.4934	-69.2614		82.7299
-27.2294	-52.4597		86.2528
-28.971	-53.2483		85.1876
-25.3482	-51.5091		87.5971
-27.0811	-48.1876		87.1423
-2.70915	-33.3658		97.4958
-2.55054	-31.4917		98.0524
-4.46373	-33.1782		97.0822
-2.81876	-35.5988		97.261
-5.23876	1.54397		95.4026
-5.26996	5.88335		91.4938
-7.93574	-0.394154		93.4962
-17.5059	-19.9285		90.0128
-17.8698	-19.2065		88.693
-17.766	-21.2879		89.2586
-16.8875	-19.567		92.1271
-16.6959	-18.4994		92.1088
-5.62745	-29.8145		97.3842
-4.15113	-29.9164		98.1944
-5.57861	-28.855		97.9976
-7.06677	-30.2325		96.2407
-5.59022	-31.3386		96.852
-5.37425	-28.0514		99.0266
-5.29277	-27.1795		100.39
-16.1368	-18.8225		94.2153
-16.5323	-20.5066		93.3555
-15.8907	-17.8731		94.4
-17.8215	-23.7778		88.7149
-17.3079	-26.2114		88.9369
-17.0475	-23.0527		90.8705
-3.29246	-43.133		98.0571
-3.20736	-40.4807		97.577
-5.87694	-42.5823		97.8137
-3.6273	-45.0369		98.4389
-23.201	-33.7662		86.0388
-21.6685	-29.5955		85.5335
-25.2491	-33.6801		85.1051
-24.6734	-38.4165		86.9395
-20.989	-34.0288		87.2442
-9.36872	-69.5393		92.2779
-13.1142	-69.3876		91.2556
-9.57421	-71.9983		91.516
-5.76046	-69.5535		92.8042
-9.20841	-67.5594		93.1324
-22.9338	-53.9767		88.144
-23.2048	-52.0965		88.8267
-24.861	-55.7843		85.8396
-23.1344	-54.7634		87.6153
-15.6823	-17.1686		94.2088
-14.3298	-16.0001		96.6645
-15.7725	-16.2094		92.6955
-16.6191	-68.8443		89.8624
-16.2935	-67.0587		90.6898
-19.7866	-67.7781		88.207
-16.993	-71.1229		88.9627
-2.72354	-69.5505		92.9193
-2.67733	-67.7443		93.6892
-2.76997	-71.8811		92.3294
-57.3101	28.6206		57.5173
-58.4822	29.8426		55.5191
-59.6361	23.1317		52.5313
-55.9665	27.6436		59.3667
-39.7884	53.8324		71.479
-40.4866	59.0455		67.9446
-45.2451	51.4237		67.1402
-38.9421	49.6521		74.5528
-34.8416	55.5944		75.2901
-51.0845	48.074		61.8164
-52.3716	53.4422		57.4337
-57.0364	44.0298		54.5244
-49.741	44.21		65.6359
-38.7943	42.8008		77.2077
-38.6842	45.1736		76.7468
-38.8619	40.1048		77.2839
-34.6359	45.0657		81.0024
-60.2899	31.0938		52.0994
-63.7708	24.9532		45.4642
-54.6407	37.1022		61.4651
-61.5894	33.8483		48.9537
-23.6294	35.9399		80.5746
-19.902	34.7065		80.6448
-23.4444	38.0356		81.5898
-27.0095	35.9282		80.0602
-23.6867	33.2584		79.0664
-5.43265	15.651		83.5756
-5.40435	13.2134		85.2357
-3.0653	17.2697		84.8073
-5.37015	17.7388		82.522
-7.8396	13.4616		81.7508
-28.4555	-5.35521		75.9686
-23.2827	-4.13453		77.2715
-27.0279	-1.89734		74.9677
-34.7713	-6.20196		74.5934
-29.9559	-9.64028		77.2073
-56.0087	8.90578		56.818
-53.4433	5.02585		60.5641
-53.4914	10.9228		58.4798
-56.9689	13.6727		54.9427
-58.2645	6.92298		55.1266
-5.33871	9.89795		87.9699
-3.13625	11.4969		88.9001
-7.72348	7.72949		86.5206
-38.8814	37.7379		77.1353
-38.4575	35.6826		76.8834
-34.7991	39.9689		80.1446
-42.7142	36.6504		74.7017
-46.7731	34.9841		71.6212
-51.2165	30.9148		66.641
-46.0083	32.8888		71.9578
-52.8104	18.1615		59.0158
-54.6189	18.1832		57.4019
-52.3838	15.3441		58.8249
-50.9107	18.1088		60.5221
-52.4083	21.0151		60.5684
-41.075	21.3995		69.0691
-39.3177	22.3524		70.5876
-42.7059	20.4255		67.2952
-37.3075	23.1405		71.7959
-34.9931	23.6279		72.6595
-37.4427	24.0804		72.3242
-39.6395	23.234		71.0592
-34.8833	24.5389		73.1656
-32.38	23.9279		73.1257
-29.6886	23.8528		73.2302
-32.1159	24.8003		73.5651
-29.2259	24.6914		73.6047
-27.1029	23.3633		73.0352
-24.6929	22.4018		72.6056
-22.3436	20.9734		71.847
-20.4094	19.4226		70.9875
-21.1762	21.7036		72.0705
-23.631	23.0995		72.8356
-19.2904	20.008		71.2365
-19.2086	18.0743		70.3078
-19.9514	22.2166		72.3618
-22.6388	23.9515		73.2569
-31.8947	25.8191		74.1317
-28.782	25.7073		74.138
-46.3588	16.7883		63.2437
-45.2983	15.7651		63.865
-30.529	35.0603		79.1949
-30.5803	32.8437		77.9972
-30.7473	37.358		80.2268
-34.4375	34.1169		77.9285
-44.0926	26.6273		70.9777
