1861
3.84684	-115.6		43.3845
7.4481	-121.44		40.2196
10.7524	-114.805		41.0709
7.09624	-110.951		45.0988
8.59179	-131.82		36.1826
9.68279	-142.529		32.0084
12.4135	-130.886		34.6578
5.13695	-132.029		37.3269
2.73445	-150.489		30.9231
6.50882	-150.213		30.3924
2.35303	-143.107		33.5882
-0.899756	-150.429		31.1308
3.18539	-155.457		29.238
68.0612	-53.5216		-32.5476
70.5991	-47.6037		-30.3233
67.6167	-59.8131		-27.4068
65.4416	-59.4566		-34.8006
68.7904	-46.0446		-36.6683
69.6383	-40.6843		-39.6574
65.9556	-46.3577		-42.9662
70.5086	-36.0174		-42.0402
72.8035	-36.1532		-36.5443
62.463	-124.098		-30.0514
62.324	-130.743		-32.2441
60.9145	-121.302		-36.7564
63.0088	-127.184		-23.6894
1.90803	-132.3		37.922
1.42125	-121.921		41.8868
-1.1674	-132.239		38.1436
69.7842	-51.0315		27.3839
70.7854	-45.4225		27.8462
68.3821	-52.1012		34.9774
68.794	-55.9826		26.4598
66.6295	-64.734		6.38696
64.9526	-68.4902		4.77397
67.2804	-63.7531		-1.44171
68.2113	-60.7224		7.6369
9.29275	-90.3442		88.4225
5.31091	-90.9596		89.6729
9.09086	-94.4163		86.3773
13.7402	-89.8218		86.2785
9.65897	-85.7544		89.3883
18.4192	-88.5844		83.594
18.2856	-92.5822		81.736
23.4272	-86.9292		80.0584
18.3761	-84.0594		84.6742
2.80174	-81.8821		91.427
6.07186	-81.5713		90.7853
2.83084	-77.1455		91.0162
-0.317021	-82.0529		91.6153
2.42769	-86.8669		91.2469
9.14015	-97.388		83.5024
9.45966	-99.5082		79.606
13.5937	-96.7257		81.6094
5.26235	-97.8239		84.7198
10.1029	-100.865		74.6322
5.90684	-101.458		75.4194
10.49	-101.689		68.9944
17.5687	1.83818		82.717
18.0746	-2.62189		85.4293
20.3047	-0.258878		81.5444
17.0272	5.8048		80.1869
14.9938	4.36427		83.9684
52.265	-30.0424		73.7025
58.7928	-31.0744		67.3011
52.0277	-24.7117		73.8975
45.1433	-28.2231		78.3947
52.1502	-34.923		73.2667
64.1698	-20.616		60.7552
67.976	-19.8403		54.0828
63.118	-14.7805		61.5739
58.4171	-19.7649		67.764
64.2524	-26.1966		60.5219
71.7476	1.97434		42.1062
73.5865	1.29427		37.1171
71.0047	10.0004		41.518
69.5739	3.25521		46.2544
51.8629	-39.528		72.3581
51.1959	-44.1253		71.4322
57.6039	-40.6764		66.1764
45.5692	-37.7047		77.0918
4.22664	2.63288		96.8288
3.82228	8.42402		93.2763
2.45281	2.92418		96.9696
4.5661	-2.81181		100.099
6.14744	2.07725		96.2233
33.0647	69.4951		67.0196
27.5832	70.3324		68.9591
32.7656	63.4961		70.9459
38.83	68.0373		64.4215
33.6136	75.1755		63.0195
2.09515	-103.677		63.7877
1.65918	-105.219		56.8776
5.74556	-103.427		63.2485
2.30887	-102.649		70.2428
-1.4454	-103.743		63.9139
66.414	-52.6225		42.5268
63.7364	-52.5759		50.0206
64.9996	-58.5707		42.2811
67.5983	-46.6021		42.9942
1.94274	-98.3027		85.1047
1.87609	-95.6145		87.9236
-1.00843	-98.5799		85.0277
2.20861	-100.485		80.8221
2.36439	-101.785		75.8274
-0.975877	-101.915		75.8811
40.9695	-87.5139		61.0027
34.9859	-89.3217		66.3794
40.1335	-90.038		58.1691
46.5296	-84.7138		56.2279
41.0886	-84.2501		64.2526
45.6107	-90.7684		35.0772
42.5663	-93.9496		30.3506
49.8021	-87.5203		29.5467
48.2642	-88.2109		39.5107
40.3709	-93.946		40.3595
1.06524	-107.622		50.5309
4.22226	-107.646		49.9154
-1.92665	-107.592		50.615
0.658092	-111.122		46.3247
9.22494	-8.9378		101.361
9.77659	-12.7498		103.746
11.7749	-9.87169		99.165
8.83686	-4.06647		98.1548
6.86577	-8.2147		102.716
27.4249	-21.9047		84.1916
31.3995	-23.8944		82.8933
26.0197	-17.0143		84.711
23.9987	-19.1196		86.0147
24.1101	-58.2211		79.8952
26.1882	-57.9216		79.46
13.3454	-28.9284		91.5556
15.0644	-27.2678		92.4376
12.5552	-29.9621		90.7383
15.0339	-28.5616		90.2725
12.2344	-33.0635		88.874
12.6132	-34.3996		88.656
14.5123	-32.6653		87.6168
12.2199	-32.1272		89.1383
10.4746	-33.042		89.9322
3.56075	-31.4847		96.7547
3.68041	-30.5855		98.9514
1.97681	-31.5113		97.0587
3.59039	-32.4856		95.0014
5.22602	-31.314		95.8686
17.0823	-31.5752		86.5433
19.7785	-29.8455		85.7054
16.8332	-30.559		86.9938
17.4456	-33.042		86.2602
10.2374	-22.4097		105.935
7.85129	-22.9082		107.889
9.88332	-24.2901		104.824
12.8027	-22.0748		102.824
10.4597	-20.691		106.365
23.5914	-69.3059		81.1554
26.6046	-67.7204		79.1996
21.8298	-66.4967		82.2041
20.0149	-70.5064		83.6205
25.2985	-72.6264		80.1357
25.7975	-51.5266		82.1314
26.1257	-47.2972		83.0612
23.9537	-50.57		83.4497
27.5883	-52.3269		81.1094
3.69936	-36.447		92.4341
3.4933	-38.1489		92.2388
5.21869	-36.1091		92.1693
3.71048	-34.7977		93.0116
1.77393	-36.6132		92.5556
8.33761	1.09907		95.0566
10.7698	-0.508585		93.4741
7.87594	6.16863		91.9484
20.2554	-19.8961		90.8156
19.4733	-18.5021		92.505
19.6754	-19.5067		92.3827
20.4371	-21.3962		89.8844
20.6842	-19.4117		89.847
6.4042	-32.9064		92.7992
6.36523	-34.3495		92.1113
7.59555	-32.9481		91.91
6.52128	-31.9932		93.5001
5.22162	-33.1912		93.3737
6.5245	-31.1805		94.7383
6.66911	-30.302		96.6549
18.9208	-18.9956		93.9882
18.6336	-18.1225		94.2724
19.3208	-20.4741		93.1596
20.0423	-24.0459		88.6426
19.5922	-22.9645		90.596
18.807	-26.8657		87.8183
2.61087	-44.0031		92.9826
2.75595	-45.8633		93.436
4.83043	-43.5245		92.8328
2.70132	-41.7773		92.5019
0.32716	-44.3392		93.0092
23.5929	-34.5741		84.079
20.9589	-34.8512		84.9905
24.4163	-38.7355		84.0231
26.0084	-34.5713		83.4416
22.683	-30.6928		84.4617
8.31112	-67.4027		89.9689
7.98106	-65.8752		90.5319
5.1399	-67.5254		90.6368
8.70333	-69.3502		89.5049
11.739	-67.1351		88.7832
21.0415	-53.1753		84.2092
21.1512	-53.9815		83.6898
22.7686	-54.9327		81.8522
21.5413	-51.2731		84.8004
18.382	-17.3986		94.2043
18.4231	-16.2918		93.2154
17.0539	-16.7102		96.1979
14.9624	-66.6415		87.1602
15.5974	-68.5819		86.5163
17.8782	-65.7048		85.2421
14.3943	-65.0974		87.8452
2.51779	-67.4848		90.9369
0.0309238	-67.4069		91.0592
2.76132	-69.4183		90.5796
2.19826	-66.0634		91.4501
63.249	27.6794		57.0135
62.3189	26.5467		58.7912
65.2174	22.0311		52.362
63.9759	29.1825		55.0683
43.834	55.1709		68.5735
37.8053	56.9965		72.2879
43.7628	50.5039		71.7474
50.0227	52.3804		64.4306
44.5114	60.3494		64.735
56.0186	48.9205		59.2689
55.6556	44.5512		62.8499
61.4298	44.7474		52.8589
56.7089	54.3069		54.9163
44.6119	43.358		74.6777
44.1922	45.6296		74.1645
38.6696	45.3563		78.8501
45.2104	40.9699		74.6587
65.0874	30.9234		51.8495
65.7021	34.2649		48.8716
60.7035	36.9548		59.2711
67.9271	24.9372		45.946
26.1354	35.3414		80.1369
26.6043	33.4498		78.5078
30.24	35.8624		79.4318
25.7708	37.4039		81.6978
22.5024	34.269		80.2627
7.80469	16.9949		84.9714
10.3746	14.7045		82.993
7.84438	19.0738		84.0539
5.06448	18.532		86.5095
7.66271	14.3891		86.4936
32.2386	-5.81205		78.3993
33.9387	-10.6216		79.7329
39.6502	-7.36157		76.3824
30.5826	-1.75118		77.234
26.1579	-3.76261		79.9413
62.1504	4.70694		55.8686
64.5313	3.74339		53.5022
62.8372	9.10987		54.4101
59.5335	6.27031		58.1113
60.139	1.3482		59.1773
7.67544	10.8449		88.8006
10.1548	8.68676		87.3656
5.32756	12.4717		89.765
45.7868	38.7483		74.5417
50.8828	36.8102		71.6258
40.2135	39.7511		77.5624
45.8282	36.5858		74.3738
55.2217	34.026		68.3131
54.6794	31.9914		68.7801
58.9062	29.9807		64.2869
58.7608	14.1667		59.096
58.7021	18.4667		60.7433
56.6328	14.4404		61.0069
58.3784	10.466		58.7708
60.6217	14.158		57.2281
46.6997	21.0705		69.3795
48.2346	19.3849		67.9537
44.8992	22.3749		70.5937
42.836	23.5332		71.4665
40.4356	24.4602		71.989
42.9545	24.5171		71.8712
40.1511	25.4522		72.4201
45.2776	23.3411		70.941
37.4774	25.0545		72.2275
34.4317	24.983		72.3206
37.0735	25.9543		72.6257
33.8011	25.797		72.6795
31.348	24.2514		72.2642
28.5004	22.9924		72.0308
25.566	21.2929		71.7317
22.8383	19.4496		71.5437
24.234	22.0056		72.0936
21.6996	20.1044		71.9085
27.2252	23.7117		72.3482
20.956	17.9121		71.4142
22.9474	22.5535		72.5523
26.1059	24.5396		72.83
36.7457	26.9933		73.1398
33.1901	26.8023		73.1901
51.4338	13.9194		64.4844
51.8679	14.96		64.4084
50.3351	13.0757		65.1383
34.8907	35.958		78.1958
40.2617	35.4266		76.2842
34.854	37.7521		79.2059
34.9691	33.9031		76.9431
51.342	26.0546		69.6095
49.7987	24.499		69.8668
52.7659	28.047		69.3867
48.0623	28.0266		71.7848
40.8298	6.47077		71.7003
46.445	6.82426		68.9209
33.7754	6.82762		73.5784
41.393	4.87832		71.7972
27.6683	8.04934		73.9849
23.5239	9.71883		73.6663
27.7076	6.58176		74.5033
19.8099	13.1114		72.8045
19.2648	14.0987		72.513
20.7277	12.1646		72.9695
39.8637	9.53582		71.5064
44.867	10.101		69.3659
33.7379	9.69653		72.9347
22.564	12.9029		71.9389
24.4276	11.9652		72.3969
21.6088	13.4711		71.68
20.8917	13.9586		71.5771
20.2548	14.5875		71.5411
16.3355	22.9084		75.6107
15.5157	25.5709		77.2964
17.1844	20.1954		73.8192
18.0591	25.0694		75.6132
18.7494	15.5323		72.3787
29.5844	25.9682		73.0628
17.9035	19.1348		73.0079
17.4694	17.5272		73.0954
19.0416	21.0784		73.0996
39.6885	10.8681		71.3969
33.6327	10.9704		72.6847
22.5328	13.6902		71.3541
21.6512	13.9869		71.2605
24.4496	13.1227		71.7791
21.0032	14.433		71.1709
49.1863	17.6224		66.5753
3.9353	33.1844		84.6134
0.5513	33.1726		84.7427
3.50529	30.3826		84.4896
6.76265	32.8498		84.1446
4.5178	35.9972		84.8726
20.8664	5.05696		77.2729
20.5981	6.98053		76.1879
18.8349	6.58993		77.7095
21.7179	2.23121		78.718
24.0997	3.33484		76.8013
16.9259	8.24016		78.4131
14.9309	10.2251		79.4578
17.5117	12.9958		74.7173
15.7587	13.975		76.0947
17.6722	14.5292		73.7043
12.267	22.7013		78.8997
13.3071	24.8448		78.556
11.4805	23.8416		79.8503
21.6549	11.0281		73.3395
21.0566	9.96491		74.206
20.7206	8.60738		75.1133
23.2113	6.94666		75.1218
17.199	-55.6499		83.324
17.0868	-55.5889		83.1058
19.7192	-56.3732		81.2534
14.3813	-54.6141		85.2734
21.2056	-56.7179		80.2187
20.9624	-56.5944		80.1884
3.06053	-49.1503		93.6497
5.6097	-48.949		93.3364
2.96976	-47.9336		93.7316
0.166889	-49.3076		93.7339
2.99775	-50.2819		93.4064
7.80353	-51.0292		92.1414
7.95166	-50.0872		92.5474
5.49659	-51.0166		92.6893
7.45798	-51.8188		91.6376
9.80942	-50.9254		91.5665
11.7214	-50.9694		90.7513
11.8646	-49.9623		91.2444
11.5912	-52.017		89.971
14.2614	-51.7769		89.0035
7.93518	-48.9037		92.8695
9.98662	-48.794		92.3265
7.84141	-47.6345		93.0463
11.2978	-46.9511		92.0067
11.7689	-47.8674		91.8279
11.0533	-45.9847		91.9959
9.42867	-46.8798		92.649
17.463	-53.5396		85.9952
17.477	-52.2443		87.0925
6.82041	-52.5309		90.9548
4.47879	-52.471		91.5349
6.33276	-52.9032		90.3236
9.28544	-52.6013		90.1313
11.5776	-53.0694		88.7927
11.5015	-53.6148		87.8703
22.0129	-55.5817		81.7241
17.377	-56.5959		83.9623
17.2923	-56.5336		83.7426
14.4614	-55.738		86.2159
17.45	-56.7685		84.261
17.9771	-57.9287		84.7685
17.7739	-57.4948		84.6943
15.2651	-57.6564		87.4814
12.3998	-57.6944		89.77
12.1868	-56.9336		89.5198
9.7855	-57.6628		91.3331
12.7619	-58.492		89.7937
6.39189	-55.6026		91.7469
6.64685	-56.599		92.2185
9.21541	-55.7512		90.6453
6.25459	-54.7662		91.1695
3.63484	-55.4468		92.3751
1.51988	-57.6658		93.5806
1.60679	-58.7458		93.7619
3.90297	-57.5446		93.2585
1.43223	-56.5928		93.2318
-0.779258	-57.6968		93.6248
21.5043	-58.12		79.5034
21.3029	-57.5475		80.0988
21.6203	-59.3992		78.8691
19.7562	-57.8899		80.8689
1.30143	-54.7861		88.4246
1.34742	-54.137		89.5171
3.28673	-54.9186		88.2191
1.19445	-55.9356		87.464
-0.527481	-54.7285		88.4397
1.7486	-59.922		93.7826
-0.73145	-59.9917		93.8269
1.91251	-61.0183		93.6366
4.20208	-59.7256		93.4781
2.01793	-64.5927		92.1537
4.69466	-64.4185		91.9067
1.99564	-63.2181		92.8425
-0.468993	-64.677		92.1803
7.58025	-46.7529		93.079
6.89649	-45.466		93.0332
5.39476	-46.639		93.4238
1.42599	-55.5035		92.6866
-0.702893	-55.5453		92.7418
1.39562	-54.6153		92.0599
1.37296	-54.1916		91.5897
3.57509	-54.222		91.3362
1.43143	-53.9822		91.1114
-0.587111	-54.189		91.5872
6.21201	-54.3608		90.7093
8.88706	-54.5404		89.69
6.1472	-54.1878		90.3138
1.45948	-53.9279		90.4443
3.48322	-54.0064		90.2293
-0.510891	-53.9054		90.3899
11.4541	-55.0627		88.3123
11.3858	-54.9339		87.9162
11.6367	-55.4003		88.6724
13.4166	-61.2694		89.4766
13.7002	-62.3035		89.0576
13.1944	-60.3344		89.7104
10.6414	-61.6038		91.0584
7.60225	-61.6196		92.2942
7.7181	-62.7792		91.8563
7.45215	-60.6129		92.5563
4.4408	-61.8332		93.0734
1.9657	-62.0642		93.3366
-0.633317	-62.1855		93.3657
11.4089	-53.8018		87.2038
8.75046	-53.241		88.6134
11.2839	-53.7379		86.6211
24.0805	-57.074		80.0465
23.0029	-57.3468		80.1156
21.2708	-57.3		80.7502
19.8743	-57.336		82.0582
5.72466	-55.1037		87.7746
5.82403	-54.4224		88.7752
8.38597	-55.3296		87.0381
5.71318	-56.2455		86.8922
5.97952	-54.1652		89.6748
8.629	-54.3963		88.7391
7.73709	-64.2525		91.2469
10.971	-64.1089		90.0627
12.9466	-59.3913		89.8382
10.2901	-59.6222		91.4367
14.0172	-63.6481		88.4849
16.7355	-62.7899		86.5514
11.025	-53.4181		86.2031
8.54161	-52.8053		87.114
10.6136	-52.288		85.3982
13.6705	-54.1145		84.7919
6.0326	-52.5527		87.8058
3.90456	-52.3237		87.9812
6.42869	-51.4815		86.4744
5.95905	-52.9395		88.7385
10.3655	-49.7228		84.1806
8.41842	-49.3511		84.7132
10.6807	-46.3492		83.1123
12.4951	-50.2016		83.3867
21.8181	-62.1614		78.1133
21.8427	-64.981		77.6842
19.8265	-61.9183		79.6151
1.08784	-58.3663		86.5736
3.05206	-58.4727		86.4349
1.40066	-61.8881		86.2134
-0.590553	-58.3222		86.5773
6.55148	-49.1187		85.0604
4.56025	-48.9169		85.2628
6.58847	-45.7965		83.995
5.54703	-58.6869		86.016
5.81099	-62.331		85.4367
8.29817	-59.071		85.2898
25.9928	-57.4338		74.1881
26.7433	-57.164		73.3283
13.6251	15.7034		77.9441
13.0139	14.233		79.5196
81.4051	-9.13576		-43.1724
80.6815	-13.4995		-42.4603
79.5247	-8.54998		-46.4809
82.0443	-4.57256		-43.1396
82.9217	-9.62416		-41.4605
81.9116	9.5789		-6.14076
82.1643	12.4009		-10.321
81.0429	11.7474		-1.24162
82.1071	14.4488		-15.4787
81.7531	19.8693		-16.6992
82.5355	9.47197		-16.6107
82.5149	13.9643		-22.475
75.4556	-33.2065		-34.2317
77.9248	-30.9553		-32.5906
74.4458	-37.3543		-31.7241
76.6305	-29.3465		-35.9942
77.6222	-25.7212		-38.0025
74.9836	-27.699		-40.8416
78.7449	-21.789		-39.7638
79.9173	-24.5382		-36.1392
84.426	-9.58029		-40.5585
85.9615	-9.09206		-40.1849
83.8347	-13.7067		-39.6856
84.816	-4.61193		-40.7156
86.3434	-27.7581		-30.8559
87.4631	-23.7541		-32.8658
87.0781	-28.1982		-29.6404
85.146	-31.7185		-28.4143
90.912	-18.0449		-30.8472
90.9154	-17.4781		-30.0835
79.9722	-40.1678		-20.46
80.437	-40.4069		-19.7578
79.5562	-40.8326		-18.4822
79.1014	-39.2917		-22.505
81.2081	-32.8566		-8.06815
80.8702	-33.4804		-8.03276
80.4147	-34.4839		-8.25783
90.8677	-17.1018		-29.6792
90.3724	-17.6839		-28.7485
93.7558	-2.61896		-33.3609
93.8075	-1.97542		-34.8722
93.6532	-3.92635		-31.7188
94.0939	7.5653		-30.8824
94.3653	8.91175		-30.9842
94.5106	11.0014		-29.9579
93.9752	10.8259		-27.7536
94.6854	11.4566		-30.3498
94.219	13.083		-26.8861
84.7665	-9.94744		-8.13288
86.0605	-4.48989		-8.6349
84.3042	-9.18563		-6.80611
83.8008	-13.9952		-7.62429
79.5249	-25.9854		-1.48467
78.6652	-26.4078		1.2206
78.8866	-29.7493		-2.03561
80.1732	-21.6536		-0.904304
83.2157	-21.1243		-10.2829
83.4994	-23.1558		-10.8172
83.2332	-19.1685		-10.3811
82.5326	8.97756		-16.633
82.816	10.2015		-20.0768
82.5716	8.97634		-16.4151
90.6628	16.4113		-17.0099
91.5383	18.0396		-20.079
89.7897	16.8176		-18.1843
89.3205	13.3835		-14.1046
91.4514	15.71		-16.0183
90.9626	18.6583		-25.1026
90.2555	18.4619		-22.1375
91.2689	18.8049		-24.5877
91.3728	17.3608		-28.7521
90.1375	17.6164		-26.4979
91.5169	3.23429		-39.351
90.7192	2.77292		-39.5384
91.9001	9.20575		-36.4985
92.593	3.47533		-38.8065
86.9985	0.115503		-9.16374
87.2605	-1.14915		-9.83501
94.3889	2.64577		-36.2976
94.8913	7.76491		-34.0537
94.0601	-0.145314		-36.4971
94.4342	2.54414		-36.6561
93.7677	14.0069		-22.9448
92.9123	13.5018		-18.9855
93.5379	12.647		-23.6729
93.8757	14.9936		-22.3304
88.3798	0.84836		-11.9368
87.8426	-0.909739		-11.3809
88.9223	3.16078		-12.6303
93.9804	3.35146		-33.6182
94.0384	1.2981		-35.4703
91.5475	6.08069		-22.1316
91.0767	4.73999		-21.3615
92.7802	5.55231		-26.2525
86.4341	-5.91051		-13.2545
86.5713	-5.64144		-13.9554
86.988	-4.29616		-12.1318
90.8485	-5.21109		-27.0901
92.8197	-2.61206		-28.9555
90.6042	-4.75993		-26.4726
90.7245	-6.30301		-27.2532
80.7684	-17.6805		-0.845215
81.549	-13.1051		-1.58239
80.0314	-17.8797		1.67807
85.0874	0.60683		-39.2394
83.9086	0.0314937		-40.3904
85.0085	5.25529		-37.1183
86.101	3.10261		-38.2887
88.4835	8.03888		-35.5899
88.3075	11.8217		-32.3848
90.8401	12.6597		-33.6596
88.5574	3.96374		-38.4839
89.6799	1.82005		-39.5241
88.4939	-3.67107		-40.342
88.0663	-8.64832		-39.9975
81.7128	-23.9163		-35.2653
80.7357	-27.0104		-33.5005
82.5451	-20.7185		-36.8992
83.2234	-17.3611		-38.4393
81.5261	-17.5806		-39.4769
89.8235	-17.6139		-27.7496
79.7343	-29.9079		-31.8434
78.6267	-33.5019		-29.5771
80.9807	-29.6272		-31.3781
78.7627	-37.2989		-25.0743
78.3069	-37.3034		-25.4271
78.0943	-40.6768		-20.5753
79.3728	-40.5077		-15.6937
78.8702	-40.7605		-15.5264
78.3242	-40.9531		-15.2455
90.9206	-7.05029		-27.7289
92.8084	-5.7063		-29.8736
83.7502	-8.56526		-5.70599
83.0726	-8.14608		-4.47576
81.3382	-22.1343		-4.42766
81.6369	-22.3092		-5.09145
83.9844	-26.6509		-10.6073
84.8627	-28.6691		-12.1947
84.1699	-25.5646		-11.4064
83.1786	-16.994		-7.19173
83.5471	-17.1684		-9.3631
88.0597	13.6589		-29.2018
85.665	9.99201		-32.0235
87.1718	14.3189		-25.8828
84.7217	8.43157		-33.8357
84.2561	8.1319		-34.9482
84.1572	10.6065		-29.6157
83.1055	-17.209		-12.2148
83.3653	-17.166		-11.3308
93.3374	4.56337		-28.593
93.1609	3.0637		-28.2607
86.9624	-4.95694		-15.3766
86.2896	-7.26475		-16.4612
87.8912	-3.76295		-18.0014
90.5849	-3.9184		-25.9697
92.3125	-0.348863		-27.1148
90.0475	-3.84808		-24.6043
7.03344	85.4333		62.4518
6.95877	78.2638		67.7475
15.2912	84.6592		62.1233
7.36395	92.661		55.6737
-1.50509	85.5683		62.5665
6.78548	71.111		72.1785
-1.63301	70.8135		72.5517
7.09335	63.4483		76.3171
14.9044	71.061		71.4469
32.1385	57.6064		75.1853
32.3205	53.6824		78.0158
27.5535	58.1307		76.5946
3.81375	-29.594		101.707
4.31083	-28.3996		104.054
2.26945	-29.5867		102.129
5.74775	-29.5208		100.255
5.55325	-19.5367		109.433
7.93771	-19.3617		108.409
5.43237	-17.2799		108.911
3.13012	-19.6022		109.764
5.63427	-21.4831		109.422
5.56533	-23.3051		108.935
3.17958	-23.4916		109.287
5.36249	-25.019		107.951
3.65916	-33.5327		93.8511
1.8847	-33.6888		94.0255
3.18637	-40.1046		92.275
5.02161	-39.6588		92.1539
1.12282	-40.2811		92.2847
4.94765	-26.7364		106.325
7.04139	-26.6658		104.921
2.77603	-26.7877		106.786
5.16848	-14.8582		107.904
7.55158	-15.1108		107.061
4.92375	-11.874		106.148
2.78496	-14.7711		108.146
6.9703	47.3763		83.6253
-0.629744	46.8647		84.6969
6.4963	44.4289		84.4941
13.9735	48.2132		82.7598
7.07407	50.9833		82.3174
3.01396	19.3486		87.061
3.16357	16.917		88.2241
2.99957	21.4375		86.1784
1.27863	19.6084		87.189
3.08481	23.4457		85.4765
5.16481	22.6593		84.9198
3.196	25.513		84.9565
1.21895	23.6753		85.6511
1.76152	-52.1243		87.9418
-0.393466	-52.0946		87.9388
2.07228	-51.0135		86.7234
1.48355	-52.7673		89.3363
1.4692	-52.9082		90.4055
-0.501792	-52.9173		90.3646
3.51864	-52.9476		90.1903
1.59858	-52.768		91.2353
2.89324	-51.1437		93.0491
2.64942	-51.9379		92.5113
0.0136612	-51.1464		93.1569
2.09008	-52.3622		92.0617
-0.298919	-52.4264		91.9784
2.91388	-47.0076		93.6585
0.211689	-47.3232		93.7061
2.27741	-48.7445		85.3226
2.3247	-45.539		84.1333
-0.151078	-48.6436		85.2579
22.0908	83.667		61.4006
21.8738	77.3108		66.2447
28.3426	82.2284		60.2962
22.5782	90.2649		54.9907
21.2149	49.3413		82.1943
21.067	47.2333		82.9213
27.3029	50.1001		81.7613
20.5118	52.9442		80.6437
22.3742	44.7383		83.3044
24.0662	41.651		83.2706
27.7759	45.5754		82.7906
25.6344	39.2363		82.5747
21.1031	38.3394		83.315
29.9304	40.2625		82.0352
28.6715	26.929		73.6787
28.0684	28.564		74.7409
24.9228	25.4185		73.4804
32.6146	27.8739		73.7956
30.465	25.0417		72.5881
27.1903	30.6869		76.3281
31.1469	31.4106		76.077
23.6645	29.4152		76.2801
47.2152	86.4085		39.7447
48.1321	91.5209		29.9521
41.3035	89.9317		42.2072
46.8866	80.9635		46.8336
34.0215	80.6873		58.5339
34.6682	86.4518		52.5683
39.9963	78.6059		55.9608
32.4762	50.0816		80.5909
33.002	48.668		81.1406
37.8745	49.4029		77.9488
34.254	41.0274		81.0196
34.1534	42.6247		81.4141
33.4069	46.1101		81.492
35.1743	31.4916		75.5822
35.9776	29.5357		74.4428
40.006	30.7339		74.6126
46.3143	75.9791		52.2865
52.5771	73.0788		47.4761
45.7014	71.0105		56.833
44.0736	47.6734		73.2397
50.0753	45.0735		69.3053
43.7317	26.4734		72.5805
43.8324	27.8332		73.0243
40.2585	27.5532		73.3589
46.5449	25.1074		71.3894
45.6301	34.3523		74.158
45.0221	31.9599		73.8361
50.2049	32.563		71.8393
44.2971	29.5889		73.4358
45.0159	65.791		60.8897
51.3681	62.9785		56.3219
58.2534	70.622		41.1452
57.8051	65.3833		46.1477
63.15	68.3226		33.5129
47.2214	21.9033		69.6554
48.7766	20.0448		68.1295
48.9482	23.386		69.775
50.5911	21.3327		68.1153
47.8722	22.6381		69.8288
53.9233	30.1223		69.1061
56.7681	26.5626		65.9246
19.3152	32.3246		79.7574
16.6904	29.9608		79.0731
19.9058	30.3299		78.0588
18.4788	33.869		81.1672
17.2333	35.3446		82.4978
14.5946	32.938		81.855
20.5603	27.3311		75.9074
21.1933	25.0257		74.2811
6.22991	40.0742		84.9856
0.331591	40.6985		85.2258
67.5001	-64.4664		-8.98626
69.1659	-59.4142		-7.27506
67.616	-64.7363		-15.3283
80.6402	22.4726		-36.8982
80.285	18.5561		-42.5663
79.4133	28.0225		-41.577
81.1655	24.832		-28.7871
81.9428	16.864		-31.8149
77.0256	-8.27629		-52.2634
76.0744	-14.2068		-50.8085
74.7122	-8.45773		-57.7935
77.9849	-2.50001		-52.2589
78.6048	3.65508		-51.8507
76.5205	5.36418		-58.2373
79.2179	9.14281		-49.9798
80.7526	1.63537		-45.6922
71.4697	-31.3157		-44.8977
68.2647	-34.6549		-48.7229
73.116	-25.6309		-47.2453
7.08579	56.7969		79.6755
-1.02444	55.6904		80.6666
14.509	57.2047		78.9074
20.9757	57.7602		77.9403
21.7475	64.0202		74.3382
21.0937	-100.526		57.1455
19.4867	-102.826		50.3239
28.2578	-98.5213		51.6444
14.6553	-102.008		60.53
50.2283	-85.8947		43.5958
44.7682	-89.4721		49.2219
54.6193	-82.1336		38.1741
51.2146	-83.7095		47.5464
57.3909	59.8097		50.4992
62.6413	56.5634		43.6638
21.6588	70.931		70.3427
67.8518	65.9597		24.2048
71.6596	63.8428		14.4109
67.8962	59.6093		29.9246
22.8688	97.7575		45.7721
29.3299	95.5357		45.1992
23.0532	104.838		34.4289
15.7332	99.3326		46.226
66.4961	39.5317		44.5728
67.0387	46.345		40.0319
51.2771	19.0666		66.5698
61.3491	25.4559		60.2069
62.2315	19.9993		57.0543
59.9471	24.109		61.7003
58.4953	22.8602		62.8834
0.886506	-115.722		43.8605
-1.88938	-115.633		43.9952
60.6452	-73.2271		38.4264
61.7305	-69.5619		41.0046
56.6483	-76.5768		45.8446
59.3998	-76.3993		34.973
6.4647	-43.5953		92.6901
8.16932	-43.8887		92.4327
6.23382	-41.382		92.2716
21.4284	-48.9315		85.3388
20.9309	-45.1131		86.1151
18.6451	-47.0339		87.6689
9.73603	-40.1872		91.1521
7.68912	-39.7354		91.6871
10.0216	-42.1727		91.509
11.9568	-40.4731		90.3343
9.35317	-38.1403		90.8458
29.417	-52.7752		80.2694
28.4898	-56.2248		79.4384
32.1486	-53.6606		78.9947
30.2075	-48.8046		81.0401
66.7181	15.8495		49.1343
64.8553	14.8954		52.0547
67.2637	9.52907		48.6031
68.2684	16.9922		46.1542
69.8506	17.9765		42.5492
71.8995	18.0919		37.2166
54.9612	14.7841		62.4046
54.828	12.3667		61.8728
62.9192	14.0982		54.5907
83.0145	8.81969		-36.9331
82.8286	5.06417		-40.1271
81.5211	10.7984		-40.929
83.1883	11.366		-32.9829
79.6587	-17.8267		-41.4067
77.5324	-18.3679		-44.5299
71.7467	-51.6432		-17.5341
73.6453	-47.3925		-15.2528
71.2498	-53.6899		-11.4313
69.6423	-57.1488		-19.9768
72.2548	-48.2748		-23.3009
82.5078	0.410088		-42.1459
77.7679	-27.2472		4.35195
76.9395	-31.4622		3.71051
78.5555	-22.823		4.77929
76.8034	-28.052		8.68547
75.7726	0.252907		29.5687
75.5198	8.55396		28.5936
75.6706	-7.73117		30.4504
77.6853	-1.25251		20.8442
57.6495	7.57252		59.5419
55.7979	9.12082		60.9755
55.7617	5.62213		61.7201
54.1845	10.6463		62.2341
52.6971	9.55966		63.5632
75.7757	-28.3486		14.9409
74.7965	-28.3975		21.6956
74.8626	-33.2452		14.2062
76.7672	-23.0636		15.105
24.7069	-11.9786		84.3647
28.9106	-13.7711		82.6812
23.7099	-6.9471		82.9958
21.5309	-9.72457		86.0563
35.5235	-15.9229		80.7117
43.1612	-17.856		78.1565
36.6643	-20.9802		81.2605
18.4713	-7.36607		87.8956
15.755	-4.71595		89.7288
18.84	-11.2468		89.6549
21.6803	-18.4571		88.3796
20.4493	-16.2961		89.5948
18.0226	-21.7636		95.1119
16.8513	-21.6328		97.05
17.5808	-23.4277		94.4278
18.7182	-21.9844		93.6649
19.169	-22.3368		92.2044
18.4774	-24.4972		91.2163
38.9565	-36.1637		80.0962
33.0768	-35.3082		81.8531
38.8075	-41.1814		79.3229
38.5603	-31.3476		80.802
37.511	-25.9965		81.2854
6.30619	-36.0012		91.8243
6.37905	-37.7881		91.7791
7.45668	-36.0631		91.3642
60.0838	-51.9958		57.535
61.4139	-46.3507		58.1263
55.4307	-50.7556		64.615
58.4567	-57.8417		57.2277
25.2985	-42.9413		83.7417
22.8486	-42.2617		84.9195
27.7371	-43.5766		82.7765
38.2834	-46.0735		78.4218
37.2989	-50.8563		77.6649
43.9197	-47.4915		75.3165
33.5917	-45.0395		80.4795
6.31708	-39.577		91.9666
56.5724	-63.8561		57.0658
59.915	-65.2166		49.9956
52.0629	-61.2883		64.1952
53.6151	-69.0703		58.6129
63.7748	-31.3212		60.3186
63.2076	-36.1923		59.695
67.6332	-30.6011		52.709
28.6779	-91.2211		72.0138
29.0467	-88.2562		74.0725
22.9424	-93.4914		76.1927
40.5923	-80.304		67.3407
45.4539	-77.211		64.211
38.4687	-76.1938		70.9165
34.9251	-82.4621		71.4522
61.4236	-9.46712		62.1367
59.0516	-4.35169		62.7082
55.3524	-9.61022		68.1917
50.2956	8.20661		65.8054
51.4208	6.15042		65.3861
56.8683	-0.886834		63.2878
51.6022	-1.46865		67.972
54.556	1.83373		64.2332
48.3235	11.6738		66.7845
1.97485	-91.8413		90.0173
-0.948922	-92.3488		89.9576
46.9902	-58.9014		69.7533
45.0151	-62.9812		70.0297
48.4423	-54.3337		70.0698
41.3631	-56.6936		74.0968
35.8392	-72.5104		73.6105
39.3271	-69.7962		72.0704
32.2628	-68.9009		76.1679
31.4968	-74.7627		76.0253
47.9233	-8.72298		72.8757
49.6844	-13.8697		73.5899
46.0748	-4.25439		72.3557
50.0483	-49.1217		70.5736
51.1399	-19.0665		73.7524
9.65075	-81.1911		89.5994
9.37657	-76.5575		89.3897
13.5572	-80.4042		87.7775
17.9601	-79.596		85.2076
22.3763	-78.1943		82.1949
17.2794	-75.127		85.4994
44.6737	-1.12441		71.9359
43.3548	1.20155		71.8639
36.8213	-0.383881		74.791
52.877	4.05028		64.7875
48.6541	3.14619		68.3838
42.3285	3.17455		71.7671
34.8047	3.67891		74.1067
13.1502	-2.57399		91.7951
13.6876	-7.03134		94.2863
12.7247	2.06954		88.9397
15.0748	-16.1566		99.2767
14.8168	-14.3213		98.2556
12.7884	-15.7283		102.424
15.3567	-17.4308		99.5931
12.7249	12.3758		81.0561
12.5372	9.9517		83.0362
22.9118	-2.25126		80.8278
3.43913	13.3072		90.2268
1.76901	13.6809		90.3006
67.0018	3.09929		50.4691
12.5623	6.41626		85.7595
62.9573	-65.0151		42.5807
65.9741	-62.5232		33.7005
71.3587	-17.2467		46.0889
70.9546	-23.849		45.4596
73.5118	-15.7552		38.3688
68.6674	-40.8019		43.442
69.5675	-35.3016		44.073
66.1011	-41.1352		51.1681
70.4108	-40.4909		35.8358
70.3671	-29.6604		44.7579
72.273	-29.0057		36.7697
18.0991	-95.4353		79.4188
8.98637	-72.5434		89.2803
5.69617	-72.7449		90.1262
12.7239	-72.0914		87.8434
16.4406	-71.5312		85.901
28.51	11.9842		72.4653
29.5618	1.13064		76.1752
28.7965	3.30034		75.5069
28.2008	4.95194		74.9585
2.82277	-72.818		90.558
0.0754164	-72.7492		90.7143
7.2307	27.1132		83.3056
8.94348	26.2751		82.269
8.00105	29.5447		83.1938
5.33781	27.4778		84.108
7.09339	24.3797		83.4699
19.6621	15.5434		71.6619
19.4324	16.8199		71.7469
17.5074	15.9266		73.3321
10.3854	25.0709		81.0404
11.3439	27.6081		80.9521
3.30357	27.8898		84.6059
1.05554	28.0491		84.8014
7.358	-29.2538		98.8618
8.14532	-28.055		100.855
10.4249	-19.0704		106.455
10.3945	-17.2929		106.009
13.0747	-18.8376		103.322
16.9801	-29.0181		87.8194
16.7986	-27.9399		89.0283
14.3804	-30.7554		88.5017
10.0656	-15.387		105.327
7.68522	21.1336		83.5206
9.16649	32.2095		83.3877
11.0647	31.3523		82.4169
19.9242	18.3751		71.8379
12.6907	30.2566		81.2223
13.8801	28.8736		79.8876
14.7768	27.4261		78.6713
18.4784	-35.3662		86.0141
15.6934	-35.8653		87.3688
19.2739	-38.2259		86.1364
20.2257	-41.6397		86.1598
17.1978	-40.9806		87.7791
20.3384	-56.1039		80.3527
20.2701	-54.9935		79.8656
18.6438	-55.8348		81.6587
21.0719	-54.5296		83.2585
19.7132	-53.0595		85.2773
20.5197	-51.9156		78.7916
17.52	-51.425		80.7644
20.8099	-48.1892		77.8853
13.3104	-36.3131		88.6304
11.0057	-36.3387		89.7708
13.8624	-38.4772		88.8968
14.6006	-40.7732		89.1188
15.063	-43.0736		89.444
16.4942	-55.1589		83.1291
15.3533	-53.6419		83.0987
14.8625	-50.7869		82.255
15.3638	-47.1717		81.068
9.06639	-36.2327		90.6899
8.85976	-34.5133		90.7149
10.6524	-44.3525		91.776
13.0946	-44.7139		90.8437
18.7597	-14.0174		91.1568
16.5482	-12.5023		93.8203
4.7043	-7.79769		103.427
2.61017	-7.54376		103.557
14.2222	-11.1269		96.5861
9.14571	-26.1829		103.24
11.3056	-25.7492		100.74
13.5512	-25.2738		98.1186
14.512	-23.3851		99.1548
15.5249	-25.1159		95.4216
16.6303	-25.2985		93.4602
16.9972	-25.9343		91.8455
16.9372	-26.9078		90.2544
15.383	-18.6517		99.9312
15.2851	-20.0947		100.053
15.0286	-21.6758		99.8031
39.5895	-143.146		14.717
34.8656	-144.665		17.9504
40.5835	-149.071		13.6838
43.8442	-141.485		11.4137
38.3342	-135.053		16.157
37.1459	-123.762		17.9906
41.4284	-122.057		14.195
36.7626	-113.75		19.6358
32.5313	-125.381		21.7976
40.2892	-97.5431		25.9572
44.5024	-94.7237		21.3003
35.5822	-100.215		30.4844
38.9513	-101.569		22.6239
37.5667	-106.731		20.8789
32.85	-108.78		25.4679
41.7092	-104.618		16.66
42.753	-66.6646		70.5721
46.8206	-70		66.2204
37.78	-63.6156		74.2818
50.2809	-73.4148		60.6583
51.5995	-77.2318		55.9157
51.8903	-80.7007		51.4674
33.6628	-61.1784		76.5917
34.9824	-58.3227		76.7021
29.9271	-59.4793		78.2173
31.3911	-63.6047		77.1102
27.7098	-58.5665		79.0016
26.6365	-60.1636		79.1001
48.0333	-92.1568		16.7697
50.0972	-88.3724		19.8211
46.6404	-96.7219		14.046
51.3065	-90.0742		11.4637
52.7739	-84.9278		23.6513
55.0991	-82.7255		17.1762
55.4682	-81.8188		27.525
57.6946	-79.1169		31.4574
59.6984	-76.7282		23.9778
45.4031	-120.211		10.3005
46.4626	-131.638		9.07216
49.1656	-118.747		6.24961
45.0387	-110.037		11.3271
47.6546	-139.882		7.97327
48.8673	-146.035		6.93357
51.2	-138.298		4.22997
45.5074	-102.486		12.4051
73.6378	-28.6826		29.1879
72.6624	-34.4038		28.6921
74.611	-22.3816		29.618
61.0426	-74.947		16.9285
59.0608	-77.8181		13.8685
62.189	-73.31		9.88926
74.8503	17.2868		28.4221
77.7543	14.9505		17.5766
67.6691	-60.4804		25.3446
68.7178	-58.5768		16.9179
71.7119	-39.9046		28.362
72.8444	-39.0088		20.7922
75.2987	-15.0716		30.5659
76.6741	-16.0455		22.4967
73.8981	-38.1682		13.5979
75.0392	-36.8856		7.17827
59.1612	-87.0918		-4.52123
58.7213	-91.9831		-5.66457
61.0731	-86.6994		-9.31212
59.7961	-82.8085		-3.05291
56.904	-87.6741		0.428608
58.4412	-97.5128		-6.27514
60.7529	-78.8659		-0.91857
58.9864	-79.8076		4.6474
62.3484	-78.1585		-6.53683
61.911	-75.2999		1.0863
79.1397	-2.4625		12.2357
79.5198	5.36084		9.77801
78.4711	-10.3776		14.4039
79.7753	13.5619		6.88218
79.898	21.2912		4.34139
79.9671	29.1189		1.12588
81.0421	28.0378		-9.56711
79.9673	36.8697		-2.5984
69.5925	-56.68		8.87426
70.3144	-55.3356		1.15687
77.6761	-17.0582		15.2844
78.5423	-17.9255		9.07602
52.8098	-117.26		1.814
53.6157	-128.533		0.944177
57.1814	-81.1153		10.9095
55.4773	-84.6621		8.08248
54.5411	-136.607		0.0223904
55.5996	-142.544		-1.12481
61.9292	-112.797		-15.8709
62.2954	-122.27		-17.0835
62.6126	-86.1917		-14.0563
63.6565	-84.4872		-19.0858
63.162	-81.6488		-13.1893
63.9338	-77.1809		-12.0123
62.6561	-129.342		-18.5224
62.9573	-134.935		-20.44
70.7529	-54.8291		-5.78488
76.0692	-35.5511		2.83683
77.1871	-33.7977		-0.290898
75.3026	-39.2886		1.33703
79.2624	-18.1331		4.98585
62.7439	-92.0989		-26.8327
61.4634	-87.9022		-33.606
63.3331	-85.8522		-25.8303
64.2522	-79.9897		-24.9712
63.7729	-73.6547		-30.9946
67.7492	-63.3384		-21.7209
74.9232	-44.8628		-14.0094
76.1738	-42.256		-20.4035
58.2252	-118.476		-44.2921
58.2795	-126.164		-45.628
54.9539	-115.785		-51.2682
58.2523	-110.28		-42.8843
73.2214	-43.3264		-27.9536
75.6536	-39.6926		-26.3115
77.3481	-38.0116		-25.6322
29.9335	-145.964		20.9518
28.7533	-138.028		22.8711
24.9514	-147.153		23.631
31.0602	-151.649		19.4532
27.3686	-110.658		30.2998
21.5272	-112.479		34.7885
26.712	-117.086		28.3551
28.6317	-106.299		32.2502
34.6984	-96.3668		46.1836
32.117	-99.1056		40.7312
37.0547	-94.1535		50.9718
30.0063	-102.57		35.622
24.018	-104.467		40.5429
27.4076	-126.681		25.704
22.1327	-128.322		29.2686
29.3103	-65.9435		77.8187
26.8148	-63.3902		78.99
38.7831	-92.1705		55.0533
25.2997	-61.8293		79.6308
23.2074	-63.2839		80.9288
24.0636	-60.5351		80.102
23.0807	-59.3579		80.4338
21.5163	-60.5392		81.7149
27.0318	-76.6869		78.8884
28.2568	-80.6153		77.5567
29.089	-84.7462		75.7572
17.4254	-57.0623		84.6681
14.7696	-56.501		87.0166
17.0833	-56.5669		83.5346
19.7244	-57.126		81.493
17.0894	-56.8153		83.1022
14.178	-55.6888		85.4532
17.0692	-57.2821		82.7264
17.0811	-58.5748		82.0863
14.0861	-56.4242		84.4506
17.0276	-61.3067		81.3896
16.9457	-64.4348		80.9253
13.9863	-60.3672		83.0148
15.7783	-113.877		38.5111
16.8106	-109.614		40.857
15.7123	-119.912		36.0323
19.8865	-148.352		26.0001
18.6361	-140.683		28.4812
14.8896	-149.244		27.9959
21.0437	-153.65		24.2115
16.9925	-129.697		32.3552
7.5768	-107.447		49.1396
11.8838	-107.119		47.4481
8.69605	-104.709		55.3399
10.5077	-149.853		29.4216
11.6146	-154.923		27.5575
9.84684	-102.85		62.5833
11.2157	-54.9524		87.3533
11.1057	-55.2136		86.6485
11.0073	-55.7511		86.0177
11.2006	-56.9686		85.1398
11.0933	-59.6302		84.2945
11.2068	-63.2675		83.6532
75.4995	47.3406		14.912
78.1441	45.6465		3.98641
75.3802	54.7188		9.61402
71.9634	49.7702		25.4509
81.2678	26.7196		-19.4692
74.5542	-20.0468		-49.4699
71.7086	-21.9244		-54.2837
52.0968	-94.4947		-54.1543
52.8055	-84.379		-53.1637
55.1017	-97.5556		-48.719
51.8825	-104.657		-55.2204
48.9453	-92.2518		-59.0094
51.933	-113.557		-56.4665
52.2352	-122.038		-57.6103
48.7125	-111.888		-61.1261
59.2504	-82.3784		-40.8577
58.5239	-91.8703		-41.2858
56.5862	-77.9702		-47.1647
60.6313	-74.0072		-39.5802
22.9211	111.118		20.9661
29.8696	108.344		20.821
22.8991	115.659		6.01416
15.646	113.06		21.1406
22.9491	100.166		-78.2391
23.5165	108.843		-62.5535
30.0039	98.1599		-76.3235
22.236	89.3494		-91.224
15.546	101.576		-79.6906
21.809	77.5089		-100.61
28.6093	75.8721		-98.5988
21.5375	64.4201		-107.67
14.898	78.2795		-102.231
23.5472	114.731		-45.657
30.7115	112.262		-44.0049
16.0685	116.534		-46.7564
23.3871	117.774		-28.0064
8.01224	121.294		-11.3648
0.0329136	121.717		-11.5442
7.8241	118.98		5.65932
15.7158	120.065		-11.019
8.17365	120.899		-29.2993
21.2572	51.5365		-112.481
27.6184	50.1812		-110.435
20.9085	38.1895		-115.672
14.8068	52.3036		-113.954
20.3662	24.2554		-117.409
26.6281	23.2871		-115.218
19.8218	10.512		-117.533
14.1203	25.1977		-118.93
17.5815	-27.6035		-106.632
23.3392	-28.3428		-104.479
17.2206	-39.0908		-99.4252
12.0676	-27.4919		-107.795
18.4579	-15.1927		-112.422
6.92767	-1.36534		-118.695
0.602786	-1.27587		-119.047
7.19045	11.6604		-120.147
13.1007	-1.80159		-117.662
6.56739	-14.0819		-115.126
15.1533	-85.1483		-82.1575
15.527	-75.7279		-83.1564
20.42	-85.9186		-80.8198
14.8872	-94.517		-81.7504
10.0892	-84.6973		-82.9282
4.89475	-102.962		-82.3942
9.83126	-103.432		-82.0814
4.96579	-112.538		-82.135
0.139435	-102.715		-82.5048
5.0421	-93.3747		-82.7736
17.3389	-48.1413		-93.4874
22.5963	-48.717		-91.931
16.9331	-56.2353		-89.0227
11.6631	-47.6678		-94.5024
16.1203	-65.5555		-85.4519
21.7158	-66.6578		-83.7257
10.8613	-64.7493		-86.447
5.58361	-64.4336		-86.9103
5.86215	-55.2916		-90.5172
5.27191	-74.7898		-84.4937
0.27904	-64.5835		-86.9805
48.6959	96.3875		18.0984
54.5877	90.9543		16.8963
49.4027	99.9988		4.69343
42.6942	100.956		19.3905
47.4629	68.9046		-88.5905
52.8924	65.8242		-84.3702
47.1171	57.0266		-95.2655
41.6628	71.5272		-92.4019
47.8305	79.7002		-79.5539
48.1345	89.1348		-67.703
42.4841	92.7047		-70.9492
48.7318	96.1478		-53.7483
53.6458	84.7789		-64.1266
49.3958	100.438		-39.1931
55.1694	94.8385		-37.415
43.5698	105.069		-40.8155
50.1689	102.008		-24.5239
49.9293	102.015		-9.76779
43.7853	107.025		-9.67985
55.8148	96.2482		-9.82574
46.4804	44.9934		-100.083
45.7931	32.5028		-103.26
40.6425	46.8678		-103.99
51.8692	42.8059		-95.8067
44.8103	19.8565		-105.028
50.1052	18.4466		-100.726
43.8067	7.06141		-105.104
39.2088	20.9581		-108.829
42.4782	-5.30428		-103.648
41.1231	-18.0007		-100.163
37.2694	-4.99071		-107.252
47.264	-6.01664		-99.5081
40.2671	-30.3639		-94.4093
44.9743	-30.0756		-90.6341
39.652	-41.0822		-88.1538
34.976	-29.783		-98.2741
39.0289	-50.3823		-82.5965
38.2976	-59.668		-77.7907
33.8351	-50.2035		-86.2555
43.6241	-50.5528		-78.3894
36.0547	-87.7236		-72.8684
35.088	-97.5932		-73.7056
30.9925	-87.3066		-76.2307
37.032	-78.229		-72.8391
40.6566	-88.6716		-68.9043
24.7475	-105.022		-79.1405
24.8795	-113.802		-79.2777
19.687	-104.316		-80.5701
25.09	-96.0223		-78.9752
29.8797	-105.933		-77.0565
37.6512	-69.0347		-74.4459
42.3389	-69.358		-69.9838
32.7414	-68.4133		-78.144
67.6957	68.6087		-50.8303
68.8464	72.5486		-39.465
71.7464	61.9429		-45.0643
66.8541	62.4819		-61.1799
63.3576	74.4828		-56.0108
69.7206	74.8046		-28.1922
73.6314	67.1168		-23.0757
65.3234	82.0168		-32.287
70.2356	75.8021		-17.0558
69.5533	76.6117		-6.31908
72.5849	69.3284		-1.56792
65.7048	83.4512		-8.61578
56.6193	40.5917		-91.3158
57.3029	51.7177		-86.451
60.9395	37.9786		-86.5317
55.8857	28.8393		-94.4832
57.6507	62.5978		-79.9217
58.0647	72.0655		-71.35
62.1249	58.7512		-75.0363
51.9938	-6.67426		-94.621
53.7803	5.15395		-95.9586
56.5293	-7.45593		-89.1643
50.2439	-18.5303		-91.5552
54.9243	16.8492		-96.0568
59.3857	15.5119		-91.0195
49.1793	-29.5731		-86.5696
53.2877	-29.4954		-81.5466
48.631	-40.4228		-79.9379
47.7224	-49.8854		-74.2004
51.4049	-48.2648		-70.2497
47.0225	-69.9645		-64.4207
51.0145	-72.4008		-58.0147
46.0275	-79.8784		-63.5289
77.7326	33.9154		-46.5695
76.8385	27.9839		-53.9922
75.6678	39.2441		-52.1673
59.9001	84.9582		16.2969
60.4834	88.5081		3.42697
79.42	44.3827		-6.863
78.4682	51.9237		-11.9379
67.0705	-8.12917		-73.537
63.9315	-8.25077		-78.6172
68.5482	1.16158		-74.9188
69.9881	-8.43265		-68.0486
65.2326	-17.8025		-70.7969
69.3737	10.5657		-75.5432
66.4058	12.2861		-80.9358
70.2444	19.5247		-74.066
72.2035	8.53797		-69.5519
71.1065	28.6218		-70.7271
68.0792	32.0207		-76.3264
72.0835	36.9567		-65.2885
73.8098	24.858		-64.8665
59.7291	-42.3949		-59.7397
57.0378	-44.643		-63.2019
61.4054	-34.8873		-63.5491
62.4329	-40.2199		-56.0273
58.2643	-50.0386		-56.0628
68.9298	-23.571		-58.8775
67.0558	-30.7508		-55.6912
66.2393	-25.1895		-62.9733
70.8244	-16.2375		-61.1775
54.0921	-74.9642		-52.4692
55.5093	-66.0199		-52.5675
77.417	-37.8118		-5.8517
78.0988	-34.245		-3.77483
75.71	-40.8042		-3.73718
78.1175	-32.5099		-2.30098
82.3824	-6.93897		-3.13368
83.1245	-1.71267		-5.13723
93.6039	3.37527		-38.0656
93.7903	9.1796		-35.6132
94.2382	2.98371		-37.3579
83.5868	-35.8116		-25.3321
82.3709	-38.5922		-22.0776
93.4581	13.8963		-32.0495
92.4828	14.2085		-32.5501
92.8724	17.0625		-27.905
94.346	13.23		-31.4912
87.7324	9.23043		-11.5995
86.3872	9.22257		-12.2664
92.2158	18.4108		-23.6411
93.1507	17.7024		-22.9065
88.6766	-19.3877		-35.1417
85.0289	-36.5383		-18.0825
84.419	-36.405		-15.4968
83.3113	-38.6234		-18.6135
83.4824	0.854853		-6.8015
89.0669	16.7685		-19.2807
87.2703	13.7531		-16.6805
87.9578	15.8945		-20.8622
85.029	9.49565		-13.6972
84.1053	9.92391		-15.2773
91.807	14.0488		-32.7825
83.3223	9.63854		-16.7225
84.4774	11.5689		-19.3234
85.912	13.4148		-22.8461
83.7679	11.2917		-23.9531
87.9723	-27.7675		-28.1868
88.0607	-29.344		-20.7325
81.7329	-39.8085		-19.1201
83.6937	-35.5393		-13.2847
84.9151	-32.6575		-13.1931
85.8927	-30.2985		-13.9982
86.3958	-28.7506		-14.8619
94.4316	2.6922		-36.9521
94.899	8.28617		-34.5825
91.9214	15.1219		-15.5738
92.0998	14.4912		-15.2921
93.0001	16.7274		-18.5761
92.0814	13.887		-15.1644
93.2245	15.5724		-18.1303
91.913	12.8136		-15.3618
94.7257	12.6873		-31.1365
94.2623	15.6068		-27.0031
94.8375	12.1904		-31.0121
93.7179	16.996		-22.4383
93.9419	16.4013		-22.3333
93.958	15.8235		-22.09
94.4102	14.5713		-26.6692
94.8008	11.82		-30.7103
93.8855	-1.6189		-36.0016
91.6386	11.5057		-15.9323
89.1661	4.30857		-13.6235
93.3206	11.1513		-24.3122
93.4253	-4.71021		-30.9668
93.4888	-2.83132		-30.6411
93.4333	-0.963958		-30.036
93.2536	0.533838		-29.1227
92.9348	1.75737		-27.8722
92.0915	2.6172		-25.3508
84.4512	-25.2071		-12.6097
85.6065	-26.8167		-14.2639
87.3254	-2.30131		-10.7807
83.5081	-17.1808		-10.5297
86.5094	-28.0374		-15.334
36.5064	28.0692		73.6885
35.24	93.108		43.9354
35.9798	99.3637		33.1033
7.53225	100.46		46.3351
7.66651	107.913		34.7228
-1.09965	100.853		46.2664
36.3428	105.061		20.1565
36.7405	109.216		5.84055
7.72091	114.287		21.1814
-0.512227	114.748		21.0096
23.0213	118.044		-10.5619
30.2497	115.153		-10.1065
37.0722	111.532		-9.9104
37.3991	111.489		-26.0337
67.6762	52.9597		34.9616
74.4069	61.9213		3.88747
76.1451	60.576		-6.76261
60.9347	90.2494		-9.78957
61.1724	90.0001		-22.5568
8.28853	117.652		-47.3465
8.31201	111.5		-64.6164
0.393744	118.042		-47.5424
37.1832	109.181		-42.1965
36.9383	103.841		-58.6196
76.418	59.449		-17.4995
76.0256	57.9232		-28.3379
60.287	88.9037		-35.3168
59.4123	85.635		-47.8813
74.9864	55.2302		-39.0729
73.9655	50.8722		-49.2453
72.9708	44.8368		-57.9988
69.8415	49.8157		-63.9343
45.1255	-90.5048		-64.0782
44.4363	-100.53		-65.2744
44.475	-109.899		-66.1737
44.6113	-118.534		-67.2624
39.6041	-108.058		-70.7675
8.09989	102.524		-80.3773
7.90498	91.1111		-93.6488
0.634249	102.731		-80.7919
7.92035	78.7168		-103.169
7.98417	65.6646		-110.057
0.762071	78.8503		-103.503
7.98224	52.7501		-114.85
7.81405	39.6839		-118.042
0.770688	52.9566		-115.15
7.49101	25.8511		-119.871
0.710331	25.8978		-120.218
19.2082	-2.48841		-115.965
25.2968	-3.43933		-113.609
6.16248	-27.282		-108.599
6.0653	-39.1964		-100.643
0.460404	-27.3804		-108.762
5.99909	-47.7507		-94.7908
0.341589	-47.9335		-94.7753
5.16454	-84.1848		-83.3425
0.213267	-83.935		-83.4858
35.2211	73.8905		-95.8543
35.7435	85.4738		-86.5007
34.787	61.3323		-102.709
36.3113	95.6676		-74.0498
34.1959	48.683		-107.53
33.6481	35.6286		-110.664
32.9691	22.2562		-112.321
32.3009	8.66572		-112.319
31.4102	-4.30034		-110.652
30.3441	-16.8817		-107.146
29.2181	-29.0622		-101.71
28.4032	-40.1506		-95.2913
28.2462	-49.4911		-89.4957
28.049	-58.3228		-84.7119
27.2902	-67.5384		-81.3476
26.5542	-77.2007		-79.4047
25.8597	-86.5589		-78.8292
34.9149	-106.827		-74.258
35.1184	-115.633		-74.7749
58.5467	80.1196		-60.2831
66.164	54.8123		-69.5115
65.5125	45.1971		-76.4715
64.6612	35.3593		-81.6094
63.8817	24.736		-84.8179
63.068	14.07		-86.1325
62.0965	3.05116		-85.5584
60.3867	-8.09065		-83.867
58.5122	-18.7574		-80.9669
56.8199	-28.603		-77.0203
60.1518	-27.9699		-72.0393
55.5008	-38.2179		-71.739
54.3125	-46.4758		-66.8101
57.0572	-58.023		-53.2218
59.2428	-56.5147		-49.9065
75.8948	21.7079		-59.4472
75.1812	14.3705		-62.5872
77.8677	17.9816		-53.4967
72.3765	-8.48116		-63.1397
73.6451	-0.69814		-63.9864
63.2171	-26.6918		-67.5316
74.4443	7.11922		-64.1243
65.178	-37.8475		-52.4129
63.5494	-44.9139		-49.2808
17.8064	-105.974		44.7474
63.4605	-71.8213		3.11301
54.2452	-88.6227		5.99602
11.8545	-48.8635		91.6068
14.3865	-49.5754		90.2004
17.4094	-51.1626		87.7469
6.84502	-57.5542		92.5229
7.07997	-58.4851		92.6608
7.27561	-59.5553		92.6802
20.6648	-64.5707		83.0347
19.8927	-63.1001		83.6044
19.3025	-61.7247		84.1334
15.7503	-45.6674		89.3991
36.2573	-54.9595		77.0303
28.9709	-34.7023		82.7528
29.706	-39.5301		82.381
30.2653	-44.1507		81.7517
62.5186	-41.0711		58.7814
21.566	23.3735		73.2686
79.6778	14.3337		-47.1628
82.7757	13.1257		-28.188
83.5009	11.2004		-25.8794
74.231	-43.6948		-0.413426
28.378	10.6912		72.9861
55.6622	41.7963		64.8187
8.93425	-33.0523		90.9289
49.8271	18.0578		66.6127
12.1005	-30.9994		89.9662
83.4178	11.0111		-24.8214
58.23	-101.292		-42.0731
62.9674	-65.7921		-37.7999
62.0279	-59.2336		-42.9183
61.9643	-53.4017		-46.5867
22.7869	-26.8607		84.93
11.8151	-56.058		89.166
21.239	-57.2769		80.4411
6.03877	-53.0399		89.6197
-71.3187	-47.4041		8.79313
-72.2687	-42.6524		10.1552
-72.4127	-45.3527		2.18282
-70.2932	-51.7599		7.46492
-70.3172	-49.3503		16.6234
-58.8662	-113.414		-7.33006
-58.5011	-103.076		-7.11289
-60.7994	-112.21		-11.873
-59.6068	-123.872		-8.27658
-56.3759	-114.433		-2.89833
-60.3555	-131.466		-9.43149
-58.0729	-133.33		-4.76977
-61.9842	-129.669		-14.1253
-61.0154	-137.455		-10.5918
-52.777	-97.2448		3.09345
-55.9759	-96.3399		-2.13262
-52.7597	-104.974		2.29074
-49.4568	-98.6494		8.0014
-53.4439	-91.3783		3.98891
-61.813	-94.8415		-15.6472
-60.4413	-95.2621		-11.2627
-62.0392	-89.4934		-15.4959
-62.5794	-93.6872		-20.7808
-61.7654	-101.766		-15.8854
-65.4808	-65.5385		18.8888
-65.8452	-64.4999		11.3687
-63.6356	-68.9856		16.9557
-64.7306	-66.9		26.8122
-66.8625	-62.295		20.679
-74.72	32.3243		24.0209
-77.8051	30.5696		12.0656
-74.2814	24.8867		27.0174
-70.9385	35.3761		35.2003
-75.4358	40.0427		19.4557
-78.9928	41.6744		-29.1022
-80.2921	34.4064		-24.3823
-79.6451	43.5234		-18.5295
-77.2344	48.5956		-34.1625
-78.2084	38.588		-38.7214
-10.3181	-115.038		42.1415
-10.79	-110.502		44.5668
-13.8755	-114.435		40.6102
-10.204	-121.124		40.0793
-7.42914	-115.304		43.1231
-10.8942	-131.435		36.1019
-11.6231	-142.143		31.9422
-7.47104	-131.778		37.2714
-14.6778	-130.358		34.5658
-4.52877	-150.368		30.8957
-4.86906	-155.334		29.2056
-4.33029	-142.985		33.5649
-8.29177	-149.966		30.3394
-67.4033	-52.6832		-33.8422
-68.1745	-45.3062		-37.8861
-64.7641	-58.5459		-36.0341
-66.9733	-58.8039		-28.7876
-69.9808	-46.8091		-31.675
-69.0309	-40.0081		-40.8133
-72.1906	-35.5093		-37.7598
-69.8989	-35.3859		-43.1571
-65.3579	-45.6399		-44.0443
-62.5953	-122.887		-30.4053
-63.23	-125.901		-24.002
-60.9701	-120.185		-37.1359
-62.5322	-129.607		-32.5784
-4.24182	-132.175		37.8936
-4.21684	-121.805		41.8433
-69.353	-51.0889		25.0219
-68.6066	-55.5823		23.9642
-68.23	-51.7958		32.8061
-70.177	-45.5403		25.5897
-66.487	-63.0571		3.9631
-67.9276	-59.3944		5.08001
-67.0039	-62.2895		-3.56362
-64.9057	-66.6044		2.59269
-11.5904	-91.3157		87.4513
-11.2569	-86.4031		88.9043
-15.6261	-90.7141		85.4479
-11.5567	-95.4192		85.1794
-7.53945	-91.9167		88.8193
-20.0834	-89.3931		82.7885
-19.9219	-84.5819		84.1306
-25.0582	-87.5159		79.1885
-19.9086	-93.6422		80.7165
-3.47973	-82.0698		91.3837
-3.83574	-87.1645		91.0424
-3.14834	-77.2202		91.0477
-6.94034	-81.8527		90.675
-11.4229	-98.0187		82.5924
-7.65465	-98.3488		83.8882
-15.5143	-97.4646		80.6873
-11.6827	-99.8953		78.8771
-12.3496	-101.065		74.1236
-12.8035	-101.736		68.694
-8.06115	-101.616		75.0178
-16.3565	0.797071		82.0464
-13.4023	3.33538		83.3565
-16.2268	4.94633		79.3547
-19.5167	-1.00014		80.6066
-16.5372	-3.7653		84.7121
-49.9666	-29.8336		74.5328
-50.7877	-34.4575		73.4604
-44.0709	-28.3749		78.2661
-49.3596	-24.9378		74.9507
-55.9896	-30.7328		68.9551
-60.62	-20.3146		63.2661
-61.2131	-25.7086		62.6125
-54.8407	-20.3275		69.8669
-59.705	-14.8309		63.5767
-65.7314	-19.2984		54.9961
-70.7375	1.55698		41.3956
-68.4322	2.77754		46.0051
-70.1873	9.72597		41.1766
-72.591	1.03515		36.2472
-51.132	-38.9353		72.017
-45.0809	-37.6944		76.6063
-56.8416	-39.8998		65.747
-50.9822	-43.5824		70.7033
0.641271	2.62576		96.8677
-1.44285	2.02821		96.2725
0.58029	-2.79064		100.107
0.397344	8.42918		93.2725
-36.3315	69.109		66.7515
-36.6498	74.7808		62.5581
-41.95	67.6136		63.9716
-35.9148	62.588		71.5443
-30.8783	69.963		68.8605
-4.90898	-103.643		63.6458
-4.70154	-102.675		70.1075
-8.43237	-103.351		63.0079
-4.8032	-105.118		56.8002
-66.4601	-52.0136		40.6277
-67.2173	-46.2959		41.4034
-65.499	-57.5376		40.2361
-63.9444	-51.7775		48.2465
-4.10392	-98.5786		84.6535
-4.17857	-100.607		80.5804
-3.97655	-96.1274		87.3428
-4.36791	-101.869		75.609
-42.784	-85.6495		60.9885
-42.8417	-82.3587		64.0076
-48.3688	-82.1871		56.2872
-41.8458	-88.3383		58.4101
-36.7669	-88.5688		65.7733
-46.5694	-88.8244		35.7197
-41.8832	-92.0419		41.0765
-49.7208	-85.7745		40.1614
-50.4835	-85.4689		30.037
-43.4229	-92.1255		30.8284
-4.84981	-107.478		50.357
-5.04647	-110.915		46.0923
-7.84384	-107.365		49.582
-4.66623	-9.0259		101.017
-1.94208	-8.31619		102.601
-4.36293	-4.25472		98.005
-7.7826	-10.1248		98.5431
-5.03279	-12.8437		103.434
-25.8501	-24.4191		84.1469
-22.1327	-21.8503		86.0424
-24.2802	-19.6181		84.7957
-30.317	-25.5421		82.708
-28.8248	-57.4489		77.9687
-26.6585	-57.6632		78.3926
