1860
-85.0804	-8.12522		-8.42689
-88.0106	1.73645		-13.85
-88.2047	3.46387		-13.3
-88.2248	1.4149		-15.61
-54.4865	-58.4399		-59.1239
-56.0193	-58.6552		-56.3659
-54.598	-53.7462		-61.7767
-28.1728	-22.638		82.0072
-26.4846	-22.0522		82.7599
-28.7706	-21.1523		81.836
-28.7553	-26.2927		81.8238
-23.61	-20.0414		84.9414
-22.4747	-20.2654		86.2102
-24.0797	-17.273		85.1417
-24.0631	-21.1193		84.333
-50.1683	39.083		67.699
-50.3399	37.4415		68.0329
-45.0883	41.4162		72.2304
-50.2886	40.3491		66.8237
-54.7917	34.7469		62.2052
-8.59969	-23.2998		96.7878
-8.87861	-22.7919		97.4962
-9.39017	-23.6022		95.6337
-7.35614	-23.7362		97.4757
-9.1609	-22.1599		98.711
-10.3592	-21.6265		98.4816
-7.92471	-22.1515		100.507
-44.9331	17.7403		64.8187
-44.6497	18.4828		65.1849
-18.653	-13.1562		96.5907
-17.2617	-12.5687		98.5042
-19.166	-13.0828		95.6732
-18.8018	-14.0268		96.4174
-64.36	76.3405		14.2213
-66.516	77.1293		4.5897
-64.9184	71.7395		18.7712
-62.0341	79.7748		15.3883
-27.5632	-57.924		74.6673
-26.6067	-57.4813		75.8803
-27.8905	-59.2095		74.0386
-28.0324	-55.9615		74.0369
-27.1482	-46.9762		74.3978
-27.7756	-48.8498		73.9202
-27.1806	-45.9089		73.9408
-26.015	-47.1324		75.7934
-11.9539	-21.1046		97.8148
-12.649	-20.0465		98.8175
-13.2386	-21.6915		95.4886
7.22074	-22.2645		98.7734
6.06395	-22.2487		100.551
6.98684	-22.8733		97.5578
6.73825	-23.3808		96.8328
5.52618	-23.8219		97.525
-10.0531	-24.1106		94.4944
-11.2846	-24.1203		93.658
-9.77392	-24.7842		94.2437
83.9502	-33.9947		-25.6222
82.268	-34.5936		-25.3829
84.3007	-30.823		-28.2834
85.1277	-34.3406		-24.9881
83.1048	-37.277		-22.1697
76.029	-45.4164		13.9392
74.5712	-46.5515		21.9126
75.0883	-50.2503		12.6766
77.0301	-43.9096		6.85319
76.8374	-40.4564		15.1537
62.0429	-117.762		-8.03788
62.1314	-107.654		-7.57185
59.4863	-119.088		-3.86155
62.3327	-127.803		-8.98562
64.005	-116.254		-12.3377
62.7908	-135.021		-10.0465
63.1979	-140.703		-11.0823
64.4984	-133.079		-14.6201
60.3824	-137.027		-5.50615
56.6671	-102.932		2.12173
57.5614	-97.008		3.33412
53.1654	-104.828		6.53958
56.2921	-110.434		1.12068
59.9251	-101.446		-2.60654
65.6004	-98.5903		-15.2482
65.318	-105.582		-15.8366
66.3033	-97.0558		-20.1823
65.9879	-93.0652		-14.7486
64.3003	-99.4154		-11.0838
68.1287	-67.2686		23.687
69.4327	-62.7076		25.9332
65.2994	-69.3236		31.3179
66.6568	-71.6089		20.8276
70.0316	-65.4608		16.0419
72.1344	34.3021		24.5872
72.6879	41.8935		20.0401
67.1095	37.3782		35.3433
72.1549	27.0021		27.668
76.2017	32.4785		12.9067
78.8559	43.2106		-28.3541
78.4508	40.0202		-37.9978
77.1482	50.113		-33.5407
79.0488	45.1629		-17.7644
80.1897	35.9697		-23.4871
11.0321	-117.148		38.1338
8.1877	-117.4		38.9512
10.343	-124.351		36.7902
14.5493	-116.726		36.8752
11.3941	-113.007		40.3375
10.7562	-134.984		33.8196
11.4313	-145.458		30.3958
14.7071	-134.062		32.2542
7.19718	-135.229		34.9918
4.04136	-153.236		29.8135
7.95056	-152.896		29.2232
3.82335	-146.149		32.0719
0.271074	-153.266		30.0761
4.42349	-157.977		28.3445
70.9844	-53.2742		-31.5952
73.4628	-47.0362		-29.2517
70.8689	-59.774		-26.392
68.3789	-59.5443		-33.9971
71.3853	-45.5642		-35.7841
71.9888	-40.05		-38.845
68.3325	-46.0215		-42.2588
72.6545	-35.2663		-41.2959
75.1109	-35.2792		-35.6546
65.2206	-125.84		-30.5278
64.9015	-132.375		-32.7494
63.5492	-122.963		-37.1724
65.8381	-129.01		-24.2431
3.83745	-135.57		35.6421
4.28862	-124.972		38.5263
0.639394	-135.617		35.9158
72.2338	-47.9682		29.8881
73.0949	-42.2147		30.4067
69.5034	-48.6202		37.271
71.4372	-53.2077		28.8454
71.1727	-63.8858		8.35729
69.5195	-68.2597		6.35519
71.6686	-63.2058		0.294541
72.7047	-59.3244		9.94207
8.44441	-91.7827		86.8733
4.33343	-92.2093		88.0738
8.51829	-95.8659		84.896
12.864	-90.9876		85.1309
8.15596	-86.9257		87.9537
17.4619	-89.3766		82.9104
17.4531	-93.368		81.1878
22.6102	-87.0251		79.7181
17.4162	-84.8465		83.8598
0.0745296	-82.3942		89.7074
3.683	-82.2764		89.1632
-0.0750536	-77.745		89.0655
-3.21682	-82.3574		89.8613
0.401124	-87.4147		89.7747
8.39211	-98.944		82.2721
8.61112	-101.202		78.8129
12.7998	-98.1048		80.7881
4.46457	-99.2359		83.425
9.41447	-102.84		74.2164
5.06927	-103.501		74.913
10.1964	-104.08		68.4274
15.6821	4.63818		80.8765
16.3669	0.606727		83.7559
18.2055	3.25209		79.5194
15.1177	8.27552		78.0758
13.1538	6.23539		82.5828
47.2628	-24.3221		74.5634
53.7221	-25.2649		69.1489
46.5135	-19.3606		74.8459
41.0506	-22.9964		78.2632
47.7509	-29.0176		74.019
58.8149	-15.1084		63.3067
64.0257	-14.224		56.6428
57.3925	-9.52524		63.8511
52.3719	-14.573		69.6063
59.3765	-20.5206		63.0615
69.7007	5.06076		43.2844
72.3261	3.76566		38.1787
68.4299	12.7041		42.1861
66.6309	6.88285		47.479
48.1091	-33.7033		72.9701
48.1858	-38.5524		71.9356
53.8479	-34.8423		67.5249
42.2797	-32.4927		77.168
1.11392	4.14636		99.1389
1.0468	8.61464		94.4587
-0.706376	4.39323		99.2238
1.14127	0.212509		103.306
3.16916	3.58805		98.5228
29.8676	67.702		69.1195
24.9868	68.4276		71.1697
29.1686	61.2248		73.4686
35.1172	66.4406		66.3446
30.8716	73.9902		64.8294
2.6221	-106.718		62.591
3.61019	-108.339		54.776
6.37226	-106.367		62.0344
1.82838	-105.203		69.68
-0.767761	-106.807		62.8347
66.3795	-48.7884		44.3265
62.7291	-48.3099		51.3333
65.0942	-55.2292		43.7878
67.3029	-42.5717		44.9726
0.824106	-99.3437		84.1321
0.76432	-96.4691		86.7391
-2.49115	-99.2187		84.4986
0.991726	-101.906		80.1912
1.35797	-103.776		75.3056
-2.05599	-103.804		75.4704
39.7587	-85.5321		60.8606
33.8386	-87.9238		66.7009
39.1436	-88.6828		57.8778
45.4391	-82.5478		55.7411
39.7986	-81.9296		64.0822
47.1793	-92.305		34.7426
44.9372	-96.6235		29.5217
52.0676	-89.3958		29.3854
48.9785	-88.6341		39.3465
41.5111	-95.2214		39.9538
4.7532	-110.24		46.8381
7.78634	-110.106		46.1222
1.83256	-110.399		47.0304
5.86391	-113.323		41.5839
6.15348	-4.43301		104.604
6.44862	-7.24653		107.425
9.16035	-5.28015		101.71
5.94886	-1.09811		100.994
3.45932	-3.67495		106.24
27.1636	-16.6958		82.692
30.263	-19.1536		81.7999
25.5186	-11.6579		82.8021
23.8003	-13.6704		84.2996
28.0179	-53.7285		79.4984
30.0606	-53.3586		79.2087
13.3594	-22.2437		93.0928
15.0301	-20.7461		93.5169
12.6735	-23.2385		92.4521
15.5713	-22.2394		91.1659
12.9372	-26.3897		90.5633
13.4388	-27.8041		90.3479
15.6369	-26.4051		88.6594
12.7972	-25.4627		90.8173
10.449	-26.0318		92.3619
1.01799	-24.6581		100.537
1.00504	-23.7934		102.65
-0.625306	-24.7398		100.819
1.15307	-25.5704		98.9727
2.77363	-24.3947		99.6885
18.1621	-25.6258		87.131
20.4554	-24.1555		85.9019
17.8416	-24.5946		87.5251
18.5821	-27.0915		86.9728
6.81875	-15.8276		110.089
4.06441	-16.3783		112.376
6.58494	-17.5971		108.919
9.80981	-15.2954		106.507
6.90762	-14.2283		110.594
24.9209	-67.5924		80.925
28.5632	-65.0345		79.0711
23.7726	-64.3081		81.8761
20.6814	-69.6367		83.131
26.0273	-71.3793		79.8928
28.2484	-47.2388		82.6563
27.2007	-43.373		84.3517
25.8689	-46.4833		84.3476
30.4457	-47.8346		81.3404
1.64852	-29.32		96.4875
1.73753	-31.1267		96.1738
3.41273	-28.8591		96.1533
1.463	-27.6944		97.119
-0.561086	-29.5531		96.6077
5.58239	2.70742		97.1491
8.36499	1.44613		94.8914
5.41963	6.76309		92.9384
20.0538	-14.3831		90.1804
19.0423	-12.8657		92.4439
19.3369	-13.7684		92.3298
20.3334	-15.8421		89.2573
20.4302	-14.0029		88.8947
4.58464	-25.6243		96.6594
4.50836	-27.1202		96.0654
6.10331	-25.6624		95.553
4.50499	-24.8359		97.3081
3.04833	-26.0895		97.4003
4.26151	-24.16		98.4942
4.21346	-23.3545		100.321
18.2604	-13.0638		94.5139
17.9005	-12.252		94.8254
18.9113	-14.5045		93.4051
20.1591	-18.4934		88.2813
19.5519	-17.1845		90.4756
19.2372	-21.1118		87.8989
2.07665	-37.7127		96.5891
2.47542	-39.6646		96.9215
4.93004	-37.0198		96.3228
1.94591	-35.2215		96.227
-0.911417	-38.2574		96.6523
24.0879	-29.3058		84.5909
21.7451	-29.3444		85.7516
25.1629	-33.8098		85.0149
26.2853	-29.425		83.7015
23.0717	-25.2737		84.5019
7.75701	-67.1012		88.7541
7.93819	-65.064		89.6146
3.88547	-67.4221		89.1863
7.49323	-69.6165		88.1002
11.8506	-66.6024		87.8074
23.7875	-48.9975		84.4087
24.1527	-49.7712		83.6368
26.32	-50.4754		81.618
23.6438	-47.1794		85.6536
17.5625	-11.6418		94.6846
17.6271	-10.8552		93.2612
15.5978	-10.7777		97.4485
15.7672	-65.6445		86.4297
15.9477	-67.9896		85.7561
19.3758	-64.175		84.6983
15.5196	-63.8202		87.1668
0.58576	-67.6224		89.2189
-2.26703	-67.6061		89.1511
0.366659	-69.8142		88.653
0.694887	-65.7803		90.0975
58.2505	32.0187		56.125
57.4213	31.2864		57.6759
60.2265	26.2264		51.9591
58.916	32.9772		54.4155
39.4013	53.9186		70.4174
33.9234	55.1699		74.6142
39.4433	49.8263		73.3091
45.1686	51.9643		65.6751
40.0936	58.7289		66.6294
50.7751	49.4607		60.1248
50.4305	45.8646		63.252
56.1907	46.0191		53.4616
51.6302	54.5036		55.8749
40.6116	44.2322		75.423
40.1135	45.9104		75.171
35.3146	45.3979		80.5339
41.1972	42.3592		75.2412
60.1105	34.0693		51.5592
60.8433	36.7271		48.8395
55.4298	39.6606		59.0425
63.4519	27.9313		46.0178
23.5337	34.6689		82.0557
24.2206	33.06		79.9901
27.5834	35.5245		81.1108
22.8972	36.554		84.1051
20.1041	33.3484		81.9555
5.49252	16.0406		83.9238
8.04775	14.3376		81.9646
5.5293	17.8117		82.7455
3.1425	17.2979		85.1689
5.47605	13.7378		85.798
29.6285	-1.47419		76.6175
31.4047	-6.00342		78.2155
36.0788	-3.09148		75.2163
27.9065	2.46481		75.1774
23.9682	0.213509		77.9927
57.2592	10.5015		56.2365
59.9622	8.72802		54.4187
57.8333	15.0833		54.5066
54.6663	12.4167		57.8073
55.0505	6.67442		59.7769
5.43944	10.5713		88.9066
8.07451	9.05638		87.1007
2.96005	11.7817		90.0486
41.8099	40.5277		74.9811
46.4748	39.4767		71.5166
37.0154	40.5933		78.5521
41.9389	38.6397		74.7216
50.6043	37.271		67.7564
50.2344	35.4374		68.123
54.1477	34.0099		63.3469
54.1384	20.1392		58.0829
54.163	23.8858		59.4915
52.3021	20.1139		59.7289
53.7011	16.808		57.9348
55.7672	20.1161		56.5119
42.8556	24.0959		68.6035
44.3431	23.0626		66.9944
41.123	25.032		70.1164
39.2432	25.8187		71.3314
37.2405	26.267		72.1084
39.4719	26.6488		71.7282
37.1091	27.0868		72.5817
41.5601	25.8597		70.4357
34.6174	26.4343		72.6085
31.8263	26.2341		72.7363
34.322	27.2029		73.0497
31.3113	26.9438		73.1334
29.0533	25.582		72.4954
26.4378	24.4739		71.9545
23.352	23.1135		71.1572
20.4171	21.7249		70.3033
21.98	23.6488		71.4377
19.186	22.1398		70.6222
25.1943	25.0415		72.2425
18.347	20.3656		69.7044
20.6126	24.0076		71.8419
24.0884	25.6945		72.7607
34.0754	28.1433		73.6318
30.8302	27.8397		73.7268
47.5225	18.8414		63.1992
47.9298	19.8831		63.1015
46.44	17.9287		63.9594
32.3402	36.2216		79.415
37.2206	36.5814		76.9836
32.1472	37.8321		80.6031
32.5221	34.3444		77.9353
47.1815	29.4053		68.8687
45.7675	27.5855		69.0566
48.5075	31.4819		68.6499
44.084	30.6067		71.3989
37.2274	10.9307		70.3221
42.499	11.605		67.8879
30.7607	11.0804		71.7796
37.6459	9.22819		70.3688
25.278	11.8863		71.7865
21.2848	12.9378		71.3368
25.2613	10.4817		72.1856
17.2867	15.7176		70.5879
16.683	16.5767		70.3695
18.2795	14.9359		70.6929
36.4292	14.0505		70.3938
41.052	15.002		68.4449
30.8835	14.0103		71.4599
20.085	15.9222		69.7919
22.0299	15.2628		70.3134
19.088	16.3482		69.5246
18.345	16.7194		69.4281
17.6439	17.2089		69.4477
13.6439	23.0466		74.3171
12.6573	24.7159		76.4218
14.5493	21.4518		72.202
15.4484	25.0692		74.7909
16.0781	17.8327		70.3658
27.5058	27.0007		73.393
15.2709	20.8757		71.287
14.8208	19.4565		71.2446
16.3928	22.5044		71.6871
36.2414	15.3293		70.464
30.8284	15.2155		71.3758
20.0364	16.6872		69.2675
19.1318	16.8572		69.1459
22.0328	16.3667		69.8105
18.4342	17.1954		69.0632
45.2698	21.8905		65.5279
2.49635	32.035		85.3117
-0.360915	31.8133		85.2597
1.876	29.0588		84.3093
4.84825	31.6987		84.9447
3.53996	35.2843		86.5232
18.8149	8.46833		74.6831
18.6336	10.1331		73.5688
16.9396	9.48704		75.1775
19.5111	5.92433		76.3239
21.8104	7.22861		74.2659
14.972	10.5827		76.0985
12.7815	11.8311		77.5844
15.0187	15.2146		72.5537
13.213	15.7435		74.1153
15.0796	16.7315		71.6308
9.2584	21.4758		77.7475
10.2993	23.6666		77.6526
8.48225	22.3868		78.8281
19.3578	13.9618		71.0038
18.9	12.875		71.7615
18.6703	11.5849		72.5782
21.0762	10.4118		72.5582
19.8306	-51.8656		82.7832
19.7477	-51.8068		82.6009
23.1197	-52.1007		80.6628
16.3198	-51.2515		85.2176
24.9599	-52.2735		79.6982
24.6399	-52.1691		79.6571
2.74052	-43.1704		96.8749
6.01314	-42.7279		96.4205
2.73329	-41.8548		97.069
-0.914781	-43.647		96.9803
2.57784	-44.5507		96.4711
8.49177	-45.7441		94.5146
8.63844	-44.3235		95.2357
5.71153	-45.7185		95.2467
8.01309	-47.116		93.5988
10.7967	-46.2194		93.468
13.2863	-46.7266		92.1002
13.4921	-45.3878		92.9125
13.0801	-48.1904		90.9148
16.4514	-47.484		90.0439
8.62884	-42.7895		95.7738
11.0137	-43.3604		94.8165
8.53515	-41.4592		96.0761
12.6824	-41.7673		94.3957
13.3511	-42.8968		93.965
12.3124	-40.6033		94.5638
10.2048	-40.8921		95.5563
19.7787	-49.5449		86.3
19.7803	-48.021		87.8418
7.15588	-48.4708		92.3516
4.34919	-48.2689		93.2576
6.52315	-49.1964		91.2857
10.1008	-48.9076		91.0766
13.1148	-49.643		89.2548
12.9916	-50.3919		88.1118
25.6767	-51.1261		81.3567
20.0373	-52.8757		83.2935
20.0028	-52.8074		83.083
16.3463	-52.7087		86.0204
20.0594	-53.094		83.5873
20.5106	-54.4414		84.0896
20.3177	-53.9562		84.0259
17.0782	-55.3954		87.0906
13.8348	-55.8315		89.5561
13.6627	-54.8689		89.3665
10.6208	-55.9433		91.3719
14.2237	-56.7669		89.4948
6.43636	-53.101		92.2352
6.65244	-54.5831		92.5783
9.97009	-53.4886		90.9494
6.28731	-51.8347		91.8044
3.1957	-53.1016		92.9349
0.663913	-56.4691		93.736
0.732309	-57.7796		93.7637
3.383	-56.1596		93.505
0.607936	-55.0077		93.5677
-1.77908	-56.5612		93.7413
25.2267	-53.6936		78.937
25.0722	-53.1192		79.5661
25.1785	-55.0889		78.2178
23.228	-53.7052		80.2425
0.73244	-51.8007		89.318
0.755998	-51.1315		90.636
3.06545	-51.877		89.0645
0.584871	-53.396		87.7709
-1.36355	-51.7772		89.3268
0.838777	-59.0342		93.6428
-1.76916	-59.138		93.6342
0.942065	-60.1621		93.3763
3.73914	-58.6674		93.4667
0.809184	-63.9602		91.2415
4.08369	-63.5617		91.218
0.943327	-62.3871		92.2914
-1.93238	-64.1027		91.1312
8.21638	-40.4657		96.1853
7.45447	-39.0456		96.2559
5.77879	-40.2466		96.7142
0.594757	-53.4366		93.24
-1.66457	-53.5414		93.2576
0.603819	-52.0655		92.805
0.62769	-51.4336		92.45
3.14689	-51.1764		92.1485
0.75916	-51.155		92.1224
-1.51076	-51.4955		92.419
6.22631	-51.2288		91.4495
9.54924	-51.6513		90.1449
6.21348	-51.0334		91.1628
0.84397	-51.0122		91.5565
3.20118	-50.8894		91.3318
-1.41258	-51.0414		91.4951
12.9059	-52.2459		88.384
12.8513	-52.0559		88.0629
13.1194	-52.7638		88.6945
14.8714	-59.7071		88.9936
15.1053	-60.7842		88.5269
14.665	-58.7574		89.2773
11.6399	-60.1492		90.7196
7.79168	-60.3662		92.0996
7.93451	-61.5583		91.5088
7.6232	-59.3405		92.4664
4.03307	-60.7694		92.8424
0.924473	-61.2444		92.9401
-1.78511	-61.3345		92.9176
12.9451	-50.5712		87.4986
9.60872	-49.8469		89.2462
12.8675	-50.4935		87.0195
27.9851	-52.5471		79.7001
26.9042	-52.8215		79.6839
25.0368	-52.8746		80.2026
23.2489	-53.1412		81.3929
6.01441	-52.0739		88.4657
6.04552	-51.264		89.7015
9.33086	-52.3921		87.4468
5.99536	-53.659		87.105
6.13139	-50.9898		90.6472
9.39003	-51.4051		89.3521
7.95557	-63.1535		90.6318
11.9329	-62.774		89.4306
14.4138	-57.7745		89.4661
11.2246	-58.1284		91.2691
15.3115	-62.226		87.8837
18.4471	-61.0002		86.0247
12.6061	-50.1226		86.7054
9.58538	-49.3543		87.9822
12.1359	-48.6455		86.042
15.6438	-50.7616		84.928
6.47034	-48.8651		88.9542
3.86312	-48.5562		89.3273
7.03408	-47.5116		87.6774
6.26466	-49.2933		89.7932
11.8054	-45.4117		85.1276
9.46494	-44.8625		85.9198
11.9061	-41.4281		84.4831
14.267	-46.0003		84.0553
24.8667	-58.2973		77.5414
24.0518	-62.1087		77.4175
22.7786	-58.3437		78.9493
0.334557	-56.7011		86.2257
2.6442	-56.7432		86.0952
0.446532	-60.9301		85.2403
-1.58219	-56.6835		86.2154
7.18595	-44.4431		86.4656
4.76593	-44.116		86.8391
7.10788	-40.5233		85.7963
5.68087	-56.8706		85.6607
5.69395	-61.2003		84.5502
9.07099	-57.1573		84.8449
28.4566	-53.1909		73.8047
28.6597	-53.1978		73.3303
10.9646	16.4284		76.3812
10.5133	14.8149		78.0369
82.6362	-7.67747		-42.6902
82.073	-12.1042		-41.9145
80.7003	-7.15796		-46.0649
83.1155	-3.04638		-42.7092
84.1912	-8.1255		-40.9497
81.9828	11.6879		-5.40977
82.1794	14.4647		-9.68596
80.8773	13.8785		-0.530536
82.1449	16.4506		-14.9287
81.5933	21.8528		-16.2662
82.8206	11.4704		-15.9657
82.7136	15.9009		-21.9794
77.727	-32.1565		-33.2963
80.1594	-29.7708		-31.6345
76.9396	-36.3891		-30.6965
78.7154	-28.2152		-35.135
79.528	-24.5265		-37.2258
76.8942	-26.6435		-40.1113
80.4734	-20.526		-39.0685
81.8213	-23.2481		-35.3386
85.6944	-8.05328		-40.0507
87.1983	-7.54042		-39.694
85.2623	-12.2366		-39.1096
85.9036	-3.01633		-40.2655
88.4263	-26.3501		-29.9458
89.3457	-22.2923		-32.0568
89.1924	-26.7775		-28.7006
87.4497	-30.363		-27.3955
92.5715	-16.4125		-30.0767
92.5583	-15.8205		-29.3013
82.9335	-38.9003		-19.1133
83.423	-39.1301		-18.3863
82.604	-39.5446		-17.0457
81.9388	-38.08		-21.1938
84.0971	-31.0551		-6.36494
83.8048	-31.6885		-6.31542
83.4106	-32.7198		-6.52744
92.4987	-15.4317		-28.8909
92.0381	-16.0125		-27.9244
94.765	-0.802213		-32.8762
94.7955	-0.16084		-34.4178
94.7092	-2.11568		-31.1905
94.7002	9.5029		-30.4998
94.9237	10.8613		-30.6246
94.9832	12.9812		-29.6117
94.4252	12.8135		-27.3768
95.1476	13.4383		-30.0169
94.5734	15.105		-26.5272
86.1237	-7.93594		-6.98131
87.057	-2.44417		-7.63258
85.6126	-7.14643		-5.64489
85.44	-12.0026		-6.35391
82.1189	-23.9424		0.253547
81.3523	-24.3091		3.04173
81.7359	-27.7554		-0.213465
82.4522	-19.5678		0.723253
85.3145	-19.2334		-8.90594
85.7149	-21.281		-9.40538
85.2013	-17.2772		-9.05006
82.8429	10.9424		-15.9955
83.1379	12.1264		-19.5077
82.877	10.9442		-15.7706
90.6389	18.5069		-16.5626
91.5338	20.1304		-19.7037
89.7802	18.8899		-17.745
89.367	15.4844		-13.569
91.4441	17.8232		-15.5548
91.0545	20.6895		-24.7795
90.2834	20.5135		-21.757
91.3447	20.8427		-24.281
91.5889	19.3471		-28.4659
90.3026	19.6293		-26.1532
92.329	5.0018		-39.0372
91.5581	4.53528		-39.2116
92.4983	11.0613		-36.2172
93.3909	5.25941		-38.4978
87.7068	2.18413		-8.28048
88.0558	0.912488		-8.94079
95.2125	4.48345		-35.9372
95.5207	9.67411		-33.7296
94.9866	1.66777		-36.1031
95.2611	4.36944		-36.3
94.0224	16.0746		-22.5454
93.1118	15.6031		-18.5239
93.8567	14.6894		-23.2652
94.0831	17.0727		-21.939
89.0798	2.91712		-11.124
88.6364	1.14973		-10.5192
89.5008	5.24066		-11.8789
94.7638	5.22789		-33.2165
94.9076	3.1411		-35.0715
92.1094	8.08997		-21.5769
91.687	6.73645		-20.7729
93.4148	7.51614		-25.7605
87.5397	-3.90355		-12.2966
87.6624	-3.63985		-13.0154
87.9878	-2.26816		-11.1984
91.9542	-3.36046		-26.4277
93.8101	-0.749351		-28.3856
91.6885	-2.89437		-25.8042
91.8799	-4.46736		-26.5758
82.7409	-15.5729		0.666266
83.1583	-10.9773		-0.221424
82.0489	-15.7303		3.24547
85.9874	2.28286		-38.8242
84.8334	1.6743		-39.9687
85.733	6.9974		-36.7226
86.8919	4.81192		-37.906
89.0957	9.86085		-35.2481
88.7513	13.7077		-32.0438
91.2952	14.5747		-33.3631
89.33	5.71507		-38.1358
90.5476	3.56606		-39.1762
89.5481	-2.01466		-39.9379
89.3009	-7.05326		-39.5237
83.5987	-22.5782		-34.4611
82.784	-25.7163		-32.6161
84.2752	-19.3388		-36.1742
84.8026	-15.939		-37.791
83.1095	-16.1942		-38.8322
91.5003	-15.9257		-26.9037
81.9419	-28.6553		-30.8828
81.0451	-32.3051		-28.5205
83.1715	-28.3469		-30.4155
81.4385	-36.1049		-23.8477
80.9907	-36.1153		-24.2148
81.0537	-39.4843		-19.176
82.4847	-39.1297		-14.1428
81.9888	-39.3994		-13.9503
81.4815	-39.5944		-13.6654
92.1082	-5.23091		-27.0491
93.9313	-3.89288		-29.2687
85.0149	-6.49697		-4.5426
84.3071	-6.04364		-3.30361
83.5925	-20.1235		-2.87111
83.8914	-20.3131		-3.54756
86.4114	-24.8133		-9.11281
87.3699	-26.8802		-10.7165
86.5168	-23.7361		-9.95058
85.0323	-15.0101		-5.83315
85.3896	-15.2441		-8.0486
88.3926	15.5916		-28.8366
86.1563	11.8289		-31.6421
87.4226	16.2765		-25.478
85.3047	10.2345		-33.431
84.8632	9.91399		-34.5337
84.6123	12.4588		-29.1791
84.9227	-15.3017		-10.961
85.1834	-15.2631		-10.0647
94.0364	6.49334		-28.1275
93.9162	4.98028		-27.7669
88.0172	-2.96977		-14.4779
87.4797	-5.30953		-15.5282
88.8872	-1.80108		-17.1782
91.6288	-2.03809		-25.304
93.1956	1.55773		-26.5446
91.0831	-1.95107		-23.91
7.6292	84.511		64.4795
7.53737	76.8303		69.9826
14.9775	83.7929		64.06
7.89855	92.25		57.3985
0.0147718	84.5755		64.6623
7.27764	69.219		74.594
0.182231	68.9168		74.9982
7.16989	61.2843		79.0275
14.1269	69.1351		73.8133
28.5964	55.3545		78.0821
29.1924	51.9938		80.6195
24.515	55.9165		79.4458
0.960605	-22.8623		105.42
1.21008	-21.6973		108.066
-0.687111	-22.8424		106.006
2.94064	-22.7107		103.989
1.48399	-13.0493		113.947
4.08786	-12.959		112.822
1.47608	-10.9085		113.238
-0.99056	-13.0815		114.278
1.53007	-14.9257		114.039
1.5404	-16.7092		113.572
-0.880929	-16.8169		113.953
1.49196	-18.3853		112.532
1.33849	-26.5229		97.9157
-0.544584	-26.7112		98.1107
1.78249	-33.2474		96.0942
4.03926	-32.5959		95.8706
-0.786943	-33.5221		96.1216
1.44012	-20.0732		110.684
3.64311	-19.9313		109.271
-0.744238	-20.0774		111.219
1.37307	-8.76439		112.02
3.89457	-9.03594		111.105
1.26022	-6.2706		109.997
-1.02039	-8.61325		112.232
6.82362	46.238		86.6326
0.295513	45.8242		87.6456
6.14078	43.3758		87.4475
12.9361	46.6976		85.8457
7.01772	49.5881		85.2876
1.25531	17.9871		85.6734
1.10649	15.6571		87.4519
1.34111	20.0275		84.5621
-0.341862	18.235		85.7715
1.45322	22.0108		83.8885
3.31608	21.1197		83.3462
1.49252	24.1247		83.6253
-0.322261	22.2134		84.0729
1.31123	-48.3918		89.4301
-1.21613	-48.421		89.483
1.76529	-46.9196		88.2744
0.886333	-49.2386		90.7423
0.762974	-49.431		91.6342
-1.39975	-49.513		91.5912
3.1718	-49.3046		91.3136
0.865636	-49.2656		92.2964
2.42313	-45.8156		95.8529
2.13828	-47.0196		94.9959
-1.04899	-46.0221		95.9826
1.46595	-48.2959		93.7269
-1.28593	-48.4326		93.703
2.73192	-40.8498		97.0632
-0.882159	-41.4985		97.1648
2.00602	-43.9196		87.0452
1.95983	-40.0802		86.2246
-0.917632	-43.8451		87.0618
21.0294	82.8593		63.2319
20.4768	75.9474		68.2903
26.6106	81.4861		62.0123
21.7714	89.9852		56.5378
19.3771	47.6017		85.2683
18.9675	45.6802		85.9309
24.6491	48.3805		84.7839
18.5668	51.0203		83.6766
20.0228	43.1619		86.221
21.2936	40.2618		86.0263
25.0041	44.1332		85.5167
22.5622	38.1398		85.1928
18.7096	37.1871		86.055
26.5274	39.3999		84.4657
26.626	27.7356		74.0793
26.0038	29.0531		75.3467
22.9126	26.3479		73.4561
30.3177	28.7619		74.426
28.2609	26.2148		72.84
25.0328	30.7321		77.2444
28.9942	31.7457		77.056
21.5549	29.4022		76.8972
45.0058	86.9791		40.5021
46.3979	92.4699		30.4724
39.4598	90.3833		43.1004
44.1402	81.1402		47.7901
31.7298	80.0537		60.112
32.799	86.3221		53.8841
37.1895	78.1237		57.3591
29.3344	48.6257		83.3188
29.9223	47.435		83.7203
34.4029	48.4936		80.1081
31.1723	40.7999		83.0421
30.9911	42.1447		83.5665
30.402	45.2124		83.8542
32.7387	32.1743		76.4258
33.425	30.4387		75.1109
37.066	32.0485		75.0546
43.0679	75.7451		53.4431
49.0446	73.2199		48.3523
41.9755	70.3095		58.2065
39.8791	47.5594		74.4687
45.2969	45.8988		69.9665
40.2171	28.4984		72.4711
40.3828	29.7934		72.9682
37.2967	29.0322		73.6043
42.7363	27.5943		70.8876
41.8589	36.4925		74.3955
41.3734	34.003		73.9627
46.0303	35.5006		71.5657
40.7651	31.5768		73.4722
40.8604	64.5617		62.5206
46.8677	62.4159		57.5379
54.7036	71.2355		41.7487
53.6934	65.7773		46.8666
59.8637	69.4101		33.9021
43.3736	24.8067		68.8331
44.8654	23.669		67.1425
44.9627	26.3955		68.9477
46.5613	25.0697		67.0896
43.9941	25.5327		68.9883
49.5892	33.6515		68.4016
52.3255	30.7783		64.833
17.1107	31.482		80.9923
14.3586	29.1278		79.57
17.6561	29.7364		78.7195
16.3445	32.9482		82.91
15.1864	34.4085		84.6295
12.5069	32.0337		83.3266
18.2298	27.3581		75.8458
18.8393	25.7329		73.8654
5.86476	39.5142		87.6102
0.929543	40.323		87.6222
71.6051	-64.2776		-7.56123
73.2582	-58.7429		-5.57397
71.4357	-64.7337		-14.1134
80.7952	24.2574		-36.7121
80.6192	20.2639		-42.4057
79.4947	29.7885		-41.5102
81.1151	26.7082		-28.5409
82.1979	18.6894		-31.4882
78.1412	-6.97827		-51.9576
77.3778	-13.0012		-50.4164
75.7747	-7.23588		-57.587
78.9352	-1.10966		-52.0106
79.3862	5.13019		-51.6592
77.237	6.78752		-58.1649
79.8495	10.6979		-49.8167
81.6033	3.17597		-45.3774
73.3992	-30.463		-44.2404
70.1842	-33.9839		-48.146
74.8219	-24.6489		-46.6777
7.13571	54.9116		82.5694
0.365901	53.7177		83.5831
13.4275	55.1897		81.8242
18.7832	55.6544		80.8251
19.4325	61.7078		77.0149
22.0236	-102.447		56.2028
21.2078	-105.139		48.4898
29.2335	-99.9505		50.6873
15.5099	-104.401		59.4078
50.3298	-85.2695		43.3736
44.3336	-88.7743		48.7338
55.4105	-81.8119		38.2174
50.86	-82.1641		47.2555
52.7307	60.0527		51.3236
58.1892	57.4884		44.1812
19.8681	68.9995		72.6347
64.9767	67.4229		24.4118
69.3319	65.575		14.5216
64.5123	61.0488		30.1794
22.2951	98.009		46.9541
28.3034	95.843		46.3019
22.6269	105.556		35.2427
15.6409	99.5179		47.4884
61.8801	41.3934		44.7682
62.7064	47.9045		40.3234
47.2944	23.4397		65.4439
56.5828	30.3197		58.9658
57.353	25.189		56.1025
55.313	29.0101		60.3919
53.9742	27.7541		61.5796
5.35272	-117.725		39.5122
2.64517	-117.842		39.8235
61.3004	-71.5525		39.2371
62.068	-67.1515		41.9019
56.4767	-74.624		45.742
60.5682	-75.6339		35.6275
6.84927	-37.0944		96.0226
8.75302	-37.5224		95.5742
6.22355	-34.7393		95.7345
23.1814	-44.7659		86.6596
22.4428	-40.9171		87.8282
20.71	-42.6173		89.1748
9.9173	-33.6957		94.174
7.34639	-32.9164		95.0842
10.6319	-35.9887		94.4266
12.7982	-34.4153		92.8216
9.16977	-31.4081		93.9362
32.2424	-48.2182		80.4411
32.0391	-51.62		79.3278
34.4685	-49.092		79.075
31.5678	-44.4516		81.6996
61.9888	19.8074		49.5706
59.7891	19.7699		52.2101
63.0678	13.5443		49.4999
64.0589	20.2429		46.5708
66.3297	20.7579		42.8201
69.1842	20.429		37.4389
50.8014	20.1448		61.0242
50.6939	17.9627		60.5365
57.8301	19.7412		54.4131
83.6029	10.5575		-36.5653
83.5672	6.73541		-39.7607
82.0699	12.4797		-40.6528
83.6511	13.1717		-32.5903
81.2177	-16.5021		-40.7904
79.057	-17.1355		-43.9697
75.2157	-50.8735		-16.0634
77.0837	-46.3321		-13.6662
75.0332	-52.8133		-9.753
73.1477	-56.7668		-18.6832
75.4022	-47.5271		-22.0053
83.4094	2.00901		-41.7561
80.5949	-25.0846		6.27906
80.0685	-29.3362		5.75019
81.0316	-20.6397		6.57165
79.7715	-25.7859		10.7403
75.435	2.23905		30.4307
74.4748	10.593		29.2957
75.7949	-5.42912		31.6791
77.947	0.88178		21.9348
52.9884	13.7051		58.8541
51.43	15.0688		59.9198
51.2055	11.1486		61.1737
50.0565	16.205		60.9884
48.6705	14.7827		62.4094
78.7324	-25.9022		17.1154
77.3515	-25.7469		23.8972
78.1848	-30.8024		16.5518
79.2675	-20.6682		17.0785
23.6561	-7.24558		82.3332
27.5214	-8.86041		80.9131
22.0038	-2.75949		81.0149
20.3971	-5.31904		84.0235
33.0595	-11.1183		79.4475
38.9751	-12.9841		77.7431
34.1275	-16.1221		80.2918
17.1915	-3.52076		86.2844
14.1426	-1.67651		89.0503
17.9066	-6.821		88.1451
21.5255	-13.0863		86.7978
19.9666	-11.1454		88.1733
17.3147	-15.3226		95.9723
15.5171	-14.9048		98.6513
17.0697	-17.0504		95.164
18.3172	-15.8732		94.0703
18.9617	-16.3875		92.3664
18.5125	-18.5612		91.4128
36.7328	-31.0872		79.8878
31.9919	-30.3455		81.7845
37.3574	-36.2315		79.3856
35.9741	-26.31		80.3643
34.9358	-21.1257		80.5106
4.72234	-28.795		95.7
5.17068	-30.6474		95.5119
6.21657	-28.8616		95.0114
58.3513	-47.1511		58.4161
59.044	-41.0729		59.4908
53.2696	-45.4562		65.2107
57.1885	-53.5088		57.6845
26.0809	-38.833		85.1756
23.9608	-37.8929		86.4733
28.3019	-39.4537		83.9529
37.7394	-41.2961		78.5699
37.7653	-46.2271		77.8292
42.5318	-42.4834		75.3891
33.6953	-40.4738		80.9885
5.60743	-32.4985		95.5637
55.5218	-60.0862		57.1633
59.3341	-61.7772		50.5245
50.9853	-57.0505		64.0885
52.6221	-65.6047		58.294
59.4215	-25.588		62.6815
59.4547	-30.5914		61.8316
64.731	-25.4969		54.966
27.8309	-90.6653		72.3462
28.1674	-87.4898		74.2634
22.2315	-93.9747		76.0164
39.535	-77.9131		67.0242
44.2844	-74.5711		63.6012
38.1122	-73.71		70.4729
33.978	-80.8093		71.4115
55.585	-4.39616		63.9963
53.4627	0.50226		63.8875
49.4063	-4.90849		69.186
46.2733	13.1121		64.8783
47.2401	11.028		64.6099
51.6528	4.01872		63.8338
46.6119	2.88163		67.9015
49.7531	6.70456		64.1768
44.4212	16.5258		65.8461
0.67705	-92.4806		88.7214
-2.65891	-92.2592		89.0755
46.3071	-54.4314		69.6631
44.7252	-58.7924		69.8621
47.2355	-49.4695		70.1164
41.4483	-52.2201		74.1691
36.3727	-69.7475		73.2783
39.6512	-66.4192		71.7562
33.7657	-65.9		76.0016
31.9981	-72.6922		75.7494
42.7421	-4.36907		72.8359
44.1056	-9.18409		74.0146
41.3838	-0.0661941		71.7632
47.9205	-43.8608		70.8542
45.4186	-14.0813		74.565
7.73733	-82.0046		88.1536
7.48118	-77.0675		87.8611
12.2758	-81.1992		86.5443
17.1205	-79.9828		84.3857
22.0047	-77.942		81.7167
16.7083	-75.2301		84.6705
40.3531	2.98462		70.9737
39.2333	5.39389		70.6351
33.4425	3.82095		73.0154
48.4759	8.89808		64.3136
44.3615	7.62463		67.6071
38.4035	7.4389		70.4065
31.5246	7.80683		72.1942
11.2227	-0.0608169		92.09
11.7316	-3.50132		95.2026
10.8351	3.82043		88.5256
12.7675	-10.0815		101.66
12.5591	-8.67074		100.393
9.78094	-9.65036		105.772
13.0968	-11.0907		102.017
10.4711	12.983		79.6548
10.4893	10.6617		81.8858
20.6563	1.58324		78.87
1.05591	12.4841		90.4525
-0.565505	12.7443		90.4753
63.1118	7.41238		51.706
10.6259	7.5189		84.9597
63.1309	-61.9717		43.6809
67.2908	-60.0514		35.6498
69.1637	-12.7387		48.3569
69.2788	-19.436		47.6139
72.7763	-12.1517		40.3865
68.0982	-36.5865		45.5299
68.7109	-30.8787		46.1475
64.2395	-36.2363		53.0693
71.1981	-36.7655		38.2151
69.1514	-25.1589		46.8127
72.5323	-25.443		38.9435
17.335	-96.4491		78.9373
7.36329	-72.9316		87.775
3.50261	-73.2201		88.3156
11.7052	-72.3009		86.7178
16.2527	-71.3518		85.1262
26.1488	15.8334		70.7666
26.8581	5.32585		73.9045
26.1344	7.49355		73.1246
25.6424	9.04584		72.5589
0.0753813	-73.4153		88.5285
-2.89205	-73.3632		88.5058
4.9639	25.5204		82.5241
6.39346	24.6792		81.4738
5.67564	28.1834		83.1545
3.38681	25.9381		83.2573
4.79106	22.7549		82.2333
17.0057	18.0124		69.6344
16.7629	19.1232		69.8056
14.8646	18.0235		71.3521
7.59808	23.4899		80.1262
8.63915	26.1596		80.5911
1.61426	26.5214		83.7576
-0.457124	26.5821		83.9262
4.74285	-22.3654		102.418
5.34156	-21.1973		104.551
6.86768	-12.6783		110.622
6.90053	-11.0201		110.026
10.0958	-12.2712		106.795
17.7687	-23.0613		88.2666
17.394	-21.8811		89.5443
15.3017	-24.4787		89.4699
6.5891	-9.35674		109.236
5.31886	19.609		82.1606
7.00047	31.2076		84.3042
8.75516	30.268		83.2021
17.2408	20.5155		70.0931
10.2986	29.1918		81.767
11.3114	27.7598		79.9869
12.001	26.2474		78.2735
19.616	-29.5787		86.9504
16.9536	-29.7864		88.612
20.4842	-32.9576		87.4811
21.6151	-36.9778		87.7719
18.7296	-36.0144		89.5511
23.8576	-51.7418		79.826
23.6446	-50.6371		79.3682
21.7594	-51.71		81.113
24.2507	-50.2773		83.0573
22.151	-48.9515		85.642
23.2263	-47.5974		78.6797
19.946	-47.2346		80.8764
22.537	-43.7546		78.3583
14.2039	-29.8911		90.4254
11.2518	-29.6772		92.2754
14.9621	-32.3331		90.7818
15.9698	-35.1719		91.0816
16.7399	-38.0135		91.4119
19.0556	-51.4477		82.7923
17.6599	-49.8887		83.0697
16.9435	-46.6424		82.6512
17.0141	-42.5861		81.973
8.49135	-29.2733		93.8917
8.09121	-27.3121		93.9093
11.6714	-38.6528		94.4966
14.6445	-39.6953		93.1009
17.9674	-9.08453		90.2481
15.1625	-7.73935		94.1247
1.12686	-3.21871		106.996
-0.991858	-2.97335		107.085
12.0727	-6.37109		98.2241
6.03325	-19.397		107.198
8.78656	-18.8052		103.961
11.8001	-18.3302		100.454
12.5957	-16.4526		101.548
14.6202	-18.4022		96.8532
16.3177	-18.8802		94.3499
17.0909	-19.7628		92.3734
17.3118	-20.8109		90.796
13.1117	-12.1034		102.462
13.0155	-13.3317		102.701
12.9271	-14.7992		102.333
42.0131	-145.718		13.5
37.1597	-147.246		16.6947
42.8492	-151.297		12.6734
46.388	-144.042		10.2413
40.9463	-138.086		14.6523
40.0321	-127.443		16.11
44.452	-125.736		12.4592
39.8476	-117.992		17.5502
35.2878	-129.009		19.7644
43.1439	-101.239		24.523
47.7857	-98.825		19.7974
38.1749	-103.526		28.8789
41.9603	-106.12		20.6585
40.6624	-111.327		18.8225
35.7487	-113.161		23.0481
45.1281	-109.309		14.7721
42.7645	-62.895		70.3
46.0858	-66.3788		65.7772
38.7549	-59.6699		74.286
49.1513	-70.398		60.1448
50.58	-74.6619		55.2924
51.1909	-78.5347		50.9843
35.6245	-57.1149		76.6703
36.6839	-54.006		76.7727
33.081	-55.1435		78.0995
33.6967	-59.8204		77.0933
31.3936	-54.0787		78.8225
30.2421	-55.8261		78.8605
51.8602	-96.2616		15.2872
53.8163	-91.5527		18.8332
50.4895	-101.385		12.3237
55.5224	-93.8711		10.3468
55.9351	-87.1052		23.4951
59.105	-85.0301		16.9496
57.922	-83.0815		27.7547
59.4692	-79.2886		31.9599
62.7456	-77.3003		24.6158
48.5732	-123.829		8.71221
49.3132	-134.616		7.72397
52.4503	-122.217		4.81602
48.5312	-114.235		9.66468
50.3016	-142.402		6.85303
51.34	-148.196		6.00008
53.9316	-140.757		3.17023
49.2415	-107.076		10.7247
75.2177	-25.6628		31.4193
74.5647	-31.2241		31.1507
75.7545	-19.5345		31.6112
65.0723	-75.4376		17.8101
63.3721	-79.1371		14.4003
66.7186	-73.7303		11.0242
72.9669	19.5015		28.9173
76.7093	17.1783		18.2467
70.4801	-58.088		27.7073
72.7349	-56.2573		19.5403
73.8242	-36.7369		30.892
76.0271	-36.2509		23.3411
75.8436	-12.434		32.2409
78.1595	-13.6785		24.1027
77.5032	-35.7222		16.0941
78.6001	-34.68		9.47961
63.3514	-89.4204		-4.63073
62.7948	-94.5943		-6.01069
65.1149	-88.6847		-9.27572
64.1025	-84.7589		-2.88392
61.2201	-90.4379		0.108119
62.3616	-100.304		-6.84511
65.158	-80.3274		-0.423619
63.4973	-81.5586		5.00119
66.5837	-79.4172		-5.97462
66.4119	-76.2345		1.93094
79.7712	-0.254264		13.4118
79.5352	7.56908		10.7112
79.7809	-8.14224		15.8671
79.2623	15.7474		7.59033
78.9996	23.4394		4.86474
78.8318	31.2209		1.48324
80.3645	30.0761		-9.23942
78.7364	38.9304		-2.37315
73.9883	-54.8407		11.4138
74.6069	-53.9352		3.36947
79.6027	-14.7417		17.0145
80.6235	-15.6799		10.7754
56.1819	-120.503		0.557149
56.6341	-131.284		-0.194994
61.5683	-83.1718		11.0025
59.9052	-87.4195		7.75071
57.3466	-138.98		-0.960237
58.2285	-144.609		-1.95827
65.2229	-115.025		-16.474
65.3433	-124.348		-17.737
66.4768	-87.8772		-13.9015
67.3436	-85.8895		-18.7912
67.107	-83.0446		-12.8121
67.9581	-78.2235		-11.3851
65.524	-131.262		-19.1585
65.6671	-136.721		-21.0475
74.7953	-53.7737		-3.88579
79.4527	-33.4863		4.96761
80.3698	-31.8109		1.69492
78.8799	-37.3253		3.50733
81.3411	-15.9388		6.62529
66.0673	-93.677		-26.7928
64.5648	-89.2591		-33.4722
66.7531	-87.2149		-25.5985
67.7392	-81.0632		-24.5257
67.0054	-74.4082		-30.4293
71.2863	-63.3758		-20.6361
78.3109	-43.6413		-12.3714
79.2415	-41.1162		-19.0052
60.6703	-120.049		-44.6631
60.5877	-127.638		-46.0488
57.1973	-117.263		-51.6083
60.8251	-111.897		-43.1938
76.0401	-42.4898		-26.7981
78.4102	-38.6412		-25.1157
80.0639	-36.8556		-24.4229
32.0916	-148.548		19.6629
31.1024	-141.025		21.2328
26.9704	-149.737		22.3329
33.08	-153.921		18.4011
30.2043	-114.658		27.4468
24.3648	-115.79		31.5475
29.5194	-120.918		25.7111
31.2968	-110.146		29.5271
35.7281	-97.58		45.3812
34.0045	-101.273		39.4072
37.1842	-94.3798		50.4149
32.4563	-105.556		33.6771
26.4668	-107.252		37.912
30.0491	-130.206		23.5016
24.6602	-131.7		26.9437
31.5194	-62.5978		77.7703
29.7379	-59.6166		78.842
38.2428	-91.5536		54.6265
28.6621	-57.7308		79.3211
26.2799	-59.639		80.4854
27.6845	-56.2526		79.6643
26.8878	-54.9497		79.876
24.9339	-56.499		81.0257
27.2239	-75.5812		78.6031
27.9045	-79.7703		77.2997
28.3617	-83.965		75.7157
19.9454	-53.5207		84.0336
16.6211	-53.7733		86.7142
19.823	-52.8487		82.9053
23.2032	-52.8973		80.8775
19.9306	-53.0685		82.4753
16.1714	-52.5606		85.2915
19.9254	-53.5601		82.1046
19.9058	-55.0263		81.4398
16.2282	-53.2704		84.1788
19.5164	-58.3121		80.6924
18.6995	-62.2378		80.3531
15.8593	-57.9811		82.3818
18.9702	-116.374		34.7865
19.7031	-112.415		37.0377
18.5194	-123.064		32.7981
21.7533	-150.932		24.7139
20.6899	-143.608		26.8018
16.6045	-151.842		26.7404
22.7952	-155.968		23.165
19.4062	-132.944		29.9499
10.8594	-109.847		45.3897
14.9063	-109.466		43.8218
10.6973	-107.468		53.2466
12.0815	-152.485		28.2052
13.1028	-157.317		26.5679
10.5808	-105.548		61.5077
12.7178	-52.0141		87.5821
12.6628	-52.2282		86.8801
12.5783	-52.805		86.1365
12.7392	-54.309		84.9509
12.4324	-57.573		83.7498
12.1042	-61.7384		82.8759
73.0819	49.2898		15.0458
76.4094	47.669		4.10936
73.2618	56.6371		9.6908
68.8074	51.5504		25.6343
80.9358	28.679		-19.1788
76.0508	-18.954		-48.9958
73.1715	-20.9542		-53.8956
54.305	-95.8223		-54.2875
55.0591	-85.522		-53.1505
57.5274	-99.0072		-48.8808
54.0298	-106.067		-55.471
50.9495	-93.4738		-59.1331
54.004	-114.957		-56.7849
54.2145	-123.373		-57.9792
50.614	-113.216		-61.4332
62.0468	-83.521		-40.6711
61.2834	-93.2883		-41.3067
59.0983	-78.9592		-46.9797
63.4773	-74.8256		-39.1869
22.559	112.215		21.4375
29.2781	109.474		21.2629
22.5326	117.036		6.19951
15.5084	114.115		21.6438
22.4821	101.818		-78.882
23.0562	110.544		-63.0797
29.5671	99.8458		-76.9545
21.7669	90.9321		-91.9601
15.0499	103.189		-80.3372
21.3529	79.0147		-101.41
28.209	77.4081		-99.382
21.1083	65.8409		-108.516
14.3903	79.7483		-103.04
23.0988	116.442		-46.0501
30.2586	114.002		-44.3894
15.6227	118.207		-47.1489
22.9608	119.444		-28.2415
7.75307	122.777		-11.3953
-0.149918	123.139		-11.5605
7.7228	120.274		5.87341
15.3875	121.594		-11.0604
7.80438	122.487		-29.5232
20.8809	52.8662		-113.354
27.289	51.5517		-111.291
20.6086	39.4129		-116.544
14.3797	53.5955		-114.833
20.1442	25.3704		-118.265
26.4582	24.4363		-116.061
19.6782	11.5234		-118.359
13.8455	26.2794		-119.792
17.7078	-26.956		-107.231
23.5443	-27.7007		-105.041
17.4811	-38.7432		-99.8301
12.136	-26.861		-108.407
18.4648	-14.3647		-113.148
6.7595	-0.521201		-119.487
0.387195	-0.469682		-119.832
6.94422	12.5985		-120.979
12.9817	-0.921126		-118.453
6.47643	-13.323		-115.861
15.7525	-86.1024		-82.2937
16.0871	-76.5049		-83.2662
21.1749	-86.8657		-80.9803
15.5215	-95.5951		-81.9194
10.547	-85.6857		-83.0333
5.29783	-104.243		-82.5264
10.3683	-104.656		-82.2522
5.42216	-113.87		-82.3028
0.413936	-104.052		-82.5976
5.4009	-94.5589		-82.8707
17.7103	-48.0897		-93.739
23.073	-48.6579		-92.1756
17.382	-56.4642		-89.1756
11.9343	-47.6415		-94.7443
16.6285	-66.074		-85.5608
22.3777	-67.1863		-83.8416
11.2379	-65.2838		-86.5346
5.83514	-65.0257		-86.9617
6.08051	-55.5926		-90.624
5.55617	-75.6567		-84.5373
0.403028	-65.2458		-86.9882
47.3853	97.6449		18.398
53.0279	92.2799		17.1391
48.4098	101.495		4.79423
41.6259	102.156		19.7481
47.2216	70.5157		-89.2692
52.6933	67.4565		-85.0013
46.9419	58.5503		-95.9782
41.3748	73.116		-93.1228
47.5285	81.3903		-80.1812
47.7732	90.8856		-68.252
42.1046	94.4381		-71.5309
48.3078	97.9366		-54.1992
53.2978	86.5471		-64.6384
48.891	102.231		-39.5363
54.6272	96.6497		-37.7409
43.0932	106.848		-41.1733
49.5537	103.768		-24.7466
49.1611	103.677		-9.84235
43.1263	108.659		-9.74255
54.9288	97.9471		-9.91296
46.369	46.4251		-100.816
45.7491	33.8388		-103.999
40.4645	48.2773		-104.772
51.8209	44.2578		-96.4825
44.8357	21.0922		-105.758
50.2118	19.6976		-101.39
43.9165	8.18926		-105.801
39.1578	22.1768		-109.611
42.6906	-4.30268		-104.286
41.4774	-17.1726		-100.697
37.395	-3.99322		-107.948
47.5764	-5.01781		-100.072
40.8161	-29.7806		-94.7929
45.6433	-29.4934		-90.9455
40.4035	-40.7811		-88.3879
35.3961	-29.1784		-98.7271
39.9645	-50.3746		-82.7239
39.3972	-59.9721		-77.8525
34.603	-50.1804		-86.4352
44.7355	-50.5621		-78.4445
37.3725	-88.7155		-73.0371
36.3922	-98.6618		-73.9354
32.1047	-88.2733		-76.4101
38.3321	-79.0737		-72.9428
42.1919	-89.7116		-69.0543
25.7039	-106.135		-79.3945
25.8583	-114.966		-79.5591
20.4946	-105.451		-80.8012
26.0302	-97.0652		-79.1917
31.0004	-107.039		-77.3286
38.8784	-69.6385		-74.5053
43.7877	-69.9932		-69.9887
33.7667	-68.986		-78.2359
67.3292	70.4155		-51.174
68.3183	74.3938		-39.7372
71.3611	63.7703		-45.3248
66.6305	64.2377		-61.5852
63.0117	76.2781		-56.424
68.9723	76.6666		-28.4039
72.7801	69.0133		-23.221
64.6718	83.8615		-32.551
69.2421	77.6673		-17.2075
68.2482	78.4234		-6.39271
71.0565	71.1783		-1.59124
64.5686	85.2298		-8.70841
56.6277	42.0642		-91.9311
57.2269	53.2828		-87.0532
61.0036	39.4691		-87.0788
55.982	30.2119		-95.0943
57.4852	64.2499		-80.501
57.813	73.7913		-71.8863
61.9919	60.4203		-75.553
52.4212	-5.67747		-95.0907
54.0794	6.29874		-96.5002
57.0789	-6.45466		-89.5299
50.832	-17.7193		-91.9211
55.1151	18.1131		-96.6456
59.6582	16.7941		-91.5253
49.9717	-28.9876		-86.8028
54.2239	-28.9094		-81.6812
49.6786	-40.1224		-80.0201
48.9996	-49.8867		-74.1779
52.8238	-48.2193		-70.1474
48.735	-70.6452		-64.3593
53.024	-73.1807		-57.8894
47.8038	-80.8208		-63.5529
77.7465	35.664		-46.619
77.0422	29.644		-54.0715
75.6512	40.9755		-52.3247
58.0897	86.3459		16.5041
59.1516	90.1108		3.4738
78.1913	46.3969		-6.76334
77.3507	53.9019		-11.9318
67.912	-7.05124		-73.6186
64.6886	-7.20976		-78.79
69.2104	2.37931		-75.0874
70.9189	-7.3143		-68.0278
66.2881	-16.8985		-70.7671
69.8756	11.8996		-75.7862
66.8296	13.6014		-81.2726
70.6114	20.9622		-74.3449
72.7875	9.89581		-69.6854
71.341	30.1586		-71.0221
68.2538	33.5425		-76.716
72.1851	38.5863		-65.575
74.109	26.411		-65.0561
61.4525	-42.1195		-59.4174
58.6719	-44.4659		-62.9559
62.9097	-34.3888		-63.3052
64.2466	-39.8361		-55.6202
60.2093	-50.0196		-55.6928
70.3416	-22.6991		-58.5747
68.6994	-30.0496		-55.2854
67.5959	-24.4015		-62.7472
72.0278	-15.2111		-60.9703
56.3593	-75.8416		-52.3057
57.7326	-66.5871		-52.2774
80.7063	-36.069		-3.97019
81.2176	-32.361		-1.89431
79.2375	-39.0673		-1.72757
81.1549	-30.5611		-0.411315
83.5199	-4.79281		-1.97543
83.9069	0.418494		-4.1458
94.4023	5.1766		-37.7516
94.3769	11.0567		-35.3397
95.0483	4.79531		-37.0313
86.1522	-34.5047		-24.1807
85.1595	-37.3063		-20.8027
93.8478	15.8401		-31.7888
92.8653	16.1396		-32.2908
93.0915	19.0642		-27.6333
94.7565	15.1855		-31.2192
87.9317	11.337		-10.946
86.6014	11.3091		-11.602
92.3003	20.467		-23.3303
93.2608	19.7688		-22.5845
90.3496	-17.8727		-34.4454
87.8066	-35.0673		-16.6753
87.2763	-34.8598		-13.9885
86.1887	-37.2521		-17.2064
84.1128	2.95452		-5.88622
89.1005	18.8271		-18.8354
87.3693	15.8085		-16.1535
88.0649	17.9294		-20.409
85.2614	11.5431		-13.0546
84.3582	11.9419		-14.6517
92.2012	15.9794		-32.509
83.6033	11.6203		-16.108
84.7172	13.5446		-18.7786
86.1409	15.3814		-22.3825
84.0978	13.1955		-23.4691
90.0988	-26.2961		-27.2153
90.4094	-27.7467		-19.5156
84.6832	-38.4851		-17.7313
86.5688	-33.9086		-11.7161
87.6328	-30.9511		-11.6777
88.4447	-28.5672		-12.5497
88.8393	-27.0155		-13.4578
95.2533	4.50931		-36.6101
95.5127	10.1804		-34.2842
91.9551	17.2386		-15.099
92.1748	16.6024		-14.8117
93.055	18.831		-18.18
92.184	16.0042		-14.6745
93.3272	17.6779		-17.7099
92.0659	14.9348		-14.8471
95.1542	14.6468		-30.8506
94.5305	17.6232		-26.7033
95.2825	14.1529		-30.7105
93.8548	19.0633		-22.1037
94.1007	18.4674		-21.986
94.131	17.8996		-21.7197
94.7088	16.5998		-26.3354
95.2547	13.7924		-30.393
94.8642	0.187919		-35.5753
91.8589	13.6201		-15.3933
89.6962	6.39368		-12.905
93.7061	13.1704		-23.8906
94.5104	-2.90555		-30.405
94.4958	-0.999375		-30.1017
94.3627	0.895296		-29.5135
94.1163	2.41855		-28.6055
93.7378	3.66673		-27.3507
92.8355	4.55577		-24.7962
86.7554	-23.3853		-11.2082
87.9648	-25.0381		-12.8852
88.198	-0.250849		-9.87571
85.3364	-15.2813		-9.24631
88.9072	-26.2912		-13.9663
33.8918	29.1095		74.2492
33.8061	93.4822		44.9405
34.8903	100.175		33.794
7.972	100.573		47.6638
7.95335	108.511		35.6369
-0.116951	100.88		47.6438
35.5204	106.223		20.5586
36.0846	110.642		5.99646
7.81645	115.283		21.7154
-0.180855	115.675		21.5674
22.6256	119.607		-10.6088
29.778	116.741		-10.157
36.5146	113.142		-9.96654
36.8982	113.207		-26.2628
63.7649	54.4142		35.2378
72.5652	63.7986		3.90124
74.7842	62.5184		-6.79919
59.9329	91.9864		-9.88717
60.4031	91.8095		-22.7682
7.84695	119.279		-47.7319
7.82412	113.116		-65.1395
-0.0375006	119.615		-47.9143
36.7213	110.941		-42.568
36.5061	105.597		-59.118
75.4144	61.3783		-17.5779
75.3517	59.8238		-28.4528
59.6951	90.7286		-35.6184
58.9597	87.4505		-48.2661
74.5545	57.0775		-39.242
73.7487	52.6607		-49.4673
72.9175	46.552		-58.2605
69.7657	51.5157		-64.2914
46.8997	-91.6321		-64.212
46.1704	-101.745		-65.5004
46.174	-111.139		-66.4666
46.2476	-119.753		-67.6029
41.0943	-109.217		-71.0503
7.5788	104.094		-81.0189
7.35813	92.614		-94.3891
0.0923962	104.253		-81.4231
7.36653	80.1454		-103.977
7.43396	67.0184		-110.911
0.16577	80.2348		-104.303
7.50262	54.0028		-115.728
7.40746	40.8357		-118.919
0.237372	54.167		-116.021
7.16246	26.8959		-120.733
0.331142	26.9013		-121.072
19.1397	-1.57201		-116.749
25.2785	-2.48882		-114.381
6.17464	-26.6735		-109.217
6.18249	-38.9237		-101.027
0.425043	-26.8059		-109.37
6.17844	-47.7767		-95.0053
0.427443	-48.0139		-94.9549
5.48442	-85.2393		-83.4078
0.393033	-85.0592		-83.5071
34.8776	75.4537		-96.6111
35.3631	87.1183		-87.1987
34.4893	62.8077		-103.507
35.9039	97.3783		-74.6612
33.9453	50.069		-108.354
33.4486	36.9332		-111.501
32.8499	23.4481		-113.144
32.2609	9.75706		-113.112
31.4461	-3.29111		-111.405
30.4997	-16.0335		-107.801
29.5223	-28.4368		-102.225
28.8657	-39.8101		-95.6427
28.8581	-49.4471		-89.7184
28.7889	-58.5751		-84.8499
28.123	-68.0834		-81.4603
27.45	-77.9961		-79.5374
26.7881	-87.5094		-79.0043
36.2157	-107.945		-74.5379
36.4072	-116.787		-75.0906
58.2003	81.9007		-60.7507
66.0557	56.499		-69.9542
65.5224	46.7975		-76.9368
64.7773	36.8674		-82.0843
64.1084	26.1433		-85.2801
63.415	15.3692		-86.5587
62.5879	4.2239		-85.9155
61.0466	-7.07655		-84.1352
59.3597	-17.93		-81.1294
57.8739	-27.9885		-77.0676
61.3303	-27.3215		-71.9881
56.8004	-37.856		-71.6593
55.8412	-46.3704		-66.6375
59.1948	-58.2928		-52.8531
61.5058	-56.6956		-49.4509
76.2473	23.2795		-59.539
75.6842	15.8513		-62.6599
78.2855	19.5769		-53.4742
73.3766	-7.31774		-63.0308
74.4619	0.585553		-63.9561
64.4908	-25.9822		-67.393
75.0938	8.507		-64.1613
67.0609	-37.3383		-51.9198
65.6715	-44.6238		-48.7279
20.3988	-108.539		41.6264
68.0096	-72.1583		4.33813
58.5817	-91.9021		5.32172
13.4894	-44.0691		93.5191
16.5992	-45.0513		91.596
19.6937	-46.7511		88.7687
6.86975	-55.8657		92.7604
7.16427	-57.0679		92.7875
7.38608	-58.2441		92.7021
22.9837	-62.0496		82.5191
22.3975	-60.3173		83.0232
21.8075	-58.7863		83.5033
17.8437	-41.0133		91.0608
37.4893	-50.3985		77.1622
28.6349	-29.7153		82.8389
29.657	-34.8715		82.9882
30.6364	-39.8249		82.6292
59.4575	-35.5596		60.574
19.2036	24.5407		72.5481
80.1577	15.9626		-47.0161
83.1076	14.9918		-27.7521
83.8826	13.0999		-25.381
78.0068	-41.8955		1.76546
26.0006	14.5558		71.1204
50.4955	43.637		64.922
8.1161	-25.7943		94.0362
45.9267	22.3572		65.5176
12.4115	-24.2847		91.7378
83.7966	12.9197		-24.3224
60.8975	-102.865		-42.2632
65.8452	-66.2208		-37.1934
64.6175	-59.4425		-42.3276
64.3246	-53.4112		-46.0213
23.0679	-21.4921		84.4223
13.3026	-53.7196		89.113
25.04	-52.8434		79.9079
6.24197	-49.392		90.5613
-74.5472	-44.9955		14.1292
-75.1981	-40.1271		15.1883
-75.5966	-43.597		7.16263
-73.7964	-49.7135		13.0118
-73	-46.1751		22.0164
-61.9486	-119.019		-5.93791
-62.1395	-108.897		-5.32193
-63.8732	-117.457		-10.3461
-62.1226	-128.978		-7.16598
-59.4315	-120.395		-1.66015
-62.4752	-136.127		-8.46684
-60.0869	-138.123		-3.91783
-64.165	-134.174		-13.0707
-62.8018	-141.739		-9.731
-56.8886	-104.315		4.75513
-60.0623	-102.683		-0.172711
-56.4106	-111.869		3.6816
-53.4313	-106.347		9.36297
-57.818	-98.2264		5.95647
-65.4488	-99.588		-13.3109
-64.2482	-100.465		-9.00577
-65.789	-93.9497		-12.8767
-66.0406	-97.996		-18.4071
-65.1844	-106.691		-13.8751
-67.6429	-66.0777		24.7063
-69.392	-64.7461		17.1345
-66.3316	-70.7793		22.304
-64.8034	-67.944		32.1773
-68.6573	-61.5694		26.6654
-71.3666	32.87		24.0911
-75.2978	31.2322		12.4557
-71.1353	25.6674		27.1515
-66.6339	35.666		34.8878
-72.1115	40.4383		19.5635
-78.1684	42.3017		-28.6161
-79.4133	35.0503		-23.7432
-78.3886	44.1403		-18.0771
-76.5306	49.2359		-33.8024
-77.7511	39.2133		-38.2155
-6.30369	-117.84		39.1292
-6.26622	-114.019		41.3927
-10.4517	-117.731		38.2216
-7.70251	-124.854		37.2682
-3.15294	-117.843		39.6426
-9.52015	-135.343		34.1674
-10.7519	-145.734		30.7224
-5.91067	-135.463		35.2027
-13.5189	-134.57		32.7757
-3.49618	-153.312		29.9081
-3.89505	-158.053		28.4419
-3.13765	-146.235		32.1694
-7.40296	-153.052		29.4205
-69.9692	-53.6554		-30.8214
-70.3729	-45.9293		-35.1389
-67.4042	-59.9741		-33.1599
-69.8901	-60.1199		-25.483
-72.4108	-47.3426		-28.5699
-70.9766	-40.4287		-38.2863
-74.0423	-35.6551		-35.1684
-71.6323	-35.6657		-40.8197
-67.3843	-46.4084		-41.6237
