1860
18.2139	-12.1819		90.1227
16.7267	-12.4194		93.4036
19.0144	-63.0532		87.3207
19.4095	-65.3258		86.7564
22.0011	-61.9688		85.5201
18.6209	-61.339		87.929
5.77464	-64.5041		91.3075
2.92286	-64.4374		91.5515
5.9193	-66.5858		90.9236
5.50328	-62.8691		91.942
61.7821	30.672		58.1697
60.631	29.5931		60.1151
63.9287	25.5158		52.6717
62.7307	32.0269		55.9764
42.1271	54.5147		71.549
36.0781	55.8669		75.6504
41.9847	49.543		74.749
48.3645	52.3738		66.9751
42.9762	59.8549		67.6336
54.4961	49.5161		61.4137
53.6301	45.3024		65.4091
60.4519	46.0112		54.1654
55.4352	54.8687		56.9035
42.6505	41.7079		77.9765
42.3726	44.217		77.2818
37.2163	42.7413		81.8574
43.0563	39.1509		78.1834
64.2094	33.499		52.3925
65.1213	36.3692		49.1521
58.9274	38.7848		61.3607
67.2133	27.4613		45.9636
25.8158	32.5401		82.2772
26.2881	31.2572		80.4842
29.5744	32.9635		81.8267
25.6426	34.3483		84.1647
22.3617	31.706		82.049
8.26559	16.6057		83.1813
10.8415	14.8184		81.1326
8.27687	18.3873		82.4057
5.62788	17.9036		84.6669
8.16219	14.3216		84.5379
32.1501	-1.5665		75.4003
33.9197	-5.5985		76.5626
39.2018	-2.27416		73.8491
30.4908	1.87049		74.3027
26.2612	-0.289864		76.7369
59.8124	9.88361		55.7172
62.2899	8.35672		53.6497
60.7337	14.1618		54.244
57.268	11.5976		57.627
57.5956	6.4676		59.1733
8.11721	11.2725		86.649
10.6521	9.64025		85.018
5.67882	12.5693		87.7384
43.4179	36.9565		78.1267
47.3448	36.5273		75.7951
38.4567	36.7889		80.7632
43.2629	34.9471		77.9999
51.3125	35.0523		72.7509
50.6637	33.1179		73.2086
56.0835	31.9204		67.4519
56.9727	18.8606		58.7493
56.9292	22.4919		61.0258
54.8538	18.9128		60.505
56.3949	15.663		58.1986
58.7978	18.8723		57.0162
44.6495	23.532		69.6124
46.2089	22.3092		67.8571
42.8538	24.5552		71.123
40.9174	25.4578		72.2731
38.7855	26.0575		72.9902
41.1287	26.1529		72.8951
38.594	26.7172		73.6234
43.2566	25.2723		71.6981
36.0123	26.3672		73.2819
33.1713	26.2083		73.2208
35.6791	26.9853		73.8608
32.648	26.7629		73.7051
30.4522	25.6003		72.6643
27.8907	24.57		71.8743
25.1537	23.1211		70.9532
22.8142	21.5673		70.0241
23.9567	23.5683		71.3105
21.7849	21.9368		70.3748
26.7131	25.0239		72.2372
21.203	20.1659		69.3953
22.8042	23.8455		71.7363
25.7359	25.5571		72.8467
35.4155	27.7256		74.6669
32.1579	27.4646		74.4574
49.5441	18.0176		63.6033
50.0063	19.0258		63.6259
48.3927	17.1395		64.1855
33.6674	33.0852		80.7913
38.5047	33.1687		79.2963
33.6363	34.5402		81.9222
33.8641	31.7806		79.4531
48.4341	27.9525		72.331
47.4662	26.4625		71.6027
49.2674	29.5928		72.9333
45.5474	29.1599		74.5156
38.9869	10.1486		69.7536
44.4208	10.8625		67.5093
32.5663	10.2651		71.133
39.6377	8.6841		69.8099
27.5517	11.1805		71.2462
23.7845	12.6022		70.914
27.7862	9.64238		71.6881
20.2381	15.629		70.2066
19.7351	16.4741		69.9929
21.0848	14.8256		70.3233
37.8984	13.1216		69.7233
42.7579	14.018		68.0134
32.3259	13.1724		70.7077
22.5822	15.7924		69.3962
24.3288	15.0169		69.8324
21.7605	16.2475		69.1605
21.1495	16.6211		69.0759
20.5896	17.1096		69.0806
17.0078	23.0202		74.182
15.9421	24.7505		76.4312
17.9531	21.3241		71.8651
18.4873	24.8549		74.7952
19.2709	17.6816		69.958
28.9461	26.7464		73.7333
18.5883	20.6706		70.9381
18.1777	19.2693		70.8363
19.549	22.2926		71.4136
37.6832	14.4454		69.724
32.2249	14.4332		70.5653
22.5546	16.5595		68.8745
21.7996	16.7479		68.7858
24.2619	16.1521		69.3248
21.2332	17.0891		68.7146
47.2085	21.0773		66.087
4.54005	31.5009		84.936
1.20727	31.6118		84.9087
4.17187	28.9453		84.1577
7.26807	30.9409		84.5449
5.08522	34.4028		85.9245
21.6108	7.5362		74.2612
21.403	9.40726		73.2068
19.6595	8.82158		74.7489
22.2765	4.92394		75.6581
24.6516	6.09758		73.7955
17.7107	10.2148		75.5767
15.5942	11.7701		76.9142
18.161	15.0793		72.1092
16.4687	15.6222		73.6232
18.3098	16.5862		71.2132
12.6688	21.9474		77.5591
13.7229	23.906		77.5216
11.8287	22.8275		78.6806
22.018	13.7632		70.6236
21.6308	12.5765		71.3882
21.4415	11.1084		72.1984
23.8486	9.61512		72.192
21.3916	-51.1151		83.302
21.2524	-51.0402		83.1031
24.0535	-51.4959		81.4872
18.4387	-50.4389		85.2353
25.6641	-51.747		80.5764
25.3755	-51.6309		80.523
5.73773	-44.3387		95.522
8.68644	-43.9061		94.9966
5.66461	-43.0719		95.6301
2.51022	-44.7599		95.7993
5.66978	-45.5507		95.2399
11.052	-46.3354		93.4092
11.1757	-45.1977		93.9307
8.54473	-46.2832		94.2096
10.6907	-47.3615		92.7363
13.2493	-46.5143		92.4908
15.4715	-46.8113		91.2828
15.5805	-45.7076		91.8958
15.3798	-47.9521		90.3655
18.2337	-47.7028		89.2165
11.151	-43.858		94.3276
13.3725	-44.0507		93.4804
11.0616	-42.5599		94.5329
14.7978	-42.3386		92.9731
15.3804	-43.3847		92.6787
14.4866	-41.2466		93.0047
12.6778	-41.8776		93.9631
21.5727	-49.231		86.0408
21.53	-48.0447		87.1841
10.0485	-48.2548		91.9061
7.52162	-48.1073		92.8196
9.57196	-48.6955		91.1875
12.7844	-48.4785		90.7518
15.4925	-49.0634		88.9985
15.4209	-49.6336		88.001
26.4614	-50.6265		82.049
21.6338	-52.0549		83.8291
21.5513	-51.9908		83.6235
18.6141	-51.6331		86.1047
21.7054	-52.2442		84.1106
22.2366	-53.4293		84.638
22.0246	-52.9954		84.5595
19.5713	-53.5954		87.2967
16.6272	-53.7967		89.7437
16.3723	-53.0171		89.5037
13.7492	-53.8391		91.5939
17.0559	-54.5875		89.7304
9.80826	-51.7047		92.4964
10.142	-52.8217		92.9114
13.0087	-51.9019		91.0443
9.58378	-50.7435		91.9578
6.88932	-51.5644		93.3783
4.72985	-54.0599		94.6661
4.84158	-55.191		94.8042
7.2896	-53.9085		94.1438
4.63777	-52.8756		94.352
2.36693	-54.1064		94.8698
25.9843	-53.1627		79.8837
25.7844	-52.5778		80.4679
26.1006	-54.5163		79.2485
24.1344	-53.0325		81.1348
4.35206	-50.7941		89.693
4.3906	-50.1278		90.8594
6.47224	-50.892		89.2914
4.27427	-52.0691		88.5708
2.40607	-50.7737		89.8723
4.97161	-56.3915		94.7841
2.42307	-56.4381		94.9894
5.12687	-57.4865		94.5938
7.69723	-56.2351		94.2619
5.32507	-61.1954		92.8346
8.28035	-60.9737		92.4441
5.25005	-59.7008		93.6804
2.62759	-61.3221		92.9775
10.7547	-41.642		94.5839
9.98841	-40.3121		94.5671
8.41649	-41.5243		95.1209
4.56623	-51.6542		93.8537
2.37845	-51.7373		94.053
4.49249	-50.6565		93.2788
4.45037	-50.2194		92.874
6.71842	-50.1504		92.4219
4.49573	-50.008		92.4637
2.4169	-50.2327		92.9659
9.47347	-50.293		91.5392
12.4991	-50.6351		90.2107
9.39451	-50.1195		91.1921
4.51284	-49.9341		91.7991
6.62579	-49.9329		91.3928
2.4411	-49.9464		91.9085
15.453	-51.1245		88.3901
15.3557	-50.9855		88.0056
15.6882	-51.4731		88.7286
17.7978	-57.3554		89.4167
18.071	-58.4156		89.0273
17.57	-56.409		89.6319
14.842	-57.785		91.2255
11.4123	-58.0193		92.7705
11.5973	-59.1712		92.2762
11.2431	-57.0227		93.0549
7.99585	-58.3521		93.7686
5.17795	-58.5434		94.2471
2.48087	-58.6535		94.4288
15.3126	-49.8018		87.3349
12.3661	-49.1777		89.1436
15.1709	-49.7235		86.8013
28.6366	-52.0975		80.5169
27.5487	-52.3511		80.5464
25.75	-52.3276		81.0882
24.2386	-52.4898		82.2266
9.12175	-51.0947		88.5722
9.13982	-50.375		89.6395
12.0757	-51.3872		87.4847
9.20814	-52.3371		87.5638
9.24649	-50.1022		90.5642
12.2129	-50.4601		89.2507
11.7134	-60.6505		91.5974
15.2554	-60.3204		90.1865
17.2908	-55.4808		89.7595
14.4084	-55.8161		91.6207
18.3385	-59.8117		88.5072
21.0844	-58.8252		86.5602
14.8798	-49.3919		86.4651
12.1678	-48.7005		87.6867
14.3404	-48.1767		85.7926
17.6544	-49.9503		84.8489
9.36593	-48.3324		88.6898
7.02585	-48.0763		89.1241
9.71996	-47.1983		87.3546
9.27599	-48.7373		89.6194
13.8323	-45.4325		84.6884
11.6786	-44.9805		85.429
13.7503	-41.7939		83.6463
16.1506	-45.9161		83.6974
26.2443	-57.5138		78.6077
26.0828	-60.863		78.3959
24.1978	-57.3703		79.9776
4.19343	-54.7319		87.481
6.34732	-54.8014		87.1787
4.54551	-58.4888		86.8612
2.36671	-54.7262		87.6237
9.60347	-44.6596		85.9662
7.40782	-44.4061		86.3709
9.2865	-41.1023		84.9078
9.11536	-54.9698		86.5536
9.39089	-58.8186		85.8196
12.1554	-55.2931		85.5939
30.194	-52.766		74.608
30.7801	-52.6698		73.8165
14.2204	16.4838		75.8803
13.5557	14.9813		77.4356
82.5775	-6.95631		-43.4511
82.0236	-11.3137		-42.7417
80.6044	-6.43075		-46.7802
83.0617	-2.39674		-43.4133
84.1574	-7.40501		-41.7278
82.4994	11.7951		-5.98892
82.7208	14.6013		-10.2397
81.4812	13.9267		-1.04482
82.6381	16.6274		-15.4679
82.132	22.0039		-16.7213
83.2409	11.6995		-16.5947
83.0865	16.1507		-22.5438
77.8139	-31.0101		-34.5429
80.2681	-28.6989		-32.8602
77.0705	-35.1532		-32.0502
78.7746	-27.1495		-36.2917
79.5516	-23.5267		-38.2935
76.8876	-25.5822		-41.1719
80.4673	-19.5964		-40.0499
81.8695	-22.2898		-36.4026
85.6829	-7.33903		-40.8291
87.1885	-6.83834		-40.4698
85.2607	-11.4614		-39.9538
85.8968	-2.37402		-40.978
88.5228	-25.3996		-31.0969
89.4098	-21.4071		-33.1197
89.31	-25.8301		-29.86
87.5858	-29.3437		-28.6451
92.6408	-15.6469		-31.0528
92.6364	-15.0721		-30.2782
83.2198	-37.7287		-20.6651
83.7316	-37.9668		-19.9372
82.9352	-38.3909		-18.6263
82.2096	-36.9142		-22.6903
84.5051	-30.2939		-7.84592
84.2258	-30.9112		-7.81495
83.8461	-31.9158		-8.05532
92.5818	-14.6931		-29.8668
92.1364	-15.2739		-28.9197
94.7938	-0.245291		-33.6095
94.804	0.398298		-35.1393
94.7575	-1.5527		-31.9447
94.7898	9.91633		-31.1143
95.0133	11.2609		-31.2219
95.095	13.3497		-30.1887
94.5758	13.1677		-27.9546
95.2529	13.8041		-30.5883
94.7467	15.4269		-27.0838
86.3332	-7.57527		-7.90832
87.294	-2.14163		-8.45152
85.8121	-6.81607		-6.55168
85.6503	-11.5965		-7.36829
82.4234	-23.4335		-1.05161
81.6425	-23.8358		1.73861
82.1309	-27.1663		-1.63532
82.6559	-19.1416		-0.45649
85.5838	-18.6754		-10.0907
85.9925	-20.6786		-10.6294
85.4586	-16.7526		-10.1918
83.2581	11.2033		-16.6329
83.5119	12.4054		-20.1285
83.2952	11.202		-16.4029
91.0639	18.6961		-17.056
91.901	20.3351		-20.1791
90.1971	19.0884		-18.2394
89.8134	15.6681		-14.0974
91.8611	18.0111		-16.0562
91.3274	20.9313		-25.274
90.6259	20.7339		-22.2526
91.6263	21.084		-24.7573
91.7725	19.6301		-28.9741
90.5474	19.8871		-26.6729
92.2799	5.51594		-39.6633
91.5098	5.05096		-39.8436
92.5022	11.4832		-36.7929
93.349	5.7725		-39.1206
87.9894	2.44482		-9.01583
88.3258	1.19471		-9.70123
95.2032	4.99734		-36.5861
95.5529	10.1127		-34.327
94.9719	2.21341		-36.7872
95.2462	4.88987		-36.9449
94.2698	16.3516		-23.0945
93.4251	15.8457		-19.0782
94.0858	14.988		-23.8266
94.345	17.3356		-22.4758
89.3679	3.20145		-11.856
88.9086	1.44654		-11.2805
89.8088	5.50864		-12.5746
94.8011	5.71069		-33.8756
94.9122	3.66184		-35.7493
92.34	8.43422		-22.2352
91.9213	7.08958		-21.4472
93.5772	7.90994		-26.4156
87.7834	-3.52994		-13.1556
87.9055	-3.26037		-13.8708
88.2371	-1.92584		-12.025
92.0836	-2.83012		-27.2416
93.9059	-0.230086		-29.1451
91.8282	-2.37811		-26.6163
92.0058	-3.91992		-27.4054
82.8795	-15.2107		-0.408675
83.275	-10.6747		-1.19334
82.1326	-15.3993		2.18711
86.0067	2.8393		-39.4849
84.8261	2.2419		-40.6386
85.7985	7.47848		-37.3382
86.9327	5.33963		-38.5387
89.1585	10.2938		-35.84
88.8829	14.0735		-32.6048
91.3755	14.9335		-33.9167
89.3338	6.21937		-38.7607
90.517	4.09628		-39.8217
89.505	-1.40022		-40.6432
89.2614	-6.36852		-40.2955
83.6652	-21.6451		-35.5138
82.8802	-24.7328		-33.7458
84.3146	-18.457		-37.1554
84.8181	-15.1081		-38.7013
83.1045	-15.3477		-39.7433
91.6148	-15.1978		-27.9099
82.0635	-27.6208		-32.0879
81.2033	-31.205		-29.8224
83.3043	-27.3302		-31.6121
81.6755	-34.9634		-25.2695
81.2183	-34.9661		-25.642
81.3618	-38.3024		-20.7284
82.8658	-38.03		-15.7507
82.3748	-38.2955		-15.5681
81.8724	-38.4891		-15.2996
92.2252	-4.66661		-27.8865
94.0087	-3.32115		-30.0664
85.2076	-6.1928		-5.43465
84.4892	-5.76661		-4.18769
83.8469	-19.6377		-4.07637
84.1511	-19.8144		-4.75767
86.7103	-24.1499		-10.4127
87.6709	-26.1501		-12.0528
86.8034	-23.0861		-11.2192
85.2557	-14.567		-6.91418
85.6292	-14.766		-9.13869
88.5912	15.9106		-29.3866
86.3157	12.2195		-32.2152
87.69	16.5642		-26.0231
85.4361	10.6482		-34.0247
84.9689	10.3376		-35.1457
84.8286	12.82		-29.7646
85.1729	-14.777		-12.056
85.4291	-14.7546		-11.1628
94.1567	6.92132		-28.7864
94.0362	5.42394		-28.4457
88.259	-2.57952		-15.3226
87.7117	-4.87734		-16.4185
89.1181	-1.39058		-18.0005
91.7765	-1.53831		-26.1063
93.3254	2.02884		-27.282
91.249	-1.46723		-24.7178
7.09222	85.3343		64.927
6.94785	77.9612		70.6954
14.9892	84.58		64.6509
7.41803	92.7952		57.6267
-1.03704	85.4416		64.93
6.61877	70.6471		75.5087
-1.25927	70.36		75.6997
6.69002	62.8209		79.9124
14.2167	70.5339		74.8717
30.2831	56.385		78.794
30.6481	51.9187		81.5215
25.7198	56.8423		80.3381
4.09613	-23.5642		100.534
4.46937	-22.5612		102.284
2.5111	-23.5924		100.881
5.99515	-23.4692		99.2732
5.09219	-14.1887		106.923
7.49497	-14.2025		105.815
4.97823	-12.155		106.372
2.71045	-14.149		107.298
5.1987	-15.9879		106.96
5.2022	-17.7797		106.522
2.83201	-17.8096		106.953
5.13178	-19.467		105.609
4.09257	-26.9373		94.8001
2.25732	-27.0916		95.0183
4.64832	-34.0936		93.7579
6.70376	-33.6309		93.4298
2.45885	-34.4188		93.9157
4.90153	-21.0591		104.185
6.9358	-21.0522		102.84
2.75853	-21.0755		104.659
4.7164	-10.0659		105.396
7.07964	-10.3058		104.469
4.47152	-7.46952		103.674
2.39032	-9.93279		105.657
6.86261	46.1993		86.7153
-0.0780409	46.6196		87.3001
6.57803	42.9463		87.1759
13.4379	46.3817		86.1115
6.78424	50.1221		85.6652
3.62284	18.699		85.1826
3.60283	16.3554		86.3735
3.69421	20.7423		84.3685
1.9093	18.9423		85.3089
3.82182	22.6647		83.848
5.81324	21.8021		83.3121
3.89852	24.5962		83.6332
1.93264	22.896		84.0188
4.70808	-47.9191		89.3408
2.39435	-47.9486		89.5599
4.94253	-46.716		88.0927
4.47127	-48.6161		90.7532
4.48081	-48.7704		91.7786
2.4336	-48.8373		91.8979
6.63631	-48.7317		91.3428
4.59378	-48.6157		92.551
5.5977	-46.5232		94.8117
5.40519	-47.4333		94.175
2.51186	-46.7262		95.1067
4.99559	-48.0751		93.5186
2.48094	-48.2222		93.6542
5.62818	-42.0919		95.5622
2.52847	-42.6717		95.8334
4.91585	-44.2361		86.6467
4.63251	-40.7582		85.4159
2.27141	-44.1723		86.7929
21.5266	83.6109		63.916
21.1157	77.0047		69.2253
27.5742	82.2052		62.7668
22.1371	90.4663		56.9947
20.3189	47.3863		85.5149
20.5238	44.6002		86.1467
25.9237	47.9826		85.0038
19.2382	51.0985		84.3174
22.0979	41.484		86.3423
23.9323	38.2677		86.0248
27.1484	42.2435		85.8203
25.6976	35.9815		85.1731
21.3089	35.3084		85.6412
29.4637	36.8008		84.7991
28.1673	27.2932		74.4933
27.6818	28.3281		75.9781
24.7252	26.0685		73.6108
31.6646	28.1013		75.2534
29.6637	26.111		73.0731
26.9178	29.5839		77.9492
30.4195	30.1486		78.0925
23.6249	28.5436		77.2966
46.4441	87.1141		41.0209
47.4484	92.46		30.8105
40.5991	90.5516		43.5644
45.9836	81.4504		48.492
33.1133	80.7231		60.9078
33.9236	86.7405		54.49
38.9921	78.7324		58.19
30.9252	48.0407		83.7505
31.6334	46.2817		84.2041
36.2257	47.6386		80.9828
33.0488	37.513		83.8856
33.0711	39.1568		84.2652
32.3264	43.0289		84.4317
34.0893	30.4385		77.9529
34.7806	29.3221		76.5684
38.5264	30.2813		77.2082
45.265	76.2525		54.2975
51.5571	73.581		49.1981
44.498	71.0567		59.1835
42.2665	46.491		76.2697
47.823	44.8804		72.2758
41.9834	27.6908		74.3355
42.0605	28.6693		75.2038
38.8035	28.2503		75.2525
44.5419	26.7554		72.8812
43.0356	33.2019		77.6306
42.6359	31.529		77.0158
46.4519	32.7608		75.9395
42.3048	29.9422		76.1385
43.6383	65.5637		63.5528
50.0748	63.1221		58.591
57.3274	71.4175		42.508
56.7915	66.0647		47.7528
62.3638	69.4205		34.528
45.1895	24.1566		70.0698
46.7451	22.8564		68.2142
46.8555	25.4797		70.9144
48.5006	24.0197		68.7933
45.8617	24.7441		70.4912
49.9337	31.4119		73.3292
53.9005	28.7356		68.7727
19.3674	30.2146		80.9745
16.8934	28.2679		79.4816
20.0044	28.8112		78.8825
18.5096	31.386		82.6016
17.3447	32.7692		84.1439
14.7749	30.6499		82.8299
20.7621	26.8133		76.0131
21.387	25.4004		73.8938
6.73971	38.8768		87.0113
1.11428	39.8467		86.9875
71.8937	-62.0833		-9.70795
73.7098	-56.8898		-7.71517
71.5849	-62.5062		-16.1164
80.9259	24.5429		-37.1194
80.633	20.621		-42.8305
79.5377	30.0467		-41.8408
81.4271	26.9175		-28.9396
82.4142	18.9953		-31.9873
77.9728	-6.23479		-52.5918
77.2316	-12.1648		-51.1389
75.5354	-6.47894		-58.1422
78.7672	-0.451823		-52.5834
79.2253	5.70292		-52.1712
76.9838	7.3545		-58.5858
79.7222	11.195		-50.29
81.5302	3.75034		-45.9787
73.3395	-29.3007		-45.2843
70.0717	-32.7359		-49.1586
74.7306	-23.605		-47.6026
6.72024	56.1726		83.2096
-0.684811	55.2639		83.855
13.4929	56.2243		82.6282
19.4311	56.508		81.7464
20.1674	63.1238		78.1303
23.6159	-100.656		57.5683
21.4431	-103.546		49.53
30.9225	-97.866		51.45
16.9362	-102.708		61.4382
54.003	-82.1941		42.6813
47.8577	-86.2099		48.9061
58.944	-78.4794		36.7673
55.1987	-79.5149		46.7836
56.2579	60.4118		52.2912
61.7766	57.5908		44.957
20.605	70.3508		73.7652
67.1788	67.3241		24.8864
71.0936	65.4186		14.8378
67.2353	60.9635		30.7269
22.5033	98.2433		47.1903
28.8269	96.0554		46.623
22.6854	105.6		35.2951
15.5332	99.7793		47.6365
66.0627	41.1898		44.9364
66.4925	47.8058		40.7506
49.373	22.388		66.5646
59.4899	28.4515		61.6747
60.5462	23.9382		57.5383
57.9272	27.141		63.1872
56.444	25.9993		64.2685
2.24172	-117.084		41.7531
-0.692373	-117.103		42.1098
65.8794	-68.8501		37.4182
67.147	-64.9237		40.1702
61.4249	-71.9907		44.9169
64.3979	-72.5163		33.6396
9.36695	-38.3765		94.1724
11.1789	-38.7231		93.7528
8.72762	-35.9472		93.61
25.2617	-44.6392		85.4864
24.5228	-40.9245		86.1641
22.4518	-42.8624		87.8406
12.0269	-34.8582		92.0349
9.69568	-34.0408		92.7318
12.8253	-37.0536		92.5005
14.4517	-35.4827		91
11.1029	-32.5841		91.5703
33.6279	-47.984		80.5913
33.0437	-51.3527		79.9842
36.3163	-48.9427		79.3698
33.8599	-44.2108		81.0778
65.2218	19.3171		49.3224
63.0738	19.0449		52.2057
65.5615	13.0169		48.7698
67.1089	19.8647		46.2339
69.0819	20.4335		42.4847
71.3647	20.2122		37.1855
53.1663	19.0478		61.7927
52.979	16.9388		61.0572
61.0849	18.6661		54.5693
83.6829	10.9883		-37.1518
83.5803	7.23305		-40.3737
82.0957	12.9138		-41.1804
83.8152	13.5451		-33.167
81.1847	-15.6394		-41.6911
78.9893	-16.2468		-44.8384
75.5465	-49.2888		-17.8871
77.4981	-44.9661		-15.4604
75.4801	-51.2189		-11.7266
73.3623	-54.9072		-20.5236
75.6489	-46.0147		-23.6675
83.3782	2.58087		-42.4092
80.8829	-24.6508		4.98014
80.5161	-28.8194		4.30264
81.1589	-20.2801		5.41274
80.0601	-25.4149		9.48319
75.2785	2.4215		30.4542
75.0263	10.6247		29.174
75.4563	-5.37876		31.672
77.7635	0.9561		21.5873
55.4992	12.7924		58.8634
53.8017	14.0776		60.1288
53.6027	10.5093		61.0078
52.2605	15.2568		61.3124
50.7496	13.9474		62.5769
79.0557	-25.6267		16.0216
77.8874	-25.54		23.0592
78.8352	-30.4729		15.2362
79.2747	-20.4466		16.145
24.7629	-7.69639		80.6642
28.9393	-9.06842		79.1624
23.7709	-2.95142		79.369
21.6183	-5.62593		82.2404
35.5981	-10.2725		77.6088
42.8241	-11.0705		75.7418
36.8406	-14.9265		78.333
18.5986	-3.61971		84.2738
15.8931	-1.59026		86.5539
18.8859	-7.28177		85.9635
21.6845	-14.326		84.7825
20.4016	-12.1892		85.971
17.8074	-17.4262		92.4981
16.5545	-17.0847		94.4903
17.4332	-19.1318		91.9812
18.52	-17.8579		91.0239
19.0412	-18.2644		89.5732
18.4764	-20.2843		89.0597
40.2447	-30.2708		78.5894
34.6625	-29.9005		80.2753
40.8118	-35.6833		78.409
39.3738	-25.2142		78.7589
37.919	-19.8444		78.7044
7.22107	-29.6383		92.7681
7.65312	-31.5924		92.8063
8.56026	-29.9118		92.1185
64.2243	-47.305		57.5071
64.7789	-41.0843		58.2591
59.1415	-45.6173		64.4541
63.1222	-53.3371		57.067
28.5478	-38.6708		83.4749
26.0539	-37.9416		84.7261
30.9559	-39.2078		82.445
41.0471	-41.0584		78.0332
40.7976	-46.1798		77.7565
46.8222	-42.2633		74.9644
36.4813	-40.2709		80.1163
8.15479	-33.6363		93.1252
61.4001	-59.22		56.8827
65.0856	-60.4833		49.5347
56.6559	-56.8041		64.1088
58.2343	-64.4302		58.4324
64.0267	-23.6712		61.0558
64.5385	-29.2887		60.2716
68.3837	-24.5105		53.7402
30.8002	-89.937		73.0151
31.1919	-86.7587		75.019
25.2684	-92.7147		77.0796
43.7316	-76.6308		67.8484
49.0973	-73.1131		64.4086
41.9087	-72.648		71.4928
37.4256	-79.7856		72.2783
58.6511	-2.87294		62.6938
56.4103	1.35125		62.8558
53.0514	-2.9366		67.7521
48.3008	12.4133		64.7235
49.3973	10.5142		64.393
54.4118	4.35808		63.0496
49.5234	3.55147		67.1099
52.2851	6.70023		63.6739
46.2839	15.6729		65.7163
4.7834	-89.572		92.0529
1.62424	-89.5868		92.4627
51.2803	-54.5205		69.9127
49.4231	-58.7414		70.3793
52.3216	-49.6462		70.06
45.3717	-52.2032		74.5385
39.6583	-68.8083		74.379
43.4858	-65.7532		72.7272
36.4687	-64.9513		77.0992
34.8958	-71.4869		76.907
46.4387	-2.81137		71.4068
48.2785	-6.96193		72.1904
44.574	0.807522		70.7485
53.1728	-43.828		70.3678
49.984	-11.4023		72.5161
12.2631	-79.5161		90.4848
12.5575	-74.2992		89.7928
16.3734	-78.6881		88.437
20.8245	-77.6447		85.8622
25.2797	-75.9095		82.9525
20.4058	-72.7191		86.0157
43.1072	3.43108		70.2061
41.7585	5.49188		69.9637
35.9805	3.60539		72.2857
50.7765	8.61346		63.9754
46.6352	7.44723		67.1802
40.6475	7.20049		69.8072
33.8101	7.23964		71.5601
13.3776	0.0650621		88.9032
13.711	-3.7934		91.3996
13.1111	4.1778		86.1153
14.6382	-11.7394		96.6285
14.4465	-10.1004		95.5713
12.2691	-11.1308		99.8292
14.8972	-12.8925		96.9478
13.2767	13.2375		78.867
13.1113	10.9851		80.7254
23.0572	0.999608		77.6349
3.72936	13.3048		88.2032
1.99778	13.5627		88.3165
65.0145	7.00953		50.8415
13.0873	7.90846		83.1826
68.4257	-60.4243		41.9239
71.6144	-58.5137		33.1917
70.3943	-12.4564		47.7098
71.2308	-19.1864		46.8285
73.2443	-12.3336		40.0791
72.1568	-36.7934		44.1144
72.0698	-30.9318		45.0562
69.0348	-36.107		51.7337
74.4232	-37.0201		36.7379
71.7721	-25.055		45.8886
74.3039	-25.508		38.2599
20.7102	-94.7512		80.3051
12.6726	-69.8783		89.4075
9.07422	-70.1242		90.3958
16.4559	-69.3914		87.9415
19.9937	-68.7521		86.235
27.847	15.3453		70.0572
29.5904	4.41336		73.3029
28.896	6.49588		72.5977
28.3324	8.08618		72.073
5.78933	-70.2693		91.011
2.72264	-70.1965		91.3206
7.77833	25.7025		82.4867
9.3907	24.8869		81.4103
8.49138	27.8329		82.9347
5.98352	26.1834		83.2487
7.58218	23.267		82.2306
20.0567	17.8899		69.2577
19.8702	18.9636		69.4333
18.1745	17.8481		70.9383
10.771	23.8146		80.0314
11.7269	26.0433		80.4487
3.98726	26.7263		83.7218
1.71903	26.8921		83.8677
7.60076	-23.2291		97.9464
8.20908	-22.2662		99.328
9.92826	-14.09		103.83
9.88771	-12.4263		103.378
12.5378	-13.9648		100.728
17.5466	-24.3902		86.6867
17.2059	-23.3757		87.7843
15.0689	-25.9376		87.8944
9.57119	-10.6687		102.709
8.09476	20.2552		82.0117
9.55247	30.2168		83.8107
11.4057	29.3419		82.7788
20.2824	20.3273		69.7744
12.9967	28.384		81.4437
14.2184	27.2674		79.834
15.1461	26.1095		78.2496
20.1082	-30.4691		85.434
17.2336	-30.8942		87.1701
21.6573	-33.5325		85.8122
23.3288	-37.2473		86.0675
20.1455	-36.4932		87.8978
24.6644	-51.1736		80.6278
24.5245	-50.1065		80.0673
22.8612	-51.0489		81.8036
25.4019	-49.75		83.4349
23.8167	-48.5879		85.4073
24.5281	-47.1784		78.8843
21.4372	-46.8367		80.8613
24.3601	-43.5655		77.9065
14.8517	-31.1804		88.7291
12.5243	-31.0224		90.1139
15.9271	-33.4364		89.1465
17.2922	-36.021		89.4876
18.3282	-38.5897		89.8681
20.6156	-50.6619		83.155
19.3615	-49.2531		83.1673
18.6753	-46.3895		82.4139
18.7423	-42.6534		81.2824
10.4298	-30.4791		91.2592
9.95019	-28.5923		91.0918
13.8674	-39.4681		92.7801
16.5235	-40.2		91.5486
18.6852	-9.95428		87.6823
16.4123	-8.59751		90.6902
4.30006	-4.06285		101.044
2.1938	-3.83733		101.188
14.0036	-7.28965		93.8238
8.94962	-20.7127		101.136
11.0646	-20.4965		98.6137
13.3321	-20.3557		95.9805
14.1521	-18.6282		96.7403
15.4395	-20.4909		93.2909
16.6547	-20.8643		91.4143
17.1192	-21.5492		90.0108
17.2066	-22.4267		88.7829
14.9066	-14.0166		97.3223
14.8061	-15.368		97.5015
14.5872	-16.9684		97.2986
41.5331	-142.618		13.224
36.7334	-144.284		16.6185
42.5715	-148.321		12.5261
45.8592	-140.823		9.79222
40.1911	-134.816		14.1652
38.8974	-123.92		15.1777
43.2948	-121.976		11.2842
38.51	-114.207		16.0784
34.1798	-125.783		19.1695
42.4197	-97.3177		22.283
46.7783	-94.4547		17.513
37.5927	-100.265		27.0779
40.9511	-102.11		18.212
39.4135	-107.35		16.7944
34.6096	-109.846		21.45
43.6729	-104.894		12.6809
47.1174	-62.5248		71.0616
51.0682	-65.6904		66.4433
42.212	-59.3409		75.0988
54.4789	-69.0149		60.5693
55.7793	-72.6805		55.5842
55.9922	-76.2248		50.9209
38.207	-56.7057		77.4777
39.3543	-53.7797		77.4277
34.5594	-54.7614		79.004
35.9844	-59.2426		78.0524
32.3642	-53.7155		79.6848
31.2749	-55.344		79.816
50.6181	-91.7093		13.2348
53.0965	-87.3408		16.8697
48.9798	-96.6764		10.2394
54.2965	-89.3538		8.35148
56.3439	-83.1535		21.3041
59.052	-80.9966		14.8327
59.6701	-79.264		25.5233
62.3882	-75.7898		29.8866
64.6459	-73.803		22.3436
47.4075	-119.898		7.36904
48.491	-131.068		6.85999
51.3085	-118.207		3.37768
47.0852	-109.886		7.84908
49.7359	-139.091		6.25951
50.9674	-145.056		5.57882
53.3403	-137.381		2.45701
47.683	-102.441		8.68665
76.3077	-25.5771		30.5634
76.3094	-31.2094		29.9449
76.183	-19.5116		31.1032
66.2027	-72.0952		15.5489
63.7809	-75.4595		12.1378
67.2718	-70.6228		8.64281
74.4803	19.3322		28.7297
77.6573	17.0492		17.9399
73.4876	-56.8432		25.0473
74.5405	-55.1848		17.1307
76.1387	-36.7293		29.385
77.4603	-36.0845		21.9669
75.7733	-12.4377		31.8729
77.8725	-13.5565		23.5958
78.4424	-35.3457		14.5381
79.2957	-34.1454		7.86325
62.6398	-85.6622		-6.69928
61.9371	-90.6858		-8.00458
64.5198	-85.1433		-11.2938
63.5686	-81.1821		-5.02991
60.344	-86.4179		-1.98036
61.4107	-96.3118		-8.75033
64.873	-76.9747		-2.6542
63.1827	-77.9175		2.74924
66.323	-76.267		-8.13412
66.3847	-73.1101		-0.370348
79.6937	-0.203015		12.8246
79.8549	7.55429		10.1963
79.4851	-8.02265		15.1816
79.9777	15.7055		7.16039
80.0137	23.392		4.53618
79.9708	31.1716		1.26473
81.1745	30.1159		-9.53552
79.8731	38.8752		-2.50422
75.1327	-53.5795		9.04515
75.3968	-52.5124		1.13612
79.3564	-14.5723		16.2209
80.5211	-15.4432		9.8166
55.1118	-116.493		-0.922844
55.823	-127.635		-1.2717
61.3501	-79.2676		8.79995
59.1631	-83.2919		5.62599
56.7433	-135.568		-1.76909
57.7847	-141.378		-2.58034
64.458	-111.453		-17.91
64.6577	-120.922		-18.9086
65.9726	-84.5299		-15.8549
66.9202	-82.7594		-20.6536
66.7388	-79.8675		-14.8237
67.7502	-75.2601		-13.4545
64.933	-127.975		-20.1277
65.1691	-133.562		-21.8322
75.3767	-52.2196		-5.98633
80.0427	-32.8729		3.36821
80.8832	-31.1682		0.147088
79.5566	-36.5886		1.76966
81.3436	-15.6489		5.59794
65.5287	-90.5572		-28.378
64.1095	-86.3915		-34.9413
66.3144	-84.2182		-27.2829
67.4125	-78.2369		-26.2773
66.7775	-71.9007		-32.0612
71.3587	-61.2209		-22.4819
78.7539	-42.3986		-14.1315
79.5531	-39.8788		-20.6188
60.166	-117.198		-45.4452
60.139	-124.862		-46.6613
56.7281	-114.564		-52.2844
60.2924	-109.006		-44.1399
76.215	-41.1053		-28.3031
78.623	-37.3989		-26.594
80.2823	-35.6788		-25.8736
31.7209	-145.729		19.7953
30.4345	-138.139		21.268
26.6585	-147.047		22.6711
32.9164	-151.15		18.5773
28.9338	-112.145		26.6274
22.7465	-114.231		31.647
28.1807	-118.21		25.259
30.2109	-107.828		28.3719
37.3744	-95.009		45.6199
34.3454	-98.7279		38.9529
39.8567	-92.051		51.0179
31.8158	-103.125		32.6702
25.5448	-105.606		37.8576
28.935	-127.328		23.3116
23.5424	-129.155		27.21
33.7435	-61.7405		78.77
31.3818	-58.8893		79.8198
41.5353	-89.5737		55.2768
29.9079	-57.0963		80.3071
27.7077	-58.7306		81.4906
28.6389	-55.6415		80.6485
27.6428	-54.4053		80.8606
25.9885	-55.7211		82.0205
30.1105	-73.9639		79.7738
30.9548	-78.3758		78.4046
31.4394	-82.9619		76.6428
21.6792	-52.5894		84.527
18.9916	-52.4355		86.8834
21.3411	-52.0267		83.4452
24.1056	-52.2582		81.7177
21.3636	-52.2405		83.0766
18.3049	-51.5586		85.3558
21.3434	-52.6902		82.7535
21.381	-54.0195		82.1844
18.2301	-52.2323		84.4201
21.3205	-56.9927		81.5798
21.0751	-60.513		81.3156
18.1969	-56.3039		83.1052
16.8687	-115.497		35.7589
17.7765	-111.626		37.8465
16.8023	-121.398		33.6691
21.5144	-148.362		25.2558
20.1358	-141.057		27.3913
16.4325	-149.359		27.455
22.756	-153.39		23.6639
18.2891	-130.648		30.6403
8.72118	-109.133		47.2143
13.0357	-108.736		45.2752
10.2737	-106.177		55.3495
11.9739	-150.058		29.0569
13.1808	-154.87		27.3193
11.9801	-103.852		63.998
15.1596	-50.9996		87.4635
15.0415	-51.2518		86.775
14.9579	-51.7845		86.1605
15.214	-52.9983		85.2679
15.1727	-55.7521		84.44
15.1507	-59.5794		83.8885
75.1254	49.1377		15.2522
77.8658	47.5487		4.16522
74.9456	56.4754		9.90817
71.4873	51.4012		25.9944
81.4714	28.8042		-19.5366
75.9254	-18.0149		-49.8101
72.9866	-19.9708		-54.6494
53.8531	-93.3041		-55.1619
54.6456	-83.1229		-54.1465
57.0434	-96.3279		-49.8718
53.5714	-103.49		-56.2008
50.5301	-91.0972		-59.8849
53.5625	-112.38		-57.3686
53.8139	-120.83		-58.4192
50.2024	-110.753		-61.9183
61.6451	-80.9217		-42.0121
60.8039	-90.5145		-42.5486
58.7292	-76.5706		-48.1903
63.1838	-72.4211		-40.6095
22.4783	112.117		21.3537
29.3638	109.374		21.2386
22.331	116.832		6.04818
15.2786	114.021		21.5107
21.8005	101.479		-78.6508
22.4375	110.175		-62.9684
28.8831	99.5398		-76.7657
21.0514	90.6465		-91.6151
14.3815	102.821		-80.0639
20.6284	78.7993		-100.971
27.4624	77.227		-98.9972
20.3919	65.7101		-107.993
13.6975	79.5062		-102.547
22.5649	116.071		-46.0482
29.7478	113.661		-44.4108
15.0806	117.811		-47.1215
22.5296	119.101		-28.333
7.34598	122.459		-11.5446
-0.589875	122.814		-11.6997
7.35181	120.055		5.67998
15.0189	121.289		-11.2143
7.33515	122.103		-29.5832
20.1777	52.8176		-112.764
26.5593	51.5355		-110.759
19.9255	39.4599		-115.901
13.7132	53.5214		-114.19
19.4941	25.5181		-117.577
25.7797	24.6138		-115.431
19.0716	11.7731		-117.642
13.2298	26.3985		-119.053
17.2934	-26.3746		-106.598
23.1062	-27.0712		-104.494
17.1243	-37.9507		-99.3921
11.7513	-26.308		-107.713
17.9822	-13.9248		-112.427
6.27753	-0.220467		-118.654
-0.0494422	-0.188369		-118.956
6.41267	12.7985		-120.159
12.4609	-0.59761		-117.668
6.05814	-12.9258		-115.036
15.5793	-84.4271		-82.2866
15.8847	-74.9574		-83.2777
20.9622	-85.1285		-81.0355
15.3763	-93.8214		-81.8661
10.4112	-84.0516		-82.9799
5.27126	-102.444		-82.3412
10.2947	-102.83		-82.0989
5.4307	-112.005		-82.0511
0.436303	-102.277		-82.3846
5.33864	-92.8452		-82.7427
17.3948	-47.0913		-93.4944
22.7383	-47.6158		-92
17.1028	-55.2764		-89.0724
11.6448	-46.6759		-94.4457
16.39	-64.6997		-85.5416
22.1098	-65.7397		-83.9012
11.0273	-63.9578		-86.4618
5.6566	-63.7188		-86.8534
5.85897	-54.4651		-90.4291
5.42242	-74.1735		-84.4624
0.261566	-63.9516		-86.8533
48.0475	97.5368		18.5655
53.9126	92.1665		17.3662
48.7386	101.323		4.83127
42.0855	102.054		19.8534
46.4904	70.4491		-89.0572
51.998	67.429		-84.8451
46.1897	58.5672		-95.7091
40.6231	73.0108		-92.8539
46.8423	81.251		-80.0334
47.1632	90.6894		-68.1766
41.4551	94.2037		-71.4208
47.8077	97.7063		-54.1945
52.7447	86.3914		-64.5955
48.5335	101.989		-39.5819
54.3564	96.4416		-37.7843
42.6688	106.572		-41.2171
49.3803	103.532		-24.8101
49.2113	103.465		-9.88273
43.0615	108.43		-9.81891
55.1105	97.7487		-9.91568
45.6143	46.5277		-100.496
45.0093	34.0315		-103.635
39.7037	48.3424		-104.38
51.0874	44.3995		-96.2353
44.1266	21.377		-105.358
49.5147	20.0228		-101.079
43.2526	8.57173		-105.383
38.4493	22.4236		-109.129
42.0831	-3.81383		-103.879
40.9354	-16.5424		-100.353
36.7899	-3.54645		-107.445
46.9753	-4.47949		-99.7703
40.3439	-28.9554		-94.5973
45.1723	-28.615		-90.8678
39.9897	-39.7369		-88.38
34.9257	-28.421		-98.4046
39.5956	-49.1125		-82.8903
39.0586	-58.4818		-78.1671
34.2393	-48.9919		-86.4763
44.3708	-49.2238		-78.7473
37.0497	-86.7309		-73.3788
36.0965	-96.6132		-74.1721
31.8157	-86.3814		-76.6394
37.9955	-77.1954		-73.3556
41.8393	-87.618		-69.5201
25.5024	-104.186		-79.3856
25.6735	-112.962		-79.4801
20.3339	-103.556		-80.7357
25.8071	-95.1795		-79.2567
30.7597	-105.022		-77.3899
38.5453	-67.9318		-74.9075
43.4474	-68.1897		-70.541
33.4492	-67.3701		-78.5108
67.0646	70.3814		-51.2224
68.235	74.3186		-39.7929
71.2405	63.7734		-45.4087
66.2266	64.2562		-61.6117
62.6252	76.204		-56.4407
69.1179	76.5579		-28.4352
73.1308	68.9263		-23.2504
64.6408	83.721		-32.586
69.6459	77.5267		-17.1845
68.9496	78.2662		-6.29385
72.0416	71.0231		-1.45174
65.0589	85.0587		-8.64327
55.9276	42.2412		-91.7535
56.544	53.375		-86.9113
60.3499	39.6833		-86.9721
55.2857	30.4815		-94.8904
56.8392	64.2585		-80.3956
57.2317	73.7303		-71.8247
61.4122	60.4681		-75.5011
51.8351	-5.08449		-94.9158
53.4439	6.77067		-96.2909
56.518	-5.80691		-89.4894
50.3042	-16.9756		-91.8258
54.4421	18.4804		-96.428
59.0182	17.1999		-91.4031
49.5083	-28.0595		-86.8493
53.7791	-27.9227		-81.8721
49.2788	-38.9606		-80.2691
48.6452	-48.4927		-74.6127
52.4831	-46.7988		-70.6995
48.3844	-68.7214		-65.0872
52.6731	-71.097		-58.8068
47.4319	-78.7151		-64.2573
77.6876	35.8901		-46.8748
76.8492	29.9495		-54.3355
75.4766	41.172		-52.5149
59.2147	86.2355		16.7783
59.8185	89.947		3.60074
79.2119	46.3379		-6.82274
78.1665	53.8346		-11.965
67.4843	-6.31421		-73.9044
64.211	-6.49041		-78.9764
68.7525	2.99299		-75.293
70.5512	-6.55993		-68.417
65.9026	-16.0108		-71.1689
69.394	12.4043		-75.9331
66.2871	14.0753		-81.3285
70.131	21.3737		-74.4673
72.3797	10.4307		-69.9322
70.8884	30.4799		-71.1356
67.7239	33.8285		-76.7513
71.7957	38.8257		-65.693
73.7442	26.7675		-65.2535
61.1885	-40.7215		-60.2493
58.3747	-43.0438		-63.7054
62.6113	-33.1678		-63.9894
64.0265	-38.4689		-56.5304
59.9643	-48.4212		-56.6664
70.0967	-21.6842		-59.2628
68.4957	-28.8891		-56.1106
67.3011	-23.3636		-63.3697
71.7506	-14.3284		-61.5455
55.9966	-73.6089		-53.3769
57.432	-64.5603		-53.372
81.2439	-35.2171		-5.62767
81.7149	-31.6403		-3.45284
79.8589	-38.1677		-3.49418
81.622	-29.9083		-1.9176
83.6939	-4.5536		-2.82729
84.1749	0.622971		-4.91696
94.3691	5.69011		-38.3773
94.3915	11.4873		-35.9102
95.024	5.31158		-37.6624
86.3469	-33.4103		-25.547
85.4237	-36.1697		-22.2672
93.94	16.1959		-32.3158
92.9546	16.4904		-32.8176
93.2775	19.3573		-28.1273
94.8498	15.5473		-31.753
88.3583	11.5233		-11.5341
87.0299	11.5025		-12.1974
92.5831	20.7072		-23.8055
93.5379	20.0144		-23.0678
90.3721	-17.0502		-35.4128
88.11	-34.049		-18.1104
87.6172	-33.8832		-15.4578
86.519	-36.1571		-18.6865
84.4315	3.1561		-6.61645
89.494	19.0354		-19.345
87.7902	16.0156		-16.6942
88.4241	18.1562		-20.9422
85.6859	11.755		-13.6516
84.774	12.1723		-15.2542
92.2885	16.3217		-33.0457
84.0092	11.8643		-16.7173
85.0975	13.7976		-19.3619
86.4685	15.65		-22.9398
84.4135	13.4982		-24.0464
90.2305	-25.3729		-28.377
90.6232	-26.8813		-20.7725
85.0132	-37.3439		-19.2542
86.9309	-32.9922		-13.2024
87.9604	-30.1147		-13.0955
88.7397	-27.7743		-13.9034
89.1139	-26.2486		-14.7655
95.2346	5.02882		-37.2463
95.5375	10.6186		-34.8652
92.3506	17.4338		-15.6099
92.556	16.808		-15.3316
93.4013	19.0469		-18.6705
92.562	16.2117		-15.2066
93.6655	17.9015		-18.2249
92.4333	15.1482		-15.4001
95.2489	15.013		-31.39
94.711	17.9275		-27.2146
95.3765	14.5237		-31.2584
94.1267	19.3157		-22.5966
94.368	18.7251		-22.4886
94.4003	18.1571		-22.238
94.8899	16.9077		-26.8697
95.3535	14.1612		-30.9529
94.8563	0.749983		-36.2857
92.2092	13.8469		-15.9697
90.011	6.65799		-13.5847
93.9187	13.491		-24.4681
94.5687	-2.3361		-31.1748
94.5623	-0.458907		-30.8481
94.4429	1.40568		-30.2382
94.2148	2.90159		-29.3154
93.8597	4.12282		-28.0499
93.0001	4.97673		-25.4925
87.035	-22.7201		-12.4669
88.2385	-24.3181		-14.1648
88.461	0.0534255		-10.661
85.5799	-14.7858		-10.343
89.1742	-25.5324		-15.2564
35.2279	28.4282		75.4935
34.6282	93.6715		45.3334
35.4275	100.193		33.9942
7.53617	100.864		47.709
7.55682	108.591		35.5443
-0.862542	101.206		47.5774
35.7817	106.124		20.5962
36.1144	110.458		5.92889
7.4455	115.198		21.5403
-0.682754	115.599		21.3557
22.3062	119.319		-10.7583
29.5257	116.474		-10.2915
36.3446	112.894		-10.0762
36.5631	112.917		-26.3562
67.045	54.3392		35.7953
73.9091	63.6442		4.0966
75.7115	62.3941		-6.728
60.2518	91.8024		-9.85607
60.4582	91.6236		-22.7885
7.3068	118.861		-47.6766
7.22041	112.697		-64.9577
-0.570168	119.182		-47.8311
36.2474	110.631		-42.6041
35.9186	105.294		-59.0688
76.0084	61.3064		-17.6002
75.6395	59.8025		-28.5439
59.5291	90.5545		-35.6575
58.6185	87.2983		-48.2913
74.6014	57.1116		-39.3612
73.5976	52.7539		-49.5952
72.6268	46.7123		-58.3845
69.365	51.6404		-64.3542
46.5101	-89.3977		-64.819
45.7859	-99.4472		-65.9828
45.8021	-108.809		-66.8303
45.9048	-117.426		-67.8541
40.7736	-107.017		-71.2928
6.93182	103.702		-80.7067
6.69544	92.2761		-93.951
-0.528475	103.842		-81.0735
6.71139	79.8797		-103.437
6.80511	66.8353		-110.283
-0.446612	79.9493		-103.718
6.88048	53.9039		-115.035
6.80377	40.8284		-118.175
-0.332813	54.0453		-115.28
6.58959	26.9891		-119.945
-0.192313	26.9743		-120.238
18.5867	-1.22371		-116.018
24.7027	-2.11272		-113.712
5.82668	-26.1481		-108.47
5.88529	-38.1687		-100.501
0.115714	-26.2988		-108.584
5.92089	-46.825		-94.6743
0.204162	-47.0769		-94.5979
5.38709	-83.6263		-83.3203
0.338821	-83.4655		-83.3912
34.1213	75.3095		-96.2834
34.6338	86.9012		-86.9532
33.7264	62.7471		-103.106
35.2292	97.1066		-74.5106
33.1922	50.0946		-107.889
32.7175	37.0428		-110.983
32.1519	23.6523		-112.585
31.6087	10.0577		-112.525
30.8544	-2.90103		-110.811
29.9742	-15.5124		-107.245
29.0647	-27.7472		-101.783
28.4699	-38.9137		-95.3798
28.5058	-48.3366		-89.64
28.469	-57.2506		-84.9223
27.8269	-66.5576		-81.616
27.1718	-76.2985		-79.7131
26.5342	-85.6994		-79.1395
35.9354	-105.846		-74.683
36.1371	-114.65		-75.1565
57.7203	81.7843		-60.7372
65.559	56.5827		-69.9577
64.9618	46.9626		-76.9182
64.1795	37.1153		-82.0458
63.5001	26.4837		-85.2342
62.8187	15.8084		-86.5248
62.0231	4.77876		-85.9237
60.5244	-6.38666		-84.2141
58.8867	-17.0851		-81.3088
57.4548	-26.972		-77.378
60.9473	-26.2765		-72.421
56.4363	-36.6329		-72.1435
55.5191	-44.9442		-67.289
58.9385	-56.4719		-53.9274
61.2892	-54.8857		-50.6072
75.9675	23.6612		-59.8102
75.3627	16.318		-62.9564
78.1043	19.9843		-53.8289
73.0678	-6.55801		-63.5027
74.1357	1.23586		-64.3495
64.1483	-24.934		-67.9261
74.7573	9.05894		-64.4929
66.8904	-36.0163		-52.8904
65.523	-43.1206		-49.8366
19.0973	-107.44		42.4074
68.3081	-69.3352		1.97401
57.5173	-87.5999		3.25922
15.518	-44.5029		92.362
18.2973	-45.4507		90.5698
21.3979	-47.0482		87.882
10.4296	-53.851		93.16
10.7601	-54.867		93.2393
11.0125	-55.9656		93.2224
24.9804	-60.4568		83.4072
24.2936	-58.8316		83.8236
23.6698	-57.3793		84.2245
19.4421	-41.4183		89.744
40.2927	-50.3382		77.5003
30.7675	-29.5768		81.1751
32.1916	-34.6777		81.4847
33.3253	-39.6275		81.402
64.8882	-34.9775		59.1614
21.7094	24.2903		72.4813
80.0821	16.3876		-47.4562
83.3686	15.3047		-28.3206
84.1686	13.4157		-25.9895
78.7347	-40.9814		-0.119004
27.8216	14.0277		70.4615
53.1073	42.5575		67.9342
9.88363	-27.1464		91.159
47.8955	21.4612		66.2037
12.8297	-25.848		89.5966
84.0958	13.2259		-24.9212
60.3699	-99.9976		-43.3638
65.6582	-64.048		-38.6642
64.456	-57.5092		-43.6637
64.1604	-51.6668		-47.2445
23.4161	-22.1845		82.4974
15.9317	-52.1486		89.1978
25.7232	-52.302		80.8011
9.33361	-48.8462		90.493
-75.6706	-46.8058		12.2358
-76.3021	-42.1051		13.4983
-76.4399	-45.0016		5.28587
-74.8308	-51.2328		10.9155
-74.7484	-48.385		20.3076
-60.2499	-115.979		-6.65742
-60.3787	-105.868		-6.39393
-62.228	-114.584		-11.0933
-60.5187	-126.048		-7.55165
-57.697	-117.189		-2.33683
-60.9493	-133.313		-8.63435
-58.5704	-135.227		-4.02319
-62.6506	-131.447		-13.2816
-61.3425	-139.029		-9.73036
-54.8613	-100.789		3.55604
-58.1768	-99.4897		-1.4583
-54.4943	-108.344		2.71117
-51.3571	-102.538		8.26572
-55.796	-94.8717		4.5717
-63.9993	-97.1106		-14.5636
-62.668	-97.7939		-10.2952
-64.4672	-91.6644		-14.2781
-64.7302	-95.7087		-19.5929
-63.6395	-104.059		-14.9218
-69.418	-65.8847		21.8917
-70.188	-64.8118		14.4139
-67.36	-69.886		19.5551
-68.0019	-67.1042		29.5483
-70.9792	-62.0865		23.9065
-72.9419	32.3548		22.9195
-76.4997	30.628		11.4851
-72.4638	24.9188		25.9086
-68.739	35.4745		33.5053
-73.7534	40.0953		18.5192
-78.9235	42.0016		-28.8677
-80.1834	34.6944		-24.1228
-79.28	43.807		-18.4675
-77.2474	48.9666		-33.9333
-78.3835	38.9448		-38.3492
-10.1277	-116.643		40.9933
-10.5711	-112.667		43.2678
-13.9955	-116.118		39.7683
-9.8345	-122.886		39.2395
-6.9041	-116.865		41.7218
-10.3557	-132.936		35.8734
-10.8624	-143.222		32.0474
-6.80278	-133.178		36.934
-14.297	-132.008		34.4261
-3.38961	-150.894		31.0132
-3.61278	-155.646		29.4168
-3.35111	-143.839		33.495
-7.24857	-150.601		30.537
-69.9487	-53.2155		-32.0388
-70.4728	-45.6466		-36.2052
-67.237	-59.2517		-34.3526
-69.7748	-59.532		-26.8739
-72.5574	-47.1772		-29.7956
-71.1177	-40.2256		-39.2271
-74.2763	-35.638		-36.1237
-71.816	-35.5197		-41.6505
-67.4204	-45.9776		-42.5394
-63.44	-124.394		-29.464
-64.0142	-127.506		-23.0775
-61.8241	-121.561		-36.1993
-63.0719	-130.917		-31.6497
-3.45702	-133.482		37.4489
-3.50419	-123.478		40.6818
-73.3627	-49.8487		28.4387
-72.7526	-54.605		27.3419
-71.5824	-50.3574		35.953
-73.8729	-44.3005		28.9417
-70.8158	-63.4482		6.87498
-72.4345	-59.3762		8.26121
-71.0265	-62.8633		-0.9249
-68.9793	-67.4425		5.17614
-9.30758	-88.6029		90.8366
-9.00127	-84.2044		91.669
-14.2082	-88.206		88.7778
-9.58086	-92.6835		88.9812
-5.04301	-88.9744		92.0327
-19.4149	-87.0011		86.1092
-19.1745	-82.2772		86.9926
-24.9296	-84.9715		82.6844
-19.4563	-91.3229		84.4214
-1.26426	-80.2275		93.1161
-1.38031	-84.9467		93.3047
-0.969352	-75.0549		92.2261
-4.78535	-79.869		92.6227
-9.76706	-96.025		86.3016
-5.61793	-96.2824		87.4423
-14.6415	-95.5931		84.3996
-10.389	-98.7515		82.4273
-11.3665	-100.74		77.5978
-12.01	-102.302		71.7016
-6.54367	-101.395		78.292
-15.4733	4.38701		78.6949
-12.6993	6.1347		80.4788
-15.3178	7.90081		76.2767
-18.3614	3.03628		77.0353
-15.7343	0.716767		80.8646
-47.9888	-24.7312		73.2047
-49.1477	-29.7352		72.657
-41.9311	-23.0169		76.3216
-47.0564	-19.5515		73.2883
-54.228	-25.8227		68.4336
-57.9689	-15.422		62.8414
-59.1787	-20.9409		62.4668
-52.024	-15.0811		68.8239
-56.6216	-9.79204		62.876
-63.5886	-15.3837		55.0255
-68.2114	2.89678		41.2702
-65.6077	4.93215		45.3796
-67.6333	10.6787		40.2718
-70.4381	1.6358		36.4819
-50.0734	-34.5762		71.7363
-43.375	-33.0794		75.9524
-56.4224	-35.9495		66.1298
-50.3666	-39.7112		71.1508
0.392206	4.43439		94.5316
-1.65235	3.93406		93.94
0.249945	0.0698695		97.7749
0.350432	9.20537		91.0351
-33.2877	68.4368		68.2063
-33.9556	74.287		63.8241
-38.5827	66.9063		65.0521
-32.2958	61.8411		73.2515
-28.2424	69.3343		70.6546
-3.58521	-105.145		65.8871
-2.9084	-103.404		72.9416
-7.44258	-104.852		65.2714
-4.01041	-107.042		57.6623
-69.1313	-50.4194		43.35
-69.549	-44.482		44.0029
-68.127	-56.4357		43.0707
-65.8325	-50.0263		50.8073
-1.92892	-96.6338		87.8074
-2.2356	-99.5396		83.6355
-1.59837	-93.3902		90.5914
-2.51309	-101.718		78.6099
-42.8377	-84.3924		64.0813
-42.8727	-80.8833		67.1967
-48.4459	-81.2622		59.0059
-41.9506	-87.4518		61.348
-36.9577	-86.9432		69.4915
-47.0561	-90.7606		37.1625
-42.2017	-93.4518		42.8826
-50.036	-86.9615		41.8356
-51.517	-87.824		31.2216
-44.1704	-94.7963		31.9681
-4.21511	-109.434		49.3455
-4.06339	-112.982		44.2423
-7.48464	-109.351		48.7783
-4.75862	-5.23723		98.6683
-2.17617	-4.50893		100.22
-4.44355	-1.19499		95.6663
-7.6624	-6.27813		96.1661
-5.053	-8.47582		101.073
-24.6361	-16.1773		80.1442
-20.8401	-13.143		81.5602
-22.9547	-11.0762		80.0424
-29.0247	-18.6233		79.2696
-28.472	-53.5914		80.6912
-26.3287	-53.7309		81.019
-26.9726	-52.7566		80.9342
-10.3228	-23.8621		90.4228
-12.2047	-23.7552		88.9303
-9.60353	-24.7891		89.98
-11.9071	-22.556		90.5894
-9.70164	-27.7467		88.6106
-7.80518	-27.4955		89.8496
-9.57234	-26.8154		88.7737
-12.1989	-27.6042		86.9929
-10.2095	-29.1106		88.5444
0.573281	-25.1624		96.994
-1.28978	-24.9266		96.1318
0.430583	-26.0237		95.6958
0.606395	-24.391		98.5637
-15.076	-26.534		85.2857
-15.627	-27.959		85.2047
-14.6458	-25.5853		85.6513
-17.7901	-24.5564		83.735
-5.13602	-17.1492		103.367
-5.2689	-15.5408		103.795
-8.09122	-16.9005		100.147
-4.93329	-18.8795		102.359
-2.33208	-17.5291		105.473
-25.049	-66.449		83.1293
-26.7838	-70.118		82.3352
-20.855	-67.8357		85.5156
-23.1797	-63.2279		83.9545
-28.4446	-64.4623		81.2103
-26.5565	-47.2873		83.1316
-28.7959	-48.1099		82.0056
-24.2457	-46.4551		84.5
-25.8485	-43.2772		84
0.129293	-29.9631		93.6882
0.263535	-28.1833		94.1421
-1.73019	-29.7311		93.2593
0.11445	-32.1		93.6311
-4.23085	3.03441		92.6085
-4.27968	7.211		89.4673
-7.17389	1.5974		90.5823
-16.7208	-15.5027		86.9944
-17.1814	-14.6737		85.8424
-16.9669	-16.7871		86.3211
-16.0258	-15.3739		88.7928
-15.8364	-14.3346		88.7946
-2.99861	-26.4556		93.3647
-1.502	-26.6279		94.1923
-3.00683	-25.561		93.9125
-4.48293	-26.6896		92.2683
-2.938	-27.8948		92.9259
-2.85	-24.7972		94.944
-2.82026	-24.0019		96.3653
-15.199	-14.9058		90.539
-15.6107	-16.4391		89.7908
-14.9303	-14.0057		90.7306
-16.889	-19.3217		85.6701
-16.1052	-21.9851		85.6372
-16.0803	-18.7151		87.6172
-0.00366433	-39.2284		95.0428
0.0649552	-36.7054		94.3774
-2.55358	-38.7072		94.8127
-0.267849	-41.0723		95.5286
-22.3854	-29.7469		82.7925
-20.9736	-25.3746		82.3052
-24.8974	-29.807		81.9893
-23.7644	-34.3752		83.6347
-19.691	-29.9273		83.9239
-7.22628	-63.9605		91.1811
-11.1321	-63.6409		90.2198
-7.6708	-66.2245		90.7014
-3.48634	-64.1535		91.6372
-6.93029	-62.1872		91.8013
-21.8685	-48.9622		85.2487
-21.6124	-47.2748		86.0005
-24.5705	-50.4003		82.8226
-22.32	-49.6489		84.6689
-14.7094	-13.3073		90.5825
-13.1614	-12.475		92.737
-14.8564	-12.2059		89.323
-14.9079	-63.2352		88.7322
-14.2968	-61.3988		89.3859
-18.4673	-62.3206		86.8208
-15.6469	-65.5142		88.1295
-0.130781	-64.3424		91.6911
-0.0418606	-62.7534		92.2732
-0.236944	-66.3925		91.3367
-60.4615	30.457		54.6557
-61.2028	31.5198		52.8182
-61.8701	24.6313		50.1989
-59.4922	29.6002		56.4262
-42.7768	54.1226		68.7152
-43.6838	59.184		64.7537
-48.487	51.8001		63.7738
-42.0891	49.66		72.1781
-37.6117	55.6502		73.1594
-54.1811	48.7341		58.0658
-55.0766	53.8815		53.7627
-59.3914	44.9754		51.2564
-53.4153	45.0641		61.7628
-42.1338	42.5837		75.6641
-41.8844	44.9702		74.9917
-42.5072	39.9274		75.874
-37.1875	43.7237		80.4271
-62.454	32.5292		49.7605
-65.0342	26.111		43.9549
-58.1227	38.5185		57.662
-63.2907	35.1135		46.8983
-23.8901	33.7932		80.7211
-20.2773	32.7152		80.7598
-23.3127	35.2847		81.8045
-28.0923	34.2442		80.1191
-24.5851	32.0921		79.1035
-4.91047	16.3671		82.9687
-4.74029	14.1377		84.3145
-2.02386	17.8407		84.5894
-4.99699	18.1794		82.1425
-7.68846	14.5752		80.7095
-30.0093	-1.64865		74.3432
-24.216	0.167209		75.3947
-28.4677	2.02188		73.1719
-37.0632	-3.1245		72.9351
-31.6809	-5.81029		75.5763
-57.6767	9.30179		53.8216
-55.2964	5.76472		57.5722
-55.3289	11.215		55.4787
-58.6962	13.786		52.0445
-59.85	7.47732		52.1563
-4.43843	11.0806		86.567
-1.798	12.4996		87.7123
-7.22364	9.29663		84.8488
-42.8967	37.8215		75.7039
-42.821	35.9738		75.4776
-37.5535	38.9039		79.9143
-48.3902	37.4732		71.6522
-53.0561	36.0346		67.2233
-56.3114	32.6495		62.8028
-52.514	34.1071		67.7427
-55.1664	18.7075		56.1749
-56.8978	18.6956		54.5465
-54.4758	15.5741		55.8648
-53.3608	18.8374		57.7411
-55.5813	22.4165		57.8923
-43.8886	23.5259		67.3652
-42.1065	24.5019		69.0077
-45.4079	22.3354		65.3747
-40.0279	25.3302		70.3866
-37.6126	25.9022		71.4636
-40.2183	26.1025		70.9795
-42.5447	25.2667		69.4951
-37.4874	26.6608		72.0875
-34.7551	26.2184		72.0562
-31.8628	26.1076		72.1772
-34.4507	26.921		72.6165
-31.3519	26.7641		72.6726
-29.1813	25.5941		71.9059
-26.6239	24.626		71.3528
-24.0959	23.2347		70.4002
-22.0517	21.7512		69.3214
-22.8527	23.7601		70.7036
-25.4877	25.1275		71.6861
-20.8526	22.1544		69.6005
-20.7782	20.4594		68.4546
-21.5988	24.0699		71.0711
-24.4296	25.7323		72.2575
-34.1817	27.7624		73.3818
-30.8418	27.5611		73.4209
-48.7631	17.9485		60.6654
-47.6696	17.0505		61.3423
-32.4963	34.1318		79.233
-32.6144	32.5821		78.0307
-32.4651	35.9119		80.2488
-37.4674	33.9078		77.7562
-49.075	28.4747		68.3545
-47.3391	26.7905		68.3897
-45.8701	29.6796		71.1679
-50.5863	30.3627		68.2633
-37.6864	9.59119		68.4678
-31.1456	9.8601		70.1857
-43.077	10.4604		65.7668
-38.1353	7.99736		68.5725
-25.8054	11.2293		70.3328
-25.9554	9.81727		70.695
-22.1317	12.6104		69.9644
-18.4109	15.8244		69.3113
-19.2322	14.7409		69.5422
-18.0002	16.6766		69.1265
-36.9232	12.7445		68.4122
-31.2079	12.7993		69.7796
-41.7438	13.8017		66.1683
-21.4633	15.8553		68.4848
-20.6788	16.389		68.2059
-23.0732	15.038		68.974
-20.0506	16.8346		68.1129
-19.4966	17.4202		68.1175
-14.5199	23.1156		73.6521
-13.275	24.7211		75.8747
-16.2662	24.9769		74.1506
-16.0765	21.5751		71.218
-17.7	18.0245		69.1199
-27.5806	26.8816		73.0083
-16.9634	21.0042		70.1985
-18.1891	22.5404		70.6228
-16.4398	19.7037		70.083
-36.8127	14.0839		68.4222
-31.1782	14.0414		69.6626
-21.6899	16.6659		67.9646
-23.1643	16.1622		68.4789
-20.9119	16.9316		67.8012
-20.475	17.2802		67.6525
