1859
16.5184	-14.1699		92.263
17.2255	-16.8329		90.8885
18.5117	-20.2122		86.3988
17.8085	-19.3774		88.351
17.8792	-22.3529		86.774
2.71095	-39.1001		98.2376
2.96251	-41.1643		98.6378
5.1784	-38.495		97.966
2.66623	-36.2438		97.7412
0.102961	-39.6541		98.3216
23.5287	-30.2332		84.2513
21.1653	-30.412		85.6974
24.4745	-34.9481		85.8824
25.7654	-30.3548		83.1052
22.1402	-25.9938		83.3959
9.01194	-67.7615		92.1281
9.03757	-65.6509		92.8453
5.66182	-67.8518		92.68
8.98216	-70.2339		91.6724
12.4942	-67.4314		91.1809
21.7882	-50.6173		88.946
21.9665	-51.4903		88.4811
23.7609	-52.5642		86.8711
21.965	-48.5694		89.6016
16.3356	-13.4438		92.1703
16.5834	-12.5213		90.689
14.8005	-12.2875		95.1568
15.8572	-66.9741		89.8539
16.3342	-69.5537		89.0649
18.972	-66.0295		88.3234
15.4073	-64.9553		90.6902
2.55885	-67.8234		92.8979
-0.41361	-67.7386		92.9152
2.52776	-70.1296		92.5804
2.561	-66.0316		93.493
61.5248	31.399		53.3299
60.6202	30.8041		54.8805
62.9102	25.0713		48.693
62.2347	32.2403		51.709
41.5316	57.9451		72.3159
35.0955	59.218		77.3694
41.6377	52.0753		74.6806
48.2205	55.5988		66.6105
42.2093	63.9949		69.0254
54.8035	52.1871		59.7353
54.381	47.5658		62.6676
60.5723	47.2895		51.688
55.7021	57.5886		55.9169
43.0038	43.4206		75.8882
42.4123	46.0565		75.9158
36.5355	44.1129		81.6147
43.6384	40.8734		75.4092
63.463	33.0123		48.8433
64.3384	35.5195		46.2535
59.4511	39.9247		57.2732
66.0243	25.4061		42.7273
22.9916	31.4764		83.1152
24.5098	30.6951		80.5561
27.309	32.4388		81.7211
21.9492	32.846		85.8547
20.3094	30.7339		83.2991
6.60829	19.3585		88.449
9.90481	17.0613		85.0735
6.79074	21.2038		87.55
2.91741	21.0526		90.6528
6.3533	17.0703		89.8545
31.4729	-2.45852		73.5621
33.1536	-6.29719		74.0947
38.9358	-2.72716		71.0836
29.665	0.825888		73.0995
25.4398	-1.14335		75.5806
59.9043	11.0886		52.5108
62.4827	8.79319		50.5343
60.2819	15.8188		51.0987
57.2625	13.1011		54.1646
58.1874	7.31907		55.5338
6.05825	13.931		91.9558
9.31019	11.7573		89.1129
3.0279	15.5109		93.6849
44.1621	38.7445		74.9138
49.3444	38.8661		70.969
38.4167	38.155		78.9163
44.212	36.7337		74.3971
53.797	37.8326		66.5989
53.1989	35.8576		66.9229
57.4181	34.3866		61.4948
56.5797	20.2332		54.6836
56.626	23.4531		56.1342
54.671	19.775		55.9537
56.1085	17.4028		54.4734
58.2569	20.3623		53.2882
44.9714	23.17		64.9545
46.4072	22.0592		63.0398
43.3312	24.1613		66.7029
41.4986	25.0294		68.2372
39.4373	25.5234		69.3469
41.7101	25.7572		68.7787
39.2804	26.232		69.9676
43.7416	24.9268		67.1711
36.7194	25.6623		70.0547
33.8868	25.4587		70.4622
36.3881	26.3192		70.6259
33.3293	26.0965		71.0231
31.1693	24.8808		70.7002
28.6662	23.8314		70.5417
25.7215	22.4208		70.1119
22.966	21.0226		69.6926
24.3699	23.0195		70.5835
21.8185	21.605		70.1919
27.4657	24.4091		71.0266
21.0635	19.7697		69.439
23.0526	23.4595		71.1867
26.362	25.0651		71.7406
36.0889	27.137		71.4095
32.7708	26.8913		71.8449
49.5273	17.8401		58.6982
49.9031	18.8918		58.5937
48.5397	16.8311		59.4114
33.0223	33.5733		79.5388
38.8125	34.3941		76.6872
32.5305	34.9507		81.1289
33.5432	32.2265		77.6207
49.6351	29.1454		66.7022
48.0419	26.9118		66.2956
51.1499	31.5262		66.9575
46.4847	29.842		69.4464
39.7954	8.60258		67.1278
44.9478	9.85536		64.0905
33.2725	8.44655		69.5756
40.2793	7.35621		67.2741
27.492	9.55726		70.7146
23.6446	11.291		70.7811
27.3644	8.12574		71.1766
20.0416	14.9448		70.3897
19.4933	15.9698		70.2268
20.9344	13.9127		70.4262
38.9055	11.4713		66.9294
43.4198	12.729		64.3128
33.3518	11.2255		68.9862
22.6257	14.6105		69.3636
24.4607	13.5981		69.6305
21.6953	15.2304		69.1974
21.0221	15.7506		69.162
20.3965	16.431		69.209
16.6903	23.9204		75.5795
15.7311	25.8424		78.5299
17.6204	21.8723		72.6226
18.2561	25.4633		75.8618
18.9715	17.4896		70.282
29.5645	26.2485		71.9993
18.274	20.9672		71.4448
17.8416	19.557		71.3326
19.2296	22.47		71.8172
38.7093	12.8727		66.8714
33.2386	12.5321		68.8217
22.5675	15.4329		68.8413
21.7295	15.7633		68.8146
24.473	14.7667		69.1274
21.1121	16.2411		68.7851
47.2965	20.8293		61.1679
3.33477	32.6639		89.6821
-0.550281	32.7024		89.8699
1.9944	30.6879		89.3417
6.65084	31.8959		88.9178
4.6273	35.1063		90.2896
20.9295	6.70192		74.4267
20.8925	8.62515		73.3396
19.3094	8.31696		75.0077
21.377	4.01631		75.702
23.4932	4.94431		73.7667
17.5301	10.0949		76.1357
15.3806	12.2893		78.1431
17.8934	14.9554		72.5767
16.2433	15.9981		74.424
18.0055	16.5084		71.6457
12.2935	23.6435		80.6371
13.4667	25.3364		80.3756
11.3597	24.6575		82.3225
21.8847	12.6786		70.6511
21.3738	11.6368		71.4461
21.0631	10.2714		72.2889
23.1282	8.49148		72.1716
18.101	-53.4957		87.5067
17.946	-53.4314		87.332
20.7611	-54.1032		86.0325
15.371	-52.6228		88.7979
22.3626	-54.5016		85.1857
22.0653	-54.3675		85.0903
3.2144	-44.6545		98.6124
6.02514	-44.2703		98.198
3.1738	-43.3623		98.8071
0.0397106	-45.0987		98.7169
3.147	-45.974		98.2153
8.28542	-47.124		96.44
8.42832	-45.7562		97.0979
5.86851	-47.0902		97.0906
7.94308	-48.4437		95.5736
10.4349	-47.5357		95.5312
12.5971	-48.083		94.3945
12.7748	-46.7185		95.0957
12.4314	-49.5541		93.3584
15.4112	-48.972		92.6752
8.43127	-44.3312		97.5725
10.6174	-44.7554		96.7157
8.34304	-42.9833		97.8586
12.1297	-43.0227		96.3164
12.6875	-44.1476		95.9821
11.835	-41.8271		96.4021
9.94329	-42.3795		97.3326
18.4777	-51.0953		89.966
18.5906	-49.5352		91.0112
7.3053	-49.7172		94.4047
4.852	-49.4525		95.2229
6.9115	-50.3977		93.3843
9.88114	-50.1886		93.3861
12.432	-50.9433		91.9952
12.3811	-51.6096		91.0471
23.074	-53.2521		86.7595
18.3111	-54.4743		88.0547
18.2139	-54.4082		87.8956
15.4483	-53.9989		89.6543
18.4088	-54.6843		88.2805
18.9535	-56.0995		88.8092
18.7346	-55.5855		88.7268
16.3363	-56.521		90.9299
13.465	-56.8199		93.0641
13.2029	-55.9438		92.8509
10.9179	-56.6869		94.3623
13.828	-57.7135		93.0946
7.34371	-54.053		94.6446
7.83346	-55.3587		95.0514
10.254	-54.4232		93.6595
6.9891	-52.8472		94.0805
4.48989	-53.9716		95.2708
2.2439	-56.7971		96.2449
2.39685	-57.9889		96.3375
5.17748	-56.5444		95.9475
2.12252	-55.4809		95.9855
-0.466164	-56.9031		96.3039
22.6032	-55.9592		84.2986
22.4485	-55.3472		85.0209
22.6136	-57.4181		83.401
20.7647	-55.7525		85.5753
1.61726	-52.7045		91.5196
1.68274	-52.0054		92.7495
3.72062	-52.826		91.3179
1.49773	-54.2235		90.1841
-0.347962	-52.666		91.5266
2.51932	-59.2314		96.2838
-0.460248	-59.38		96.3119
2.65215	-60.3492		96.0851
5.73265	-58.9225		96.0431
2.60296	-64.2292		94.356
5.91832	-63.9133		94.2462
2.69294	-62.6618		95.1756
-0.408508	-64.3891		94.2747
8.06722	-42.0228		97.9528
7.37401	-40.6397		97.998
5.85514	-41.8145		98.4583
1.97997	-54.0457		95.5379
-0.391667	-54.147		95.6087
1.84305	-52.7972		94.9715
1.76823	-52.1654		94.5212
4.12449	-52.0957		94.2858
1.8019	-51.9243		94.1685
-0.343182	-52.2385		94.5523
6.81309	-52.2725		93.6586
9.58332	-52.8029		92.7507
6.67773	-52.0617		93.3288
1.81319	-51.8328		93.64
3.94641	-51.8404		93.4194
-0.313803	-51.8553		93.5967
12.3071	-53.4363		91.5186
12.2055	-53.2125		91.0958
12.5408	-53.9706		91.9559
14.4832	-60.5834		92.6914
14.7702	-61.6852		92.2015
14.2504	-59.6005		92.9736
11.9534	-60.7698		93.9741
9.185	-60.8261		94.9406
9.25757	-62.0329		94.4517
9.08807	-59.8067		95.2174
5.98877	-61.0726		95.5702
2.70698	-61.4528		95.726
-0.407753	-61.62		95.7076
12.3097	-51.7847		90.4732
9.49038	-51.0984		91.7327
12.1634	-51.6895		89.9592
25.3301	-54.8934		85.0668
24.2517	-55.1763		85.1731
22.428	-55.0884		85.7329
20.9064	-55.14		86.8152
6.25795	-53.0779		90.8823
6.34491	-52.2994		91.9594
9.03627	-53.4582		90.1979
6.26647	-54.578		89.7321
6.48826	-52.0234		92.817
9.23621	-52.5291		91.8692
9.08638	-63.6373		93.7445
12.1559	-63.5056		92.7903
14.0083	-58.6525		93.1216
11.5315	-58.766		94.4227
15.0753	-63.2085		91.5003
17.8397	-62.3432		89.9256
11.8605	-51.2964		89.5759
9.25598	-50.5835		90.4725
11.3827	-49.8699		88.7816
14.5466	-52.0195		88.3637
6.60727	-50.0814		91.1533
4.34521	-49.7464		91.4168
6.95045	-48.8011		89.9026
6.55059	-50.493		91.953
11.1043	-46.7435		87.6316
9.0298	-46.219		88.1914
11.3202	-42.7352		86.6583
13.2843	-47.3382		86.873
22.7689	-60.8245		82.2198
22.8812	-64.8807		81.2167
20.7939	-60.6258		83.6356
1.40524	-57.3286		88.9296
3.5633	-57.4324		88.8462
1.61239	-61.4408		88.2321
-0.476199	-57.281		88.9066
7.02774	-45.8119		88.5788
4.91037	-45.4787		88.8385
7.03958	-41.8255		87.6772
6.21757	-57.6656		88.5572
6.42575	-61.9528		87.7709
9.05936	-58.0868		88.0298
26.2267	-55.7832		77.7788
26.9811	-55.7745		76.2536
13.9165	17.7117		77.5482
13.1609	16.3846		79.5428
81.8615	-9.4493		-42.9151
81.1175	-13.9843		-42.0546
79.9835	-8.74285		-46.3003
82.509	-4.73261		-43.0089
83.3689	-10.0175		-41.1772
81.6513	8.79195		-6.45154
82.0045	11.8843		-10.6572
80.6098	10.8617		-1.79395
82.1078	14.1956		-15.8111
81.804	19.8777		-17.1896
82.5522	9.0403		-16.7124
82.7052	13.8972		-22.703
75.7138	-34.6173		-32.8545
78.2098	-32.3572		-31.2591
74.6723	-38.9815		-30.1041
76.929	-30.5746		-34.8282
77.9576	-26.7633		-37.0413
75.293	-28.7037		-39.8871
79.119	-22.6425		-39.0041
80.2582	-25.6058		-35.1899
84.8578	-9.99804		-40.2873
86.4038	-9.46905		-39.9423
84.2476	-14.2777		-39.2609
85.2546	-4.87214		-40.5989
86.7335	-28.9426		-29.7545
87.8772	-24.7329		-31.9868
87.4595	-29.4332		-28.497
85.5129	-33.1327		-27.0623
91.3428	-18.8876		-30.1854
91.339	-18.3293		-29.4197
80.2249	-42.2832		-18.2821
80.6994	-42.5608		-17.5243
79.8125	-43.0598		-16.1616
79.343	-41.2991		-20.4786
81.4766	-35.2903		-5.77837
81.1449	-35.9312		-5.69487
80.6989	-36.9466		-5.86512
91.2862	-17.9565		-29.0159
90.7723	-18.5992		-28.0308
94.2498	-2.81561		-33.3234
94.3162	-2.11585		-34.8662
94.1355	-4.20933		-31.6263
94.5612	7.65937		-31.1237
94.8431	9.06034		-31.2686
94.9795	11.1996		-30.2905
94.4048	10.9546		-28.0743
95.1651	11.6884		-30.7004
94.6402	13.2749		-27.2618
84.7178	-11.474		-7.42583
85.985	-5.75045		-8.27144
84.2058	-10.7502		-6.14584
83.7785	-15.715		-6.63807
79.6547	-28.4799		0.516944
78.7818	-29.0575		3.30085
79.0969	-32.3532		0.253716
80.1846	-24.0093		0.748756
83.3618	-22.9816		-8.84108
83.7079	-25.0526		-9.28068
83.34	-20.9402		-9.05821
82.555	8.46361		-16.6498
82.9341	9.87543		-20.1272
82.5918	8.45869		-16.4457
90.8252	16.4585		-17.5388
91.806	18.2475		-20.67
89.9692	16.8873		-18.6971
89.3631	13.1696		-14.5303
91.6119	15.7122		-16.5421
91.3629	19.001		-25.6221
90.5755	18.7083		-22.6638
91.6326	19.1326		-25.1453
91.8456	17.7496		-29.2073
90.5547	17.9341		-26.9367
92.0889	3.42057		-39.5243
91.2967	2.94117		-39.6873
92.4693	9.52733		-36.7802
93.1565	3.65816		-39.0042
86.927	-0.919946		-9.05344
87.207	-2.18541		-9.6559
94.9324	2.70659		-36.464
95.4196	7.95083		-34.3416
94.598	-0.16097		-36.5833
94.981	2.60369		-36.8299
94.111	14.1259		-23.3408
93.1643	13.4835		-19.3734
93.8933	12.7298		-24.0323
94.2126	15.1395		-22.7608
88.3968	0.0104053		-11.8438
87.8342	-1.85119		-11.2018
88.9629	2.45518		-12.6417
94.4798	3.36504		-33.7574
94.5617	1.29063		-35.5711
91.8269	5.84352		-22.249
91.337	4.41894		-21.4336
93.1565	5.43177		-26.384
86.4863	-7.00496		-12.7802
86.6427	-6.69457		-13.4985
87.0014	-5.35707		-11.7543
91.2142	-5.71935		-26.8164
93.2533	-2.95421		-28.8284
90.9567	-5.2711		-26.2035
91.0895	-6.84897		-26.9409
80.6755	-19.8804		0.485699
81.3577	-15.0682		-0.603743
79.8855	-20.2207		3.02683
85.533	0.497623		-39.2398
84.3716	-0.0613743		-40.3527
85.4309	5.25912		-37.218
86.5225	3.05218		-38.3637
88.9607	8.19352		-35.7883
88.7554	12.0217		-32.6521
91.3718	13.0017		-33.9901
89.0622	4.04827		-38.61
90.2219	1.91455		-39.6291
89.0153	-3.76678		-40.2931
88.5616	-8.92335		-39.8065
82.0524	-24.9749		-34.3387
81.0474	-28.2397		-32.3852
82.9125	-21.6084		-36.1491
83.616	-18.09		-37.8586
81.925	-18.3053		-38.8858
90.2029	-18.5648		-26.9959
80.0214	-31.2937		-30.5454
78.8897	-35.094		-28.0489
81.274	-31.0022		-30.0958
79.0048	-39.147		-23.2261
78.5423	-39.1533		-23.577
78.3307	-42.804		-18.4155
79.6445	-42.828		-13.284
79.1313	-43.1089		-13.1378
78.5859	-43.3162		-12.8109
91.2967	-7.61196		-27.3987
93.2484	-6.14126		-29.658
83.6123	-10.1451		-5.07291
82.8784	-9.75216		-3.85542
81.4202	-24.3308		-2.78633
81.736	-24.4805		-3.44935
84.2463	-28.7095		-8.835
85.1583	-30.714		-10.3676
84.4389	-27.5287		-9.74721
83.1995	-18.857		-5.98501
83.6031	-18.9312		-8.17155
88.4585	13.8492		-29.507
86.031	10.0449		-32.2067
87.5052	14.4208		-26.1949
85.0957	8.48469		-33.9598
84.6672	8.19066		-35.0315
84.461	10.614		-29.7204
83.2077	-18.8532		-11.0274
83.4623	-18.8113		-10.1356
93.7568	4.47993		-28.7219
93.578	2.91321		-28.338
87.0683	-5.92121		-14.9621
86.4216	-8.28314		-15.9209
88.0668	-4.57574		-17.6617
90.9304	-4.41679		-25.7246
92.711	-0.668552		-27.0385
90.3635	-4.39386		-24.3391
9.33164	87.7779		69.1877
9.11918	80.6337		75.2292
16.7907	87.1418		68.424
9.64819	95.0333		61.4334
1.63919	87.7869		69.6742
8.64058	73.5498		80.0993
1.77842	73.0224		80.8396
8.02154	66.0104		84.207
15.3927	73.6652		78.932
29.0683	59.7448		81.1108
29.6983	53.5732		83.6719
24.8762	59.7151		83.1516
1.46411	-22.3083		104.838
1.47672	-21.3037		106.937
-0.213369	-22.321		105.295
3.49065	-22.2015		103.44
1.5476	-12.7		112.853
4.12848	-12.7237		111.632
1.63949	-10.779		112.261
-0.768623	-12.6844		113.174
1.51043	-14.4416		112.907
1.48746	-16.207		112.409
-0.810904	-16.2165		112.796
1.47765	-17.8986		111.349
2.28878	-25.3738		99.1506
0.494987	-25.5548		99.3945
2.74804	-33.4553		97.4466
4.79942	-33.242		97.181
0.341612	-33.7175		97.5043
1.49374	-19.649		109.46
3.80356	-19.715		107.85
-0.678496	-19.6224		109.979
1.62142	-8.72071		111.194
4.10195	-8.99908		110.127
1.51313	-6.15308		109.419
-0.642689	-8.65482		111.492
7.25763	46.94		90.7822
1.02678	46.9084		91.5919
6.68829	43.3757		91.2493
12.6308	46.8936		89.8902
7.47222	51.3309		89.7701
0.423081	21.7859		91.2671
0.690937	19.4179		92.492
0.380852	23.752		90.39
-1.44018	21.9768		91.3095
0.471845	25.4937		89.7866
3.06403	24.7668		89.2136
0.817265	27.1745		89.3914
-1.58628	25.6668		89.8521
2.05072	-49.537		91.4881
-0.271386	-49.5298		91.5361
2.33364	-48.1738		90.3101
1.78692	-50.2855		92.761
1.77532	-50.4355		93.638
-0.300425	-50.494		93.6315
3.97149	-50.3972		93.364
1.90542	-50.2651		94.3334
3.06251	-47.1646		97.6242
2.84671	-48.2592		96.8363
-0.0222979	-47.3637		97.749
2.3793	-49.4		95.6692
-0.153322	-49.5353		95.6493
3.17204	-42.3625		98.7949
0.053475	-42.9619		98.8978
2.47723	-45.2507		88.9692
2.44697	-41.3323		87.969
-0.136235	-45.1303		88.9413
22.9879	86.2736		67.2601
22.208	79.9974		72.7735
28.762	84.9704		65.6954
23.8442	92.8214		60.0029
18.7229	47.5072		88.7624
18.1247	43.7881		89.363
24.1885	48.4943		87.655
18.5385	52.1862		87.7041
19.1284	39.4788		89.2235
20.2126	35.8809		88.4921
24.218	40.6811		87.9926
21.2682	33.9423		87.3094
18.5682	33.5178		88.2151
25.4055	35.4296		86.2506
28.6743	26.9516		72.9612
27.7996	28.0544		74.6113
25.1749	25.7245		72.6991
32.1867	27.6646		72.7727
30.379	25.4934		71.2189
26.3657	29.2775		77.0982
30.1651	30.0703		76.4259
23.1794	28.3313		77.1212
47.7591	89.0129		42.083
48.9392	94.0185		31.6729
42.0475	92.5521		45.0662
47.0554	83.742		49.7002
34.1076	83.5504		63.4068
35.2572	89.1745		56.7209
39.8561	81.5765		60.1829
29.3221	49.1161		85.685
29.8229	46.7709		86.0248
35.4179	49.4058		81.7492
31.2731	37.6159		84.1273
30.8841	39.3017		85.0561
30.3049	43.0082		85.8384
34.2473	30.489		75.4665
35.2788	29.1317		73.5651
38.9433	30.605		73.7858
46.0546	78.9784		55.6529
52.3368	75.9831		49.8266
44.9149	74.2707		60.6632
42.1516	48.5666		75.4843
48.439	46.9781		70.1214
42.463	27.4904		69.9948
42.6361	28.7156		70.8661
39.4126	27.9804		71.4795
44.9693	26.6644		68.068
44.0851	34.7664		73.7585
43.5778	32.5703		72.9074
48.6404	34.9147		70.6438
42.9818	30.366		71.8718
43.4867	69.3162		65.0798
50.2765	66.3981		59.1213
58.1174	73.2462		42.4438
57.3674	68.2352		47.5264
63.0654	70.5547		33.9128
45.4859	23.872		65.3125
46.9349	22.6977		63.3036
47.1351	25.562		65.8315
48.7155	24.2439		63.5959
46.12	24.5873		65.6053
52.3882	33.9486		67.0665
55.187	31.0429		62.7912
18.2511	29.8145		82.7281
16.407	28.7143		81.8671
19.3065	28.801		80.1122
17.1232	30.5628		84.6829
16.0185	31.6796		86.724
14.239	30.4449		85.7516
20.4785	26.9903		76.5118
21.4352	25.466		73.8724
6.30746	39.184		91.098
1.39347	39.9009		91.3593
67.1521	-67.4392		-5.61315
69.0521	-62.462		-3.76087
67.2604	-67.4697		-12.3553
81.08	23.0763		-37.3421
80.7703	19.1544		-42.9727
79.9393	28.8991		-42.1312
81.5036	25.337		-29.2726
82.2834	17.1551		-32.1219
77.5026	-8.30584		-52.2266
76.5101	-14.463		-50.5787
75.203	-8.35366		-57.8982
78.4825	-2.34907		-52.3574
79.1252	3.98648		-52.0783
77.0815	5.88422		-58.6292
79.7391	9.60205		-50.2881
81.2229	1.75777		-45.7589
71.7297	-32.2904		-43.9708
68.4875	-35.5973		-47.8654
73.4468	-26.3582		-46.5728
7.68228	58.3853		87.4394
1.53421	57.3635		88.314
13.7179	58.634		86.4234
19.252	59.0166		85.0668
19.9582	66.647		81.6043
19.0917	-101.371		56.0525
17.172	-100.774		49.1867
24.7938	-98.9838		50.4241
13.6474	-102.756		59.4711
45.1206	-87.4454		42.6837
39.0468	-91.5283		47.4401
50.3789	-83.8369		38.5316
46.2837	-85.417		45.9678
56.6713	62.8839		51.7526
62.0922	59.0115		43.6284
21.1842	73.659		77.3854
67.8404	67.8073		23.9629
71.7206	65.4421		13.8204
67.6053	61.3781		29.4129
24.3658	100.288		49.7514
30.5473	98.1093		48.8656
24.5825	107.414		37.3889
17.5405	101.821		50.5219
65.513	40.5736		42.3475
66.2998	47.7635		38.5216
49.3462	22.4795		61.4066
59.6617	29.9797		56.2031
60.0647	24.6541		52.8427
58.1922	28.7925		57.6452
56.6732	27.5008		58.7216
3.78487	-107.058		41.892
1.75262	-107.162		42.0704
57.4345	-75.1669		39.196
58.7342	-71.239		41.3619
52.6308	-78.2607		44.7414
56.043	-78.5762		36.3607
6.88698	-38.633		97.6942
8.65812	-39.0667		97.2613
6.481	-36.0139		97.2528
21.8787	-45.9557		89.9807
21.2831	-41.8539		90.4114
19.586	-43.7925		91.7705
10.0843	-34.8881		95.5174
7.77001	-33.8521		96.3533
10.5605	-37.3416		95.9848
12.62	-35.6961		94.2556
9.523	-32.2715		94.9574
29.8451	-50.505		84.3851
29.4241	-54.1092		83.8368
32.2082	-51.5664		82.5365
29.7237	-46.2244		84.8074
64.3769	18.5128		46.0192
62.2883	19.3996		48.7992
65.2513	12.3192		45.7909
66.1317	17.8659		43.1488
68.0155	17.5103		39.6982
70.3802	16.5829		34.5848
53.035	19.4515		56.9214
52.9386	17.5572		56.5012
60.411	19.9779		51.146
83.4183	8.95378		-37.0626
83.2696	5.15316		-40.1964
81.9543	11.1079		-41.1547
83.5393	11.4858		-33.1415
80.0665	-18.4928		-40.8317
77.9355	-18.9485		-44.0059
71.8086	-54.1901		-14.7569
73.7955	-49.9519		-12.4647
71.2941	-56.5276		-8.24252
69.5554	-59.6631		-17.272
72.3692	-50.5127		-20.9385
82.972	0.392981		-42.1275
77.8867	-30.0928		6.54398
77.1721	-34.4148		6.27313
78.5162	-25.5308		6.56319
76.9119	-31.1505		10.9841
74.362	-2.50214		28.525
74.1015	6.26596		27.053
74.2178	-10.3972		30.1649
76.4846	-3.82064		20.2033
55.497	14.2414		55.1571
53.7779	15.2553		56.0783
53.9073	11.4427		57.183
52.2764	15.8838		56.9217
50.9288	14.2444		58.2296
75.8007	-31.8013		17.2695
74.5692	-32.0786		24.0029
75.1102	-36.7857		17.0587
76.5003	-26.3625		16.842
24.037	-7.94086		78.7833
27.9014	-9.60795		77.0719
23.3965	-3.25367		77.6749
21.3139	-5.69925		80.4177
34.4018	-10.9112		74.7103
41.6757	-11.2561		71.8619
35.2625	-15.6353		75.3334
18.1183	-3.61717		83.4746
14.8982	-1.10152		87.5639
18.0734	-7.49064		85.1698
20.2519	-14.8857		83.8263
19.1428	-12.6556		85.0389
15.8222	-17.61		93.7482
14.4304	-16.925		96.3895
15.6032	-19.356		93.076
16.642	-18.2817		91.7967
17.2451	-18.769		90.1165
16.9108	-20.6049		89.6999
37.0319	-31.5861		77.2077
32.0492	-31.2481		80.0601
36.9932	-37.3058		78.1039
36.6725	-26.2918		76.5435
35.8519	-20.7716		75.9485
5.50253	-28.5669		96.7169
5.88022	-30.862		96.6221
6.9207	-29.085		95.8691
57.2096	-49.9884		56.1792
58.5961	-43.1007		56.5425
52.4678	-47.557		62.8877
55.4335	-57.0714		55.9107
24.7699	-39.807		87.51
22.8672	-38.88		88.5791
26.904	-40.5609		86.2135
36.7012	-43.0156		78.9118
36.1432	-48.5798		79.5078
41.645	-44.1181		74.6058
32.4995	-42.1077		82.2552
6.24965	-33.3893		96.8559
53.3497	-64.0911		55.41
56.8121	-66.1119		48.9189
49.1945	-60.6799		62.7927
50.0717	-70.2094		56.4972
61.4849	-24.252		56.9215
60.6926	-30.4046		56.9193
65.6614	-26.2313		50.5919
27.3633	-96.7991		71.0711
28.1249	-93.9951		73.3661
22.8921	-98.102		76.6786
37.4568	-84.5544		65.306
41.7102	-80.4125		61.7896
36.5999	-79.6968		69.8282
32.9985	-87.973		70.0074
59.2415	-1.92096		58.1972
56.9973	2.31196		58.8585
53.3709	-1.80588		63.437
48.6632	12.1131		60.7006
49.8154	10.5365		60.5359
55.0744	5.17813		59.2386
50.0236	3.84564		63.6797
52.9159	7.3087		59.9214
46.6557	14.9085		61.392
1.76522	-94.3256		93.675
-1.96578	-94.4253		93.7996
44.7348	-57.5285		69.3695
43.0022	-62.4995		69.8346
45.9578	-51.9302		69.3515
39.8611	-55.1352		75.2801
35.0946	-74.8617		73.8626
37.9424	-71.104		72.2156
32.3807	-69.7805		78.2128
31.4467	-77.7639		76.7287
46.4229	-2.33735		67.7606
47.9038	-6.37581		67.9469
44.7771	0.876147		67.6563
47.1731	-45.573		69.0766
49.1216	-10.7223		67.8709
9.0978	-84.6275		92.8479
9.07572	-78.974		92.1703
13.6946	-83.9629		90.4659
18.5515	-83.184		87.3303
23.1606	-81.9645		83.7712
17.9146	-77.8302		87.7379
43.4401	3.00401		67.5171
42.1125	4.71286		67.4497
36.0174	2.533		70.4763
51.3433	8.97004		60.197
47.1217	7.09888		63.9167
41.136	6.13701		67.333
34.0948	5.72649		70.0422
11.8453	1.24585		91.6539
12.0002	-2.93658		94.1281
11.8962	5.54074		88.8843
12.5222	-11.0773		99.564
12.4255	-9.44937		98.4219
9.88337	-10.0174		103.949
12.7372	-12.2704		99.8492
12.7549	14.6779		81.3092
12.4477	12.4422		83.3962
22.351	0.270029		76.9063
0.822946	16.3102		94.3283
-0.943632	16.6011		94.4273
65.2378	6.5721		47.8658
12.18	9.31308		85.9718
60.2668	-66.4115		42.895
64.1468	-64.8761		36.0641
69.4561	-14.3607		44.7739
69.2881	-21.6298		44.4276
71.8038	-15.6656		38.4265
67.2426	-40.3029		43.7571
68.2055	-34.0562		43.8695
63.9804	-38.5726		50.1894
69.7155	-41.4857		37.5335
68.9366	-27.8718		44.0152
71.2295	-29.7433		37.7281
18.7697	-99.4338		80.5235
9.00369	-74.0204		91.6269
5.44576	-74.1548		92.4628
12.9907	-73.7127		90.2083
17.0357	-73.3391		88.3036
28.4742	13.5076		69.3952
28.5792	3.25329		72.5258
27.9587	5.171		72.0118
27.5935	6.65188		71.5782
2.22856	-74.2136		92.896
-0.826314	-74.1133		92.9674
6.34552	27.7745		87.5452
8.38718	26.8778		86.0919
7.56946	29.2687		87.505
3.82529	28.4193		88.642
6.00717	25.8188		87.4676
19.8289	17.4495		69.4684
19.6158	18.7545		69.72
17.8629	17.9351		71.3932
10.1037	25.7158		84.2177
11.1951	27.489		84.3907
1.25509	28.8986		89.2422
-1.31808	29.0781		89.4229
5.26985	-21.9278		101.927
5.69288	-21.0216		103.378
6.98274	-12.8071		109.142
7.0673	-11.1783		108.61
10.0801	-12.9531		104.861
16.7311	-24.2106		87.6152
16.333	-23.2055		88.7026
14.7551	-25.6457		89.2112
6.78699	-9.3875		107.93
6.64212	22.99		87.1471
9.2447	30.9685		87.8685
11.0944	30.0645		86.5794
20.0735	20.179		69.9722
12.6369	29.1339		84.9688
13.8015	28.2381		83.1057
14.8365	27.1906		81.0096
19.0864	-30.6653		87.1216
16.5715	-30.8908		89.0001
19.8832	-34.1722		88.472
20.7315	-38.0208		89.6659
18.0571	-37.0769		91.1498
21.3209	-53.8462		85.102
21.0923	-52.7089		84.3596
19.4981	-53.5677		86.22
21.9845	-52.0793		88.0762
20.4887	-50.4651		89.7105
20.9472	-49.4609		82.8454
18.0539	-48.8213		84.7116
21.0826	-45.2682		81.2494
14.1772	-31.0693		90.9704
11.5086	-30.7274		92.9531
14.7592	-33.5639		91.8065
15.5308	-36.393		92.5962
16.0821	-39.0993		93.2301
17.3213	-52.984		87.2608
16.1208	-51.3229		86.9319
15.5697	-48.0568		85.9364
15.9372	-43.9282		84.6192
9.01507	-29.8981		94.651
8.61423	-27.8141		94.4738
11.3156	-39.9286		96.2551
14.0291	-40.7894		94.9704
17.4707	-10.314		87.4727
14.8843	-8.5294		91.9567
1.25542	-2.50002		106.676
-0.752047	-2.2824		106.843
12.1278	-6.59894		96.6454
6.20235	-19.4366		105.59
8.75967	-19.4136		102.04
11.3198	-19.723		98.4567
11.9652	-18.044		99.3118
13.6803	-20.3125		94.9236
15.0719	-20.9657		92.6172
15.7711	-21.6974		90.9608
16.1283	-22.4054		89.6814
12.6931	-13.3905		100.255
12.5336	-14.7543		100.436
12.3671	-16.3683		100.035
37.9917	-143.363		14.2891
33.491	-144.678		17.3875
39.4819	-149.594		13.2029
42.0865	-141.908		11.1095
36.0334	-134.779		15.8493
33.6564	-122.72		18.0357
37.7753	-121.556		14.4566
31.9964	-112.125		20.1146
29.3779	-123.795		21.5739
34.3612	-97.2215		27.421
38.9007	-95.7142		22.9279
29.7651	-98.6699		31.5182
32.7684	-100.96		24.0289
31.9889	-105.271		21.9384
27.517	-106.003		26.1539
36.3016	-104.257		17.9222
40.9609	-67.0879		70.4446
43.8761	-71.3067		64.7321
37.0014	-63.1126		76.1154
46.3625	-75.6098		58.3005
47.2251	-79.496		53.3126
47.236	-82.6286		49.2651
33.7342	-60.2373		79.7523
34.7601	-57.0148		79.6457
30.8189	-57.9045		82.2652
31.8572	-62.9761		80.4743
28.8839	-56.6565		83.5516
27.8402	-58.4767		83.732
43.1629	-94.0548		18.708
45.8313	-90.3296		22.1852
41.6197	-98.1337		15.8061
47.4378	-92.3794		13.7515
49.0497	-87.0421		26.2357
52.2816	-85.3367		20.2954
52.1134	-84.076		29.7551
54.3551	-81.3721		33.3802
57.588	-79.4005		27.1946
41.7876	-120.23		10.7863
43.9217	-131.98		9.10709
45.7571	-119.252		6.8896
40.5336	-110.059		12.3252
45.8228	-140.507		7.79287
47.5628	-146.848		6.6262
49.3697	-139.123		4.1607
40.6379	-103.036		13.9039
73.0965	-31.0373		31.0553
72.4162	-36.7193		31.1451
73.6544	-24.8883		30.9128
59.7211	-77.8909		20.8372
57.3882	-80.7677		17.5123
61.2291	-76.4631		13.8622
73.4773	15.6387		26.3717
76.6327	13.4838		16.1432
66.8329	-63.5747		29.2063
68.6679	-62.0153		21.5224
71.6193	-42.3206		31.0936
73.0742	-42.6282		24.1702
73.9588	-17.5931		31.028
75.7499	-19.4588		23.2243
74.2852	-41.7581		16.942
75.3949	-40.1669		10.2974
57.0749	-89.6265		-1.98498
56.4129	-94.2671		-3.46204
59.3136	-89.1869		-6.88453
57.9554	-85.5402		-0.210163
54.3984	-90.2053		3.00594
55.9655	-99.5454		-4.42338
59.2256	-81.7906		2.2513
57.1839	-82.7369		7.90399
61.0393	-80.9867		-3.53852
60.7092	-78.3512		4.57148
78.2635	-4.67607		12.0578
78.6648	3.67482		9.17147
77.6828	-13.1014		14.8139
79.0271	12.436		5.96946
79.3014	20.6737		3.25537
79.5612	29.0201		-0.00146617
80.9557	28.1969		-10.3859
79.7988	37.2633		-3.66581
69.7685	-60.2078		13.3048
70.4459	-58.6727		5.15059
77.1022	-20.1434		16.35
78.2126	-20.6872		10.3583
49.7264	-118.194		2.58583
51.2753	-129.465		1.24098
54.9825	-83.9841		14.1689
52.7879	-87.3788		10.9354
52.7658	-137.63		0.0454916
54.2674	-143.631		-1.28298
60.1137	-114.514		-15.0487
60.7453	-123.861		-16.6683
61.1514	-88.6066		-11.7778
62.4933	-86.8331		-16.9615
61.888	-84.2103		-10.6459
62.8773	-79.8894		-9.21258
61.3785	-130.874		-18.3664
61.9329	-136.382		-20.4697
70.8235	-57.9116		-2.22524
76.3748	-38.5931		5.73324
77.4456	-36.6319		2.37131
75.6233	-42.3675		4.48245
79.0533	-20.6687		6.34025
61.6079	-94.1432		-25.4003
60.6013	-89.8504		-32.3151
62.3303	-88.0188		-24.0948
63.4015	-82.2612		-22.9701
63.2272	-75.7817		-29.149
67.466	-65.815		-19.1364
75.1186	-47.4104		-11.2586
76.3852	-44.4652		-18.1148
57.565	-120.009		-44.311
57.7489	-127.62		-45.8828
54.4295	-117.243		-51.4083
57.4815	-111.871		-42.6352
73.3868	-45.2586		-25.9699
75.876	-41.5964		-24.38
77.5783	-39.8851		-23.7503
28.8446	-145.797		20.2753
27.1264	-137.171		22.2133
24.1846	-146.842		22.8454
30.3326	-151.911		18.8009
22.7293	-106.405		30.6487
18.2306	-106.485		34.5593
22.9011	-113.468		28.1993
23.5941	-102.621		32.7861
29.8742	-96.7846		45.2994
27.263	-97.8766		40.5546
31.9881	-95.9304		49.2285
24.9535	-99.945		35.9497
20.3214	-100.746		40.0732
24.8111	-124.526		25.2364
20.2854	-125.746		28.5274
29.9884	-65.8241		81.1408
27.8813	-62.5235		83.1457
33.6164	-95.1139		52.5987
26.4631	-60.377		84.2192
24.3825	-62.2533		85.2844
25.2678	-58.7246		84.9132
24.3185	-57.3675		85.3342
22.6321	-58.7502		86.4266
27.5624	-80.5207		79.9369
28.344	-85.5966		77.7902
28.625	-90.4277		75.2687
18.406	-55.105		88.6575
15.7764	-55.0253		90.4746
17.9896	-54.4304		87.7288
20.7497	-54.9136		86.3117
17.9737	-54.678		87.3579
15.1294	-53.8556		88.9491
17.9343	-55.217		86.9434
17.9661	-56.7619		86.1663
14.9538	-54.5391		88.1057
17.9561	-60.1784		85.1016
17.9874	-64.3238		84.2654
14.8991	-59.397		86.3544
13.9875	-106.451		37.6818
14.7643	-103.187		39.9979
14.1916	-114.7		35.1061
19.4759	-147.958		25.1286
17.9818	-139.485		27.5437
14.8232	-148.809		27.0586
20.7993	-153.738		23.4251
15.9598	-126.852		31.4075
8.03328	-101.629		47.1071
11.2332	-101.591		45.6859
8.35069	-102.247		53.9353
10.7342	-149.42		28.4413
11.8506	-154.961		26.6964
9.36992	-103.678		61.7203
12.0288	-53.1634		90.5805
11.9349	-53.3716		89.9555
11.8128	-53.8951		89.3589
11.9748	-55.3788		88.3699
11.9284	-58.6812		87.3037
12.0803	-63.0296		86.4954
75.1246	48.0875		13.5976
77.9724	46.3811		2.8217
75.2923	55.8939		8.6119
71.4631	50.7892		24.1531
81.4196	27.0796		-20.0805
74.9451	-20.5304		-49.0363
72.0895	-22.325		-53.9589
51.5974	-95.9373		-53.8835
52.3669	-85.8428		-52.6277
54.4782	-99.1063		-48.3019
51.3857	-106.072		-55.2255
48.5343	-93.5825		-58.903
51.5033	-114.948		-56.7155
51.9004	-123.394		-58.0723
48.3568	-113.208		-61.4907
58.6399	-84.1777		-39.7185
57.7757	-93.6089		-40.4337
56.1481	-79.5976		-46.215
60.1745	-75.8595		-38.192
24.3248	113.783		22.9981
31.1877	110.977		22.6943
24.1	118.416		7.27512
17.1279	115.747		23.3263
23.294	102.849		-79.1993
24.0049	111.623		-63.196
30.4381	100.818		-77.2862
22.4474	91.8999		-92.4588
15.8005	104.274		-80.6377
21.9192	79.9058		-102.058
28.8253	78.2468		-100.033
21.5694	66.6487		-109.293
14.903	80.6838		-103.684
24.1813	117.563		-45.9458
31.4191	115.061		-44.3097
16.628	119.385		-47.0173
24.1854	120.617		-27.8804
8.92534	124.145		-10.6243
0.915861	124.557		-10.7387
9.03469	121.777		7.09245
16.6655	122.908		-10.3369
8.85086	123.769		-29.0909
21.2552	53.5897		-114.231
27.708	52.2256		-112.166
20.9105	40.0611		-117.496
14.7125	54.3677		-115.702
20.3694	25.928		-119.283
26.7258	24.9473		-117.076
19.8308	11.9845		-119.43
14.0272	26.8802		-120.804
17.6195	-26.7789		-108.272
23.4453	-27.57		-106.05
17.2472	-38.6508		-100.725
12.0354	-26.6523		-109.463
18.4795	-14.0827		-114.257
6.75833	-0.0769686		-120.582
0.340022	0.00760015		-120.915
7.00595	13.1406		-122.036
13.0251	-0.514375		-119.557
6.41822	-12.9754		-116.97
14.9972	-85.8967		-82.8479
15.3912	-76.3398		-83.7956
20.26	-86.6987		-81.4764
14.729	-95.3699		-82.5292
9.93412	-85.4405		-83.6305
4.73759	-103.929		-83.2677
9.67989	-104.383		-82.9646
4.82588	-113.592		-83.1164
-0.0233522	-103.704		-83.3624
4.87591	-94.2439		-83.5497
17.3372	-48.0341		-94.478
22.6277	-48.6437		-92.8749
16.8896	-56.4069		-89.7989
11.6168	-47.5531		-95.5091
16.0266	-65.9673		-86.1126
21.6327	-67.1268		-84.3304
10.7526	-65.1405		-87.1296
5.4483	-64.85		-87.5858
5.7498	-55.4691		-91.3024
5.11523	-75.413		-85.1467
0.116673	-65.0386		-87.632
49.649	98.8597		19.2666
55.3822	93.334		17.7478
50.4008	102.51		5.37752
43.7875	103.493		20.8377
47.976	71.1559		-89.8977
53.479	68.0117		-85.6198
47.5804	59.1123		-96.7107
42.089	73.8291		-93.7606
48.4099	82.0966		-80.6865
48.7992	91.6459		-68.6102
43.0836	95.2775		-71.879
49.4915	98.7317		-54.3969
54.3628	87.2115		-65.0115
50.2429	103.052		-39.569
56.0257	97.357		-37.8361
44.3893	107.759		-41.1589
51.091	104.612		-24.6074
50.9076	104.581		-9.49812
44.8006	109.674		-9.28356
56.7329	98.7151		-9.7067
46.9035	46.9108		-101.635
46.1867	34.2442		-104.89
40.9685	48.8346		-105.615
52.3736	44.6618		-97.2755
45.1787	21.4183		-106.703
50.5502	19.9388		-102.294
44.1594	8.42697		-106.779
39.4915	22.5749		-110.589
42.8117	-4.15822		-105.265
41.4312	-17.139		-101.629
37.541	-3.78004		-108.977
47.6545	-4.95934		-100.991
40.5249	-29.8676		-95.5887
45.2649	-29.6733		-91.6635
39.8344	-40.9598		-89.0079
35.1967	-29.1818		-99.6097
39.1174	-50.5896		-83.1659
38.284	-60.1781		-78.1402
33.913	-50.3048		-86.9773
43.7156	-50.8896		-78.7761
35.8318	-88.6976		-73.2601
34.8506	-98.6175		-74.2745
30.8026	-88.1987		-76.741
36.8638	-79.1295		-73.0964
40.3868	-89.7477		-69.157
24.5889	-105.996		-79.9752
24.7588	-114.844		-80.2302
19.5366	-105.268		-81.4344
24.9124	-96.9271		-79.6914
29.7029	-106.948		-77.8426
37.5494	-69.7852		-74.6855
42.2113	-70.2414		-70.0258
32.6562	-69.0544		-78.5358
68.4602	70.6773		-51.627
69.6201	74.6283		-40.1329
72.4808	63.818		-45.8265
67.5939	64.4929		-62.1088
64.127	76.7011		-56.8436
70.4576	76.8732		-28.7594
74.2631	68.9507		-23.7105
66.1332	84.2719		-32.8034
70.916	77.845		-17.5373
70.1545	78.6301		-6.68003
73.0029	71.1122		-2.09502
66.4416	85.6515		-8.81894
57.1867	42.3794		-92.6949
57.9058	53.6725		-87.7473
61.5545	39.6824		-87.8141
56.4231	30.4439		-95.9132
58.2924	64.7131		-81.1096
58.7555	74.3111		-72.3957
62.8079	60.7728		-76.1544
52.4361	-5.7323		-95.922
54.2624	6.34614		-97.3612
57.018	-6.64871		-90.2651
50.6364	-17.8894		-92.6795
55.4317	18.2575		-97.4987
59.9456	16.8285		-92.3238
49.4967	-29.2759		-87.423
53.6285	-29.3428		-82.1805
48.8473	-40.5275		-80.4388
47.8164	-50.3401		-74.3907
51.5154	-48.819		-70.2533
46.8588	-71.0238		-64.2013
50.7691	-73.6723		-57.5119
45.7597	-81.0388		-63.4075
78.3337	35.0557		-47.2294
77.4624	29.072		-54.6588
76.3284	40.6139		-52.9225
60.5291	87.2082		16.83
61.2604	90.8004		3.65774
79.4681	45.2196		-7.83331
78.7453	53.1514		-12.7834
67.5951	-7.65963		-74.1168
64.4523	-7.67591		-79.3612
69.1221	1.90296		-75.6713
70.5072	-8.09327		-68.4506
65.6892	-17.6572		-71.1342
69.9852	11.549		-76.4185
67.0118	13.3958		-81.9649
70.8874	20.6963		-74.9909
72.8098	9.36574		-70.255
71.7752	29.9635		-71.6611
68.7435	33.5068		-77.3902
72.7703	38.4311		-66.1927
74.4647	26.0263		-65.6595
59.8842	-43.1804		-59.2441
57.1762	-45.3632		-62.8585
61.6759	-35.3838		-63.3278
62.6049	-41.076		-55.3832
58.2963	-51.0987		-55.3225
69.31	-23.8955		-58.6753
67.3484	-31.3708		-55.2092
66.6164	-25.4511		-62.8889
71.2737	-16.2847		-61.2136
53.7593	-76.4218		-51.7234
55.3033	-67.4139		-51.7072
77.6676	-40.4953		-3.11647
78.353	-36.9141		-1.20539
75.9722	-43.6845		-0.697668
78.3601	-35.2017		0.197753
82.1208	-8.54207		-2.57083
82.8786	-3.00157		-4.87855
94.1626	3.53761		-38.2728
94.3261	9.4772		-35.9403
94.7927	3.11203		-37.5615
83.9174	-37.5112		-23.663
82.6698	-40.5482		-20.1
93.9418	14.2581		-32.47
92.9818	14.5887		-32.9531
93.2864	17.4227		-28.4048
94.828	13.5619		-31.9119
87.6761	8.71122		-11.8747
86.3531	8.71588		-12.5301
92.555	18.71		-24.2078
93.4821	17.97		-23.4614
89.1317	-20.1367		-34.5069
85.3319	-38.5629		-16.0732
84.6835	-38.5586		-13.3735
83.5888	-40.7163		-16.4588
83.2884	-0.259993		-6.67763
89.2735	16.841		-19.7502
87.3742	13.586		-17.0589
88.2022	15.947		-21.2577
85.0337	9.00366		-13.9364
84.1516	9.46216		-15.491
92.3399	14.4372		-33.1562
83.3904	9.22881		-16.8918
84.6222	11.3388		-19.5503
86.1497	13.3869		-23.1289
83.9762	11.1494		-24.1124
88.342	-29.0423		-27.0269
88.3947	-30.9728		-19.2702
82.0036	-41.9519		-16.8878
83.9659	-37.7887		-11.1011
85.2084	-34.7881		-11.2021
86.2063	-32.3053		-12.1731
86.7176	-30.6512		-13.1705
94.9817	2.78174		-37.1433
95.431	8.52003		-34.9036
92.0942	15.0792		-16.0776
92.2707	14.3951		-15.7645
93.2545	16.8521		-19.1347
92.2368	13.7559		-15.6022
93.4643	15.6148		-18.6048
92.0616	12.645		-15.7526
95.2104	12.9885		-31.5484
94.6805	15.9064		-27.478
95.3279	12.4555		-31.4015
94.0485	17.231		-22.9684
94.2786	16.6024		-22.828
94.2898	15.9909		-22.552
94.8324	14.8138		-27.0932
95.2877	12.0678		-31.0795
94.4114	-1.71058		-36.0258
91.7911	11.2991		-16.2667
89.2305	3.68599		-13.6753
93.6803	11.1906		-24.6291
93.8939	-5.06029		-30.8273
93.9558	-3.12192		-30.5583
93.8893	-1.2071		-30.0028
93.6906	0.313857		-29.1229
93.3471	1.54106		-27.8954
92.4488	2.34657		-25.3724
84.7149	-27.0847		-11.009
85.9077	-28.6649		-12.6421
87.2975	-3.33445		-10.5272
83.5913	-18.8678		-9.33866
86.8265	-29.8744		-13.7064
35.861	27.972		72.2863
36.216	95.7106		47.2295
37.1557	101.927		35.543
9.69167	102.899		50.9243
9.56729	110.472		38.1239
1.422	103.24		51.1075
37.5584	107.651		21.8316
37.8871	111.872		6.87665
9.28322	116.979		23.5126
1.12933	117.428		23.464
24.0087	120.862		-9.93105
31.2661	117.928		-9.5339
38.0983	114.25		-9.4157
38.2965	114.243		-25.9828
67.1493	54.5969		34.0285
74.5839	63.4307		3.14617
76.4709	62.0875		-7.52492
61.774	92.6002		-9.83062
62.0264	92.3868		-22.8314
8.77566	120.507		-47.5683
8.63632	114.302		-65.2057
0.813717	120.888		-47.7157
37.9544	111.933		-42.5117
37.583	106.551		-59.2692
76.8822	61.0057		-18.2293
76.6197	59.5339		-29.0483
61.13	91.308		-35.7838
60.2211	88.024		-48.541
75.6483	56.8773		-39.8087
74.6636	52.5122		-50.036
73.6712	46.4202		-58.8515
70.5571	51.5735		-64.8809
44.7947	-91.7085		-64.1586
44.103	-101.751		-65.58
44.1861	-111.133		-66.6763
44.402	-119.762		-67.9329
39.3577	-109.204		-71.3965
8.27005	105.227		-81.2951
7.92719	93.6751		-94.8607
0.721945	105.427		-81.676
7.82697	81.1218		-104.61
7.79668	67.9111		-111.672
0.5742	81.2492		-104.917
7.78643	54.8167		-116.585
7.61759	41.569		-119.853
0.469495	55.0189		-116.86
7.2972	27.5379		-121.733
0.41628	27.5788		-122.057
19.225	-1.2052		-117.851
25.4022	-2.1638		-115.473
6.04988	-26.431		-110.276
5.97317	-38.7753		-101.938
0.270351	-26.5366		-110.422
5.90294	-47.6609		-95.7767
0.196299	-47.8718		-95.7287
4.99797	-84.9474		-84.0398
0.0353507	-84.7267		-84.1657
35.544	76.2345		-97.2582
36.1505	87.9705		-87.7059
35.0472	63.5082		-104.273
36.8283	98.2889		-75.003
34.4094	50.6932		-109.218
33.8329	37.473		-112.44
33.1565	23.9059		-114.146
32.4915	10.1257		-114.16
31.6026	-3.00715		-112.466
30.5339	-15.8566		-108.849
29.3854	-28.3644		-103.177
28.5226	-39.8166		-96.4422
28.3053	-49.4914		-90.3477
28.0399	-58.623		-85.3391
27.2121	-68.0819		-81.8645
26.4214	-77.9226		-79.9183
25.6902	-87.3861		-79.425
34.7081	-107.899		-74.9761
34.9783	-116.744		-75.6234
59.2977	82.4598		-61.1429
66.8738	56.7222		-70.5465
66.19	46.9621		-77.5927
65.3078	36.9696		-82.7899
64.4992	26.1635		-86.0187
63.6564	15.2932		-87.3036
62.6536	4.02591		-86.6338
60.8942	-7.40381		-84.7819
58.9553	-18.3866		-81.67
57.1746	-28.5579		-77.465
60.5168	-28.0515		-72.2814
55.7478	-38.5358		-71.8646
54.436	-47.1102		-66.642
56.9663	-59.3057		-52.3364
59.1604	-57.8848		-48.8561
76.5249	22.7091		-60.1136
75.7968	15.2244		-63.2108
78.4497	18.775		-54.0181
72.8861	-8.25317		-63.3958
74.1984	-0.2271		-64.4109
63.5876	-26.8667		-67.6025
75.0362	7.80711		-64.6785
65.3682	-38.7579		-51.6453
63.6353	-46.0966		-48.2585
15.5484	-101.451		43.4871
62.6342	-75.0046		6.91612
51.1654	-91.1094		8.51126
12.7647	-45.3566		95.6299
15.5908	-46.4138		93.9647
18.575	-48.2572		91.6504
8.25499	-56.4867		95.2832
8.59134	-57.5914		95.3886
8.85007	-58.7249		95.377
21.9596	-64.317		86.6674
21.1552	-62.381		87.4715
20.4119	-60.683		88.1627
16.9597	-42.1007		93.2524
35.6052	-53.1826		79.5854
28.4459	-30.6567		81.7898
28.9581	-35.9928		83.4003
29.3294	-41.1627		84.529
59.8811	-36.5676		56.5936
21.7883	24.1775		72.2388
80.195	14.8953		-47.5367
83.0511	13.1807		-28.381
83.7399	11.1097		-25.9703
74.5382	-46.8105		2.96599
28.3123	12.2024		69.8078
54.3469	44.7848		64.1538
8.61777	-26.2377		94.4538
47.9421	21.322		61.2208
12.3084	-25.4364		91.6423
83.6294	10.8752		-24.898
57.4339	-102.953		-41.5339
62.6681	-67.6775		-36.1826
61.8821	-60.8776		-41.53
61.9187	-54.8378		-45.3722
21.6051	-22.3162		82.7005
12.7731	-54.9173		92.5268
22.3885	-55.0634		85.4182
6.64222	-50.5822		92.691
-72.2137	-50.9624		14.5018
-73.2328	-46.1804		15.4567
-73.2758	-48.8401		7.3636
-71.0733	-55.4347		13.4422
-70.8349	-52.701		22.4861
-56.7979	-116.975		-6.62991
-56.436	-106.976		-5.86225
-59.0544	-115.769		-11.039
-57.7872	-127.114		-7.92666
-53.9406	-117.943		-2.36456
-58.7998	-134.499		-9.25151
-56.3195	-136.28		-4.69097
-60.625	-132.736		-13.861
-59.6738	-140.278		-10.5127
-49.8179	-101.472		4.3694
-53.6209	-100.556		-0.552332
-49.7051	-108.778		3.07186
-45.7595	-102.715		8.88347
-50.709	-95.939		5.73531
-60.533	-98.6973		-13.7439
-58.8741	-99.2723		-9.38379
-60.9239	-93.4252		-13.1862
-61.5876	-97.366		-18.8756
-60.3476	-105.49		-14.4552
-64.3744	-69.9148		24.7289
-65.6958	-68.8602		17.5402
-62.4519	-73.6029		22.6767
-62.0158	-71.3012		31.2894
-65.8655	-66.3207		26.4396
-73.3611	31.5545		22.0254
-76.7042	29.8973		10.7774
-73.0762	23.6624		24.4811
-69.233	34.7431		32.7907
-73.9316	39.7637		18.2342
-78.6022	42.3123		-28.9156
-79.8815	34.7072		-24.2316
-78.9919	44.0256		-18.47
-76.8816	49.5406		-33.9502
-78.0341	39.3031		-38.4822
-5.26479	-107.294		40.8378
-5.34506	-103.816		43.3668
-8.62097	-107.419		39.6022
-6.39877	-116.273		38.6629
-2.73507	-107.212		41.5656
-8.20758	-129.234		34.775
-9.69351	-141.486		30.7853
-5.15737	-129.34		35.9284
-11.5448	-128.39		33.241
-3.38875	-150.197		29.8745
-3.86788	-155.587		28.3362
-2.94517	-142.051		32.392
-6.94487	-149.891		29.3307
-67.6928	-55.2809		-30.9863
-68.5206	-47.5161		-35.3499
-64.962	-61.2195		-33.3611
-67.1866	-61.7877		-25.6062
-70.3715	-49.3046		-28.7371
-69.3914	-41.9347		-38.5298
-72.6001	-37.3928		-35.4386
-70.274	-37.0715		-41.1014
-65.6683	-47.6233		-41.8655
-61.8079	-125.825		-29.9927
-62.2382	-128.922		-23.6304
-60.381	-122.982		-36.7381
-61.8632	-132.329		-32.3812
-2.31961	-129.625		36.5489
-1.39909	-116.609		40.3737
-68.7989	-54.0278		29.9621
-67.7607	-58.8923		29.3392
-66.4628	-54.2183		36.3334
-70.0172	-48.3204		29.954
-66.6618	-67.3067		9.73678
-68.3633	-63.443		11.0985
-67.181	-66.3404		1.57543
-64.7776	-71.0125		7.94439
-13.1763	-94.0393		90.6784
-12.7148	-89.6896		92.0065
-17.0112	-93.6138		88.1848
-13.2143	-97.9625		88.3564
-9.35377	-94.2451		92.4075
-20.996	-92.5074		84.9064
-20.9281	-88.0829		86.0269
-24.95	-91.2602		80.585
-20.7478	-96.4846		82.9312
-5.06743	-84.9948		94.7849
-5.36018	-90.0962		94.6753
-4.67393	-79.3972		93.824
-8.53249	-84.8222		93.8267
-12.9684	-100.912		85.2739
-9.34317	-101.171		86.7966
-16.691	-100.418		83.0122
-12.7588	-103.114		80.8383
-12.421	-104.292		75.1522
-11.7441	-104.196		68.71
-8.40497	-104.813		76.2227
-16.1315	2.76058		80.9749
-13.9782	5.5906		83.416
-16.1305	5.94195		78.5725
-18.3115	0.685916		78.8452
-16.3678	-0.615229		82.7754
-47.6192	-23.9414		68.2744
-48.1921	-29.0366		67.8824
-41.4196	-22.8238		72.2893
-46.971	-18.7875		68.5016
-53.6768	-24.8398		63.2246
-58.5995	-14.4575		57.9755
-59.2862	-20.1252		57.4331
-52.6104	-13.888		63.7928
-57.3189	-9.01319		58.6628
-64.2257	-14.8054		50.8579
-69.3411	1.80564		39.3445
-66.6367	4.30091		43.5214
-68.6655	9.28943		38.5153
-71.4631	-0.0727165		34.7991
-48.4234	-34.3208		67.2749
-42.4491	-33.2336		72.2121
-54.1969	-35.9894		61.379
-48.1242	-40.2536		67.0124
-2.42923	7.04391		100.094
-4.16099	6.35162		99.5405
-2.54765	2.03763		103.373
-2.50652	12.1069		96.904
-28.9158	70.5138		75.4538
-30.2976	76.4669		70.5889
-34.6719	68.9906		72.3304
-27.2309	63.5818		80.5204
-23.615	71.4258		77.6976
-3.63904	-104.256		62.9966
-4.17695	-105.196		70.3238
-6.82356	-103.923		62.2407
-2.75698	-102.72		55.4474
-63.7914	-53.7188		42.1305
-65.1943	-47.5507		42.2289
-62.095	-59.9543		41.9748
-60.6756	-52.7358		47.8928
-5.50013	-101.422		87.6044
-5.24806	-103.875		82.6449
-5.53007	-98.3436		90.9794
-4.76241	-105.127		76.7345
-37.4971	-90.1385		56.7098
-38.1508	-87.2481		59.9945
-42.2159	-86.4411		52.0151
-36.2465	-92.3895		54.0171
-32.8167	-93.5112		62.8509
-40.4767	-91.9462		35.1051
-35.556	-94.3996		39.3849
-43.3689	-89.3658		38.6337
-45.3348	-89.3827		30.596
-37.4087	-94.8514		30.7822
-1.36155	-101.798		48.5443
-0.285935	-103.163		44.3671
-3.77173	-101.939		47.8832
-7.05447	-3.95179		104.021
-4.70796	-2.99238		105.747
-6.59868	0.358723		101.201
-9.69175	-5.47575		101.025
-7.59861	-7.34434		106.241
-24.4131	-19.575		79.7837
-21.0623	-16.8523		81.7734
-23.0986	-14.6379		79.9735
-28.5391	-20.8798		78.0138
-28.125	-54.4128		81.9424
-26.1511	-54.5939		82.5715
-26.7391	-53.5531		82.4507
-11.5741	-24.1082		93.1016
-13.2215	-24.4084		91.0665
-10.9882	-24.8927		92.7375
-12.9086	-23.0437		93.0281
-11.3386	-27.9542		91.0487
-9.57037	-27.296		92.7427
-11.1056	-27.0443		91.2998
-13.5884	-28.1879		88.9298
-11.8724	-29.4103		90.8948
-1.39173	-23.8618		101.275
-3.15953	-23.7025		100.382
-1.38692	-24.6329		100.044
-1.58325	-23.1587		102.786
-16.0917	-27.4688		86.7198
-16.702	-28.8867		86.6202
-15.5871	-26.5103		87.1637
-18.3169	-25.8956		84.735
-7.87394	-16.2436		108.351
-8.08831	-14.5983		108.852
-10.2099	-16.4917		104.526
-7.54293	-18.0055		107.182
-5.47679	-16.2449		110.877
-25.7843	-69.8712		82.5482
-27.2276	-74.5167		80.8778
-22.4465	-71.7183		84.945
-24.3358	-66.0584		84.0384
-28.511	-67.2927		80.6791
-26.5913	-47.7962		84.5573
-28.4954	-48.6645		83.2168
-24.6721	-46.787		86.0477
-26.1599	-43.6007		85.2093
-1.70013	-28.5531		97.6916
-1.49497	-26.663		98.3816
-3.64675	-28.445		97.092
-1.91943	-30.8968		97.3278
-6.36222	5.00011		98.2059
-6.51384	9.56584		95.057
-9.0357	2.99026		95.5976
-17.265	-17.4597		88.2646
-17.7152	-17.036		86.8204
-17.408	-18.946		87.3819
-16.6224	-16.6509		90.6021
-16.4941	-15.6209		90.6918
-4.90238	-25.1924		97.386
-3.29336	-25.2615		98.4085
-4.84939	-24.3357		98.0101
-6.42274	-25.6726		95.9442
-4.80703	-26.7294		96.8051
-4.66008	-23.6998		99.0635
-4.66003	-22.981		100.515
-15.8684	-15.7849		92.9865
-16.212	-17.4295		91.8798
-15.6611	-14.862		93.3089
-17.2812	-21.2014		86.7225
-16.6367	-23.3606		86.8356
-16.5996	-20.1193		89.0436
-2.57606	-39.2357		98.077
-2.45335	-36.3395		97.5704
-5.14468	-38.5881		97.6263
-2.90447	-41.1848		98.4331
-22.753	-30.7829		83.4008
-21.2394	-26.9113		82.8999
-25.0525	-30.6956		82.0743
-24.154	-34.7702		84.2897
-20.3804	-30.9748		84.9706
-10.7209	-67.1021		91.6218
-14.3895	-66.7643		90.3715
-11.0924	-69.6845		91.0549
-6.8826	-67.4064		92.4351
-10.5316	-64.9653		92.4063
-22.6235	-49.4212		86.7359
-22.7067	-47.4807		87.3477
-24.6088	-51.1167		84.5204
-22.8795	-50.2348		86.2275
-15.5046	-14.175		93.2019
-14.2443	-13.0088		96.1412
-15.6854	-13.2942		91.672
-17.651	-66.4407		88.7687
-17.2334	-64.4451		89.5925
-20.7843	-65.4179		86.8518
-18.1195	-69.0174		88.0109
-3.58998	-67.5912		92.7953
-3.37088	-65.8326		93.3971
-3.72037	-69.9477		92.4749
-59.4041	28.5438		55.5514
-60.4874	29.9814		53.5256
-61.3197	23.2426		50.2445
-58.1265	27.4576		57.4053
-39.15	55.0343		75.2011
-39.8836	61.0445		71.8814
-45.7692	52.91		69.2314
-38.7938	49.4927		77.6641
-33.2242	56.4356		80.0974
-52.5909	49.86		62.05
-53.7048	55.5109		58.194
-58.9523	45.5536		53.4109
-51.6724	44.6767		65.3996
-39.4862	40.2957		78.9123
-39.1375	43.3237		78.9357
-39.814	37.1474		78.4537
-34.4344	41.2913		83.9075
-62.1953	31.456		50.0062
-65.4285	24.8228		42.8072
-57.107	36.9651		59.7859
-63.4623	34.3636		46.7858
-23.729	28.9871		82.8322
-20.7593	28.4683		83.19
-23.3428	29.9902		84.1871
-27.0527	29.4769		81.8551
-24.1395	27.7778		80.5753
-7.63575	18.7431		88.3652
-7.33548	16.5967		89.7499
-5.03755	20.7043		90.3517
-7.96405	20.3786		87.3611
-10.1234	16.0257		85.162
-28.938	-4.02742		73.8299
-23.2647	-2.59076		76.0973
-27.1545	-1.07333		73.3914
-36.1141	-4.55313		71.1339
-30.8358	-7.63852		74.2425
-57.0779	8.70508		53.4268
-54.6393	5.2764		56.4712
-54.0866	10.3749		55.4336
-57.9552	13.2083		52.223
-59.8584	7.19605		51.2453
-6.8539	13.543		92.1117
-4.45457	15.308		93.642
-9.34955	11.0585		89.6781
-40.0036	34.7811		77.8396
-39.7488	32.7663		77.1914
-34.8699	35.5952		82.3875
-44.9858	34.7449		74.1292
-49.9597	33.6482		69.7641
-54.0968	30.1899		64.5536
-49.071	31.5687		70.0495
-53.5236	17.2303		56.585
-55.6053	17.4307		54.9985
-52.8845	14.4356		56.1468
-51.2655	16.8312		57.9805
-53.5775	20.3184		58.3851
-40.8598	19.9266		66.3493
-39.1694	20.8642		67.8603
-42.3665	18.9108		64.6074
-37.4244	21.7257		69.0316
-35.2715	22.1725		69.717
-37.5061	22.4225		69.6667
-39.5141	21.5948		68.428
-35.0894	22.8342		70.3471
-32.5344	22.3108		70.0814
-29.751	22.1442		70.1917
-32.2312	22.9323		70.6703
-29.2895	22.7458		70.7499
-27.1662	21.6856		70.019
-24.7413	20.7734		69.6139
-22.5805	19.5761		69.0969
-21.1137	18.4876		68.6978
-21.6198	20.2537		69.6606
-23.7516	21.2854		70.1012
-20.3287	19.1835		69.2699
-20.2854	17.4734		68.3589
-20.6723	20.7339		70.3201
-22.8797	21.9333		70.8873
-31.9961	23.6816		71.5084
-28.8709	23.476		71.6372
-45.8363	15.0202		60.4134
-44.7261	14.0295		61.0145
-30.8819	29.9378		80.5287
-30.9988	28.5176		78.5574
-30.7738	31.6473		82.2737
-35.1282	30.3433		78.6028
-45.4491	25.1244		68.9169
-43.8855	23.3053		68.3001
-42.4179	26.2311		71.4343
-46.8435	27.3179		69.5999
-35.4862	5.99665		67.379
-29.2041	5.96083		69.3631
-40.7974	7.14917		64.9148
-36.2071	4.7574		67.5231
-24.4237	7.37239		70.2722
-24.6859	6.03457		70.8317
-21.3216	9.16385		70.4925
