1850
93.8314	-7.7133		-35.2804
94.0272	-5.61901		-34.2134
93.7174	-8.38716		-36.3202
94.0303	-4.65891		-36.4694
89.1335	-23.7368		-24.9662
89.5206	-21.4648		-26.7106
89.5293	-24.7501		-25.7543
91.1155	-10.1027		-28.7386
90.1762	-12.0926		-27.672
92.3068	-10.3394		-30.5428
91.1372	-8.76845		-28.4504
82.0732	-28.9234		-7.03985
82.0582	-31.1553		-7.75703
82.6691	-28.47		-7.88844
81.8731	-28.1104		-6.38917
81.8218	-26.5127		-5.63519
82.1942	-24.4573		-5.57976
81.4688	-26.7043		-4.77401
83.4201	-17.4264		-5.80261
83.1752	-17.9967		-5.38882
83.7106	-17.735		-6.679
83.9101	-14.2112		-5.94303
82.8728	-18.8048		-4.93977
82.5695	-18.697		-4.02902
82.6365	-21.2062		-5.26081
85.5937	-24.2715		-17.0078
85.4769	-25.3562		-15.2553
85.6185	-12.3701		-14.0663
84.5473	-16.1827		-13.8605
85.4611	-12.8387		-15.5741
86.7141	-8.55497		-14.259
86.0609	-11.2986		-12.8149
94.0289	5.58018		-30.3787
94.1379	6.32319		-30.6217
93.9027	5.1449		-29.8255
94.2067	4.43625		-32.1069
94.1503	0.80154		-32.9476
94.0299	-0.325024		-31.5528
94.1642	-0.848886		-33.8523
94.2137	2.13846		-33.7542
94.0043	2.54782		-31.0291
91.4263	7.80407		-18.6221
92.1432	7.96585		-21.1987
90.8929	6.91442		-17.5484
92.9714	7.91046		-24.4287
92.6003	6.84189		-23.7674
93.9128	7.69858		-28.4157
93.4724	9.2017		-25.2522
41.4712	24.4165		71.6738
43.8872	23.2149		70.844
38.5192	25.2774		72.0773
26.5088	-99.3622		65.3742
25.2877	-99.6913		61.4985
29.0657	-98.185		65.1458
48.8125	17.4711		66.4994
47.7403	19.705		68.0512
49.6932	15.6974		65.2748
53.0594	19.2612		65.3916
55.2928	20.5744		64.46
51.5118	22.1971		67.6285
50.921	18.6396		66.2987
53.6432	16.5527		63.7597
74.2116	-49.65		-5.13785
75.0564	-47.7663		-9.59421
74.6638	-48.1772		-3.73604
73.4521	-51.8008		-5.5417
18.7394	14.3695		69.1006
19.2627	13.6118		68.9639
18.7292	15.3139		69.1635
17.348	17.1993		70.0833
18.8306	19.0758		70.2111
17.1062	15.7448		70.0142
8.35804	19.0579		79.0862
7.65416	19.151		79.8435
8.41775	21.1801		78.8455
21.063	-55.4651		83.4746
21.9152	-55.9621		81.8692
21.4847	-55.0261		83.8107
17.6609	-54.8969		86.6015
66.377	-71.098		-10.043
65.6549	-71.3004		-4.71824
65.7291	-73.5554		-11.8265
67.2833	-68.7098		-10.661
82.2479	-6.33617		-0.186731
81.3856	-13.646		2.3333
82.9492	-7.04615		-2.79156
82.8728	1.48923		-3.54075
81.4285	-5.36935		4.16591
66.5597	-73.4414		-23.0269
65.9674	-75.5229		-24.6471
67.3057	-69.2501		-23.49
65.9937	-75.7082		-18.3965
63.0719	-107.694		-27.9937
63.0786	-116.087		-29.3998
61.5217	-104.168		-35.5941
63.1205	-98.8976		-27.9361
63.2594	-110.155		-21.9446
27.3241	-57.2575		77.6812
27.4676	-57.4003		77.6348
25.7494	-57.8562		79.2795
27.696	-57.6364		77.5968
22.9004	-59.7269		83.3315
23.0437	-59.1423		82.9056
19.7216	-61.1055		87.4336
31.1724	-97.057		65.0031
35.403	-95.2687		58.9204
31.2989	-95.8107		68.5605
49.3857	-60.026		-66.2825
48.0337	-56.2577		-70.1964
52.0809	-59.0947		-62.6342
48.4581	-63.0673		-66.0955
56.8646	78.8268		33.5617
58.5845	80.7397		26.7823
52.8435	82.0223		36.1149
57.9048	74.796		36.3876
90.6096	-20.0985		-33.7014
91.83	-15.0693		-36.4214
91.1527	-19.3226		-32.6988
89.5336	-24.2811		-31.2448
89.9626	-20.1236		-34.922
86.5426	-0.566489		-9.07655
85.7686	-4.88341		-8.02581
87.4677	-0.646757		-9.7313
87.2513	3.75703		-10.5766
85.3418	-0.401181		-8.34664
83.9772	-21.8475		-8.94463
83.5685	-22.5611		-7.92104
84.2996	-24.4137		-10.2165
84.2577	-22.0406		-10.4712
84.0093	-20.1859		-8.59323
83.6815	-28.2612		-9.46804
83.3397	-25.489		-8.18195
84.4608	-27.9216		-10.7874
92.7482	-9.34207		-38.7152
91.9566	-9.32531		-39.5199
93.3436	-3.22337		-39.6562
93.238	-9.36418		-37.8683
90.9237	-9.18124		-40.1784
90.2042	-14.6987		-38.3545
89.8673	-8.93198		-40.554
91.3385	-3.20607		-40.9476
84.0964	3.65595		-9.56453
84.2272	5.88942		-11.2091
83.9004	4.67336		-9.3018
84.2099	1.9676		-8.42451
87.1883	-18.2238		-37.8004
85.5198	-17.6404		-38.549
87.832	-13.8526		-39.5012
88.2425	-18.8494		-37.1224
86.1835	-22.1143		-36.0109
89.6653	-25.7814		-26.523
90.1797	-22.6638		-28.8614
89.3252	-27.7952		-24.4549
89.499	-26.686		-27.7124
87.0499	-34.3776		-24.7055
86.4949	-36.2626		-21.9611
85.6544	-35.731		-25.7582
87.9718	-31.1613		-27.288
88.4827	-31.76		-23.2758
87.9578	-32.8431		-18.2166
87.3866	-34.5289		-18.5758
88.4389	-31.7027		-19.7434
87.5997	-32.2127		-16.9339
77.4184	-43.2988		-14.5538
76.8516	-44.2113		-15.0453
78.472	-42.3369		-16.195
77.5686	-42.5572		-10.3373
82.246	-39.8119		-15.5176
82.508	-40.4851		-17.8073
83.5004	-38.4711		-15.0817
81.9023	-38.1494		-12.556
81.1765	-40.653		-15.7714
89.9737	5.97344		-11.7061
90.0053	7.47124		-11.7851
88.6937	2.48566		-10.9588
90.2432	5.94094		-12.0485
89.9707	8.4012		-11.9992
91.1468	11.6942		-13.8054
89.6471	8.40103		-12.0087
93.4826	-9.20638		-37.1471
92.6576	-13.8659		-34.7725
94.0261	-3.59503		-38.399
94.6487	4.8825		-35.0061
94.4545	3.87253		-34.7608
94.74	4.24624		-35.8662
94.6603	6.38653		-33.4889
90.8259	7.02429		-13.7515
90.7194	6.77657		-13.2121
90.3814	5.46996		-14.0374
91.256	8.62404		-14.677
90.4059	5.89619		-12.4201
89.6139	2.74338		-12.4142
91.3414	10.1261		-13.7415
92.9602	-10.3082		-31.6229
93.5934	-7.39609		-31.8443
91.7177	-13.8488		-30.6825
89.9974	3.92976		-15.576
90.3797	5.53774		-16.0526
89.935	3.76978		-15.1197
90.1802	3.05887		-17.3087
90.6911	6.35613		-17.1928
91.0563	5.98649		-19.1118
89.3398	-15.17		-26.7935
89.8981	-16.9134		-27.8705
86.2965	-10.4972		-11.6419
87.4295	-6.1287		-11.6421
86.1901	-10.5033		-10.5681
85.1462	-15.1627		-11.7603
89.334	-0.342592		-15.44
89.6108	1.38163		-14.8232
53.8041	-57.1959		-60.7694
54.0267	-52.7036		-63.2748
55.264	-57.4316		-58.138
27.3156	-27.9448		81.0192
28.8835	-31.5023		80.494
27.8848	-26.2999		80.9991
25.1714	-27.7756		81.7358
21.9442	-26.1266		83.7195
22.4573	-27.193		83.1096
22.3333	-23.1493		84.3111
20.7435	-26.69		84.7846
52.7999	36.4888		67.1805
52.6517	34.3689		68.0848
58.4806	32.0655		62.626
53.259	38.3206		65.8507
47.9437	38.8881		69.8888
8.46657	-32.5754		91.8418
7.7421	-32.2845		92.893
8.2193	-33.2812		91.6273
9.79852	-32.3364		91.0164
10.0441	-29.5651		95.0567
8.4787	-30.3148		95.6806
11.4479	-29.8288		92.8776
10.631	-28.5147		96.0374
48.4655	14.6037		65.2818
48.1783	15.3866		65.5113
16.3095	-20.7128		94.1828
16.4346	-21.6797		94.0402
16.8079	-20.4882		93.3363
15.029	-20.2914		95.8432
85.1554	-26.1245		-33.9882
84.076	-28.6663		-32.6427
83.839	-24.5046		-35.3495
86.1793	-27.2744		-32.9239
66.4985	75.5757		14.3976
63.9836	79.0891		15.5576
67.4394	71.0252		18.8116
68.3146	76.1612		4.94282
29.7573	-62.9771		72.7885
30.3241	-60.9871		72.0207
29.9798	-64.2403		72.4301
28.6349	-62.5225		74.1406
29.2923	-51.8889		72.1873
27.9233	-52.0293		73.6977
29.2794	-50.8784		71.7858
30.0261	-53.7976		71.7334
-20.0178	-101.648		75.5413
-20.4238	-100.782		78.2517
-22.7492	-100.482		71.9967
-16.8051	-102.702		75.7212
-70.197	-9.97091		49.4401
-71.2054	-5.30739		45.9073
-70.5999	-13.3717		48.6595
-68.0454	-9.4889		53.0012
-65.6868	-7.84676		55.7478
-62.8385	-9.64406		59.2902
-65.4078	-3.02181		54.4255
-12.7482	37.3053		79.9094
-14.5513	35.2973		79.2048
-10.007	33.6862		79.9087
-9.96953	38.3202		80.4301
-16.3556	39.9066		79.676
-9.33918	17.6864		78.3209
-8.87392	18.0841		78.8671
-9.70911	19.3382		77.5685
-9.91983	16.5706		77.9306
-12.4023	18.2528		74.7146
-14.3222	16.7685		72.9621
-11.9313	16.5862		75.4587
-11.1075	19.9582		76.0414
-13.1908	20.0209		74.1226
-45.7191	13.8717		67.7286
-42.4	12.177		69.9291
-47.5037	15.1165		66.4085
-15.6293	10.3362		74.4144
-17.2632	9.34778		73.8643
-15.1482	9.34106		75.5098
-15.4096	11.4921		73.9862
-26.792	-58.207		78.631
-26.658	-58.0793		78.9013
-26.6744	-58.1638		78.9577
-26.9212	-58.3049		78.1926
-25.502	-56.9239		81.1616
-26.6794	-57.4174		79.9807
-23.7547	-56.4891		82.8468
-25.5766	-56.4439		81.7107
-29.6003	-55.5914		79.8088
-27.3131	-58.4728		77.345
-27.076	-58.8505		77.7722
-28.1281	-58.4355		75.9167
-26.7785	-57.7135		78.0107
-22.1608	-62.2221		85.3497
-22.6821	-62.96		84.9359
-19.2581	-63.9086		88.7417
-22.0031	-61.5447		85.3217
-24.986	-60.288		81.5885
-19.2173	-50.5838		89.1083
-18.6674	-49.2629		89.5472
-21.8955	-52.5798		86.6737
-19.5409	-51.3957		88.8173
-16.0792	-49.0756		91.2973
-25.8924	-58.2376		79.8481
-24.2419	-58.3518		81.1255
-26.0272	-58.2344		79.7154
-25.9841	-58.2743		79.8315
-79.0694	-35.75		-7.69054
-79.7814	-34.8134		-7.58159
-78.4306	-39.0017		-10.8979
-78.4887	-36.0858		-6.88144
-86.9708	-26.4566		-19.1421
-87.458	-24.6037		-21.7692
-87.4108	-27.7505		-19.804
-86.5197	-27.6201		-16.7033
-85.9154	-24.8659		-17.9436
-82.8475	-32.627		-9.42192
-83.5191	-33.7494		-11.0991
-82.3653	-32.8636		-8.79338
-82.6468	-30.0337		-8.58804
-82.4353	-20.3413		-12.4308
-82.3628	-19.2931		-13.3196
-82.8142	-21.8232		-12.8751
-82.7318	-20.8324		-11.0748
-82.4505	-18.5498		-12.1392
-87.7907	-0.882351		-13.0103
-87.8776	-0.3523		-12.0779
-88.0411	-0.0854682		-13.5747
-87.2542	-2.82431		-13.8041
-90.9121	9.93043		-17.0598
-90.9691	10.5079		-16.0743
-91.9644	11.0764		-20.1281
-90.532	8.99649		-17.0324
-84.8446	-10.9251		-16.9777
-87.1402	-7.11588		-20.0758
-84.2198	-13.2984		-17.4293
-84.1994	-12.0501		-13.9736
-85.892	-7.22594		-15.9445
-90.0693	3.18931		-20.0207
-89.6995	1.67343		-19.8225
-89.0455	3.68508		-15.8338
-90.5801	4.78086		-20.8138
-91.5417	2.71963		-24.8843
-81.5559	-29.3886		-30.9282
-82.7948	-27.9374		-31.6254
-80.3704	-29.2099		-31.4239
-81.3557	-31.6841		-29.4013
-92.1994	-9.95471		-31.6506
-92.5264	-8.8364		-32.5886
-91.3714	-13.0203		-31.2822
-92.11	-9.75008		-31.0723
-92.7786	-7.1923		-34.2291
-92.9814	-5.10114		-33.1427
-93.0104	-4.16801		-35.44
-92.6666	-7.87001		-35.2903
-87.8801	-22.9664		-23.7034
-88.299	-20.738		-25.4813
-88.2732	-23.9823		-24.5175
-86.7614	-21.093		-22.1391
-89.9869	-9.49508		-27.5404
-89.026	-11.46		-26.4509
-90.0145	-8.16629		-27.2442
-91.1952	-9.74982		-29.3829
-88.1632	-14.5002		-25.553
-88.7177	-16.2412		-26.657
-86.8549	-15.6001		-23.2031
-80.7206	-27.8182		-5.23161
-80.4743	-27.018		-4.57564
-81.3161	-27.3945		-6.10116
-80.8538	-30.0417		-6.06595
-80.4302	-25.4279		-3.77535
-80.0685	-25.5993		-2.88859
-80.8098	-23.4019		-3.69842
-82.0906	-16.4701		-3.87602
-82.5956	-13.298		-4.013
-82.3864	-16.7845		-4.78497
-81.8406	-17.0292		-3.45009
-81.5316	-17.8227		-2.9883
-81.2801	-20.195		-3.33695
-81.2243	-17.7067		-2.04134
-84.2685	-23.3679		-15.5471
-84.2277	-21.8105		-16.7953
-84.1215	-24.427		-13.7293
-84.3563	-11.5673		-12.4158
-83.2589	-15.3337		-12.2069
-84.8032	-10.4918		-11.1467
-85.4822	-7.79433		-12.6247
-82.784	-17.1587		-11.7481
-83.0538	-17.1295		-10.8584
-93.0384	6.06069		-29.2512
-93.2221	4.90917		-31.0113
-92.9057	5.63348		-28.6839
-93.1547	6.79678		-29.5023
-93.1457	1.2902		-31.8609
-93.0076	0.183745		-30.4356
-92.9994	3.04283		-29.9059
-93.2245	2.61233		-32.6851
-93.1546	-0.357197		-32.7814
-90.3452	8.37982		-17.2177
-89.7938	7.50579		-16.1042
-91.0874	8.51405		-19.8644
-91.9459	8.42813		-23.1761
-91.5604	7.3718		-22.4916
-92.4653	9.70535		-24.0294
-92.9222	8.18282		-27.2558
-91.04	6.12699		-21.5906
-92.2185	5.6509		-25.7788
-89.9643	6.57041		-17.7071
-41.0546	25.5135		72.6714
-38.116	26.4608		73.0421
-43.5143	24.318		71.8476
-26.8696	-98.9603		66.5556
-29.5427	-97.6163		66.3894
-25.5597	-99.2418		62.463
-48.3234	18.7934		67.4673
-49.1881	17.0514		66.233
-47.2439	20.9151		69.0005
-52.4226	20.746		66.3268
-51.3768	23.3035		68.0437
-54.5968	21.5046		65.1262
-52.5084	17.7432		64.8873
-50.464	19.9595		67.1242
-72.6159	-48.1126		-3.86928
-71.8262	-50.2479		-4.38689
-73.0861	-46.6539		-2.34832
-73.4752	-46.3846		-8.39297
-19.8849	15.8874		69.4957
-20.2315	15.1731		69.4039
-20.0977	16.8403		69.561
-18.1437	18.6451		70.6813
-19.4565	20.4948		70.9707
-17.6453	17.0678		70.6925
-8.28621	19.3174		79.4255
-8.3157	21.4797		79.1581
-7.72312	19.3771		80.1015
-19.7873	-56.5857		85.2364
-16.5581	-55.8123		87.8571
-20.2003	-56.1084		85.5532
-20.5592	-57.1943		83.8563
-64.2428	-69.617		-10.2934
-65.2148	-67.1757		-10.7332
-63.4864	-72.1636		-12.2593
-63.5469	-69.6956		-4.98175
-80.9389	-5.45683		1.97323
-80.0443	-12.6756		4.60996
-80.1036	-4.47654		6.50936
-81.6144	2.28032		-1.55974
-81.6502	-6.17959		-0.748523
-64.2396	-72.3072		-23.3217
-63.6488	-74.4808		-18.8741
-65.078	-68.101		-23.6008
-63.5931	-74.4639		-25.0333
-60.8448	-107.082		-29.0451
-61.0002	-115.57		-30.3803
-60.9698	-109.52		-23.2076
-60.7769	-98.1771		-28.9411
-59.3914	-103.598		-36.4134
-26.2485	-58.6586		79.8767
-24.5921	-59.2449		81.5326
-26.0917	-58.5085		79.9126
-26.3832	-58.8009		79.8372
-27.9479	-58.2572		79.0634
-27.1484	-59.5895		79.687
-21.668	-61.1165		85.5198
-18.7524	-62.2615		88.9314
-21.79	-60.5166		85.1081
-31.7201	-96.3505		66.2755
-31.7653	-95.3387		69.4158
-36.0553	-94.0652		60.4042
-48.0409	-59.6954		-66.2267
-47.0799	-62.7367		-66.0782
-50.6806	-58.7121		-62.5637
-46.7895	-55.9686		-70.1115
-56.5817	79.1317		33.8575
-57.5624	75.1293		36.7545
-52.6826	82.2824		36.3337
-58.2927	81.0195		27.0949
-89.4405	-19.4617		-32.6541
-90.7209	-14.4976		-35.4149
-88.7951	-19.4942		-33.9061
-88.315	-23.5843		-30.1652
-89.9886	-18.6833		-31.6192
-85.3122	0.173021		-7.29767
-84.5087	-4.09218		-6.18714
-84.1117	0.349961		-6.54948
-86.0576	4.43708		-8.8777
-86.2373	0.0845232		-7.97137
-82.6427	-20.8701		-7.15714
-82.2189	-21.5595		-6.10404
-82.6879	-19.2264		-6.78166
-82.9321	-21.082		-8.74808
-82.9452	-23.4199		-8.49426
-82.3615	-27.2156		-7.72199
-81.9759	-24.453		-6.40339
-83.1319	-26.9025		-9.09192
-91.7019	-8.83118		-37.7433
-92.1887	-8.84835		-36.879
-92.3506	-2.76425		-38.7016
-90.9122	-8.81985		-38.562
-89.8845	-8.6792		-39.2302
-89.104	-14.1395		-37.3826
-90.3573	-2.76008		-40.0126
-88.843	-8.43607		-39.6054
-82.9063	4.39693		-7.84783
-83.0003	2.71689		-6.64956
-82.7129	5.39269		-7.56223
-83.0587	6.60928		-9.57289
-86.0504	-17.6351		-36.8201
-84.3837	-17.0638		-37.5779
-84.9952	-21.4793		-35.0145
-87.0964	-18.2469		-36.136
-86.7469	-13.3111		-38.5381
-88.4081	-25.0157		-25.3237
-88.9652	-21.9542		-27.6962
-88.2407	-25.9278		-26.5581
-88.0362	-26.9834		-23.2193
-85.7015	-33.4909		-23.5796
-87.1562	-30.8895		-22.0613
-86.6623	-30.3462		-26.1815
-84.2801	-34.8312		-24.7019
-85.1423	-35.3225		-20.7831
-86.6313	-31.8956		-16.8398
-86.2842	-31.2595		-15.4668
-87.1033	-30.776		-18.4189
-86.0778	-33.5989		-17.2098
-75.8833	-42.1054		-13.3373
-76.0709	-41.2961		-8.9646
-76.9561	-41.1954		-14.9848
-75.3067	-43.0131		-13.8724
-81.2878	-38.3796		-13.9516
-81.2139	-39.3525		-16.5251
-79.791	-39.4945		-14.429
-81.2534	-36.7835		-11.2666
-82.7717	-37.1014		-13.6359
-88.8081	6.6272		-10.0756
-89.0879	6.59113		-10.4372
-87.4933	3.17767		-9.26742
-88.846	8.1083		-10.1674
-88.818	9.01981		-10.3906
-88.5012	9.01908		-10.3983
-90.0335	12.2687		-12.2842
-93.6878	5.32734		-33.9723
-93.6991	6.83568		-32.4293
-93.782	4.68624		-34.8503
-93.4839	4.32742		-33.7169
-89.697	7.64651		-12.2011
-90.1454	9.22664		-13.1686
-89.2444	6.10318		-12.4796
-89.5844	7.40672		-11.6486
-89.2576	6.5428		-10.8262
-90.2325	10.7267		-12.2264
-88.4463	3.41795		-10.7912
-91.8607	-9.72946		-30.4907
-90.5831	-13.2335		-29.5282
-92.5174	-6.83465		-30.7201
-89.5839	6.95533		-15.7318
-89.2553	6.15448		-14.5532
-88.8587	4.56408		-14.0513
-88.7909	4.40856		-13.5783
-85.0401	-9.68486		-9.9371
-86.2027	-5.36586		-9.94075
-83.8608	-14.2998		-10.0675
-84.9277	-9.6792		-8.81429
-88.1625	0.329607		-13.885
-88.4455	2.04579		-13.2605
-88.3028	0.0566641		-15.6719
-52.3927	-56.7866		-60.6656
-53.8066	-56.9831		-58.0264
-52.7059	-52.3259		-63.1223
-26.5315	-28.6996		81.8403
-24.4866	-28.619		82.5301
-27.0155	-27.1361		81.8596
-28.0564	-31.8834		81.3386
-21.3719	-27.0597		84.623
-20.336	-27.538		85.6072
-21.7733	-24.1157		85.3287
-21.9152	-28.0653		83.9177
-53.4169	37.0397		66.7715
-53.6875	34.9665		67.3143
-47.5691	39.8006		70.234
-53.4625	38.8982		65.7705
-58.4542	32.7186		62.6843
-8.01338	-32.3661		94.0551
-8.25586	-31.8648		94.7704
-8.63844	-32.6389		92.9054
-6.95479	-32.8897		94.6891
-8.5194	-31.2408		95.9614
-9.54109	-30.676		95.7844
-7.44194	-31.2868		97.7556
-48.095	15.9473		66.1975
-47.8113	16.7868		66.5115
-17.1883	-21.5492		94.6707
-16.0846	-20.9891		96.267
-17.5881	-21.3599		93.8977
-17.2891	-22.5555		94.4985
-66.0491	75.8716		14.9177
-67.8761	76.4195		5.47034
-66.9148	71.3768		19.4322
-63.605	79.3575		15.9881
-28.984	-63.7109		74.935
-27.7769	-63.4608		76.3129
-29.4012	-64.5776		74.3714
-29.5669	-61.842		74.1421
-28.3601	-52.9634		74.0844
-29.1471	-54.8605		73.6696
-28.4516	-51.6801		73.4978
-26.8816	-53.1946		75.6535
-10.9319	-30.0731		95.2161
-11.6102	-29.0531		96.207
-12.0116	-30.4508		93.133
7.35041	-30.9963		95.8951
6.16467	-31.1214		97.6596
7.10072	-31.671		94.6925
6.85857	-32.2071		93.9948
5.61647	-32.8793		94.6733
-9.16148	-33.0278		91.8508
-10.1833	-32.8355		91.2002
-8.94155	-33.7139		91.5717
82.2005	-35.6787		-27.925
80.5287	-36.2274		-27.7236
82.696	-32.4765		-30.4266
83.3512	-36.0678		-27.3101
81.1931	-39.0129		-24.6693
73.5702	-49.3768		9.4322
72.7582	-51.216		17.2694
72.4091	-53.9237		8.1779
74.5085	-47.2644		2.73909
74.5953	-44.5461		10.7421
59.3499	-113.696		-8.07647
59.1504	-103.505		-7.66505
56.7794	-114.597		-3.65426
59.9537	-124.091		-9.18712
61.3502	-112.564		-12.6021
60.6107	-131.648		-10.4557
61.1895	-137.614		-11.6848
62.2967	-129.872		-15.1334
58.2646	-133.475		-5.80211
53.3422	-97.4522		2.65295
54.1239	-91.9011		3.67851
49.8383	-98.5039		7.53524
53.189	-105.009		1.69139
56.6682	-96.8196		-2.54836
62.7219	-95.5547		-16.0151
62.5338	-102.3		-16.413
63.5626	-94.3736		-21.1592
63.0633	-90.3613		-15.7363
61.2903	-95.9639		-11.6303
66.6417	-69.7609		19.8803
68.2963	-66.363		21.6649
65.2121	-72.5881		27.6993
64.6908	-72.8046		17.7583
67.3755	-67.5998		12.1634
75.917	30.8194		23.3804
76.2048	38.6966		19.11
71.8475	33.8817		34.2003
75.8857	23.2532		26.1902
78.9916	29.1865		11.7566
79.5395	40.9955		-28.5908
78.7472	38.0154		-38.1607
77.6696	48.0148		-33.5542
80.1873	42.7115		-18.1069
80.9807	33.6211		-23.9786
11.2329	-109.01		42.2732
8.66505	-109.251		43.15
10.4537	-116.851		39.9222
14.4093	-108.572		40.9007
11.757	-105.291		44.8571
10.7226	-128.776		35.4967
11.3708	-140.456		30.9584
14.4273	-127.744		34.0171
7.37404	-129.03		36.6124
4.32355	-148.976		29.617
8.05813	-148.655		29.1253
4.14902	-141.132		32.4563
0.730973	-148.952		29.7843
4.66354	-154.208		27.8584
68.8582	-53.5565		-33.696
71.433	-47.7902		-31.4865
68.5123	-59.8546		-28.6252
66.2146	-59.3302		-35.9338
69.5072	-46.0881		-37.7398
70.2781	-40.717		-40.6615
66.5681	-46.2529		-43.9539
71.0909	-36.041		-42.983
73.4777	-36.3032		-37.5672
63.0576	-123.013		-31.3078
62.8992	-129.66		-33.5625
61.4743	-120.231		-38.0033
63.6372	-126.079		-24.95
4.20718	-129.383		37.1514
4.79727	-117.524		41.5493
1.19436	-129.38		37.3143
71.8854	-53.0238		25.2538
72.8018	-47.3433		25.8314
70.7053	-54.3239		32.5566
70.8816	-58.0851		24.1709
68.091	-65.6443		4.65942
66.3555	-69.1094		3.17917
68.6029	-64.4382		-3.02558
69.7157	-61.895		5.83014
11.8938	-95.5864		90.294
7.6908	-96.1854		91.8362
11.7193	-99.131		88.1057
16.5928	-94.5054		87.967
11.9071	-91.1785		91.5689
21.6021	-92.4003		84.9831
21.5461	-95.7759		83.1751
26.7899	-90.2033		80.7504
21.5495	-88.4195		85.9736
3.99675	-87.2617		94.2366
7.70585	-86.8688		93.4054
3.97643	-82.3706		93.8029
0.42606	-87.4262		94.5289
3.89738	-92.1335		93.9665
11.6118	-101.466		85.2893
11.8688	-102.947		81.3122
16.4323	-100.268		83.2367
7.50767	-102.087		86.7038
12.2825	-103.62		75.9606
7.84545	-104.357		77.0502
12.429	-103.431		69.6756
16.624	-0.143098		79.9905
17.2267	-4.59876		82.5742
19.5743	-2.23368		78.7246
15.9264	3.87154		77.6173
13.7676	2.41613		81.4719
52.894	-30.0106		72.0183
59.265	-30.6726		66.2913
52.1086	-24.8882		72.4988
45.7875	-28.4684		76.2121
53.2352	-34.7153		71.361
63.7684	-19.9419		60.6105
68.1198	-19.1259		53.8695
62.2728	-14.5944		61.572
57.7839	-19.6449		67.2484
64.384	-25.4558		60.1164
72.8665	0.448065		41.1204
74.9054	-0.465831		35.8131
72.2818	8.29719		40.447
70.3709	2.0464		45.6235
53.3814	-39.3719		70.1654
53.2083	-44.3058		68.883
59.1566	-40.5436		64.3143
47.0667	-37.6906		74.59
0.594879	0.742874		96.8005
0.638458	6.6437		92.6392
-1.24806	1.06671		96.9229
0.57026	-4.65216		100.491
2.74789	0.113243		96.1145
31.117	69.304		66.2251
25.7183	70.2494		68.1369
30.0679	63.1212		69.9232
36.9514	67.7602		63.6293
32.2763	74.9918		62.3644
3.88821	-104.093		64.3668
4.11108	-103.617		57.0652
7.67763	-103.734		63.6275
3.9892	-104.605		71.4683
0.261651	-104.201		64.655
68.8984	-54.8927		39.7973
66.2148	-54.7656		47.2541
67.4955	-61.3746		39.3693
69.8715	-48.4836		40.5924
3.76768	-102.521		87.4406
3.83141	-100.263		90.3039
0.313939	-102.712		87.6993
3.78946	-104.151		83.0467
3.99168	-104.764		77.6675
0.296504	-104.902		77.9018
43.3901	-89.3756		58.9244
37.6881	-91.4319		64.9902
42.1971	-91.5323		56.203
48.5659	-86.7624		53.9524
43.8351	-86.5652		62.0377
46.3707	-90.5596		33.9242
43.2405	-92.7702		29.6053
50.666	-87.4836		28.449
49.23	-88.8417		38.1366
41.188	-93.4821		39.2416
5.08737	-103.93		50.3868
8.07126	-103.775		49.6448
2.16155	-104.077		50.5583
6.46384	-105.644		46.3566
5.84357	-10.7276		101.434
6.34042	-14.6203		104.057
8.90023	-11.6248		98.5979
5.62214	-6.05886		98.0572
3.10878	-10.0346		103.161
27.6756	-23.6281		81.3352
31.8276	-25.2602		80.1379
26.058	-18.6789		81.7941
24.0111	-20.9141		83.1029
30.0118	-57.7757		76.7312
32.0056	-57.4001		76.2411
12.72	-30.3668		90.8185
14.292	-28.7945		91.2747
12.0607	-31.3627		90.2109
14.6822	-30.2113		89.1786
12.2844	-34.3176		88.4351
12.8399	-35.5803		88.2136
14.7511	-34.1793		86.7593
12.1472	-33.4519		88.6767
10.1459	-34.2239		89.9444
0.850948	-34.0418		97.7832
0.917578	-33.0988		99.8643
-0.768754	-34.1062		98.0605
0.935302	-35.0577		96.1259
2.68311	-33.7458		96.8795
17.3929	-33.3913		85.2344
20.0885	-31.8051		83.878
16.9977	-32.4071		85.6972
17.9803	-34.6972		84.9625
7.04812	-24.3664		106.376
4.27618	-25.1175		108.783
6.77744	-26.2456		105.286
9.90046	-23.7823		102.747
7.1618	-22.658		106.852
27.9202	-71.6229		80.3552
31.2696	-69.3807		77.5296
26.4425	-68.2951		81.1886
23.9536	-73.4846		83.7435
29.4599	-75.4958		79.4449
30.5402	-51.2971		79.0586
29.7411	-47.5641		80.2612
28.2847	-50.5934		80.7354
32.5814	-51.914		77.832
1.58816	-38.6904		93.7557
1.96384	-39.9842		93.5925
3.49221	-38.0761		93.4248
1.24464	-37.2562		94.2733
-0.70215	-38.9646		93.8708
5.31643	-0.936956		94.6761
8.29497	-2.50606		92.4557
5.31831	4.35452		90.8772
19.6044	-21.7936		88.3221
18.386	-20.1736		90.2748
18.6756	-21.2285		90.1585
19.9462	-23.2946		87.4486
20.1692	-21.3192		87.2139
4.59982	-34.9004		93.8346
4.51103	-36.4055		93.3129
6.23113	-34.6182		92.7631
4.51905	-34.0966		94.4832
2.97325	-35.5188		94.5755
4.26284	-33.3686		95.7114
4.23282	-32.5051		97.4981
17.5095	-20.5741		92.0311
17.1175	-19.7111		92.3411
18.1641	-22.1302		91.1404
19.7359	-26.0459		86.4117
18.9573	-24.7771		88.5506
18.6342	-28.8851		86.0379
3.26204	-44.3574		94.512
3.62577	-46.1064		95.0778
5.71997	-43.7764		94.1374
2.90827	-42.4086		93.9046
0.63383	-44.7988		94.7341
24.9526	-35.769		81.735
22.1517	-36.1041		83.0637
26.6573	-39.5363		81.5093
27.4612	-35.6818		80.8606
23.406	-32.3762		82.2101
10.7405	-71.5452		92.0355
10.534	-69.7057		92.6103
7.10735	-72.1705		93.0693
10.9525	-73.8471		91.613
14.6716	-70.7439		90.2975
25.9502	-53.2431		81.7905
26.3478	-53.9337		81.1019
28.4475	-54.5441		78.7879
25.8028	-51.5596		82.6089
16.8476	-19.0072		92.2437
17.0614	-17.9688		91.0321
15.0276	-18.2752		94.6521
18.5643	-69.6129		87.9394
19.0153	-71.8591		87.4275
22.0655	-67.9949		85.1597
18.1662	-67.8697		88.5087
4.10391	-72.3993		93.6072
1.13995	-72.4839		93.88
4.25006	-74.5382		93.2443
3.76205	-70.8322		94.172
62.6402	26.5831		57.3524
61.4628	25.5016		59.2711
65.153	20.8643		52.5447
63.6659	28.0376		55.1355
41.48	54.0905		67.2568
35.1067	55.9216		70.8399
41.3956	48.6914		70.0928
48.2048	51.4043		63.1526
42.382	59.8966		63.7129
55.0161	47.8101		58.157
54.1563	43.0985		61.9692
61.3661	43.359		51.9314
56.0222	53.3825		53.9275
42.4768	40.5986		72.7144
41.9844	43.1149		72.1788
36.6539	41.8943		76.2199
43.0718	38.0344		72.8727
65.2439	29.7396		51.4685
66.2147	32.9895		48.0582
59.7706	35.6321		59.0368
68.7534	23.5754		45.1995
24.8755	30.9774		76.5725
25.3117	29.7636		75.4167
28.8441	31.5953		76.1908
24.5475	32.7348		78.0506
21.3944	30.2065		76.6502
6.13023	15.5431		82.7432
8.82564	13.0885		80.7711
6.28409	17.7441		81.6504
3.14748	17.3773		84.2106
5.88457	12.8329		84.4505
31.8328	-7.185		76.0094
33.6874	-11.821		77.2913
39.2209	-8.27103		74.448
30.0275	-3.24222		74.9136
25.7089	-5.54648		77.2594
61.4331	4.03021		56.1203
64.228	3.05474		53.6023
62.2943	8.16614		54.7908
58.6809	5.55159		58.2736
59.1024	0.825261		59.281
5.55043	9.12838		87.2219
8.36294	6.88832		85.5009
2.83906	10.7814		88.4472
43.6266	35.8175		72.9605
48.0523	34.6015		71.0898
38.2928	36.1852		75.2689
43.5831	33.7201		73.0285
52.3149	32.4781		68.7798
51.7454	30.5157		69.3521
57.0161	28.7119		64.95
57.8937	13.2584		59.3975
57.6404	17.6171		61.2476
55.5822	13.5649		61.2331
57.5475	9.59278		58.9486
59.8747	13.2054		57.6241
44.8643	20.2492		69.0205
46.5023	18.5659		67.6972
43.0382	21.5546		70.1708
41.0647	22.6614		70.9214
38.795	23.4747		71.2902
41.1949	23.5325		71.3001
38.5434	24.3633		71.6625
43.4119	22.4022		70.5184
35.9136	23.9685		71.4223
32.9494	23.7675		71.363
35.5363	24.7977		71.7554
32.3668	24.4819		71.6129
29.9991	22.8506		71.0216
27.2305	21.4971		70.5636
24.2745	19.8396		70.037
21.4892	18.0735		69.5676
22.8666	20.5163		70.2469
20.2453	18.7081		69.8474
25.9323	22.1733		70.7344
19.5219	16.6249		69.2769
21.4986	21.0432		70.5849
24.8065	22.9287		71.0653
35.2444	25.7381		72.1781
31.825	25.3552		71.9755
50.0291	13.0615		64.4673
50.4624	14.0861		64.4143
48.9151	12.2499		65.0593
33.3653	32.1985		75.5548
38.5274	32.3164		74.3585
33.2065	33.6479		76.3679
33.6368	30.6739		74.6503
48.9735	24.8696		69.8614
47.7484	23.3808		69.856
50.0867	26.7537		69.8609
45.8605	26.5419		71.5016
39.2976	5.81123		70.8445
45.051	6.14877		68.4072
32.3907	5.96966		72.21
39.9477	4.12105		70.8692
26.6933	6.74137		72.0911
22.5435	8.29233		71.5091
26.6721	5.14771		72.5165
18.5391	11.7905		70.4814
17.8983	12.7967		70.2111
19.5856	10.809		70.6617
38.2389	9.00883		70.7622
43.2983	9.49985		68.9367
32.3207	8.97293		71.7698
21.458	11.6097		69.7982
23.44	10.6959		70.4097
20.4507	12.1778		69.4708
19.681	12.6655		69.3297
18.9534	13.3013		69.2851
14.7488	21.2784		73.234
14.1418	23.6373		74.6974
15.4791	18.7849		71.5881
16.6057	23.1898		73.1306
17.221	14.2746		70.1458
28.3022	24.3699		71.5388
16.2153	17.8168		70.7972
15.7884	16.2838		70.8808
17.3904	19.6167		70.8944
38.0362	10.3895		70.7041
32.2401	10.2492		71.5951
21.4202	12.4268		69.2214
20.4862	12.7096		69.06
23.4078	11.8788		69.8217
19.7806	13.1554		68.9393
47.5828	16.7961		66.3977
2.94135	31.0341		81.4123
-0.431856	31.3401		81.5017
2.12627	28.6038		81.4916
5.91792	30.317		80.9115
3.88083	33.7847		81.5346
19.8443	3.21847		74.7596
19.5119	5.26284		73.7285
17.7562	4.78273		75.1487
20.8284	0.316304		76.1123
23.1447	1.54094		74.3813
15.7358	6.4264		75.9178
13.6088	8.3975		77.0935
16.052	11.5938		72.374
14.2013	12.5056		73.812
16.1231	13.2326		71.4133
10.8807	20.9777		76.3687
11.9624	22.9821		75.9552
10.1301	22.0922		77.2989
20.6245	9.63486		71.0613
20.003	8.4962		71.8524
19.6249	7.01596		72.7039
22.1978	5.29942		72.8166
22.0912	-56.0649		81.2623
22.0105	-55.9964		80.9893
25.3235	-56.2236		78.3742
18.2926	-55.6513		84.5269
27.0391	-56.3619		77.1473
26.7599	-56.2638		77.1275
3.99511	-49.5071		95.4627
6.88539	-49.1255		94.8728
3.90931	-48.1829		95.4823
0.722309	-49.8839		95.7822
3.95825	-50.9048		95.2889
9.47291	-52.0067		93.3913
9.53348	-50.6271		93.8204
6.87824	-51.8743		94.2938
9.14038	-53.2751		92.8545
11.9111	-52.1252		92.3347
14.5406	-52.0997		90.9138
14.6226	-50.9273		91.3961
14.4985	-53.3615		90.1111
17.7331	-52.6135		88.6087
9.39225	-49.1606		94.1225
11.9101	-49.47		93.1019
9.25001	-47.796		94.2523
13.5046	-47.6787		92.3546
14.2474	-48.6758		92.0303
13.0414	-46.5928		92.4059
10.9385	-47.1638		93.5651
21.5999	-54.1076		84.6268
21.2883	-52.8103		86.0271
8.47402	-54.4314		92.1842
5.82998	-54.3005		93.1523
8.03293	-54.9376		91.6673
11.4998	-54.4081		90.8644
14.7258	-54.5519		88.8037
14.7258	-55.146		87.8956
27.7965	-55.2318		78.6785
22.3336	-57.092		81.8182
22.2955	-57.0176		81.5574
18.4452	-57.0803		85.5024
22.3674	-57.3132		82.178
22.899	-58.6322		82.7828
22.6737	-58.1524		82.6989
19.3498	-59.556		87.0787
16.099	-60.1612		90.1341
15.848	-59.2798		89.8229
12.7232	-60.6171		92.5424
16.5613	-61.0043		90.1337
8.27647	-58.7065		93.5732
8.55729	-60.0429		94.2111
11.9265	-58.4382		91.779
8.0903	-57.5038		92.8083
5.10082	-58.9624		94.6434
2.83251	-62.2262		96.3282
2.93653	-63.4617		96.541
5.4194	-61.6996		95.7692
2.7486	-60.8802		95.9078
0.444434	-62.4614		96.5376
27.3706	-57.8063		76.4511
27.197	-57.2168		77.0349
27.3939	-59.2131		75.91
25.5314	-57.7729		78.0131
2.70613	-57.596		90.5628
2.67426	-56.9308		91.6555
5.04596	-57.5865		90.0892
2.65838	-58.9397		89.5397
0.583405	-57.6407		90.7554
3.06204	-64.7147		96.5726
0.495126	-64.9534		96.7608
3.20521	-65.8307		96.4244
5.82831	-64.0365		96.0565
3.49043	-69.3129		94.9178
6.55105	-68.6975		94.4697
3.33318	-67.9447		95.6333
0.718704	-69.5851		95.0769
8.89996	-46.8635		94.2721
8.09885	-45.549		94.235
6.54088	-46.6938		94.8627
2.714	-59.3683		95.2222
0.464931	-59.5782		95.4495
2.64437	-57.9931		94.3971
2.62161	-57.2319		93.7331
4.99787	-57.0468		93.2618
2.70261	-56.882		93.1799
0.541415	-57.3897		93.933
8.00319	-56.9215		92.2502
11.4465	-56.8617		90.6246
7.96864	-56.6852		91.7987
2.75706	-56.7593		92.5475
4.99063	-56.6799		92.0871
0.581369	-56.8709		92.6741
14.8771	-56.8985		88.3562
14.8028	-56.712		87.9178
15.1213	-57.3653		88.8005
17.3073	-63.8751		89.9097
17.5789	-64.9486		89.5473
17.0813	-62.9095		90.0989
13.9191	-64.613		92.3096
9.87797	-65.3009		94.4499
10.1228	-66.4193		93.9888
9.67703	-64.3358		94.6981
6.17941	-66.0825		95.6667
3.24551	-66.8317		96.1341
0.558378	-67.1377		96.2863
14.6931	-55.3065		87.2785
11.2757	-55.1314		89.4976
14.6092	-55.2296		86.686
30.0039	-56.5945		76.8678
28.9422	-56.9123		76.962
27.1374	-56.9724		77.6674
25.5081	-57.2755		79.1744
8.02412	-57.559		89.1813
7.88658	-56.8768		90.2174
11.4068	-57.4664		87.7701
8.18876	-58.7952		88.249
7.89058	-56.6339		91.1387
11.2736	-56.6118		89.5497
10.3109	-67.9001		93.3554
14.4064	-67.1893		91.3309
16.7996	-61.944		90.1984
13.4151	-62.6376		92.6704
17.8532	-66.341		89.0601
20.9887	-64.952		86.3516
14.3208	-54.8714		86.2432
11.2167	-54.5901		87.8416
13.758	-53.5574		85.3369
17.5601	-55.1776		84.0524
8.08202	-54.5457		89.1068
5.54379	-54.4199		89.6116
8.56132	-53.1395		87.4019
7.90256	-55.0181		90.193
13.1688	-50.7097		83.9955
10.7598	-50.4719		84.9749
12.9851	-47.1272		82.701
15.7738	-50.9966		82.6564
27.2504	-62.5091		75.5823
26.6109	-66.3191		76.0382
25.2415	-62.4326		77.3755
2.53296	-61.9809		88.6514
4.88667	-61.8612		88.2674
2.9141	-65.95		88.4414
0.562657	-62.0516		88.8071
8.45846	-50.3018		85.6725
6.05908	-50.12		86.1552
8.08601	-46.6498		84.3377
7.97484	-61.7031		87.4196
8.21993	-65.8269		86.9649
11.4231	-61.6454		86.0687
30.8677	-57.4068		71.0245
31.1291	-57.6396		70.5617
12.0388	14.1737		75.6938
11.4878	12.5975		77.2786
81.7671	-9.24776		-43.8773
81.0872	-13.618		-43.2203
79.8395	-8.60558		-47.1327
82.3734	-4.69033		-43.7941
83.3085	-9.76913		-42.1942
82.8528	8.6968		-7.02997
82.9931	11.6292		-11.1096
82.0556	10.758		-2.15753
82.8242	13.8038		-16.1756
82.3931	19.2688		-17.2971
83.276	8.83488		-17.3745
83.1026	13.4686		-23.111
76.1449	-33.4343		-35.2735
78.6212	-31.2374		-33.6468
75.2079	-37.6169		-32.8295
77.2653	-29.5548		-36.9832
78.195	-25.8989		-38.9341
75.5316	-27.8074		-41.7427
79.2585	-21.9429		-40.6381
80.5038	-24.7603		-37.0925
84.8242	-9.7473		-41.3053
86.3479	-9.26712		-40.939
84.2745	-13.883		-40.4865
85.1814	-4.78604		-41.4048
86.9808	-28.1056		-31.9139
88.0355	-24.0629		-33.8623
87.7372	-28.574		-30.7113
85.8546	-32.1173		-29.5351
91.4591	-18.3941		-31.8128
91.4732	-17.8438		-31.0549
80.9122	-40.7362		-21.7492
81.3904	-41.0009		-21.046
80.5481	-41.456		-19.8046
80.0122	-39.8045		-23.7684
82.3618	-33.8327		-9.48299
82.0314	-34.456		-9.45277
81.5803	-35.4495		-9.6839
91.4315	-17.4772		-30.6519
90.9617	-18.0816		-29.7389
94.1347	-2.90079		-34.1293
94.1546	-2.22559		-35.6243
94.0706	-4.24404		-32.5122
94.4403	7.25026		-31.5507
94.6972	8.60241		-31.6358
94.8428	10.6784		-30.5944
94.3527	10.4552		-28.4044
95.0049	11.1435		-30.9781
94.5919	12.7047		-27.5212
85.7583	-10.8634		-9.27623
87.0003	-5.36847		-9.69573
85.3236	-10.1338		-7.96215
84.8318	-14.9399		-8.83003
80.7783	-27.1421		-2.93436
79.9687	-27.6418		-0.278754
80.1632	-30.9039		-3.51259
81.4024	-22.8082		-2.31711
84.2485	-22.0139		-11.5354
84.5368	-24.0276		-12.0897
84.2522	-20.0534		-11.6039
83.28	8.32999		-17.3855
83.483	9.62683		-20.7763
83.3225	8.32416		-17.1667
91.2413	15.8443		-17.6986
92.016	17.5368		-20.7128
90.3573	16.2783		-18.8586
90.0022	12.7411		-14.856
92.0407	15.1191		-16.7206
91.3557	18.2588		-25.6787
90.7259	18.008		-22.7554
91.6529	18.3975		-25.1616
91.6964	17.0294		-29.3033
90.5382	17.2424		-27.0777
91.759	3.07429		-39.9869
90.9718	2.61447		-40.1738
92.1411	9.00464		-37.0839
92.8366	3.3057		-39.4479
87.8926	-0.728645		-10.1514
88.1432	-1.97923		-10.8303
94.673	2.42633		-36.9784
95.1715	7.51131		-34.693
94.3635	-0.360499		-37.21
94.7124	2.32874		-37.333
94.2092	13.5535		-23.603
93.4427	12.9643		-19.6855
93.9797	12.2002		-24.3369
94.3185	14.533		-22.9817
89.1983	0.0834431		-12.8791
88.6889	-1.69761		-12.354
89.7068	2.42377		-13.5323
94.3113	3.08261		-34.3161
94.3508	1.06418		-36.1799
92.0986	5.577		-22.8965
91.6577	4.21212		-22.1468
93.2417	5.13647		-26.9848
87.2966	-6.67118		-14.2799
87.419	-6.3829		-14.9696
87.8529	-5.08031		-13.1442
91.3956	-5.63412		-27.9472
93.2892	-2.98748		-29.7644
91.1642	-5.19572		-27.3319
91.277	-6.72477		-28.1218
81.9697	-18.8191		-2.21229
82.7092	-14.2033		-2.87818
81.2754	-19.0834		0.263693
85.4429	0.404308		-39.8831
84.246	-0.144284		-41.0248
85.3734	5.01329		-37.727
86.446	2.88496		-38.9203
88.8053	7.7958		-36.1887
88.6651	11.5243		-32.9661
91.1336	12.4056		-34.2268
88.8536	3.76965		-39.1089
89.9593	1.65388		-40.1696
88.804	-3.83019		-41.0435
88.418	-8.8156		-40.7593
82.3031	-24.1621		-36.2231
81.3813	-27.2873		-34.5109
83.0823	-20.9379		-37.8053
83.7096	-17.5554		-39.2927
82.0039	-17.7496		-40.3187
90.4372	-18.0352		-28.7515
80.4292	-30.213		-32.9022
79.3869	-33.8459		-30.7014
81.6782	-29.9497		-32.4386
79.6266	-37.744		-26.288
79.1636	-37.7382		-26.6384
79.0559	-41.2276		-21.8865
80.4199	-41.2157		-17.06
79.9211	-41.4735		-16.9059
79.3896	-41.6694		-16.6321
91.466	-7.46334		-28.6019
93.2793	-6.06884		-30.712
84.7939	-9.53797		-6.87143
84.1447	-9.14703		-5.65237
82.5013	-23.1937		-5.78666
82.7864	-23.3507		-6.44152
85.0366	-27.5407		-11.9196
85.8874	-29.5117		-13.5053
85.2034	-26.4254		-12.6927
84.2381	-17.9601		-8.44445
84.5656	-18.0777		-10.577
88.4667	13.3069		-29.79
86.0719	9.66821		-32.6165
87.6457	13.8994		-26.4896
85.1278	8.13148		-34.4315
84.6371	7.85168		-35.5413
84.6286	10.2381		-30.218
84.0859	-18.037		-13.3999
84.3569	-18.0195		-12.5194
93.7555	4.19407		-29.3152
93.5984	2.68334		-29.0025
87.7762	-5.66142		-16.3627
87.1069	-7.94891		-17.4671
88.6381	-4.40087		-18.9369
91.1494	-4.36359		-26.8243
92.8111	-0.761464		-27.9114
90.6444	-4.32455		-25.4735
7.48879	85.6871		62.0101
7.21492	78.6736		67.0326
15.2064	84.7576		61.6537
7.89959	92.7365		55.4648
-0.441429	85.9691		62.1612
6.67593	71.6157		71.1018
-0.652245	71.5737		71.3896
6.11662	63.8851		74.7397
13.897	71.305		70.4705
29.2257	56.8471		73.38
29.5005	51.5051		76.0179
24.5079	57.1883		74.8596
0.903127	-32.0624		102.577
1.17086	-30.826		104.973
-0.682912	-32.074		103.088
2.95821	-31.8467		101.096
1.68235	-21.84		110.493
4.28155	-21.5643		109.294
1.60142	-19.4922		109.906
-0.777785	-21.9566		110.875
1.73976	-23.8409		110.513
1.71503	-25.6867		110.026
-0.689574	-25.9245		110.418
1.61465	-27.4295		109.01
1.09979	-36.0736		95.0466
-0.812844	-36.2684		95.1802
2.36924	-41.3749		93.6874
4.60138	-40.7182		93.3831
0.0440891	-41.5387		93.7847
1.49077	-29.135		107.329
3.73954	-28.9019		105.819
-0.658951	-29.2324		107.831
1.33824	-16.9822		108.833
3.91792	-17.1739		107.799
1.02286	-13.8545		106.954
-1.06236	-16.8664		109.118
6.22443	45.9015		80.819
-0.508927	46.2548		81.4213
5.91739	42.5529		81.3992
12.2911	45.6785		80.1889
6.1711	50.0018		79.8284
0.968859	18.2067		84.7282
0.957439	15.4821		86.3082
1.05302	20.3845		83.6584
-0.781996	18.4677		84.8054
1.17501	22.3684		82.86
3.40785	21.5685		82.3821
1.41088	24.2803		82.2501
-0.730542	22.575		82.9559
3.06589	-54.2957		89.8155
0.580407	-54.3505		90.033
3.3794	-52.7928		88.2284
2.73423	-55.1128		91.4605
2.66652	-55.2472		92.5146
0.536271	-55.3879		92.6972
4.93305	-55.1637		92.0376
2.74897	-55.0628		93.0812
3.88992	-52.142		94.9549
3.68637	-53.3605		94.4385
0.673283	-52.3784		95.2577
3.19195	-54.3334		93.8376
0.597261	-54.5911		93.9779
3.86127	-47.221		95.353
0.713652	-47.7651		95.6581
3.36791	-49.9641		86.4625
3.04172	-46.4174		85.0011
0.511239	-49.8903		86.6064
21.6277	83.6342		60.9107
20.9636	77.3578		65.5754
27.6075	82.0856		59.7835
22.4266	90.1218		54.6824
19.0669	46.5238		79.5125
19.2299	43.2893		80.1046
24.8433	47.2226		79.0184
18.0033	50.5545		78.5027
20.9001	39.9624		80.2307
22.7779	36.6765		79.8428
25.9374	40.8549		79.7473
24.4772	34.3662		78.9725
20.2883	33.6811		79.5444
28.4597	35.4603		78.6359
27.3943	25.1855		71.9846
26.8161	26.446		72.7436
23.6001	23.6933		71.5348
31.3101	26.2418		72.4109
29.1306	23.5598		71.223
25.9167	27.9072		73.8647
29.9636	28.7347		73.9158
22.3729	26.8536		73.7129
46.917	85.873		39.4432
48.004	90.9789		29.8422
41.0204	89.4669		41.9504
46.3482	80.4626		46.3669
33.1387	80.45		57.9955
34.1566	86.1362		52.1733
39.0721	78.2719		55.3921
29.9239	47.3046		77.9747
30.6278	45.3702		78.4162
35.4457	46.8759		75.5578
32.455	36.6446		77.9668
32.4095	38.3274		78.3153
31.3404	42.0485		78.6035
33.9103	29.0792		73.7898
34.6116	27.7754		73.114
38.5007	28.5942		73.2777
45.4833	75.5282		51.684
51.9952	72.4876		46.8745
44.5225	70.6103		56.1197
41.774	45.4154		71.3865
47.8633	43.1675		67.9329
42.0049	25.1919		71.9386
42.0546	26.3284		72.2987
38.7382	26.1583		72.4397
44.6444	23.9632		71.024
43.3733	31.7748		73.0131
42.8599	29.7846		72.882
47.2677	30.6339		71.6772
42.3816	27.776		72.6026
43.3819	65.419		60.0468
50.2548	62.4182		55.4413
57.9903	69.8831		40.5873
57.4347	64.614		45.4587
63.1855	67.4941		33.0387
45.3689	20.9989		69.3295
47.0305	19.1653		67.9168
47.0583	22.3482		69.6221
48.8337	20.3498		68.0891
46.0068	21.6515		69.5594
51.0127	28.7368		69.7034
54.7733	25.4817		66.6059
18.3183	28.8851		76.3492
15.6809	27.2008		75.9783
18.767	27.4465		75.0498
17.6127	29.9083		77.3858
16.4712	31.1139		78.599
13.9226	29.4051		78.2125
19.2215	25.1552		73.3586
19.7454	23.2875		72.0445
5.53467	37.99		81.6525
0.253472	39.1423		81.8058
68.6925	-64.8761		-10.4347
70.4093	-60.063		-8.79643
68.7046	-64.9571		-16.6852
80.8959	22.258		-37.2694
80.4747	18.4287		-42.9358
79.5483	27.8884		-41.8404
81.5387	24.4835		-29.2013
82.3229	16.5529		-32.3102
77.256	-8.23711		-52.8396
76.3693	-14.1787		-51.4572
74.8631	-8.33227		-58.3082
78.1735	-2.4688		-52.7775
78.7571	3.67392		-52.3081
76.5689	5.47454		-58.6134
79.3595	9.12977		-50.3937
81.0067	1.55749		-46.2393
71.9764	-31.3156		-45.7655
68.733	-34.554		-49.5624
73.5494	-25.6217		-48.0374
6.07355	56.6489		77.6292
-0.588709	56.12		78.2054
12.3584	56.471		77.0621
18.2215	56.6723		76.2153
19.2147	64.0051		73.0171
23.1676	-100.252		56.2115
21.5307	-100.87		49.7049
30.0161	-97.9013		50.3364
16.7568	-101.963		60.2661
51.4854	-87.1993		41.8591
46.0686	-90.5887		47.4418
56.0784	-83.5223		36.2662
52.8072	-85.5257		45.4924
56.8931	58.968		49.6659
62.7024	55.5115		42.9304
20.1002	70.9839		69.4508
68.0893	65.1098		23.8126
71.9816	63.0488		14.1038
68.2511	58.6265		29.3994
22.9415	97.4896		45.6865
29.2358	95.2036		45.0522
23.2074	104.474		34.5837
16.016	99.1399		46.1998
67.1826	38.1434		43.6371
67.6508	45.0562		39.236
49.7298	18.1515		66.5593
60.2991	24.3811		60.7833
61.4827	18.9857		57.6648
58.7213	23.1018		62.3223
57.1895	21.9634		63.4718
6.06513	-109.56		43.7057
3.42629	-109.689		43.9799
62.628	-75.6777		35.9649
63.9729	-72.3332		38.1734
58.5889	-79.1252		43.353
61.1515	-78.2839		32.837
7.48223	-43.8179		93.8206
9.32401	-44.1214		93.3625
6.84884	-41.9005		93.3257
25.1789	-49.4337		83.3237
24.1766	-45.8376		84.1419
21.9418	-47.6965		86.3444
10.3065	-40.8782		91.6706
7.82308	-40.5671		92.5946
11.1226	-42.6557		92.0191
13.0105	-41.2296		90.3937
9.42903	-39.0549		91.3732
34.36	-52.3491		76.9284
34.0088	-55.7214		76.1237
36.8241	-53.3653		75.6357
34.1737	-48.7075		77.829
66.9649	14.6067		49.2169
64.6133	13.8173		52.4778
67.6404	8.29244		48.5151
69.0139	15.5835		45.6973
71.0214	16.4473		41.5514
73.3292	16.4214		35.9155
53.7698	13.9061		62.5566
53.6995	11.5287		61.962
62.4011	13.08		55.0518
83.3548	8.58809		-37.4888
83.139	4.88908		-40.6986
81.7869	10.6393		-41.4111
83.5795	11.0643		-33.5482
80.115	-17.9571		-42.2226
77.9512	-18.4392		-45.3019
72.8133	-52.1365		-18.9024
74.745	-48.0295		-16.6512
72.4284	-54.3442		-12.8972
70.6651	-57.4512		-21.3038
73.2122	-48.6496		-24.5735
82.8184	0.27162		-42.7529
79.1234	-28.5693		2.79127
78.3217	-32.7905		2.12285
79.8779	-24.1284		3.25369
78.2164	-29.4859		7.04322
77.2041	-1.44002		27.9426
76.9922	6.84313		27.1799
77.0066	-9.36576		28.7684
79.0662	-2.79445		19.3086
56.7253	6.82653		59.6273
54.8064	8.34229		60.9938
54.7004	4.96413		61.639
53.0456	9.83129		62.2443
51.4958	8.77156		63.4689
77.2469	-29.9235		13.1919
76.3153	-30.0658		19.8822
76.3899	-34.8791		12.4479
78.1792	-24.5681		13.3862
24.6059	-13.674		81.3369
28.8679	-15.2209		79.8712
23.4929	-8.71295		79.9434
21.2436	-11.5488		82.8923
35.5011	-16.9518		78.2266
43.1461	-18.4275		76.1268
36.8562	-21.8597		78.7564
17.7329	-9.28103		84.9295
14.3611	-6.66138		87.3458
18.0555	-13.1128		86.7332
21.4679	-20.3756		85.4458
19.8983	-18.1661		86.7495
16.518	-23.2692		93.4563
14.9	-23.0546		95.7791
16.2997	-24.9859		92.7509
17.5412	-23.5949		91.7668
18.2564	-24.0299		90.2395
17.7877	-26.287		89.4181
40.4791	-36.3207		77.322
34.6902	-35.899		79.0058
40.9749	-41.3632		76.387
39.6223	-31.6241		78.1645
38.1115	-26.632		78.6949
4.95449	-37.7469		92.9729
5.50329	-39.2136		92.914
6.53812	-37.4836		92.2951
62.5512	-53.7128		54.7427
63.5429	-47.1987		55.804
57.9903	-51.7768		61.7079
61.1414	-60.3099		54.0949
28.3847	-43.4449		81
25.7967	-42.9801		82.5196
30.8587	-43.8914		79.8497
41.1453	-46.3089		75.2479
40.8411	-51.0643		74.3959
46.6869	-47.9356		72.1847
36.6252	-45.2083		77.3589
6.17078	-40.5028		93.0495
59.2435	-66.9433		53.8439
62.4576	-68.3757		46.8101
55.0783	-63.651		60.8632
56.2198	-72.4075		55.3887
64.4103	-30.8166		59.5357
64.393	-35.991		58.4391
68.695	-30.4942		51.6438
31.7383	-93.7028		71.6528
32.2567	-91.048		73.7472
26.1142	-96.0875		76.8607
43.6005	-83.1504		64.9957
48.1715	-80.255		61.466
41.8466	-79.1202		68.6355
38.1444	-85.3414		69.9309
60.2193	-9.53638		62.1492
57.739	-4.69367		62.6759
54.1116	-9.93062		67.6923
48.9933	7.4772		65.5485
50.182	5.44382		65.1087
55.5872	-1.37727		63.1522
50.2901	-2.16835		67.4593
53.323	1.2314		63.998
46.8506	10.9839		66.5466
3.88675	-96.7638		92.5838
0.415711	-97.0731		92.8274
50.3181	-60.3444		66.4526
48.3938	-64.9181		66.8222
51.5389	-55.3347		66.8296
44.9113	-57.459		70.8796
39.6711	-75.1174		71.3964
42.992	-72.1738		69.3706
36.611	-70.7791		73.9772
35.5051	-77.5553		74.4783
46.9831	-9.40954		71.7013
49.0493	-14.372		72.3376
45.0157	-5.08396		71.2309
52.6594	-49.7226		67.5909
50.7415	-19.4395		72.4975
11.7028	-86.358		91.9435
11.419	-81.3998		91.7031
16.2433	-85.3184		89.6243
21.2881	-83.8859		86.3557
26.148	-81.9295		82.4876
20.5932	-79.1317		86.5797
43.5271	-1.99807		70.8445
42.1073	0.331697		70.825
35.8988	-1.4939		73.0929
51.6859	3.38873		64.4996
47.3682	2.40214		67.8318
40.9725	2.34099		70.7851
33.5674	2.6228		72.5676
11.2634	-4.50807		89.9852
11.592	-8.92292		92.7254
11.1075	0.164029		86.8099
12.4964	-17.7938		98.349
12.294	-15.9722		97.2308
9.76413	-17.4787		102.183
12.8019	-19.05		98.6705
11.2436	10.633		78.834
11.0563	8.14551		80.835
22.3437	-4.14889		78.0293
0.787426	11.6016		88.9848
-0.892838	11.9653		89.0407
67.2503	2.2841		50.2133
11.0425	4.54847		83.5841
65.4042	-67.9282		39.5812
68.183	-65.1621		31.1629
72.0724	-17.5844		45.386
72.017	-24.3176		44.4432
74.6002	-16.8013		37.2173
70.6266	-42.2425		41.5252
71.2271	-36.3012		42.53
67.9326	-42.0252		49.3517
72.3626	-42.2445		34.0419
71.7322	-30.2609		43.4489
73.7573	-30.4196		35.3213
21.2548	-98.3593		80.7656
11.1082	-77.2814		91.5171
7.45882	-77.7579		92.6468
15.2599	-76.4521		89.6392
19.701	-75.2982		86.9643
27.5134	10.9037		70.9237
28.8488	-0.422159		73.9449
27.8544	1.758		73.381
27.1791	3.45361		72.8869
4.14923	-77.9618		93.2853
0.991077	-78.0002		93.5566
5.91543	25.2958		80.5413
7.69193	24.4448		79.5369
6.93143	27.2563		80.1993
3.79776	25.8758		81.3511
5.64567	22.9215		80.8599
18.2434	14.2755		69.4367
17.936	15.5685		69.5512
15.8878	14.6729		71.0753
9.12018	23.2379		78.3836
10.2547	25.459		78.0785
1.67928	26.401		81.7743
-0.602085	26.6263		81.8862
4.78552	-31.3658		99.5631
5.39972	-30.1152		101.421
7.08901	-21.0531		106.928
7.05853	-19.2351		106.412
10.1056	-20.5916		103.135
16.8966	-30.8968		86.4809
16.5233	-29.7499		87.7187
14.353	-32.3793		87.5945
6.67749	-17.3264		105.725
6.20768	19.7731		81.0261
8.43282	29.4496		80.1118
10.3313	28.5802		79.1472
18.38	17.0824		69.6774
11.882	27.5509		78.0151
12.8732	26.4408		76.8956
13.572	25.2518		75.8848
19.4908	-36.6888		84.5351
16.4868	-37.0778		86.4293
21.0624	-39.2043		84.4401
22.8776	-42.5182		84.2239
19.4503	-41.8675		86.4782
26.0337	-55.8314		77.3404
25.8066	-54.7407		76.8445
24.0579	-55.8431		78.9602
26.4305	-54.4305		80.5754
24.2243	-53.343		83.3604
25.3733	-51.813		75.9427
21.9693	-51.6377		78.5752
24.5058	-48.42		75.4692
13.8101	-37.3651		88.1868
11.1913	-37.378		89.8079
14.8329	-39.3951		88.4372
16.2255	-41.6498		88.5426
17.36	-43.9434		88.8015
21.2607	-55.6503		81.2142
19.6955	-54.2413		81.556
18.6901	-51.3355		80.8558
18.4727	-47.7231		79.6555
8.70997	-37.3808		91.2346
8.15595	-35.8126		91.2832
12.2932	-44.8798		92.2213
15.4068	-45.4907		90.6925
17.7788	-15.8194		88.5414
14.8619	-14.2106		91.7465
0.740953	-9.65073		104.041
-1.3929	-9.40125		104.208
11.8774	-12.8656		95.3296
6.16236	-28.1918		103.729
8.73787	-27.4696		100.648
11.4921	-26.7891		97.3742
12.2363	-24.9178		98.3331
14.0386	-26.5514		94.2249
15.5773	-26.8547		92.0077
16.2835	-27.6429		90.2898
16.4713	-28.6758		88.8513
12.8323	-20.2688		99.0631
12.7554	-21.6692		99.2461
12.6123	-23.2188		98.9748
40.5685	-141.547		13.5635
35.9319	-143.024		16.7947
41.5691	-147.737		12.3939
44.7494	-139.935		10.2608
39.3127	-133.049		15.2103
38.0771	-121.108		17.3772
42.2306	-119.62		13.5603
37.5664	-110.567		19.3024
33.6333	-122.519		21.1903
40.9421	-95.4425		25.7389
45.1164	-92.9861		21.0225
36.4416	-97.7181		30.2459
39.6097	-98.7116		22.6441
38.3067	-103.476		20.7626
33.8969	-105		25.3796
42.2886	-101.783		16.5024
46.2084	-68.9068		67.591
49.8764	-72.9274		63.1129
41.7057	-64.8606		71.3842
52.8222	-76.7483		57.6519
53.7983	-80.2033		53.1704
53.7949	-83.085		49.0947
38.1249	-61.7004		73.6393
39.2938	-58.5945		73.5431
35.1538	-59.3249		75.0841
36.1055	-64.3529		74.411
33.3454	-58.1378		75.8105
32.2541	-59.8732		76.0517
48.7625	-90.6386		16.536
50.9714	-87.5012		19.4187
47.2703	-94.6116		13.8896
52.1365	-88.7728		11.0704
53.8099	-84.8528		22.8158
56.3198	-82.4806		16.4523
56.7986	-82.4314		26.1933
59.2459	-80.4127		29.6655
61.405	-77.564		22.545
46.1301	-117.997		9.64178
47.2793	-129.842		8.1166
49.8562	-116.769		5.53476
45.639	-107.566		10.8998
48.5024	-138.389		6.81732
49.7399	-144.758		5.63706
52.002	-136.87		3.06519
46.0839	-100.047		12.1625
75.1832	-30.2886		27.4504
74.3775	-36.0659		26.9465
75.9934	-23.964		28.0163
62.6907	-75.4511		15.5506
60.4946	-77.9349		12.7213
63.6483	-73.7068		8.42256
76.2832	15.6808		27.189
79.0667	13.5454		16.442
69.6783	-62.5703		23.0534
70.4628	-60.24		14.9334
73.5836	-41.7471		26.4755
74.5483	-40.9007		18.9495
76.5923	-16.6563		28.9223
78.0468	-17.5854		20.7076
75.4792	-39.8367		11.8233
76.5137	-38.345		5.49611
60.11	-86.3108		-5.45397
