1832
-60.3693	-130.025		-40.5267
-66.0381	-55.2527		35.7999
-68.0705	-43.649		37.1827
-70.0522	-58.1689		0.697195
-5.74649	-87.4652		92.3814
-14.0294	-86.2729		88.1335
-13.7271	-94.9826		84.4752
-5.9186	-95.5715		88.8162
-23.74	-83.3328		80.5316
-23.333	-91.2116		77.3103
-6.49694	-78.1921		92.5428
-6.71757	-101.471		80.6373
-7.20745	-104.737		68.5377
-14.034	-0.416573		86.9301
-13.582	7.97294		81.2917
-18.0207	4.61006		78.2353
-19.3795	-5.32325		82.6568
-52.7827	-32.3431		66.3159
-41.7355	-30.4982		75.6854
-39.6666	-21.6071		76.2266
-51.3971	-22.9897		68.303
-63.2451	-21.7442		53.8291
-49.6199	-12.4394		68.4589
-64.3914	11.2162		46.441
-68.9185	10.2942		37.4157
-42.8509	-39.415		74.3015
-52.7772	-41.8478		64.2332
-4.2037	7.69087		95.1753
-4.14417	-1.64871		103.487
-24.2617	74.3109		63.7384
-34.6071	71.2412		59.232
-32.5219	59.6848		67.5932
-22.6772	61.5273		72.1082
-5.61574	-107.709		52.517
-61.7495	-43.5673		51.0843
-58.9337	-56.2696		50.1054
-33.3897	-85.7325		66.6074
-42.7025	-80.0539		57.4708
-41.6829	-86.7223		50.2925
-34.658	-99.425		31.9047
-39.2086	-92.1237		42.5488
-49.549	-85.5331		32.747
-44.182	-94.1489		22.8191
-4.53501	-8.71563		109.943
-9.26651	-4.20781		99.363
-10.0902	-10.4001		105.012
-21.3959	-15.6818		85.4036
-28.1277	-19.9373		81.2916
-31.8952	-55.7447		77.8429
-15.1723	-25.6295		94.0645
-14.4077	-27.8812		92.628
-10.6016	-31.6221		94.6142
-14.5318	-29.9809		91.4585
-15.4729	-32.0163		90.9749
-3.24303	-26.889		103.577
-3.47074	-28.8102		100.652
-20.4921	-30.7026		87.2027
-4.73108	-16.4928		113.588
-10.4758	-15.9781		107.583
-9.99112	-19.5068		106.172
-4.5226	-20.1798		111.925
-31.1797	-69.6788		76.4625
-23.35	-74.3085		82.757
-22.4274	-67.0482		85.1704
-29.2834	-62.7299		79.3017
-31.7253	-45.2584		82.2409
-27.2294	-44.0486		85.726
-3.72383	-31.1584		99.0719
-4.3139	-34.8959		98.3557
-8.93372	4.05791		92.1969
-18.6605	-17.6658		91.9602
-18.728	-20.4542		92.603
-18.1531	-17.7149		94.1047
-6.68908	-30.9367		97.418
-17.8654	-24.825		91.38
-5.37633	-39.0321		98.5044
-6.30857	-43.3202		99.1198
-28.7589	-36.8		83.8179
-24.026	-36.5152		86.7616
-14.6196	-65.0437		92.0864
-14.1716	-69.5668		90.4679
-6.47394	-70.5382		93.1279
-6.23194	-66.3024		94.9051
-24.4121	-50.0902		87.2006
-29.3016	-52.0507		80.2832
-15.3255	-13.4872		97.0289
-21.7705	-63.0275		87.1356
-53.6683	34.1592		60.9796
-60.8535	24.2253		50.2879
-57.9838	22.3213		55.6647
-44.2243	55.1275		59.3197
-42.6222	45.3342		67.0083
-31.5764	49.194		75.8271
-55.8299	49.1454		47.6797
-54.375	38.8778		56.2126
-32.504	44.5914		78.4241
-42.4235	40.9862		70.1735
-19.8098	30.0551		78.0794
-18.067	32.8704		80.1713
-25.2819	34.13		79.0825
-26.2658	31.2212		77.5377
-9.10899	11.9649		85.4232
-4.35295	15.7646		88.4831
-4.80402	20.6224		85.3655
-25.4453	-9.16318		79.7519
-22.9707	1.30154		76.7216
-33.9338	-2.08281		73.8915
-37.1897	-11.17		75.1231
-51.4725	6.3302		62.0316
-54.3274	12.4672		58.5828
-59.538	11.2253		53.2423
-43.7767	33.0575		72.0767
-34.1597	34.5312		77.3951
-33.6915	39.4691		78.7182
-51.6344	28.0287		65.3678
-54.7787	20.8958		59.7547
-34.2862	30.9152		76.2004
-45.3533	22.7626		69.1095
-41.1858	26.1423		72.7869
-12.4783	23.0931		77.508
-15.2777	27.1272		77.7037
-17.1714	23.4714		74.301
-7.04225	34.9315		83.4104
-5.68325	29.5649		83.4627
-21.9639	6.78527		74.7944
-11.0542	25.7406		79.7713
-21.5362	10.0503		73.7517
-19.2008	-52.8367		86.3968
-26.1914	-53.1465		80.0881
-6.88972	-48.2974		98.6864
-6.7814	-45.5595		99.2246
-12.4836	-48.2601		96.5576
-12.4705	-50.4157		95.1801
-6.61359	-50.3897		97.5905
-18.7962	-49.4178		92.2238
-11.9967	-45.8335		97.3905
-18.5993	-47.2971		93.2473
-12.1329	-51.9102		93.2134
-5.39655	-51.7988		96.0947
-19.6672	-54.5241		88.1916
-19.4405	-54.1261		87.4412
-20.1731	-55.7321		88.9393
-13.929	-57.8529		94.9422
-13.1217	-56.0305		94.8443
-5.46159	-56.3243		98.0777
-5.28444	-54.0989		96.9968
-12.4082	-54.0986		93.981
-5.64152	-58.5072		98.4975
-26.6146	-54.2126		79.9116
-5.1303	-53.525		94.2851
-5.827	-60.6555		98.2575
-5.89946	-62.7951		97.232
-10.3435	-43.6574		98.0042
-5.25018	-53.3934		96.1105
-12.1034	-53.4797		93.1696
-14.8587	-61.8168		93.6467
-14.5328	-59.8037		94.554
-11.9987	-51.9883		91.5644
-11.9461	-53.7367		91.4843
-17.5946	-51.2687		86.2409
-11.9435	-50.4174		89.5202
-26.3454	-56.1548		79.0309
-5.24332	-55.5273		91.6532
-5.27733	-51.8232		94.2339
-6.3847	-49.9028		91.2288
-12.2828	-55.6352		89.1363
-26.9897	-46.3301		75.8652
-29.7682	-50.6807		72.6395
-16.2476	-44.8478		84.5786
-11.0137	-44.2418		87.1512
-27.7018	-62.3824		75.1769
-23.9051	-63.0861		79.1193
-5.31939	-62.0389		89.2709
-0.450423	-62.0758		89.9654
-5.81687	-43.774		88.4254
-11.4711	-62.2176		87.0454
-29.7661	-58.1275		72.4782
-81.6137	-12.9887		-40.6833
-82.691	-4.23879		-41.5645
-79.4151	-2.88038		-46.6345
-78.0835	-12.7396		-45.7344
-78.6663	4.77826		2.92049
-79.003	19.9728		-6.35455
-80.2471	19.3493		-25.0843
-81.244	11.5376		-20.8661
-78.7046	-27.0586		-34.0816
-76.899	-34.0011		-29.9152
-80.3295	-20.3833		-37.7784
-75.8527	-22.4659		-42.8144
-85.3998	-2.332		-40.2419
-84.9272	-12.7963		-39.1032
-83.9447	-30.1303		-29.2209
-86.199	-22.0135		-33.8949
-81.2992	-37.8455		-22.2493
-79.0187	-39.6617		-18.9472
-90.9118	-12.5958		-30.4225
-92.9264	1.5072		-34.6817
-78.8391	-20.6029		2.9336
-77.9798	-28.7858		1.93084
-82.6514	-18.0156		-8.3875
-83.0084	-21.9902		-8.88529
-81.1884	10.8542		-19.4744
-89.3476	-2.44017		-40.5308
-89.0154	19.2804		-21.2529
-90.7648	18.2323		-19.1025
-87.7422	18.3142		-23.4903
-86.4954	2.89673		-10.1704
-93.8431	8.87684		-34.5321
-91.8903	-3.21615		-29.3905
-91.5693	-0.473144		-28.0621
-84.9675	8.05925		-35.1599
-83.0258	5.49997		-38.2835
-81.7868	-26.3398		-32.5443
-82.3059	-2.15867		-5.24368
-83.4913	12.1462		-28.1392
-82.659	11.1335		-30.6802
-90.6372	10.6256		-20.8827
-87.5861	-8.596		-23.435
-14.4403	90.5192		54.4093
-13.1566	76.2226		65.8741
-11.9594	61.8399		74.3148
-21.838	50.2941		79.1154
-3.67095	-24.4226		107.551
-4.83215	-13.0434		112.886
-11.5598	48.8413		81.1171
-11.2474	41.8761		82.6723
-5.01065	24.8554		83.9964
-26.3357	87.0379		52.8854
-22.3428	43.905		80.8188
-24.3709	37.8497		80.2411
-27.9077	28.2305		75.6695
-21.3649	26.5318		75.2076
-37.0832	82.3819		48.9056
-39.8764	94.9552		30.6715
-34.9283	28.0435		75.1451
-46.4978	66.0612		50.9278
-43.0514	29.2958		72.4274
-57.9515	61.2322		37.8136
-48.93	24.9545		67.2707
-13.9009	30.0116		80.1236
-70.0394	-58.3135		-13.246
-80.4907	14.8937		-37.0396
-77.4391	24.0272		-48.8545
-75.0034	-0.882056		-58.8207
-72.807	-14.7251		-56.4807
-80.1368	7.29944		-44.0325
-76.2494	12.6053		-57.0295
-69.5816	-27.8805		-51.8724
-12.5726	-106.614		49.411
-23.9593	-103.578		41.487
-52.6582	-78.6847		40.8854
-68.1332	56.4615		19.5543
-15.1988	106.355		33.8804
-28.2945	101.773		32.9965
-47.167	19.0033		65.8243
-53.212	-70.6506		49.4668
-8.84024	-39.3494		97.6644
-21.5538	-42.2115		90.2782
-7.48808	-34.9543		97.282
-12.3175	-35.8877		94.7798
-14.8957	-40.5488		94.7688
-35.8713	-46.5513		78.9361
-35.8293	-53.4608		76.914
-74.8891	-43.5072		-20.7389
-76.25	-30.6068		9.69583
-77.2065	-21.6187		10.561
-74.8025	7.61117		20.0481
-75.0595	-7.73505		23.483
-48.3188	10.1606		63.8065
-74.7364	-20.7243		23.9567
-73.8186	-31.5162		23.3091
-14.9597	-8.85944		92.2584
-17.1882	-22.5645		94.4538
-15.1634	-20.3845		98.6546
-34.1261	-37.6209		80.5832
-50.6332	-52.986		63.3069
-42.3512	-49.1824		73.0771
-46.8278	-63.4726		63.4194
-63.0984	-32.6968		52.2509
-33.0884	-78.2864		71.6432
-40.6715	-72.0851		65.9727
-46.5659	-2.26099		68.1931
-43.6081	3.23162		68.7662
-40.3673	-57.2053		72.5791
-36.692	-63.8615		73.3928
-14.4424	-77.0982		89.0141
-31.8051	3.26768		73.3559
-10.5357	-13.4141		107.078
-70.4539	-20.5512		38.603
-69.5336	-32.4628		37.9099
-8.99731	28.0821		81.9175
-18.2629	-36.368		90.7671
-23.8401	-51.7021		81.1992
-21.8919	-45.3481		80.5156
-32.93	-139.532		16.2389
-41.6779	-136.311		9.57407
-44.4389	-149.73		7.96684
-35.5676	-152.477		14.0954
-40.8368	-104.033		14.7331
-31.5737	-108.905		22.5618
-39.3206	-116.455		11.8152
-30.2234	-119.771		19.5366
-33.584	-58.3409		76.8025
-52.2475	-88.8031		12.3165
-57.0213	-80.3531		19.7591
-49.2666	-133.003		2.45171
-51.9344	-146.467		0.75939
-61.212	-76.8645		6.7748
-57.8913	-85.3461		0.950467
-61.79	-83.56		-9.11543
-60.7403	-97.8034		-35.2816
-77.0768	-35.2603		-0.463977
-62.2667	-81.4775		-33.3676
-54.6706	-108.585		-51.2055
-55.1061	-125.351		-53.4685
-25.8427	-154.663		19.3473
-23.1994	-141.93		22.4466
-20.4908	-111.828		31.6273
-19.6376	-121.993		27.7436
-28.5565	-58.864		79.9822
-19.3451	-54.3493		86.1688
-19.5392	-55.9378		84.6767
-16.1755	-156.19		23.4847
-18.1523	-62.718		83.4139
-74.6706	53.3083		-1.63044
-49.4994	-82.7402		-59.1985
-48.267	-103.771		-61.3844
-55.3774	-88.7995		-48.8637
-48.3249	-121.384		-64.0937
-58.2673	-67.5112		-47.3949
-15.0909	118.098		5.365
-29.0841	113.008		5.38345
-15.1069	111.519		-64.4154
-14.0422	91.5826		-93.4112
-28.1772	88.7565		-89.8642
-29.6675	107.605		-61.3035
-14.0904	66.3276		-109.883
-27.1428	64.1613		-106.42
-29.7454	115.763		-27.5233
-15.2878	120.55		-29.2412
-13.5449	40.105		-118.016
-26.1618	37.9987		-114.502
-12.5473	12.1019		-120.114
-25.0961	10.4677		-116.241
-23.4952	-15.373		-111.086
-11.658	-13.8664		-115.054
-10.9318	-38.7353		-101.175
-21.9208	-39.1944		-98.7233
-9.65816	-75.5819		-84.9768
-9.29926	-94.6887		-83.4963
-19.352	-95.9213		-81.7827
-20.3974	-77.0337		-82.6063
-9.24341	-113.489		-83.0604
-19.2376	-114.088		-81.8037
-10.6933	-55.4976		-90.9475
-21.7705	-57.4421		-88.0987
-41.8637	104.953		4.60218
-53.3466	94.4084		3.03866
-52.1736	77.0366		-76.3395
-41.0216	83.8808		-83.9412
-40.261	60.3541		-100.038
-51.5405	55.4797		-91.8248
-53.1527	91.9759		-51.6672
-41.9859	101.264		-56.9487
-54.6163	96.741		-24.4541
-42.9718	107.685		-25.9181
-50.2226	31.6854		-99.9244
-39.082	35.0909		-108.08
-37.4766	8.63621		-109.863
-48.0788	7.03011		-101.796
-45.0037	-17.684		-97.1362
-35.2834	-16.9037		-104.74
-33.5282	-40.5483		-92.8597
-43.9268	-40.7751		-84.8462
-32.9085	-59.3706		-82.3265
-39.3159	-99.5733		-71.2311
-41.2955	-79.5078		-69.5458
-31.4258	-78.4242		-77.4579
-29.6472	-97.7067		-77.8764
-29.5357	-115.453		-78.7052
-62.9545	80.0271		-44.8689
-61.4647	68.3538		-67.4188
-69.3907	57.5779		-55.9673
-71.0659	65.9093		-34.7151
-71.4018	68.453		-12.9023
-64.2753	83.5013		-21.2054
-59.3086	27.7581		-90.5436
-60.6549	49.5134		-82.4326
-53.9891	-18.2908		-86.9688
-57.5364	4.87118		-91.5172
-51.843	-39.3689		-76.3689
-73.6161	33.1625		-60.0606
-61.455	-17.9631		-76.3551
-67.6311	-16.5393		-66.3141
-70.6187	0.813203		-69.7941
-64.7136	2.79867		-81.0805
-72.0736	17.473		-68.7901
-66.3328	23.0754		-80.4005
-67.9492	42.0626		-71.7884
-60.5679	-47.8324		-53.0952
-63.9304	-32.5754		-59.8443
-58.0603	-36.577		-68.1272
-93.4644	9.60353		-35.1775
-91.6463	10.2724		-36.4027
-92.3745	17.1758		-27.4871
-90.4504	18.3006		-28.6424
-88.3263	13.6751		-13.105
-86.5314	14.5648		-15.081
-84.419	13.9697		-18.0615
-89.9325	8.71283		-37.3149
-89.2701	16.9226		-29.9067
-92.9191	-2.20992		-37.2374
-91.5738	17.0442		-18.3181
-93.0204	15.9428		-27.0222
-39.6302	-117.958		-72.7211
16.8248	-99.5156		74.0479
14.0116	-100.945		74.0459
19.2665	-98.9664		70.4524
17.427	-97.6407		77.0184
67.1619	-5.84489		49.3834
64.9797	-4.79517		52.9168
67.6285	-9.11978		48.5611
68.3814	-2.40852		45.7496
62.7943	-3.07735		55.3883
62.6044	0.817357		54.1945
60.0046	-4.19731		58.7197
11.8264	37.9322		83.8996
14.2699	37.0896		83.3602
15.4855	41.1955		83.0319
9.10863	38.9377		84.2066
9.50214	34.823		83.3793
8.38948	19.221		80.4625
9.10785	18.1306		79.8914
8.81131	20.843		79.6212
7.82401	19.6151		81.1236
11.6666	19.7568		76.162
13.162	18.2548		74.3626
12.2133	21.3827		75.7158
10.3027	21.4475		77.8646
11.2604	18.1611		76.9166
41.2477	15.4993		68.7727
38.1797	14.2384		70.8993
42.9163	16.6091		67.3304
15.0074	12.1977		75.429
14.6423	13.2263		75.1635
14.6834	11.2396		76.4142
16.476	11.4904		74.7389
27.5759	-54.2853		78.9548
27.4783	-54.1748		79.2039
27.6598	-54.3916		78.5009
27.4936	-54.2368		79.2675
26.4592	-53.1432		81.7541
26.7875	-53.7072		80.2844
27.4972	-53.5156		80.4732
26.4954	-52.6818		82.465
24.7501	-52.8622		83.8453
30.3523	-54.1746		79.1497
30.3315	-51.768		80.6182
27.8764	-54.5754		77.6326
27.5314	-53.8342		78.284
28.3319	-54.542		76.1503
27.7154	-54.8891		78.0048
22.6731	-58.1255		85.9216
23.0306	-58.9062		85.4729
25.8096	-56.3577		81.899
22.6206	-57.4581		85.9274
19.4198	-59.6966		89.8817
20.5145	-48.56		91.6412
20.0226	-47.1809		92.2773
17.3685	-46.8741		94.3367
20.8026	-49.3425		91.2377
23.0244	-49.948		88.8467
26.7958	-54.3337		80.1855
26.8797	-54.3699		80.1673
26.9307	-54.3249		80.0367
25.2382	-54.4851		81.5532
79.5886	-34.6515		-7.22327
79.0219	-35.0634		-6.38231
79.1695	-38.0985		-10.312
80.1476	-33.6896		-7.13619
87.4826	-25.5797		-18.9499
87.9685	-23.7577		-21.6351
86.3452	-23.9657		-17.766
87.0186	-26.7159		-16.4663
87.9797	-26.8991		-19.6066
82.629	-31.5974		-8.96447
82.7315	-29.0122		-8.26809
81.9899	-31.8743		-8.22176
83.3088	-32.8457		-10.5965
82.5427	-19.3514		-12.2544
82.4493	-18.3199		-13.1562
82.4822	-17.5883		-12.0138
82.8349	-19.8444		-10.9028
82.9924	-20.8509		-12.6686
87.2869	0.0729262		-13.2088
86.8293	-1.8739		-13.9745
87.538	0.863768		-13.7834
87.3246	0.609228		-12.2817
90.3426	10.8547		-17.4185
90.3459	11.4367		-16.4252
89.9751	9.92012		-17.3833
91.5199	11.9933		-20.5229
84.896	-17.1697		-19.2833
83.9309	-15.7352		-17.8629
84.5118	-20.893		-16.6446
87.1668	-20.2388		-22.0591
87.1205	-14.7436		-23.2135
89.0601	1.45332		-19.7349
89.4069	2.58259		-20.0968
87.875	0.99131		-15.8911
89.0444	0.160534		-20.7974
92.5873	-9.14878		-31.8548
92.4782	-8.93699		-31.2729
91.8139	-12.226		-31.4334
92.9158	-8.03166		-32.8153
93.1767	-6.39326		-34.486
93.3126	-4.28395		-33.4226
93.1021	-7.08605		-35.547
93.3817	-3.36707		-35.7404
88.3833	-22.1405		-23.6147
88.7784	-19.923		-25.4466
88.8258	-23.1776		-24.4285
90.2275	-8.65521		-27.7021
89.2746	-10.6158		-26.5646
91.5093	-8.92374		-29.5616
90.2129	-7.32126		-27.4247
80.9302	-26.7527		-4.89978
81.004	-28.9775		-5.63224
81.5331	-26.3308		-5.79113
80.6841	-25.9305		-4.2271
80.5555	-24.3342		-3.45321
80.8473	-22.311		-3.41789
80.1864	-24.498		-2.54836
81.806	-15.4054		-3.74785
81.5654	-15.9554		-3.30589
82.1492	-15.7302		-4.659
82.1705	-12.246		-3.95077
81.2774	-16.7388		-2.82345
80.9316	-16.6106		-1.87162
81.1509	-19.1064		-3.1256
84.5814	-22.4451		-15.3545
84.4364	-23.4881		-13.5071
84.1514	-10.6056		-12.4247
83.1771	-14.3717		-12.1475
84.0564	-11.1037		-13.9604
85.1603	-6.83582		-12.7011
84.5227	-9.51832		-11.1796
93.0336	6.93317		-29.637
93.1463	7.66938		-29.8975
92.889	6.50828		-29.0627
93.2974	5.76939		-31.3969
93.3146	2.13534		-32.215
93.1566	1.03437		-30.7747
93.3818	0.476243		-33.1201
93.3927	3.45564		-33.053
93.0739	3.90449		-30.2694
89.8037	9.30075		-17.5543
90.663	9.42616		-20.2142
89.2137	8.42832		-16.412
91.6644	9.32994		-23.5439
91.2657	8.27698		-22.8323
92.8101	9.06703		-27.6496
92.2055	10.6056		-24.4326
37.5014	25.6083		73.4582
39.6888	24.5055		72.3878
35.0055	26.3182		74.057
23.1272	-98.0213		65.1733
22.2489	-99.45		60.848
25.5265	-96.1968		65.1655
43.9962	19.9257		68.1244
43.1901	21.6325		69.4556
44.7214	18.3659		66.9546
48.3031	21.5284		66.3538
50.5951	22.5623		64.9441
47.5184	23.7749		67.9127
46.1596	20.9614		67.5634
48.6477	19.2285		65.0583
73.5806	-47.3312		-2.87419
74.4401	-45.7011		-7.50414
74.0095	-45.7517		-1.39844
72.8491	-49.5528		-3.31965
16.6015	17.2656		71.5117
17.0511	16.5629		71.3688
16.6223	18.2063		71.5908
15.4634	19.9072		72.5413
16.7457	21.7135		72.7629
15.247	18.4603		72.4252
7.08419	20.8425		81.7609
6.42694	20.8535		82.4889
7.11071	22.9519		81.4412
20.8133	-53.2645		86.8549
21.6105	-53.6433		85.0732
21.2258	-52.9298		87.2362
17.6595	-52.8304		90.0645
65.825	-70.4248		-8.56235
65.0201	-70.4109		-3.11531
65.1952	-73.1953		-10.5059
66.7306	-67.8234		-9.09816
79.8741	-4.40682		1.95109
79.2397	-11.5412		4.72553
80.7343	-5.13336		-0.768119
80.3867	3.23276		-1.71024
78.7956	-3.42307		6.47427
66.2079	-73.3532		-21.9301
65.6352	-75.6099		-23.6411
66.9281	-68.913		-22.2987
65.565	-75.6715		-17.28
62.9986	-109.167		-27.7135
63.1	-117.655		-29.1914
61.5081	-105.556		-35.2845
62.9671	-100.156		-27.5245
63.131	-111.743		-21.7259
27.1331	-54.7313		80.1862
27.2758	-54.8735		80.1242
25.4791	-55.3518		81.9613
27.5048	-55.1113		80.0584
22.307	-57.0686		86.2399
22.5141	-56.5261		85.8301
19.055	-58.1049		90.295
27.4781	-94.3933		65.2708
31.6851	-92.6034		58.9781
27.4111	-92.2527		69.2159
49.4793	-60.5512		-66.1286
48.1557	-56.7131		-70.1282
52.1406	-59.5349		-62.3961
48.5462	-63.6824		-65.9441
54.043	78.9707		33.1463
56.0489	81.0915		26.4141
50.3486	82.0827		35.6154
54.6957	74.8057		36.0005
90.0411	-18.7359		-32.7254
91.2812	-13.7648		-35.5882
90.5544	-17.9368		-31.6962
88.9563	-22.863		-30.1407
89.4208	-18.7891		-33.9795
84.4926	1.13049		-7.48049
83.7936	-3.10424		-6.30034
85.469	1.0461		-8.15868
85.1589	5.36175		-9.12605
83.2326	1.30155		-6.7333
82.6582	-19.8366		-6.96854
82.2326	-20.5111		-5.88923
83.0979	-22.4057		-8.26951
82.9979	-20.0747		-8.57142
82.624	-18.1913		-6.62247
82.5839	-26.1729		-7.44438
82.1095	-23.3997		-6.12988
83.3845	-25.8781		-8.82882
92.2078	-8.08752		-38.0153
91.4373	-8.0907		-38.8338
92.7757	-1.99848		-39.0615
92.6755	-8.09295		-37.1487
90.4236	-7.9644		-39.5014
89.6998	-13.441		-37.5608
89.3834	-7.73458		-39.878
90.8151	-2.02292		-40.3676
81.9383	5.29442		-8.06819
82.1319	7.50147		-9.84977
81.6827	6.30207		-7.75888
82.0252	3.63329		-6.8553
86.6758	-16.9917		-36.9307
84.9834	-16.4527		-37.7032
87.3202	-12.6537		-38.7291
87.7384	-17.5818		-36.2329
85.6625	-20.8522		-35.0439
89.0032	-24.2316		-25.2311
89.5284	-21.1819		-27.679
88.6458	-26.183		-23.0738
88.8779	-25.1695		-26.4598
86.4746	-32.7769		-23.2976
85.9047	-34.5709		-20.4362
85.1094	-34.1715		-24.3875
87.3978	-29.6372		-25.991
87.8438	-30.1044		-21.8253
87.2364	-31.0129		-16.5423
86.713	-32.7072		-16.9006
87.7261	-29.9302		-18.1479
86.8249	-30.3365		-15.1998
76.7805	-41.4316		-12.6429
76.2371	-42.3848		-13.1538
77.8421	-40.5294		-14.3379
76.8819	-40.4741		-8.25197
81.5916	-37.8888		-13.6461
81.9114	-38.6742		-16.0723
82.8196	-36.5111		-13.2037
81.1516	-36.0997		-10.5652
80.5223	-38.7714		-13.9127
87.9878	7.57149		-10.3666
87.9781	9.04303		-10.4735
86.7118	4.12469		-9.51515
88.294	7.53974		-10.7365
87.9273	9.94577		-10.7053
89.176	13.1875		-12.6534
87.582	9.93565		-10.7142
92.9008	-7.92197		-36.3996
92.0568	-12.5288		-33.8938
93.4289	-2.34186		-37.7638
93.8527	6.17167		-34.3808
93.6551	5.16801		-34.1095
93.9866	5.52423		-35.2617
93.7905	7.69285		-32.8445
88.9555	8.59226		-12.5025
88.8255	8.35688		-11.951
88.5454	7.04963		-12.7622
89.412	10.1649		-13.4906
88.4831	7.49533		-11.1223
87.7443	4.37327		-11.0488
89.4372	11.6651		-12.5889
92.2105	-8.9115		-30.6836
92.8191	-6.01211		-30.9667
90.9799	-12.4257		-29.6535
88.2553	5.50327		-14.3151
88.6371	7.08768		-14.8401
88.1722	5.34973		-13.8386
88.539	4.61427		-16.1032
88.9981	7.88136		-16.0295
89.4746	7.49058		-18.0131
88.4664	-13.662		-25.6109
89.1027	-15.4209		-26.7024
84.6941	-8.70452		-9.9909
85.7109	-4.3856		-10.0661
84.5446	-8.69062		-8.86817
83.6842	-13.3196		-10.0369
87.6603	1.27762		-14.0955
87.875	2.99343		-13.49
53.8432	-57.5449		-60.4799
54.0844	-52.9551		-63.0378
55.2752	-57.7381		-57.7792
26.3442	-24.8861		82.3862
27.7716	-28.1237		82.3576
26.7807	-23.4776		81.9829
24.5212	-24.6084		83.34
21.642	-22.9185		85.497
22.1735	-23.9317		84.9635
21.9485	-20.3223		85.3787
20.6287	-23.3395		86.8575
49.3718	37.1912		66.3042
49.5957	35.2045		67.0633
53.8379	33.039		62.1192
49.3954	38.8417		65.168
44.6412	39.5603		69.8675
9.12152	-27.801		96.4036
8.3183	-27.2944		97.6038
8.89953	-28.4981		96.2345
10.6095	-27.7252		95.3007
10.6347	-24.5567		99.2141
9.02745	-25.0659		100.143
12.1492	-25.1868		96.7707
11.2228	-23.4341		100.048
43.5149	17.3121		67.0541
43.2646	18.0319		67.2757
16.7154	-16.4393		97.3709
16.8502	-17.3845		97.1989
17.2082	-16.4119		96.348
15.4337	-15.6339		99.3569
84.6328	-24.8247		-32.9161
83.547	-27.3465		-31.5009
83.2938	-23.2683		-34.3301
85.6703	-25.9257		-31.8147
63.962	76.2407		14.2191
61.6431	79.7126		15.3039
64.4438	71.6178		18.7417
66.2304	76.9886		4.72246
28.345	-59.9039		74.6965
28.9644	-58.0346		73.9873
28.3406	-61.0485		74.1542
27.4885	-59.5767		76.1411
28.294	-49.2752		74.8073
27.1933	-49.5127		76.4219
28.1761	-48.1093		74.4161
28.9504	-51.1259		74.1239
-17.6147	-100.447		72.731
-18.0019	-98.9125		75.6394
-19.9824	-99.9141		68.9629
-14.8455	-101.686		72.9707
-66.1876	-5.59074		48.8917
-67.4217	-1.91631		45.343
-66.7058	-8.90202		48.1628
-63.7929	-4.73076		52.5742
-61.3034	-3.16494		55.4008
-58.4259	-4.73332		58.885
-61.1543	0.946405		54.2014
-11.2011	37.0838		82.7716
-13.0405	34.9741		82.1171
-9.37012	34.0797		82.8601
-8.50933	38.4378		83.2542
-14.0811	38.8794		82.3246
-9.69674	18.696		80.3917
-9.18677	19.098		81.0352
-10.093	20.3445		79.6124
-10.3622	17.6845		79.8194
-13.0175	19.5144		76.2153
-14.8702	18.0597		74.2647
-12.5332	17.8424		76.9626
-11.5964	21.0801		77.8835
-13.7417	21.2483		75.7109
-41.8859	15.4382		68.2793
-38.6859	14.1612		70.5543
-43.6996	16.5785		66.7603
-16.1189	11.8106		75.5633
-17.6677	10.9777		74.8788
-15.7125	10.787		76.5948
-15.8637	12.9331		75.2115
-28.905	-53.8193		78.0241
-28.8351	-53.7083		78.2577
-28.8537	-53.7617		78.3195
-28.9414	-53.9387		77.5938
-27.8659	-52.5917		80.7074
-28.9462	-53.0313		79.4052
-26.225	-52.2979		82.6607
-27.9171	-52.1213		81.3602
-31.589	-51.3152		79.6817
-29.0602	-54.1355		76.7589
-28.9421	-54.4156		77.0946
-29.33	-54.1269		75.34
-28.7801	-53.3944		77.3625
-24.093	-57.6379		85.0703
-24.5044	-58.367		84.5559
-21.0569	-59.3252		89.066
-24.0659	-56.9665		85.0162
-27.2202	-55.7659		80.8206
-21.3621	-48.0821		90.9811
-20.8863	-46.722		91.6069
-23.8695	-49.4761		88.1641
-21.6535	-48.8796		90.5773
-18.2423	-46.4143		93.6653
-28.1805	-53.8327		79.2077
-26.6447	-53.9211		80.4852
-28.3036	-53.8311		79.07
-28.2703	-53.8667		79.1859
-79.6105	-34.5743		-6.71053
-80.2702	-33.6184		-6.64153
-79.1482	-38.0585		-9.8837
-79.0522	-34.8781		-5.87272
-87.1576	-25.5777		-18.7077
-87.6063	-23.7907		-21.425
-87.6617	-26.9184		-19.36
-86.7261	-26.6732		-16.2008
-86.0164	-23.9396		-17.5271
-83.2234	-31.473		-8.61962
-83.9648	-32.6714		-10.3052
-82.7519	-31.6895		-7.96885
-82.8809	-28.8142		-7.85006
-82.1935	-19.1915		-12.0085
-82.0861	-18.1746		-12.9289
-82.6601	-20.7124		-12.4169
-82.4995	-19.6773		-10.6487
-82.1157	-17.4283		-11.7903
-86.788	0.165688		-13.2232
-86.8253	0.712119		-12.3046
-87.0341	0.948192		-13.8075
-86.3363	-1.78467		-13.9634
-89.8121	10.8664		-17.5497
-89.8178	11.4558		-16.5651
-90.9801	11.9703		-20.659
-89.4451	9.93565		-17.5048
-84.3031	-9.94264		-16.8942
-86.5667	-6.19456		-20.1388
-83.7797	-12.3238		-17.2772
-83.621	-10.9846		-13.8257
-85.1861	-6.22352		-15.9708
-89.2276	4.09716		-20.374
-88.8844	2.58784		-20.1378
-88.0195	4.66053		-16.1689
-89.7342	5.6742		-21.2067
-90.8954	3.55714		-25.2643
-81.9325	-28.9884		-30.5862
-83.1422	-27.5137		-31.3344
-80.7331	-28.8404		-31.0881
-81.8065	-31.2836		-28.9804
-92.0745	-9.26194		-31.8224
-92.3934	-8.15101		-32.7952
-91.316	-12.3428		-31.3742
-91.9666	-9.04566		-31.24
-92.64	-6.52312		-34.482
-92.7721	-4.40322		-33.4307
-92.8288	-3.49951		-35.7608
-92.5632	-7.22357		-35.5416
-87.9953	-22.1939		-23.4331
-88.3622	-19.9939		-25.2933
-88.4397	-23.2484		-24.2446
-86.7749	-20.2622		-21.8807
-89.7276	-8.72577		-27.6503
-88.79	-10.6736		-26.4906
-89.7077	-7.38875		-27.3831
-91.0035	-9.01647		-29.5178
-88.0051	-13.7139		-25.506
-88.6474	-15.491		-26.5901
-86.6783	-14.7658		-23.085
-80.7792	-26.4661		-4.49654
-80.4739	-25.638		-3.85521
-81.3629	-26.076		-5.39877
-81.0536	-28.7355		-5.27414
-80.3215	-24.0171		-3.09839
-79.9564	-24.1551		-2.1908
-80.574	-21.9939		-3.09586
-81.4435	-15.1055		-3.5345
-81.7725	-11.9604		-3.7876
-81.7885	-15.4488		-4.44235
-81.2106	-15.6442		-3.08302
-80.9344	-16.4159		-2.58567
-80.8376	-18.787		-2.85075
-80.5898	-16.2675		-1.63386
-84.2537	-22.3642		-15.1192
-84.1607	-20.8295		-16.4276
-84.1257	-23.372		-13.2449
-83.7163	-10.4695		-12.2945
-82.7766	-14.224		-11.9658
-84.0816	-9.37056		-11.0645
-84.6978	-6.7131		-12.6229
-82.3769	-16.039		-11.4462
-82.629	-15.9911		-10.5538
-92.4742	6.84569		-29.7225
-92.7343	5.6701		-31.4743
-92.3324	6.42496		-29.1442
-92.5844	7.57977		-29.9889
-92.7582	2.02953		-32.2661
-92.6086	0.937336		-30.8155
-92.5198	3.81243		-30.3312
-92.8293	3.34598		-33.1154
-92.8268	0.363767		-33.1612
-89.2738	9.31696		-17.6689
-88.6866	8.45888		-16.5187
-90.1263	9.41465		-20.3251
-91.1194	9.28823		-23.6509
-90.7244	8.24457		-22.9287
-91.6564	10.5536		-24.5505
-92.2535	8.99367		-27.7525
-90.1938	7.01148		-22.0063
-91.5445	6.47982		-26.2171
-88.9458	7.50831		-18.1072
-37.6723	25.4771		73.7376
-35.0519	26.2119		74.4243
-39.9273	24.4001		72.6437
-23.3063	-99.1956		63.6273
-25.5324	-97.6299		63.4757
-22.1443	-100.503		59.5192
-44.5092	19.8688		67.8231
-45.349	18.4324		66.5187
-43.4297	21.5535		69.4923
-48.3104	21.7885		66.4399
-47.0523	23.787		68.3657
-50.4293	22.598		64.9645
-48.5486	19.2866		64.9963
-46.5011	21.0287		67.3951
-73.8033	-47.1125		-2.43119
-73.0943	-49.3872		-2.91281
-74.2266	-45.4898		-0.909499
-74.548	-45.5943		-7.11145
-19.5355	17.2872		70.8539
-19.8122	16.6413		70.7721
-19.6932	18.1844		70.9612
-18.0828	19.8413		72.1068
-19.091	21.4697		72.4612
-17.6721	18.3952		72.0555
-8.58254	20.296		81.6657
-8.58024	22.3951		81.4717
-8.01613	20.3607		82.3889
-22.0818	-52.7597		85.8653
-18.7856	-52.3535		89.2355
-22.4478	-52.4277		86.2741
-22.94	-53.1237		84.059
-65.8651	-70.9977		-8.8767
-66.7936	-68.2622		-9.30865
-65.0976	-73.9133		-10.9219
-65.2229	-70.9416		-3.43491
-79.4155	-4.03674		1.97172
-78.8531	-11.0774		4.86237
-78.34	-2.98107		6.44362
-79.8863	3.49528		-1.79207
-80.2748	-4.80729		-0.721116
-65.7139	-74.145		-22.2285
-65.1795	-76.5032		-17.6932
-66.4876	-69.5855		-22.5019
-65.0523	-76.4886		-23.9865
-62.0692	-110.553		-28.4302
-62.1063	-119.02		-29.8777
-62.1794	-113.256		-22.5751
-62.1118	-101.476		-28.211
-60.5974	-106.787		-35.8634
-28.5325	-54.2427		79.2064
-26.9118	-54.7606		80.8526
-28.3805	-54.0933		79.2527
-28.6599	-54.3874		79.1562
-30.0454	-53.8742		78.4511
-29.3044	-55.1783		78.9608
-23.7871	-56.5649		85.273
-20.7111	-57.7695		89.3795
-24.0012	-56.0079		84.7993
-27.344	-96.0773		63.4412
-27.5615	-94.2053		66.8236
-30.8937	-94.4717		57.5931
-48.7108	-61.0094		-66.2227
-47.7622	-64.1592		-66.0508
-51.4115	-60.0219		-62.483
-47.3665	-57.1173		-70.2067
-53.2906	78.3549		32.7006
-53.956	74.1874		35.6281
-49.529	81.4114		35.2162
-55.357	80.539		25.8989
-89.5683	-18.8876		-32.6262
-90.767	-13.923		-35.5356
-88.9404	-18.9509		-33.8856
-88.5271	-23.007		-30.0018
-90.0841	-18.0748		-31.5966
-83.9968	1.30454		-7.51593
-83.3202	-2.89518		-6.27636
-82.7332	1.49102		-6.76932
-84.6464	5.49621		-9.21139
-84.9756	1.20624		-8.19356
-82.341	-19.6012		-6.69937
-81.9301	-20.2501		-5.608
-82.2876	-17.9477		-6.37489
-82.6773	-19.8739		-8.30688
-82.8115	-22.2		-7.97252
-82.4242	-25.9545		-7.05712
-81.8574	-23.1454		-5.8097
-83.1969	-25.6935		-8.46414
-91.6599	-8.24556		-38.0089
-92.1318	-8.24631		-37.1411
-92.2031	-2.15236		-39.096
-90.8844	-8.25255		-38.8287
-89.8659	-8.12819		-39.4964
-89.1737	-13.608		-37.5144
-90.2343	-2.17961		-40.4002
-88.8242	-7.89627		-39.873
-81.419	5.45659		-8.14909
-81.5129	3.81893		-6.92201
-81.1619	6.46412		-7.85352
-81.6076	7.62978		-9.95093
-86.1725	-17.1608		-36.8512
-84.4717	-16.6238		-37.6252
-85.1921	-21.0222		-34.932
-87.2407	-17.7507		-36.151
-86.7855	-12.8202		-38.6849
-88.6202	-24.3217		-25.05
-89.1057	-21.2892		-27.5314
-88.4928	-25.2815		-26.2843
-88.2945	-26.2557		-22.8654
-86.1788	-32.8975		-23.0694
-87.54	-30.1844		-21.5926
-87.048	-29.7702		-25.7937
-84.8087	-34.3151		-24.1683
-85.6763	-34.6705		-20.1732
-87.0257	-31.0174		-16.2402
-86.6395	-30.3194		-14.8467
-87.4626	-29.9425		-17.8835
-86.5449	-32.7631		-16.5672
-76.7393	-41.3992		-12.2852
-76.9156	-40.3424		-7.83342
-77.7688	-40.5216		-13.9967
-76.2031	-42.3689		-12.8085
-81.9727	-37.5304		-13.0789
-81.9362	-38.6458		-15.6979
-80.5269	-38.7049		-13.5137
-81.857	-35.7793		-10.3665
-83.3801	-36.2099		-12.8075
-87.4771	7.67254		-10.4826
-87.7823	7.63605		-10.8525
-86.21	4.2519		-9.59044
-87.4658	9.1358		-10.6072
-87.4138	10.0329		-10.8489
-87.0628	10.0248		-10.8583
-88.6579	13.2356		-12.8255
-93.2774	6.05392		-34.4643
-93.2182	7.58357		-32.9381
-93.4091	5.40107		-35.3409
-93.0831	5.05327		-34.1858
-88.4383	8.66341		-12.6233
-88.8915	10.2193		-13.6258
-88.0292	7.1246		-12.8637
-88.3094	8.43492		-12.071
-87.9704	7.58763		-11.236
-88.9187	11.7216		-12.7437
-87.2374	4.47955		-11.1238
-91.7008	-9.01563		-30.6472
-90.4916	-12.5243		-29.5825
-92.2953	-6.11358		-30.956
-88.4729	7.91849		-16.131
-88.116	7.1406		-14.9356
-87.7378	5.56768		-14.3931
-87.656	5.41992		-13.9166
-84.2503	-8.54165		-9.8889
-85.2396	-4.23658		-10.024
-83.2803	-13.1515		-9.86853
-84.104	-8.50974		-8.76544
-87.1548	1.35805		-14.1244
-87.3655	3.07711		-13.5427
-87.3661	1.0503		-15.9145
-53.1425	-58.0331		-60.5544
-54.5978	-58.2432		-57.8501
-53.376	-53.3973		-63.0929
-25.7	-26.5586		83.1773
-23.879	-26.2852		84.17
-26.0683	-25.336		82.8308
-27.2521	-29.2077		82.936
-21.0194	-24.8228		86.4475
-19.9276	-24.9859		87.8916
-21.4372	-22.3975		86.3575
-21.4808	-25.6727		85.9004
-48.2124	36.4402		67.2118
-48.4759	34.5656		67.8474
-42.8905	38.9551		70.9133
-48.2797	38.0813		66.0436
-53.4872	32.5623		62.2406
-7.38974	-26.9147		98.8192
-7.625	-26.3458		99.3987
-8.12738	-27.3108		97.7091
-6.20296	-27.3319		99.5954
-7.85306	-25.6062		100.427
-8.97274	-25.0866		100.072
-6.63983	-25.4549		102.19
-44.3032	17.3638		66.5124
-44.0002	18.1155		66.8434
-16.6792	-16.8827		97.6576
-15.4846	-15.9556		99.4529
-17.1366	-16.9239		96.7389
-16.8034	-17.7877		97.5114
-63.3806	75.8205		13.6697
-65.6512	76.6153		4.19267
-63.8985	71.2114		18.1988
-61.0298	79.2641		14.7542
-29.0385	-59.6021		74.0905
-28.389	-59.1929		75.3921
-28.9386	-60.8761		73.5759
-29.598	-57.7081		73.3908
-29.0366	-48.9855		74.1469
-29.6487	-50.8168		73.4817
-28.7377	-47.8905		73.947
-28.126	-49.1735		75.6401
-10.4922	-24.629		99.3039
-11.1318	-23.5054		100.101
-11.7202	-25.4131		97.1679
7.89098	-25.6237		100.53
6.76787	-25.4793		102.272
7.64885	-26.3756		99.4648
7.39833	-26.9556		98.87
6.19523	-27.3921		99.6767
-8.77417	-27.8905		96.619
-9.95659	-27.9027		95.7654
-8.55482	-28.5853		96.4177
81.6775	-34.2483		-26.5697
79.9685	-34.832		-26.3399
82.1643	-31.1183		-29.1764
82.8439	-34.5902		-25.947
80.6623	-37.4888		-23.1812
72.8339	-46.0736		12.3078
71.6931	-47.4539		20.2684
71.7209	-50.6565		10.9269
73.817	-44.426		5.35674
73.7827	-41.3459		13.7105
59.0657	-115.922		-8.15598
58.7864	-105.666		-7.5843
56.4373	-117.16		-3.89099
59.778	-126.178		-9.28526
61.1177	-114.516		-12.5547
60.541	-133.571		-10.4929
61.2025	-139.392		-11.6509
62.2709	-131.675		-15.0929
58.1432	-135.541		-5.93775
52.8216	-100.536		2.48899
53.5189	-94.5385		3.70551
49.2738	-102.356		7.05453
52.7386	-108.202		1.38112
56.2016	-99.2298		-2.44443
62.3893	-96.9016		-15.5627
62.2649	-103.885		-16.1248
63.2825	-95.5278		-20.6471
62.6824	-91.4357		-15.1271
60.9093	-97.5632		-11.2511
64.8224	-66.675		21.9443
66.4798	-62.6275		23.7945
62.7119	-68.5894		29.3168
62.9235	-70.5445		19.6976
66.2482	-64.9884		14.4317
70.8432	31.964		25.1251
71.5984	39.7082		20.3322
65.8898	34.7517		35.9231
70.6729	24.6142		28.4204
74.9311	30.4566		13.2662
78.1715	42.0742		-28.4656
77.7978	39.0443		-38.1684
76.5999	49.0528		-33.6608
78.3275	43.8364		-17.8006
79.3588	34.7642		-23.5894
8.23608	-116.675		37.3156
5.51362	-116.848		37.9504
8.63232	-123.444		35.7624
11.6852	-116.328		36.2074
8.37805	-112.516		39.5513
9.84315	-133.838		32.602
10.9135	-144.303		29.0812
13.4876	-132.891		31.1719
6.55607	-134.1		33.6526
4.10664	-152.231		28.286
7.80104	-151.862		27.7918
3.80337	-145.053		30.5427
0.552196	-152.283		28.4533
4.50858	-157.054		26.8527
68.5437	-52.9038		-32.5976
71.0411	-46.854		-30.2758
68.1613	-59.2329		-27.4255
65.9518	-58.9962		-34.9603
69.1957	-45.3753		-36.7345
69.9772	-39.98		-39.74
66.3523	-45.7864		-43.1493
70.7871	-35.2851		-42.1438
73.0805	-35.3518		-36.5455
63.1691	-124.597		-31.1205
63.0966	-131.226		-33.3828
61.6289	-121.785		-37.8058
63.7027	-127.714		-24.797
3.49262	-134.451		34.185
3.12419	-124.004		37.2223
0.597868	-134.5		34.3394
70.1272	-48.9538		27.6087
71.062	-43.5913		28.3557
68.187	-49.9578		34.4473
69.1382	-53.809		26.4123
67.3368	-63.4074		6.86358
65.5738	-67.4438		5.11938
67.9822	-62.6843		-1.02709
69.0024	-59.1722		8.25737
8.79906	-90.6713		89.738
4.97357	-91.3188		91.2377
8.87774	-94.5871		87.4766
13.236	-89.7965		87.3583
8.7688	-86.4605		91.0127
17.9574	-88.1835		84.4015
18.0675	-91.9035		82.4293
22.8004	-86.1052		80.6459
17.8918	-84.1898		85.5598
2.36023	-83.0218		93.5269
5.34893	-82.6516		92.8061
2.44365	-78.5517		93.332
-0.38118	-83.1162		93.7383
2.11474	-87.462		93.2099
8.88913	-97.8643		84.3545
9.28965	-100.408		80.0366
13.3113	-96.8996		82.2459
5.22963	-98.3656		85.783
10.1232	-102.238		74.4388
6.07068	-103.058		75.321
10.5349	-103.53		67.9615
15.6287	2.93309		81.5527
16.5257	-1.64039		83.8199
18.2613	1.22523		79.8192
14.8385	7.00392		79.3987
13.062	5.0004		83.5895
47.7984	-25.0094		71.5466
54.1569	-26.1183		66.0923
47.0605	-19.9177		71.9927
41.3592	-24.0572		75.6997
48.2063	-29.9846		71.0863
59.0307	-15.7989		61.1801
63.8104	-15.4898		54.8583
57.6333	-10.302		62.3524
52.8014	-15.0538		67.3474
59.5783	-21.443		60.4782
68.5667	2.77074		43.3814
70.6394	1.60044		38.5082
67.3085	10.266		42.9448
65.9822	4.51836		47.7289
48.6064	-34.9772		70.0777
48.7876	-40.1958		69.1279
54.2556	-36.4998		64.3149
42.8929	-33.8554		74.78
1.16236	3.37438		100.268
0.83423	8.56627		95.7791
-0.546206	3.69729		100.305
1.48665	-1.12885		104.242
3.17111	2.71887		99.6735
30.052	67.8636		65.2232
25.2488	68.778		67.1655
29.333	61.623		69.0441
35.1835	66.3306		62.6259
31.0059	73.8151		61.4231
2.93849	-106.429		61.7435
3.12917	-107.8		53.6521
6.34348	-105.991		61.1437
2.6997	-104.964		69.4267
-0.24216	-106.576		61.9366
65.7152	-50.4791		41.1759
62.5935	-50.3062		47.9984
64.3533	-56.395		40.5687
66.6687	-44.6371		41.9031
2.08245	-98.8267		86.3826
1.91092	-95.7922		89.5589
-0.589502	-99.0547		86.4731
2.39133	-101.552		81.5341
2.57194	-103.5		75.812
-0.629199	-103.682		75.903
39.1294	-84.2234		58.9665
33.3576	-86.73		65.773
38.1926	-87.2326		56.0144
44.5739	-81.1003		53.5938
39.4171	-80.9227		62.2423
43.9583	-89.9703		33.6447
41.2424	-94.431		29.0143
48.5313	-86.8634		28.6863
46.4712	-86.2164		37.8124
38.6079	-93.364		38.4293
3.07337	-109.508		45.5778
5.7681	-109.447		45.0088
0.522732	-109.579		45.5863
3.06783	-112.625		40.3128
6.52913	-6.30533		105.463
7.11246	-9.35392		108.153
9.37226	-7.37068		102.544
6.0494	-2.55937		101.964
3.99582	-5.48499		107.084
26.6065	-20.9819		81.9008
29.9415	-22.3222		80.5643
25.0787	-16.0542		82.0136
23.3333	-18.2499		83.6949
29.7364	-55.2377		79.1422
31.6118	-54.7856		78.6613
13.626	-25.9914		94.4564
15.06	-24.5828		94.5578
13.0432	-26.9861		93.9695
15.7062	-26.0353		92.3816
13.4579	-30.0657		92.2047
13.9558	-31.4435		92.0273
16.0363	-30.0157		90.049
13.308	-29.154		92.4224
11.0681	-29.8087		94.1918
1.69039	-28.1187		102.764
1.75171	-27.0452		104.585
0.11104	-28.2044		102.978
1.77806	-29.1918		101.349
3.4339	-27.8924		101.93
18.4469	-29.2631		88.1985
20.5452	-27.8673		86.5873
18.0477	-28.2516		88.6089
18.9197	-30.6602		88.0911
7.709	-17.9587		110.7
5.10025	-18.3749		113.069
7.46976	-19.9268		109.559
10.48	-17.6615		107.075
7.8179	-16.2596		111.166
25.7027	-68.4155		81.5301
29.223	-66.0609		78.9549
24.8651	-65.3491		82.7603
21.6547	-70.3496		84.6125
26.5116	-71.9414		80.2559
29.8584	-48.86		82.6294
28.7447	-45.2855		84.5016
27.5684	-48.3217		84.6905
31.9284	-49.3621		81.009
2.24163	-33.2388		99.0448
2.41075	-35.0909		98.773
3.99297	-32.8175		98.6696
2.03453	-31.5144		99.6314
0.13237	-33.4704		99.1673
5.56148	1.70281		98.2536
8.34281	0.212567		95.8401
5.24459	6.3633		94.2212
19.5782	-18.7172		90.1256
18.5613	-16.8074		92.5442
18.8292	-17.8305		92.4455
19.8421	-20.2281		89.2756
19.9805	-18.3845		88.7236
5.20763	-29.399		98.9904
5.09244	-30.9846		98.4894
6.77471	-29.4726		97.7522
5.13432	-28.4915		99.6314
3.66473	-29.7954		99.8378
4.9252	-27.6901		100.734
4.90775	-26.7098		102.35
17.8076	-16.8243		94.8365
17.4827	-15.9069		95.1296
18.3958	-18.4842		93.7187
19.7744	-22.7277		88.5543
19.0794	-21.4013		90.8339
19.0776	-25.014		88.6105
2.74448	-41.9766		99.3093
3.07253	-43.9913		99.6671
5.50295	-41.2524		98.9837
2.7071	-39.3154		98.9026
-0.217644	-42.5616		99.4212
24.6499	-32.3752		85.0083
22.2774	-32.6353		86.5398
26.1914	-36.478		85.3508
26.8601	-32.2897		83.7745
23.2226	-28.7971		84.8857
9.38763	-67.9538		92.9399
9.57408	-65.9263		93.8386
5.75753	-68.3118		93.8627
9.10446	-70.4772		92.201
13.2582	-67.4343		91.407
25.5687	-50.9728		85.2689
26.0292	-51.5948		84.3289
28.1754	-52.0618		81.64
25.3032	-49.462		86.5074
17.2024	-15.2414		94.9681
17.3181	-14.4886		93.4104
15.4409	-13.9941		97.8989
17.1416	-66.5396		89.2809
17.2261	-68.7979		88.4091
20.7094	-65.1179		86.7645
16.9802	-64.6933		90.2262
2.68349	-68.5465		94.2749
-0.214042	-68.5697		94.4378
2.74563	-70.7576		93.5868
2.49485	-66.7477		95.1771
57.2479	28.095		57.4553
56.3678	27.1358		59.1717
59.5331	22.8549		53.5411
57.9072	29.3741		55.5839
38.9108	53.1777		66.7116
33.6698	54.9805		70.2661
38.7341	48.479		69.9553
44.5044	50.4606		62.7119
39.9163	58.3324		62.8504
49.9195	47.2954		58.1194
49.4241	43.1391		61.6968
55.2325	43.5017		52.4673
50.9491	52.6502		53.7761
39.51	41.7251		73.1701
39.1121	43.8384		72.4954
34.2118	43.4359		77.3532
40.1052	39.5316		73.3155
59.0302	30.8348		52.5316
59.7123	33.7244		49.5103
54.4165	36.2502		58.8678
62.549	24.9441		47.1746
23.1196	33.919		79.3275
23.3384	32.3432		78.051
26.8259	34.2899		78.5735
22.8329	35.8249		80.7613
19.7691	33.0771		79.5464
5.21528	17.0909		85.532
7.88785	14.9327		83.5777
5.26998	19.2797		84.2928
2.47273	18.6641		86.8083
5.17994	14.3916		87.4136
29.4643	-3.98584		76.1144
31.1999	-8.55153		77.0066
35.8429	-4.96176		74.3669
27.666	0.151495		75.3883
23.9162	-2.34909		77.8045
56.7924	7.82434		57.9421
59.621	6.38985		55.5712
57.4726	11.9985		56.4672
53.9534	9.5188		60.043
54.5734	4.57589		60.9864
5.15915	10.7459		90.412
7.8581	8.80782		88.5525
2.6611	12.1937		91.5666
40.813	37.506		73.3417
45.3428	35.7596		70.7574
35.7709	38.2508		76.3369
40.9504	35.5238		73.3993
49.5341	33.3975		67.6652
49.1418	31.4576		68.2667
53.0071	30.001		64.166
53.0093	16.6788		60.7537
52.7624	20.1345		61.9773
50.5831	16.7878		62.7382
52.7124	13.5455		60.6093
54.9964	16.6304		58.8993
40.361	21.8226		70.6618
41.8479	20.585		69.3383
38.6736	22.9256		71.9364
36.9048	23.9086		72.8784
35.0002	24.558		73.3937
37.1576	24.7495		73.1853
34.9044	25.4058		73.721
39.1485	23.7212		72.1846
32.4302	24.9589		73.6805
29.7268	24.8948		73.6878
32.1536	25.772		73.9773
29.2453	25.656		73.9266
27.1062	24.3555		73.4397
24.6408	23.3306		73.0336
21.8019	22.1071		72.5339
19.1409	20.8385		72.1027
20.4748	22.8014		72.7839
17.9976	21.4015		72.4002
23.4565	24.0398		73.2261
17.3527	19.5235		71.7759
19.1929	23.3346		73.1495
22.4109	24.8527		73.5924
31.966	26.7241		74.3383
28.8245	26.5912		74.2743
45.0151	15.9089		66.2502
45.4264	16.8886		66.1389
43.9374	15.1302		66.9076
31.0931	34.4303		77.3815
35.8851	34.0993		75.5781
31.0905	36.0386		78.1191
31.0757	32.6376		76.558
45.5819	26.006		69.9877
43.7874	24.733		70.6512
47.1472	27.7238		69.3948
42.3669	27.6498		72.1963
35.4405	9.2347		72.0558
40.3745	9.50721		70.0079
29.3381	9.75117		73.374
36.1211	7.43619		71.9224
24.1262	10.7207		73.5307
20.2781	11.8061		73.342
24.2822	9.12241		73.8002
16.48	14.7305		72.8424
15.9044	15.661		72.6075
17.4139	13.8639		72.9415
34.397	12.5457		72.2635
38.6287	12.8905		70.6979
29.1287	12.8677		73.2389
19.0171	14.818		72.034
20.8844	14.1495		72.4403
18.1199	15.2866		71.7909
17.4402	15.691		71.6934
16.7947	16.2315		71.688
13.2749	23.6111		75.7461
12.628	25.8036		77.3038
13.8997	21.3203		74.0358
14.9283	25.4679		75.7277
15.3333	17.0365		72.5489
25.6234	25.98		73.997
14.5244	20.4697		73.2537
14.1294	18.9374		73.298
15.5292	22.1986		73.4342
34.1692	13.8643		72.3308
29.0244	14.1112		73.1895
18.9847	15.6129		71.5066
18.1534	15.808		71.4061
20.8251	15.2622		71.9628
17.5131	16.1728		71.3226
42.75	19.2599		68.1544
2.37911	32.8635		84.0719
-0.81649	32.6174		84.139
1.31613	30.2117		84.0087
5.11474	32.5337		83.608
3.60676	35.8587		84.3427
18.3097	7.03927		76.0558
17.9701	8.88622		75.2491
16.4058	8.25775		76.7512
19.2448	4.15678		77.2131
21.3216	5.53349		75.4311
14.5011	9.5142		77.8531
12.5077	11.0849		79.3569
14.3835	14.4012		74.7439
12.7609	15.1774		76.2256
14.4053	15.9748		73.8246
9.47503	22.9968		79.0222
10.4958	25.1202		78.625
8.73083	24.0894		79.9408
18.4144	12.8567		73.1625
18.0335	11.7645		73.8296
17.8833	10.4213		74.4831
20.3113	9.1125		74.2666
21.7734	-53.7171		84.3253
21.693	-53.6352		84.0147
25.1118	-53.7375		81.0642
18.0991	-53.4196		87.809
26.8401	-53.8328		79.6435
26.5746	-53.7398		79.6354
3.32755	-47.478		99.7318
6.50139	-46.9643		99.2255
3.30129	-46.1867		99.8631
-0.279866	-47.9707		99.9064
3.21222	-48.7128		99.4427
9.22281	-49.4576		97.4893
9.2196	-48.304		98.0534
6.40495	-49.4567		98.3704
8.92366	-50.4726		96.8373
11.8462	-49.6602		96.3539
14.6605	-50.0651		94.6875
14.7578	-48.9721		95.3021
14.6314	-51.1854		93.7593
17.8779	-51.0225		92.1011
9.10631	-46.9454		98.496
11.8171	-47.2212		97.3762
8.99031	-45.6432		98.7483
13.6303	-45.5102		96.6546
14.4403	-46.6103		96.1796
13.1596	-44.3729		96.8308
10.7457	-44.9641		98.1132
21.3993	-52.2087		88.0993
21.215	-51.2038		89.5539
8.27065	-51.3855		96.0258
5.29376	-51.2776		97.0444
7.75809	-51.848		95.3258
11.5301	-51.6273		94.6067
14.8545	-52.2593		92.3081
14.7994	-52.7919		91.3281
27.5659	-52.7194		81.4095
21.9902	-54.6845		84.8824
21.974	-54.6116		84.6038
18.2092	-54.718		88.7866
21.9926	-54.8904		85.2422
22.4149	-56.0713		85.7501
22.2315	-55.654		85.714
18.8295	-56.7466		90.0898
15.653	-57.0355		93.048
15.4804	-56.2652		92.8278
12.3686	-57.1186		95.3982
16.046	-57.8289		92.9649
7.90084	-55.0158		96.6737
8.16884	-56.1071		97.0705
11.6524	-55.1853		94.9795
7.71197	-54.0881		96.165
4.40854	-54.9696		97.6078
1.76151	-57.595		98.785
1.84536	-58.7433		98.8685
4.74179	-57.2992		98.321
1.66548	-56.4084		98.5257
-0.769322	-57.6983		98.9063
27.0727	-55.2337		78.8148
26.9741	-54.6763		79.4799
26.8872	-56.582		78.1419
25.2627	-55.2937		80.5299
1.71283	-54.1859		93.5031
1.69505	-53.5048		94.8625
4.22128	-54.2897		93.0985
1.65127	-55.5161		92.1594
-0.513796	-54.1537		93.588
1.96143	-59.9426		98.7805
-0.743264	-60.0742		98.9125
2.07474	-61.0459		98.5205
5.18136	-59.5497		98.3097
2.34463	-64.9533		96.3133
5.72308	-64.4833		95.9421
2.25123	-63.3163		97.396
-0.520729	-65.09		96.4243
8.6568	-44.6912		98.8471
7.89206	-43.3201		98.9158
6.25435	-44.5549		99.4273
1.60997	-55.2048		98.0767
-0.704235	-55.3213		98.1908
1.57848	-54.1944		97.5177
1.57963	-53.6895		97.0619
4.23711	-53.5824		96.6845
1.69699	-53.4355		96.6043
-0.608988	-53.7548		97.1198
7.62555	-53.6474		95.7484
11.2548	-53.878		94.1114
7.57769	-53.4515		95.3385
1.77838	-53.3337		95.9062
4.27493	-53.3149		95.541
-0.546087	-53.3628		95.9185
14.7997	-54.3532		91.6914
14.7366	-54.2017		91.278
14.9905	-54.7066		92.034
16.5815	-60.5807		92.4193
16.7485	-61.628		91.8882
16.4305	-59.6445		92.732
13.3732	-61.0101		94.5929
9.4545	-61.2152		96.4989
9.60909	-62.4098		95.8389
9.26609	-60.2142		96.912
5.58086	-61.6555		97.6222
2.14229	-62.1226		98.086
-0.683437	-62.2822		98.2113
14.6902	-52.9366		90.6005
11.181	-52.326		92.931
14.5636	-52.8382		89.9502
29.7256	-54.0511		79.3591
28.6944	-54.3472		79.4279
26.9451	-54.4477		80.1906
25.2665	-54.7788		81.8872
7.42731	-54.4575		92.2394
7.39347	-53.6925		93.5556
11.0139	-54.6805		90.8249
7.52897	-55.7459		91.0037
7.46241	-53.4185		94.6372
11.0638	-53.6961		93.029
9.62612	-64.0466		94.889
13.577	-63.6502		93.1454
16.2205	-58.7219		92.9357
12.9893	-59.0515		95.2324
16.8667	-63.0674		91.1229
19.9439	-61.9443		88.6405
14.2815	-52.4731		89.5224
11.0943	-51.8266		91.19
13.7509	-51.2509		88.7609
17.4078	-52.9332		87.284
7.7199	-51.4883		92.4849
4.93223	-51.2465		92.9871
8.27817	-50.288		90.923
7.52175	-51.9191		93.577
13.1795	-48.4924		87.5733
10.6884	-48.0344		88.6122
12.9811	-44.6981		86.4177
15.7684	-48.9366		86.1705
26.2639	-59.6758		77.6161
25.1017	-63.2435		77.7594
24.3691	-59.7214		79.4821
1.52087	-58.229		90.7791
4.00034	-58.2644		90.4921
1.84775	-62.1094		89.8372
-0.52382	-58.2256		90.8269
8.24285	-47.6902		89.3463
5.66546	-47.414		89.8494
7.96482	-44.0276		88.13
7.24087	-58.362		89.7181
7.21709	-62.2909		88.5762
10.7754	-58.5813		88.4182
29.536	-54.5847		73.0921
29.644	-54.5838		72.5904
10.7889	16.5419		78.2234
10.3595	14.9044		79.8416
81.262	-8.20567		-43.2629
80.6051	-12.5787		-42.5359
79.3993	-7.6388		-46.6319
81.8244	-3.63476		-43.2329
82.7717	-8.67849		-41.529
80.4035	10.2654		-5.51432
80.7525	13.109		-9.81055
79.2676	12.3301		-0.531275
80.833	15.1859		-15.0927
80.42	20.5777		-16.3922
81.4066	10.268		-16.1968
81.4888	14.7745		-22.2121
75.6838	-32.3392		-34.1728
78.1128	-30.0431		-32.4918
74.7462	-36.4946		-31.6336
76.7942	-28.4676		-35.9597
77.728	-24.8346		-37.9995
75.1319	-26.8618		-40.897
78.7906	-20.8914		-39.7904
79.9945	-23.6203		-36.1026
84.2531	-8.61889		-40.6289
85.7697	-8.11363		-40.2603
83.728	-12.7537		-39.7367
84.5549	-3.63803		-40.7898
86.4591	-26.7176		-30.7791
87.5081	-22.7171		-32.8291
87.1921	-27.1493		-29.5494
85.3388	-30.6687		-28.2946
90.8253	-16.9877		-30.782
90.8092	-16.4195		-29.9979
80.3603	-39.1091		-20.1649
80.8362	-39.336		-19.4508
79.9622	-39.7639		-18.1222
79.4529	-38.2777		-22.224
81.4338	-31.6821		-7.40458
81.1208	-32.3006		-7.36967
80.7017	-33.3039		-7.60286
90.7484	-16.0434		-29.5828
90.2546	-16.6271		-28.6263
93.3863	-1.57282		-33.3745
93.4504	-0.924554		-34.904
93.2835	-2.88518		-31.7101
93.4814	8.5802		-30.8708
93.7317	9.92668		-30.9811
93.8178	12.0079		-29.9398
93.2303	11.8129		-27.6997
93.9961	12.4665		-30.3433
93.4102	14.0629		-26.8177
84.0645	-9.02172		-7.50213
85.1578	-3.60771		-8.04435
83.533	-8.27712		-6.13527
83.2597	-13.0312		-6.96037
79.4668	-24.8741		-0.618353
78.6259	-25.2897		2.16915
79.0038	-28.588		-1.19686
79.8849	-20.6047		-0.0202286
83.013	-20.0784		-9.68755
83.3714	-22.0865		-10.2304
82.9518	-18.1492		-9.79249
81.4188	9.76763		-16.2403
81.7886	11.0134		-19.7686
81.4513	9.76465		-16.0157
89.4219	17.2447		-16.7165
90.4058	18.9261		-19.8891
88.5742	17.6418		-17.9015
88.0315	14.1767		-13.7246
90.207	16.5513		-15.7159
89.9853	19.565		-25.0158
89.1612	19.332		-21.9512
90.2811	19.7087		-24.5109
90.5435	18.2924		-28.7412
89.2096	18.5281		-26.3985
91.1526	4.25138		-39.4718
90.3735	3.78844		-39.6536
91.3967	10.202		-36.592
92.2077	4.50184		-38.9297
85.9443	0.96287		-8.60928
86.2791	-0.276172		-9.30165
93.9764	3.6939		-36.3759
94.3487	8.80047		-34.1089
93.701	0.907215		-36.5728
94.0284	3.59109		-36.7422
92.83	14.9534		-22.8001
91.8578	14.4119		-18.7534
92.6471	13.5992		-23.5422
92.9032	15.9319		-22.1799
87.4027	1.73706		-11.4687
86.9001	-0.0153318		-10.8898
87.8977	4.04257		-12.1914
93.5013	4.38756		-33.6407
93.6328	2.34617		-35.5189
90.731	7.03293		-21.9213
90.2664	5.68661		-21.1337
92.0918	6.53947		-26.1358
85.6996	-4.97087		-12.7646
85.8423	-4.69869		-13.483
86.1724	-3.37253		-11.6349
90.4051	-4.19341		-26.9515
92.3647	-1.58484		-28.8742
90.136	-3.74569		-26.3189
90.3084	-5.28169		-27.1156
80.2657	-16.6907		0.0350088
80.816	-12.17		-0.740613
79.4936	-16.8984		2.63772
84.7144	1.58056		-39.288
83.579	0.990548		-40.4417
84.5127	6.22185		-37.1305
85.6518	4.07202		-38.3335
87.9319	9.01202		-35.6266
87.6136	12.7715		-32.3719
90.2059	13.6382		-33.6975
88.1347	4.95106		-38.559
89.3325	2.83025		-39.626
88.2453	-2.66592		-40.4391
87.8964	-7.64179		-40.0828
81.7647	-22.9777		-35.2232
80.8414	-26.0751		-33.4214
82.5454	-19.775		-36.8923
83.1729	-16.4135		-38.4642
81.497	-16.653		-39.5047
89.6935	-16.5567		-27.6029
79.8956	-28.9725		-31.7307
78.8599	-32.5676		-29.4203
81.1254	-28.6742		-31.2655
79.0615	-36.3252		-24.8313
78.6139	-36.3358		-25.1913
78.4808	-39.666		-20.2381
79.788	-39.4035		-15.2535
79.2891	-39.6635		-15.0753
