1838
92.7245	-3.30775		-31.5102
93.0508	8.494		-30.6592
93.3316	9.87535		-30.7722
93.4152	12.0222		-29.7151
92.7377	11.8518		-27.4586
93.6186	12.4892		-30.1229
92.9264	14.1678		-26.5555
82.1781	-9.17576		-7.09473
83.4291	-3.61582		-7.62349
81.5851	-8.36484		-5.70756
81.2515	-13.3023		-6.55537
76.8787	-25.3979		-0.179853
75.8772	-25.7103		2.60057
76.3961	-29.3204		-0.745399
77.3369	-20.9137		0.41838
80.9824	-20.6975		-9.26954
81.3555	-22.8084		-9.81497
80.9576	-18.689		-9.38723
80.1406	9.94807		-15.8602
80.6776	11.1848		-19.4321
80.164	9.94976		-15.6457
88.5272	17.5988		-16.3356
89.6926	19.2766		-19.5521
87.7039	17.9852		-17.5236
86.9291	14.5006		-13.3154
89.2913	16.9038		-15.333
89.4458	19.8701		-24.7154
88.4825	19.6626		-21.6038
89.7401	20.0146		-24.227
90.1317	18.519		-28.4987
88.6594	18.7854		-26.1098
90.9218	3.98929		-39.3702
90.1139	3.51766		-39.5562
91.1577	10.1315		-36.4588
91.9803	4.24327		-38.8232
84.3474	1.06913		-8.18128
84.699	-0.230008		-8.8824
93.677	3.41917		-36.2321
94.0532	8.68661		-33.9444
93.365	0.551932		-36.4208
93.7421	3.31204		-36.6111
92.2113	15.1317		-22.4839
91.0644	14.6357		-18.3867
92.027	13.7371		-23.2461
92.283	16.1439		-21.8549
85.9735	1.77914		-11.0542
85.4027	-0.0068772		-10.4762
86.552	4.12971		-11.7758
93.105	4.15597		-33.4538
93.2754	2.0384		-35.3455
89.8825	7.02127		-21.5968
89.3585	5.65451		-20.8108
91.4271	6.45404		-25.8648
84.1455	-5.14747		-12.3541
84.3266	-4.88398		-13.073
84.6177	-3.47671		-11.2274
89.5596	-4.59945		-26.6738
91.6908	-1.93957		-28.6288
89.2619	-4.12955		-26.0298
89.4515	-5.72371		-26.8388
77.7874	-16.845		0.480773
78.4676	-12.2078		-0.273249
76.8726	-16.9448		3.08291
84.2184	1.26968		-39.2086
83.1219	0.663519		-40.3655
83.9949	6.06129		-37.0351
85.1715	3.82501		-38.2426
87.5135	8.9264		-35.4905
87.1271	12.8221		-32.1953
89.8574	13.6931		-33.5239
87.768	4.72809		-38.457
89.0083	2.53362		-39.5251
87.8605	-3.12803		-40.3404
87.4343	-8.25019		-39.9625
80.7853	-24.045		-34.9947
79.7379	-27.2392		-33.1477
81.6833	-20.7417		-36.7021
82.4188	-17.2764		-38.3136
80.7668	-17.5289		-39.3576
88.6963	-17.3738		-27.3067
78.6803	-30.2336		-31.4112
77.4945	-33.9495		-29.0434
79.9084	-29.9175		-30.9539
77.4695	-37.8304		-24.401
77.0293	-37.8472		-24.7481
76.6556	-41.2889		-19.7353
77.7697	-40.9921		-14.74
77.2543	-41.2539		-14.5537
76.689	-41.4574		-14.2516
89.6911	-6.49595		-27.3309
91.7619	-5.12723		-29.5669
80.911	-7.70455		-4.55888
80.103	-7.25093		-3.28091
78.7602	-21.5449		-3.21874
79.1108	-21.7476		-3.90541
81.9519	-26.3968		-9.60859
82.9873	-28.5228		-11.2436
82.1509	-25.2998		-10.4451
80.6669	-16.3604		-6.0939
81.1803	-16.6065		-8.35937
86.6701	14.7189		-28.9073
84.3663	10.9275		-31.8268
85.54	15.4019		-25.4811
83.4986	9.33991		-33.6578
83.129	9.02596		-34.7492
82.6623	11.5513		-29.304
80.8873	-16.7111		-11.2398
81.1026	-16.6521		-10.3492
92.1536	5.42734		-28.2897
91.9625	3.89096		-27.9473
84.8096	-4.20446		-14.5476
84.2166	-6.58467		-15.64
85.9212	-3.01806		-17.2767
89.2027	-3.25967		-25.51
91.0298	0.39972		-26.734
88.5618	-3.17513		-24.092
5.69965	86.5297		62.706
5.17403	78.9525		67.9007
12.8707	85.6442		62.4795
6.36818	94.1631		55.9615
-1.6829	86.777		62.7331
4.42529	71.4246		72.1208
-2.13958	71.3375		72.265
3.5932	63.3924		75.9398
10.8598	71.1802		71.6408
24.05	57.0482		75.4669
24.2459	53.0989		77.8471
19.7138	57.5556		76.6588
0.597472	-26.8018		107.567
0.736816	-25.3144		110.23
-0.905138	-26.6929		108.163
2.47632	-26.8101		106.086
1.05573	-15.8053		116.516
3.52837	-15.7534		115.287
1.04098	-13.8573		115.906
-1.21587	-15.8033		116.856
1.08162	-17.5576		116.563
1.06666	-19.3982		116.048
-1.1468	-19.4446		116.444
1.02797	-21.2713		114.919
1.09456	-31.3433		99.9462
-0.559779	-31.4857		100.086
1.41089	-39.0623		97.3638
3.30613	-38.5548		97.24
-0.586124	-39.391		97.341
0.937531	-23.2991		112.933
3.06318	-23.3394		111.368
-1.06474	-23.2424		113.468
0.909843	-11.7729		114.772
3.33895	-12.0009		113.668
0.838194	-8.99574		112.665
-1.31713	-11.6234		115.007
3.81338	47.0161		81.9835
-1.57799	46.916		82.4392
3.4469	44.3496		82.6456
8.50703	47.7641		81.3486
3.69196	50.581		80.9411
0.149569	20.2392		87.3327
0.19099	17.5359		89.4775
0.133441	22.4059		85.9646
-1.25439	20.521		87.3468
0.205118	24.4668		84.9348
1.92684	23.5697		84.621
0.259766	26.5854		84.1808
-1.38703	24.66		85.0127
1.5616	-53.5873		90.1044
-0.596661	-53.6452		90.1486
1.82042	-52.1755		89.0003
1.29952	-54.4354		91.3774
1.30037	-54.6572		92.2884
-0.602084	-54.7444		92.288
3.33048	-54.511		92.0332
1.37944	-54.5554		93.0197
1.99271	-52.1762		96.1432
1.86757	-53.1157		95.3113
-0.740418	-52.3808		96.2078
1.60612	-53.9494		94.2454
-0.692173	-54.1027		94.2071
1.89359	-47.7125		97.4795
-0.774987	-48.2692		97.4993
1.82388	-49.4055		87.9015
1.6497	-45.6135		87.2472
-0.626204	-49.3466		87.8861
18.8338	84.5708		61.8461
17.7586	77.7708		66.6784
24.374	83.0663		60.8356
20.033	91.6075		55.4178
14.5105	49.0523		80.8936
13.9517	46.9314		81.4224
19.6774	49.7029		80.7739
13.4633	52.2621		79.8469
15.178	44.4779		81.7156
16.7793	41.5776		81.6404
19.9533	45.2895		81.4058
18.278	39.123		80.9646
14.5498	38.156		81.6606
22.2457	40.4156		80.4766
22.7645	26.7258		75.2489
21.9712	28.5731		75.7587
19.2239	25.1789		75.2158
26.1908	27.776		75.1853
24.4864	24.63		74.7634
20.8946	30.7856		76.5664
24.5648	31.671		76.2295
17.5889	29.5114		76.707
43.6074	87.9732		40.3687
45.3411	93.4799		30.4511
38.0696	91.5522		42.7621
42.4194	82.1317		47.5697
29.5126	81.4935		59.1615
30.9973	87.6818		53.1369
35.0387	79.3875		56.6946
24.4659	49.8042		79.8308
25.0572	48.518		80.1966
29.8065	49.217		77.4319
26.624	41.6419		79.574
26.4664	43.2048		79.989
25.5296	46.2874		80.3095
28.2751	31.819		75.7304
29.1414	29.549		75.2318
32.6674	31.2358		74.8987
41.0331	76.7644		53.1252
47.1758	73.9304		48.4155
39.6113	71.3877		57.7969
35.6805	47.5893		73.0361
41.7008	45.5957		69.6736
35.7898	26.7269		74.0822
35.9942	28.4179		74.082
33.0223	27.5904		74.6427
38.2207	25.6387		73.131
37.3279	36.2496		73.8443
36.8812	33.4897		73.9007
41.5949	35.3384		72.0488
36.3361	30.5503		74.0111
38.058	65.7154		61.9748
44.443	63.0837		57.5556
52.9812	71.6317		42.1249
51.7722	66.0446		47.3007
58.2243	69.5794		34.4996
38.9454	22.3906		72.0447
40.6034	20.9578		70.7187
40.492	24.2661		71.7167
42.2598	22.6016		70.3
39.4976	23.1913		72.0025
45.5024	33.2865		69.6651
48.6234	29.5729		66.7325
13.4197	32.4483		78.9013
11.2574	30.2123		78.6203
14.0049	30.4193		77.819
12.6886	33.9758		79.8954
11.5947	35.203		80.899
9.59388	33.3297		80.5793
14.5572	27.3457		76.6377
15.1655	24.8435		75.7236
3.31486	40.2079		83.1776
-0.465225	41.0727		83.0267
65.7499	-66.5457		-7.561
67.3295	-61.0679		-5.89292
66.1106	-66.8283		-14.0781
79.5178	23.6696		-36.9177
79.4689	19.6469		-42.7448
78.5515	29.3471		-41.7874
79.5778	26.1021		-28.5575
80.5511	17.9435		-31.6042
76.7017	-7.97155		-52.6013
75.701	-14.0944		-51.0638
74.5851	-8.16908		-58.3174
77.6509	-2.01523		-52.6251
78.2416	4.32217		-52.237
76.4003	6.06974		-58.8451
78.763	9.96867		-50.336
80.1521	2.26526		-45.8555
70.8834	-31.8231		-44.8156
67.8157	-35.3087		-48.7333
72.613	-25.9231		-47.2931
3.63976	56.7469		78.7405
-1.87005	55.9688		79.2007
8.92396	56.7688		78.3632
13.8768	57.1798		77.709
15.0934	63.7019		74.58
20.7776	-104.779		55.5598
19.3821	-105.98		48.6051
27.3836	-102.71		50.5341
15.012	-106.066		58.7725
47.3816	-90.3714		44.1446
42.0219	-94.2628		48.8378
51.5174	-86.6674		39.4853
48.285	-88.2023		47.9315
50.6169	60.1264		51.8252
56.154	57.1199		45.0333
16.4563	70.9386		70.7402
63.4031	67.4652		25.1369
67.8468	65.5765		15.243
62.6391	60.8178		31.0725
21.0285	99.5711		46.1568
26.9781	97.2842		45.6339
21.7778	107.092		34.766
14.435	101.205		46.5668
59.1721	39.8714		46.3912
60.2628	46.8992		41.654
43.068	20.4655		69.1799
53.1859	28.2768		61.3317
54.029	22.7401		59.061
51.8079	26.9925		62.8622
50.3521	25.6739		64.2022
4.61086	-115.92		40.2365
2.21984	-115.965		40.4611
57.4772	-77.309		39.9591
58.7296	-73.2174		42.5132
53.5688	-80.9198		46.8176
56.082	-80.8305		36.6907
5.37276	-43.7625		96.8384
7.15142	-44.0834		96.3972
4.94474	-41.0312		96.8258
21.9447	-48.8057		87.4309
21.1769	-44.961		88.6716
19.1973	-47.1434		89.8428
8.42204	-39.596		95.5207
6.1213	-38.8243		96.4462
9.1035	-42.0095		95.4469
10.9688	-39.9756		94.197
7.6254	-37.116		95.6009
30.9541	-51.958		82.002
30.5112	-55.4019		80.7137
33.3628	-52.9688		80.807
30.6792	-48.153		83.369
58.868	17.6357		52.1296
56.8228	17.3993		55.1127
60.1505	11.6034		51.8819
60.6761	18.271		48.9701
62.497	19.0563		45.3017
64.9722	19.123		39.9516
47.0865	16.8722		65.294
47.2546	14.6481		64.9827
54.8612	17.2576		57.651
81.9772	9.6915		-36.8263
81.9853	5.82391		-40.106
80.6547	11.6969		-40.9977
81.9141	12.3188		-32.7449
78.9724	-17.7997		-41.3225
76.945	-18.3779		-44.5418
70.2199	-52.8744		-16.5021
72.004	-48.3102		-14.1965
69.516	-54.9622		-10.2227
68.2423	-58.7534		-18.9593
70.9166	-49.3822		-22.463
81.7877	1.02754		-42.1718
74.8502	-26.4118		5.81418
74.2396	-30.8196		5.14915
75.4048	-21.8417		6.26152
73.7118	-26.9655		10.2685
70.1812	1.76387		31.9885
69.6219	9.86782		31.0523
70.4035	-5.9918		32.8261
72.6088	0.27202		22.8877
50.478	10.9264		62.8042
48.5612	12.039		64.1995
48.8003	8.47861		65.113
46.7748	12.9293		65.4997
45.375	11.5053		66.9985
72.4198	-26.7509		16.7433
71.1661	-26.2826		23.8021
71.8532	-31.8915		15.9296
73.0597	-21.3871		16.9341
20.2188	-12.3463		84.1796
24.0121	-13.9305		82.7152
19.2651	-7.72885		82.7079
17.4842	-10.3132		85.6956
30.6181	-15.3409		80.8395
38.3882	-15.759		78.2691
32.1735	-20.148		81.6756
14.5644	-8.0075		88.1856
11.8486	-5.04852		91.1971
14.7987	-11.6959		90.0891
16.9183	-18.4944		89.2152
15.7508	-16.3533		90.4615
13.2266	-20.5084		97.8224
12.0868	-19.9401		100.3
12.909	-22.3538		97.2162
13.8649	-21.0532		96.1548
14.3453	-21.6717		94.5783
13.9328	-23.8849		93.9139
36.6512	-34.8745		81.9716
31.1167	-34.3482		84.1236
37.3996	-40.218		81.5248
35.4297	-30.046		82.2623
33.5565	-24.9617		82.1773
4.00116	-34.2178		97.5602
4.33289	-36.2817		97.18
5.27703	-34.44		96.8316
57.4697	-52.3664		59.7919
58.4285	-45.5192		60.4456
53.2658	-50.4014		66.7811
56.087	-59.4222		59.2281
24.9968	-42.5236		86.6456
22.6392	-41.8235		87.8127
27.3901	-43.1183		85.6446
37.5836	-45.3955		80.7471
37.252	-50.3724		79.898
42.7387	-46.7593		77.4713
33.1842	-44.4085		83.0378
4.65873	-38.4928		96.9583
54.2332	-66.5302		58.6836
57.2088	-68.369		51.6258
50.4571	-62.8456		65.8613
51.3212	-72.3983		59.6066
59.5443	-27.4713		62.1359
59.3226	-33.2963		61.8323
63.3745	-27.9451		54.7013
26.9668	-97.8429		69.8289
27.5523	-94.7448		72.2304
21.482	-99.7425		74.5253
38.6933	-85.4808		66.3177
43.3274	-81.787		63.6915
37.4545	-80.2801		70.4518
33.4396	-88.3202		70.0509
55.405	-5.18522		64.5229
52.6769	-0.6541		65.5211
49.4697	-5.65024		69.8153
43.1428	9.85018		69.3023
44.4838	8.11325		68.7965
50.4023	2.40212		66.2703
45.3134	1.09605		70.517
47.9608	4.61562		67.3957
40.9304	12.9294		70.2549
1.78895	-95.7997		90.7794
-0.607671	-96.0453		90.8733
46.1575	-59.36		71.6139
44.2999	-64.0501		71.5472
47.3574	-54.2183		72.0949
41.138	-56.6125		76.1525
35.6923	-75.292		73.875
38.9225	-71.9179		72.7189
32.8518	-70.3419		77.1112
31.5264	-78.0107		76.1188
42.2952	-6.04549		73.8681
44.3504	-10.6839		74.1943
40.207	-2.24661		73.8722
48.3724	-48.4425		72.6292
46.1539	-15.6011		74.2585
8.8963	-85.1865		90.7459
9.03502	-80.298		90.8197
13.0913	-84.5239		88.6259
17.7397	-83.8257		85.7017
22.2898	-82.3781		82.4788
17.3755	-78.8507		86.5065
38.6172	0.392268		73.8652
37.1282	2.39921		74.0802
30.8378	-0.0794507		76.1271
46.1632	6.38043		68.0958
42.0205	4.95056		71.4078
35.9507	4.1259		74.2409
28.5428	3.79675		75.9806
9.36302	-2.35071		94.3912
9.83689	-6.41164		97.1575
9.03331	1.8959		91.02
10.6464	-14.1819		103.138
10.4818	-12.6243		101.973
8.59396	-13.1263		107.437
10.8456	-15.3392		103.469
8.11269	11.9145		82.7842
8.2722	9.49987		84.8388
17.8565	-3.50797		81.2587
0.406417	13.7455		92.915
-0.9466	14.1178		92.8973
60.5889	5.7598		53.7449
8.60374	6.05546		87.7099
60.0741	-68.2716		44.1481
63.0068	-65.2802		35.4665
66.2727	-14.5695		48.5521
66.3608	-21.579		47.5424
68.49	-13.5883		40.7738
65.2486	-40.161		45.4654
65.7954	-33.9139		46.0339
62.6936	-39.9112		53.2693
67.091	-39.8063		37.8783
66.1981	-27.7693		46.6548
68.1896	-27.3365		38.7793
17.0455	-101.216		77.9954
8.84711	-76.1033		90.9757
5.61672	-76.4869		91.8333
12.6865	-75.4306		89.4628
16.8448	-74.7169		87.253
22.8542	12.1244		74.9606
23.5729	0.287667		77.2313
22.6806	2.44029		76.8371
22.1383	4.21391		76.4717
2.79247	-76.7054		92.2808
0.00148546	-76.6847		92.4146
3.36172	27.9363		82.6878
4.68621	27.0242		81.9765
4.01804	30.4088		82.216
1.93128	28.4772		83.2362
3.22772	25.1693		83.2802
13.4886	14.8121		73.9048
13.1336	16.0974		74.0119
11.1221	15.0979		75.6359
5.77374	25.6733		81.1777
6.62563	28.1981		80.6601
0.438774	28.9997		83.5133
-1.38293	29.1091		83.618
4.16382	-26.6411		104.437
4.64452	-25.2341		106.426
6.2337	-15.7321		112.683
6.25861	-14.101		112.103
8.85251	-15.9563		108.391
13.3859	-28.3805		91.3368
13.0221	-27.2112		92.5308
11.3415	-29.9516		92.5574
5.94417	-12.3961		111.371
3.81009	21.8179		83.8111
5.05578	33.0182		82.0591
6.61124	32.0502		81.3018
13.5714	17.6775		74.0672
7.97288	30.8805		80.4015
8.83665	29.3504		79.4995
9.3749	27.6896		78.7933
16.3356	-34.686		89.5663
13.6292	-35.1511		91.2446
18.1397	-37.6218		89.4064
20.0279	-41.2308		89.0511
16.9122	-40.6331		90.8005
22.4883	-55.1658		80.9175
22.2947	-54.094		80.5145
20.5635	-55.0735		82.1984
22.9397	-53.7661		84.1676
20.9038	-52.7864		86.5435
21.9332	-51.1776		79.9037
18.7197	-50.9501		81.9878
21.2473	-47.7072		79.71
11.3665	-35.4835		92.8542
9.08174	-35.3651		94.3863
12.4904	-37.7807		92.7568
13.9822	-40.3298		92.4956
15.0891	-42.9426		92.3333
18.0275	-54.9054		83.8354
16.6278	-53.5686		84.0869
15.7506	-50.6637		83.7002
15.5762	-46.93		83.1188
7.06579	-34.9244		95.7728
6.66195	-33.0006		95.9352
10.0859	-44.5389		95.2675
13.1275	-44.8882		93.7638
14.4134	-14.0426		92.2287
12.3346	-12.0349		95.8537
0.771397	-5.32657		109.543
-1.0653	-5.06966		109.681
10.1408	-9.89927		99.9296
5.28909	-23.1262		108.965
7.39485	-23.1297		105.52
9.36606	-23.3343		102.071
10.0392	-21.3693		103.05
11.1904	-23.6496		98.8238
12.2911	-24.2986		96.5533
12.7752	-25.1855		94.9131
12.9409	-26.1694		93.6023
10.8142	-16.4489		103.921
10.6699	-17.8178		104.15
10.4414	-19.4901		103.864
39.9813	-146.978		14.9442
35.3908	-148.404		17.9794
41.1631	-152.912		13.8585
44.121	-145.398		11.8143
38.4637	-138.874		16.4913
36.8385	-127.635		18.6229
40.9017	-126.105		15.1825
35.932	-117.761		20.6484
32.4919	-129.031		21.9832
38.4897	-101.588		28.0335
42.3782	-99.1589		24.1824
34.1854	-103.877		31.6419
37.1611	-105.741		24.6651
36.2378	-110.904		22.383
31.8471	-112.563		26.1579
40.2135	-109.042		18.6605
42.1426	-68.4122		71.6524
45.2938	-72.8045		66.8858
37.9671	-64.1543		75.8207
47.9781	-77.4784		60.9624
48.9394	-81.7041		55.9361
49.0515	-85.1698		51.657
34.5646	-61.141		78.1961
35.7935	-58.0162		78.4739
31.6755	-58.9598		79.5257
32.5364	-63.7883		78.4771
29.8143	-57.8055		80.1135
28.7296	-59.5208		80.1199
45.8786	-96.8054		19.8945
47.7371	-93.0125		22.9376
44.755	-101.385		16.7685
49.2829	-94.7059		14.3017
50.035	-89.6849		26.3417
52.5719	-87.2765		20.0371
52.3985	-86.5595		29.7627
54.417	-83.7652		33.4337
56.5454	-81.1767		26.3566
44.7244	-124.383		11.5771
46.3152	-135.661		9.85948
48.4094	-122.978		7.69327
43.8493	-114.417		13.1595
47.8485	-143.853		8.52211
49.3197	-149.964		7.33179
51.341	-142.307		4.8933
43.9554	-107.052		14.7116
69.7571	-26.7059		31.2281
69.1988	-32.7355		30.7322
70.2408	-20.3301		31.7703
58.2405	-78.8599		19.2781
56.5037	-81.9048		16.337
59.7483	-76.6811		11.9765
68.6448	18.4706		30.8302
72.5056	16.2336		19.5267
64.8904	-62.4777		26.9447
66.2542	-59.7003		18.5197
68.597	-38.7579		30.2848
69.9639	-37.5222		22.5843
70.4096	-13.1237		32.8215
72.1553	-14.0497		24.589
71.1633	-37.148		15.2403
72.4371	-36.285		8.68404
57.5523	-90.8814		-2.45822
57.2728	-95.9146		-3.63897
59.6348	-90.2694		-7.48508
58.0514	-86.4367		-0.982604
55.1567	-91.7386		2.73879
57.1633	-101.547		-4.32934
58.8419	-82.2973		1.134
56.9037	-83.5943		6.93637
60.6482	-81.3406		-4.71444
59.8788	-78.5171		3.08257
74.6848	-1.0956		13.9809
75.0691	6.64246		11.448
74.1339	-8.85526		16.1935
75.4603	14.8166		8.41011
75.7815	22.5811		5.69932
76.1709	30.4982		2.25577
78.1284	29.4159		-8.78949
76.611	38.3807		-1.70603
67.3035	-57.7162		10.4418
68.2069	-56.4604		2.62943
73.5946	-15.397		17.111
74.8862	-16.6308		10.6943
52.037	-121.493		3.33744
53.3711	-132.627		1.97442
54.8654	-85.3094		13.4728
53.4058	-88.9641		10.6837
54.6529	-140.63		0.76068
55.9849	-146.499		-0.600716
61.4846	-116.682		-14.7302
62.2168	-126.166		-16.2367
61.3544	-89.5698		-12.4688
62.5695	-87.6455		-17.758
61.7805	-84.8389		-11.5962
62.4298	-80.1433		-10.4317
62.8582	-133.219		-17.9005
63.3865	-138.748		-20.0178
68.8405	-56.0803		-4.43822
73.5648	-35.1462		4.24838
74.7489	-33.4672		1.04923
72.9685	-39.1661		2.71875
75.8839	-17.0533		6.48502
62.103	-95.3368		-25.8626
60.9509	-90.8719		-32.8833
62.5238	-88.9045		-24.7888
63.3162	-82.8189		-23.9064
62.9496	-76.1135		-30.1824
66.4727	-65.3261		-20.6896
73.2273	-45.5953		-12.9418
74.7251	-42.9568		-19.5122
58.6491	-121.875		-44.2755
58.9032	-129.606		-45.7705
55.4449	-119.036		-51.4523
58.4588	-113.588		-42.6999
72.0484	-44.23		-27.2814
74.4108	-40.3796		-25.6077
76.0882	-38.5987		-24.9298
30.6034	-149.602		20.7849
29.2924	-141.559		22.6352
25.7669	-150.7		23.283
31.8099	-155.367		19.3564
26.7348	-113.939		30.0772
21.5273	-114.947		33.5004
26.5706	-120.336		27.9917
27.7303	-109.537		32.2505
33.2661	-100.556		45.8265
31.0366	-102.765		40.6218
35.0716	-98.8837		50.1744
29.0347	-105.893		35.6648
23.5675	-107.312		39.4277
27.6988	-130.051		25.3965
22.8035	-131.407		28.4712
30.4647	-66.5896		79.035
28.5639	-63.4065		80.1331
36.3931	-97.4123		53.6472
27.3212	-61.3527		80.5973
25.1957	-63.2473		81.8671
26.2983	-59.7958		80.8889
25.4247	-58.4999		81.0731
23.7242	-59.8723		82.3061
27.0667	-80.6179		78.9695
27.7501	-85.6672		76.9275
28.0275	-90.7492		74.3968
19.0734	-56.9213		85.2263
16.0108	-57.3317		87.9297
18.8423	-56.2653		84.0383
21.9051	-56.2774		82.0175
18.9364	-56.469		83.6142
15.4	-56.238		86.3231
18.951	-56.9238		83.2712
18.988	-58.3332		82.6852
15.4894	-56.8546		85.2846
18.7987	-61.64		82.0965
18.3589	-65.7715		81.957
15.4658	-61.275		83.8683
16.5971	-115.443		36.2378
17.214	-111.388		38.5721
16.7133	-122.146		34.1821
20.8404	-151.825		25.4967
19.6129	-143.954		27.7436
15.9651	-152.669		27.3774
21.9727	-157.256		23.8719
18.0296	-132.538		31.1556
9.60288	-108.772		45.7485
13.1598	-108.699		44.3995
9.95039	-107.422		52.8584
11.6737	-153.255		28.7305
12.6926	-158.473		27.0689
10.6048	-106.878		60.7538
12.1054	-55.9453		88.4874
12.0466	-56.151		87.7924
12.0368	-56.6464		87.1615
12.3429	-57.9116		86.2018
12.3076	-60.9576		85.3157
12.3422	-65.1696		84.8222
70.8881	48.8046		16.0863
74.4501	47.2612		4.90552
71.5329	56.4103		10.502
66.5419	50.9793		26.7987
79.0613	28.0542		-18.9867
74.1334	-20.1378		-49.6392
71.4554	-22.0945		-54.6001
52.2865	-97.2888		-54.2225
52.833	-86.9191		-53.1304
55.2071	-100.515		-48.5925
52.2442	-107.654		-55.4192
49.1993	-94.9082		-59.2613
52.4717	-116.693		-56.8119
52.9475	-125.271		-58.0932
49.2892	-114.923		-61.6239
58.8989	-85.0461		-40.3692
58.3248	-94.8195		-40.8521
56.3678	-80.3969		-46.8828
60.1134	-76.3834		-39.0478
22.0804	113.755		21.2221
28.7505	110.914		21.092
22.3578	118.591		6.11911
15.0606	115.745		21.387
23.0085	103.1		-79.8317
23.5041	111.966		-63.7772
30.1399	101.066		-77.8572
22.3616	92.0302		-93.1342
15.51	104.525		-81.3311
21.9995	79.9024		-102.756
28.917	78.2469		-100.678
21.7954	66.4975		-110
14.9565	80.6705		-104.433
23.4538	117.953		-46.5012
30.6355	115.437		-44.8006
15.9326	119.784		-47.6367
23.1938	121		-28.4771
7.77145	124.485		-11.5374
-0.180453	124.904		-11.7314
7.55239	121.985		5.74712
15.4394	123.237		-11.1767
7.95512	124.174		-29.8178
21.5712	53.3094		-114.943
28.0814	51.946		-112.819
21.2746	39.6447		-118.223
14.9729	54.0732		-116.47
20.775	25.3763		-120.011
27.1799	24.4053		-117.746
20.2683	11.3016		-120.146
14.3804	26.3193		-121.585
18.0628	-27.7651		-108.898
23.9141	-28.5229		-106.648
17.6802	-39.6347		-101.348
12.4421	-27.6616		-110.117
18.945	-15.0096		-114.902
7.11206	-0.9074		-121.367
0.635813	-0.838882		-121.739
7.33627	12.4321		-122.85
13.4322	-1.33133		-120.296
6.78125	-13.9233		-117.707
15.6238	-87.2533		-83.2637
15.9626	-77.5589		-84.266
20.9067	-88.0621		-81.8759
15.4031	-96.8661		-82.8925
10.5409	-86.7866		-84.0598
5.38785	-105.531		-83.6076
10.3621	-106.003		-83.2906
5.49775	-115.324		-83.4084
0.597039	-105.287		-83.7143
5.49832	-95.7062		-83.9414
17.7802	-49.0135		-95.0905
23.0786	-49.6063		-93.4698
17.356	-57.4105		-90.3839
12.0436	-48.5373		-96.1434
16.5388	-67.0567		-86.6456
22.1505	-68.2105		-84.848
11.2549	-66.2247		-87.678
5.94088	-65.9179		-88.1503
6.19474	-56.4631		-91.9247
5.66104	-76.6057		-85.6457
0.602622	-66.0893		-88.2098
46.6727	98.7029		18.4489
52.2264	93.1647		17.301
48.0213	102.596		4.85969
40.9806	103.36		19.7077
47.9587	71.1674		-90.3657
53.3845	68.0276		-86.0205
47.7283	59.0039		-97.2008
42.1289	73.8364		-94.29
48.194	82.2202		-81.1155
48.3408	91.8667		-68.9841
42.6976	95.5101		-72.3239
48.7569	99.0204		-54.71
53.8128	87.4194		-65.3047
49.1987	103.368		-39.8392
54.8633	97.6516		-38.0017
43.4459	108.098		-41.5134
49.6807	104.911		-24.8716
49.0582	104.811		-9.83874
43.09	109.922		-9.77312
54.7379	98.9316		-9.86393
47.1871	46.681		-102.14
46.5753	33.8909		-105.4
41.3018	48.5846		-106.17
52.5877	44.4538		-97.729
45.6421	20.9411		-107.215
50.9488	19.5029		-102.771
44.6588	7.83584		-107.29
39.9945	22.0595		-111.139
43.3134	-4.84279		-105.781
41.9038	-17.8924		-102.158
38.0757	-4.51884		-109.518
48.094	-5.58348		-101.491
40.9493	-30.6488		-96.1452
45.6295	-30.3783		-92.2229
40.2208	-41.7509		-89.5885
35.6593	-30.0294		-100.171
39.4919	-51.4052		-83.754
38.6753	-61.0541		-78.7051
34.3343	-51.1848		-87.5563
44.0203	-51.6275		-79.3866
36.4986	-90.0333		-73.6304
35.616	-100.127		-74.5704
31.4727	-89.5539		-77.1144
37.4144	-80.282		-73.5405
41.0456	-91.0696		-69.5241
25.3666	-107.644		-80.2535
25.5746	-116.613		-80.4635
20.2819	-106.907		-81.7305
25.6405	-98.4391		-80.0212
30.5116	-108.601		-78.0981
38.0037	-70.7764		-75.2002
42.6068	-71.1726		-70.5676
33.1473	-70.0876		-79.0405
67.4664	70.8798		-51.5982
68.2893	74.8869		-39.9638
71.2716	64.0586		-45.6368
66.9015	64.6284		-62.1963
63.3226	76.8949		-56.9445
68.7429	77.1621		-28.4492
72.2802	69.3002		-23.1411
64.6555	84.5462		-32.6912
68.8011	78.144		-17.0812
67.5878	78.8807		-6.11775
70.1028	71.4196		-1.16542
64.1142	85.8761		-8.53113
57.3146	42.1964		-93.0987
57.889	53.5932		-88.1193
61.5789	39.5271		-88.1658
56.6615	30.1562		-96.3397
58.1019	64.7359		-81.4432
58.3547	74.4279		-72.6757
62.4984	60.8067		-76.4128
52.7867	-6.2774		-96.4163
54.6072	5.87344		-97.8262
57.2563	-7.10296		-90.7514
50.9644	-18.4862		-93.2089
55.7453	17.8689		-97.9445
60.1529	16.497		-92.7374
49.783	-29.8938		-87.996
53.8089	-29.8536		-82.772
49.0813	-41.1472		-81.0588
48.0367	-50.9857		-75.0421
51.6327	-49.3523		-70.9496
47.1865	-71.8825		-64.7944
51.0384	-74.4875		-58.1459
46.2411	-82.1197		-63.8915
77.1212	35.3786		-46.9808
76.5404	29.2984		-54.5927
75.3213	40.8363		-52.7834
57.17	87.0335		16.7943
58.5634	90.8836		3.68934
76.5226	46.0524		-6.2405
76.1278	53.7659		-11.5607
67.4463	-7.83015		-74.5826
64.4398	-7.94712		-79.8357
68.9667	1.74411		-76.0642
70.2045	-8.14844		-68.9061
65.5207	-17.8233		-71.687
69.8091	11.4138		-76.7473
66.9775	13.1839		-82.3223
70.6339	20.613		-75.2537
72.4669	9.3282		-70.5491
71.3935	29.9467		-71.8488
68.5148	33.4303		-77.6366
72.2027	38.4929		-66.2862
73.9151	26.0876		-65.7846
59.6736	-43.3423		-60.0492
57.0872	-45.6574		-63.6317
61.4638	-35.5348		-64.0587
62.2534	-41.0949		-56.2195
58.1115	-51.3067		-56.1811
68.8389	-23.8058		-59.3244
66.8532	-31.2556		-55.9681
66.285	-25.4817		-63.5384
70.8141	-16.2118		-61.7578
54.0015	-77.2141		-52.3885
55.3379	-67.9458		-52.498
75.3234	-37.9024		-4.63061
75.8313	-34.0798		-2.51532
73.5878	-40.9923		-2.45655
75.7281	-32.2086		-1.01372
79.2443	-5.98727		-1.87127
80.04	-0.741123		-3.97563
92.9675	4.15115		-38.0719
93.0162	10.1111		-35.5724
93.5747	3.76002		-37.3563
82.4559	-36.229		-24.7156
81.0942	-39.0853		-21.3583
92.4651	14.9543		-31.9265
91.5054	15.2665		-32.4297
91.6115	18.2129		-27.6739
93.3407	14.2852		-31.3577
85.132	10.2887		-10.7151
83.808	10.2552		-11.3983
90.665	19.6262		-23.2735
91.5889	18.9096		-22.5252
87.919	-19.2726		-34.9226
83.6042	-36.8606		-17.3266
82.8696	-36.6707		-14.6466
81.8864	-39.063		-17.8607
80.4972	1.8361		-5.71081
87.0421	17.9207		-18.6258
85.0165	14.8466		-15.9383
86.0142	17.0259		-20.2526
82.5228	10.5197		-12.8686
81.6871	10.9334		-14.4973
90.8348	15.1162		-32.6507
80.9742	10.649		-15.9876
82.3307	12.6084		-18.6832
84.0403	14.4867		-22.3391
81.9153	12.288		-23.5116
86.9397	-27.8819		-27.755
86.7289	-29.4051		-20.0888
80.3144	-40.3224		-18.3309
82.0065	-35.7096		-12.3468
83.1948	-32.6897		-12.2555
84.1837	-30.2542		-13.1023
84.7114	-28.6678		-14.0058
93.7522	3.46534		-36.9389
94.0883	9.21748		-34.5243
89.7835	16.3168		-14.8918
89.9767	15.6734		-14.6182
91.1423	17.9463		-18.0393
89.9527	15.0567		-14.4809
91.3451	16.7624		-17.5604
89.7837	13.9556		-14.6519
93.7083	13.7411		-30.9941
92.9843	16.7477		-26.7458
93.8184	13.2362		-30.85
92.1447	18.1921		-22.0464
92.3656	17.5898		-21.9301
92.3596	16.9974		-21.6429
93.1123	15.694		-26.3561
93.7614	12.8589		-30.5147
93.1654	-0.961786		-35.8863
89.5345	12.6151		-15.216
86.8562	5.28798		-12.7867
91.8487	12.2022		-23.9088
92.4586	-4.10931		-30.7299
92.4876	-2.1754		-30.3957
92.3795	-0.253521		-29.7733
92.1268	1.28983		-28.8305
91.7116	2.55362		-27.5398
90.677	3.45135		-24.9358
82.4918	-24.9646		-11.6703
83.8126	-26.658		-13.3774
84.8503	-1.41934		-9.8549
81.2009	-16.6515		-9.55827
84.8342	-27.9372		-14.4883
29.6888	27.8828		74.9863
32.4457	94.7992		44.4234
33.9352	101.484		33.5039
6.84972	102.392		46.6313
7.20288	110.263		35.0125
-1.13924	102.833		46.5273
34.9411	107.555		20.4459
35.83	112.002		5.96657
7.38647	117.001		21.4177
-0.599605	117.475		21.233
22.6877	121.174		-10.7051
29.8274	118.221		-10.2347
36.5317	114.522		-10.025
37.1202	114.586		-26.445
61.616	53.8426		36.3406
71.245	63.8151		4.50347
73.6963	62.5628		-6.37819
59.6352	92.8145		-9.78611
60.3367	92.6575		-22.8089
8.09298	120.91		-48.2524
8.14347	114.648		-65.9135
0.1332	121.288		-48.4641
37.0943	112.293		-42.9405
36.9991	106.875		-59.7259
74.5676	61.456		-17.3613
74.7629	59.9227		-28.4378
59.828	91.5849		-35.8296
59.2556	88.2769		-48.6633
74.1795	57.1839		-39.4358
73.5609	52.7391		-49.8565
72.8577	46.5643		-58.8226
69.9353	51.6641		-64.9585
45.457	-93.0305		-64.5233
44.9004	-103.275		-65.8363
45.0823	-112.819		-66.8491
45.3683	-121.58		-68.0473
40.2194	-110.868		-71.6027
7.95895	105.474		-82.0463
7.7911	93.7916		-95.6449
0.386212	105.664		-82.4819
7.83761	81.0956		-105.408
7.93741	67.7258		-112.48
0.532262	81.2086		-105.763
7.98642	54.5069		-117.402
7.86822	41.1298		-120.68
0.60216	54.6921		-117.723
7.59154	26.9646		-122.561
0.648513	26.9878		-122.928
19.6821	-2.01077		-118.54
25.9056	-2.95993		-116.104
6.41152	-27.4599		-110.962
6.35552	-39.7771		-102.611
0.586015	-27.5778		-111.137
6.31324	-48.643		-96.433
0.592013	-48.8486		-96.4058
5.58641	-86.2739		-84.4829
0.606589	-86.0303		-84.6207
35.6219	76.2376		-97.8475
36.043	88.0997		-88.266
35.2815	63.3763		-104.875
36.4984	98.5291		-75.5151
34.7702	50.4245		-109.824
34.3005	37.0704		-113.035
33.6646	23.3798		-114.745
33.0322	9.4691		-114.748
32.1609	-3.79554		-113.032
31.0506	-16.7234		-109.418
29.8633	-29.2706		-103.753
28.9728	-40.7354		-97.0278
28.7515	-50.4212		-90.9309
28.5038	-59.5913		-85.8973
27.7237	-69.146		-82.3732
27.0053	-79.129		-80.3626
26.3524	-88.7479		-79.8114
35.5445	-109.555		-75.2094
35.8684	-118.529		-75.8084
58.6323	82.657		-61.3486
66.4143	56.779		-70.7188
65.935	46.93		-77.8359
65.2148	36.8488		-83.0906
64.523	25.9586		-86.3645
63.752	15.0172		-87.6894
62.7725	3.69843		-87.0609
61.0142	-7.77054		-85.2636
59.0551	-18.7768		-82.2123
57.2463	-28.9612		-78.0746
60.4576	-28.3338		-72.9112
55.7799	-38.9398		-72.5457
54.4571	-47.5318		-67.3796
56.8542	-59.6323		-53.2017
58.9204	-58.0849		-49.7842
75.8085	22.8576		-60.1787
75.2136	15.3223		-63.3779
77.5479	19.039		-54.0185
72.4355	-8.19836		-63.8371
73.7306	-0.173704		-64.7589
63.3997	-27.0275		-68.246
74.5336	7.87037		-64.9358
64.8691	-38.6332		-52.508
63.1478	-45.9956		-49.2087
18.0778	-108.25		42.5238
61.2877	-74.7415		5.02015
52.3556	-93.0037		8.57485
11.9599	-49.3616		94.0916
15.0654	-49.9775		92.1461
18.1333	-51.4132		89.3645
7.56447	-59.8925		93.8757
7.91692	-60.9647		94.0089
8.17584	-62.093		94.0481
22.4134	-65.5361		84.0317
21.7887	-63.6811		84.4902
21.1364	-62.0711		84.9212
16.2876	-45.7815		91.7402
36.7554	-54.4961		79.0694
27.0737	-33.8878		85.2816
28.7525	-38.7738		85.174
29.8524	-43.5835		84.5284
59.1126	-39.0868		60.9919
15.5646	23.0479		75.0818
79.0847	15.3047		-47.4634
81.1713	14.134		-27.7997
81.7584	12.1729		-25.3821
72.0492	-43.9296		0.946102
22.6936	10.7772		75.3081
47.4967	43.1071		65.6785
6.64016	-31.4088		96.1941
41.8098	19.2973		69.5211
9.34027	-29.8245		94.5051
81.6151	11.9984		-24.3549
58.2373	-104.451		-41.7526
62.3125	-67.8345		-37.248
61.4822	-60.9559		-42.5631
61.5145	-54.855		-46.3771
18.6715	-26.5171		87.1159
12.9003	-57.4012		90.3003
23.5722	-56.3026		81.0112
5.92772	-54.363		91.3451
-68.5299	-46.102		13.4476
-69.3924	-41.0577		14.7759
-69.6759	-44.4579		6.46723
-67.5398	-50.8961		12.1277
-67.4789	-47.5518		21.5479
-57.053	-117.474		-5.73607
-56.4108	-106.955		-5.0678
-59.1289	-116.17		-10.3181
-58.1479	-128.053		-7.09758
-54.4145	-118.575		-1.30045
-59.1762	-135.709		-8.52096
-56.812	-137.624		-3.86797
-60.8926	-133.848		-13.2353
-60.0657	-141.706		-9.89108
-50.1757	-101.303		5.4949
-53.5452	-100.212		0.288293
-50.3273	-109.1		4.3222
-46.693	-102.825		10.3084
-50.7206	-95.3162		6.68538
-59.8951	-98.243		-13.4923
-58.3517	-98.799		-8.97335
-60.018	-92.6702		-13.1172
-60.8378	-96.9368		-18.8006
-59.9974	-105.398		-14.0247
-61.8499	-67.4022		23.7576
-62.6619	-65.7856		16.0951
-59.9162	-71.6145		21.6687
-60.6476	-69.4385		31.4668
-63.3804	-63.2743		25.6582
-68.6078	33.5712		26.6437
-72.7543	31.9233		14.3616
-67.9634	26.09		30.1486
-63.942	36.4764		37.7856
-69.8634	41.4349		21.5357
-77.2652	43.2178		-28.7579
-78.183	35.8402		-23.6795
-77.2949	45.1233		-17.8587
-75.9271	50.2542		-34.1338
-77.0119	40.0445		-38.6453
-5.76036	-115.876		39.5704
-5.87169	-111.768		41.8732
-9.4702	-115.583		38.5861
-6.90005	-123.046		37.8426
-2.92107	-115.925		40.145
-8.52279	-134.262		34.6622
-9.83784	-145.491		31.0721
-5.20753	-134.505		35.6861
-12.1702	-133.291		33.2982
-3.13455	-153.859		30.1973
-3.61419	-158.96		28.7176
-2.69606	-146.222		32.5364
-6.8476	-153.496		29.6916
-65.8232	-53.6578		-31.7972
-66.7275	-45.9824		-36.109
-63.2647	-59.8736		-34.1282
-65.2111	-60.0453		-26.4402
-68.3072	-47.4285		-29.5254
-67.7058	-40.5025		-39.2478
-70.7604	-35.7592		-36.0749
-68.6639	-35.7336		-41.7888
-64.1354	-46.4337		-42.6283
-61.745	-126.766		-29.7382
-62.2996	-129.914		-23.2355
-60.2132	-123.916		-36.6147
-61.8827	-133.532		-32.161
-2.116	-134.859		36.2217
-1.26715	-123.552		39.2538
-66.2769	-49.7206		30.0037
-65.3573	-55.1774		28.9799
-65.0386	-50.7342		37.7351
-67.1675	-43.4754		30.5279
-63.6044	-64.0437		8.38658
-65.1072	-59.7219		9.63827
-64.349	-63.3008		0.435626
-61.9917	-68.1863		6.81442
-9.61877	-95.085		88.312
-9.66796	-90.1655		89.8385
-13.7342	-94.5057		85.9005
-9.61709	-99.3019		85.841
-6.00656	-95.6174		89.8296
-18.2974	-93.2683		82.8012
-18.5654	-88.19		84.2969
-23.0608	-91.6635		78.9295
-17.9494	-97.8274		80.4813
-3.10041	-85.7716		92.6409
-3.17789	-90.9159		92.1452
-3.11952	-80.9188		92.4666
-6.21924	-85.4929		91.8358
-9.80526	-102.192		82.8332
-6.30219	-102.482		84.3925
-13.7497	-101.75		80.5092
-10.4296	-104.289		78.6867
-11.2575	-105.539		73.5607
-11.4284	-106.052		67.636
-7.33846	-106.138		74.5244
-14.0629	0.765783		83.9208
-11.913	3.43833		85.6193
-13.2327	4.64808		81.79
-16.336	-1.11294		82.2203
-14.9333	-3.19291		85.9366
-48.5252	-23.1049		75.1329
-49.4774	-28.0578		74.578
-42.3431	-22.9336		78.9029
-47.4961	-18.3343		75.2855
-54.2914	-23.3283		70.0398
-57.9906	-12.6995		64.4844
-58.9519	-18.0549		63.9786
-52.4898	-12.8908		70.429
-56.5794	-7.47825		65.0595
-62.8045	-12.5654		57.0226
-65.5465	4.18531		45.4249
-63.1504	6.11445		49.8226
-64.0984	11.5774		45.0975
-67.3927	3.10262		40.4197
-49.9514	-33.4002		73.6519
-44.0268	-32.8771		78.1406
-55.3029	-34.3837		67.8649
-49.8838	-39.2905		72.7436
-2.22814	3.80374		101.855
-3.85487	3.29166		101.141
-2.45308	-0.921656		105.755
-2.18844	9.09902		97.2315
-30.365	70.6132		66.7333
-31.4648	76.3602		62.6871
-35.3385	69.246		64.2405
-29.0997	64.1359		71.1731
-25.68	71.311		68.6445
-3.40604	-107.482		61.8543
-3.88247	-107.122		69.1389
-6.86313	-107.128		61.3054
-2.45884	-107.839		54.2981
-63.3818	-51.0994		45.0989
-64.4132	-44.0898		45.519
-62.0533	-58.2139		44.6328
-61.1762	-50.558		52.1751
-3.27677	-102.761		85.163
-3.66022	-105.101		80.5677
-3.01559	-99.9253		88.2308
-3.89716	-106.471		75.1554
-38.7919	-90.8976		59.7377
-39.1486	-87.502		62.9965
-44.2197	-87.0167		55.8776
-37.8747	-93.496		56.8955
-33.1721	-94.0036		64.3612
-42.8132	-92.9132		37.1977
-38.4186	-95.9796		41.5286
-45.6222	-90.042		41.4557
-46.6874	-89.6171		32.4384
-39.9594	-96.0476		32.4907
-1.17866	-108.919		47.0041
-0.119475	-111.599		42.5837
-4.00256	-108.962		46.4475
-7.11003	-6.70073		106.657
-4.85091	-5.82643		108.564
-6.48006	-2.4564		103.207
-9.56114	-8.06454		103.483
-7.69914	-10.0202		109.404
-23.9912	-21.0309		84.7015
-20.3277	-18.1594		86.2399
-22.2648	-16.1133		84.6453
-28.522	-22.5511		83.4402
-29.1582	-56.5306		79.5624
-27.148	-56.7528		79.8125
-27.7889	-55.7397		79.8213
-11.558	-27.3654		95.1448
-13.0878	-27.3253		93.3486
-11.0149	-28.4326		94.5586
-12.7639	-25.7925		95.4587
-11.2965	-31.738		92.6803
-9.59877	-31.5024		94.2034
-11.1337	-30.7635		92.9589
-13.4369	-31.5569		90.9028
-11.8101	-33.1568		92.372
-2.13438	-29.1101		102.616
-3.78165	-28.8816		101.773
-2.18298	-30.2206		100.996
-2.22848	-27.9705		104.827
-15.712	-30.4894		89.286
-16.2982	-31.9927		89.0736
-15.2518	-29.4369		89.7357
-17.7782	-28.6588		88.0123
-7.99617	-18.8232		112.106
-8.17578	-17.0909		112.646
-10.2807	-18.8769		107.883
-7.68593	-20.8305		110.815
-5.57801	-19.0993		114.742
-25.275	-70.7985		81.4763
-26.3988	-74.7592		80.2412
-21.5095	-72.8289		84.1208
-23.9675	-67.459		82.6118
-28.469	-68.2906		79.4536
-27.3294	-50.3406		83.2887
-29.5739	-50.988		81.9961
-25.0473	-49.678		84.8914
-26.426	-46.4265		85.1991
-2.49704	-34.4979		98.1867
-2.37627	-32.6364		98.9894
-4.19651	-34.1528		97.7622
-2.53991	-36.6567		97.6296
-5.97035	2.16405		99.5438
-5.84805	6.75286		95.4195
-8.44804	0.181381		97.0387
-16.5693	-18.9751		92.0531
-16.9156	-18.5186		90.9538
-16.7803	-20.4621		91.2375
-16.0215	-18.3234		93.8656
-15.8601	-17.323		93.9352
-5.38748	-30.6378		98.3989
-3.94458	-30.926		99.3032
-5.3637	-29.6071		99.1924
-6.72064	-30.8071		97.0882
-5.27957	-32.1959		97.7261
-5.19308	-28.7439		100.476
-5.17687	-27.7452		102.284
-15.3739	-17.5494		95.858
-15.7138	-19.1466		94.9441
-15.1576	-16.6751		96.0992
-16.7344	-23.1528		90.3479
-16.1551	-25.7982		90.0194
-16.0942	-21.9282		92.4598
-2.96922	-44.4799		97.1056
-2.91137	-41.768		97.0324
-5.27789	-43.7391		96.8073
-3.25029	-46.4234		97.2428
-22.6838	-33.3214		86.4536
-20.7981	-29.5526		86.5762
-25.1561	-33.0337		85.6122
-24.3726	-37.3673		86.4495
-20.1324	-33.7808		87.5493
-9.12611	-70.199		91.5165
-12.8742	-69.5137		90.1283
-9.17544	-72.4697		91.0805
-5.65705	-70.8602		92.3072
-9.05917	-68.4456		92.0188
-22.9939	-52.3076		84.8287
-22.817	-50.7753		85.9888
-25.5056	-53.518		81.98
-23.4039	-52.9352		84.0511
-14.9899	-16.0276		95.9971
-13.9389	-15.0254		98.4652
-15.0768	-15.1999		94.7189
-16.6649	-68.6957		88.0889
-16.3116	-66.8971		88.6867
-19.9845	-67.3416		85.8149
-17.0252	-70.993		87.4656
-2.7837	-71.0894		92.6735
-2.70377	-69.4906		93.1439
-2.7899	-73.1905		92.341
-56.046	30.0368		58.0685
-56.6605	31.239		56.5389
-57.4112	24.2753		54.8374
-55.2995	29.1335		59.4899
-38.8869	56.0048		68.368
-39.7743	61.654		64.6213
-44.2934	53.5411		64.4481
-38.054	51.3295		71.5894
-34.04	57.6472		71.7558
-49.8601	50.1662		59.8204
-50.8515	55.6115		55.6262
-54.8973	45.7972		54.2105
-49.4403	45.8817		63.0622
-38.2396	45.0258		73.851
-37.96	47.0644		73.5228
-38.6207	42.7511		73.8256
-34.0558	46.8755		77.8683
-57.6846	32.5319		53.8061
-60.1403	26.3576		49.0446
-54.2832	38.5472		59.7282
-58.3809	35.4949		51.175
-22.4188	36.3647		77.798
-18.912	34.9397		78.1754
-22.0532	38.2075		78.3552
-26.0028	37.1069		77.3056
-22.7451	34.0702		77.1584
-5.88254	17.4091		85.8687
-5.80554	14.7109		88.0248
-4.01096	19.2972		86.8523
-5.87226	19.6586		84.518
-7.66825	14.7031		84.4499
-27.9167	-5.19319		78.73
-21.8662	-4.26875		80.262
-25.8195	-1.84412		78.1002
-35.5486	-4.90363		76.8643
-30.0633	-9.19444		79.6173
-55.2556	9.03824		59.6115
-53.4151	6.05098		62.877
-52.8154	10.3882		61.6247
-55.6896	13.2438		57.8443
-57.5493	7.93372		57.4929
-5.7993	11.1529		91.2863
-3.74295	12.9137		92.4356
-7.92463	8.62267		89.6594
-39.1149	40.7299		73.6432
-39.0292	38.756		73.5967
-34.4344	42.5381		77.0732
-44.7678	39.2285		70.3179
-50.1977	36.8514		66.3061
-53.1649	32.9185		63.2306
-49.7156	34.8131		66.8204
-51.6922	17.5644		61.8549
-53.3921	17.7829		60.0603
-51.5183	14.2709		61.9813
-49.8131	17.2894		63.6661
-51.7565	21.2976		62.4217
-40.2931	21.6497		71.6186
-38.5697	22.717		72.868
-41.7904	20.3565		70.3344
-36.723	23.6167		73.8016
-34.6675	24.2954		74.3889
-36.8924	24.7694		73.9223
-38.967	23.7866		72.939
-34.5343	25.4315		74.5606
-32.1511	24.7638		74.7159
-29.4834	24.6772		74.9033
-31.8552	25.7879		74.8688
-28.9835	25.6291		75.0454
-26.9585	24.034		75.0063
-24.6259	22.8622		74.9198
-22.1314	21.207		74.4845
-19.8135	19.5102		73.8648
-20.8208	22.0112		74.5547
-23.5148	23.6285		74.9883
-18.4436	20.193		74.0702
-18.309	18.0499		73.3923
-19.3831	22.6822		74.7297
-22.4061	24.5618		75.1508
-31.5917	26.9039		75.0439
-28.4791	26.7193		75.2265
-45.166	15.5599		67.3306
-44.227	14.5999		68.1108
-29.9019	37.2139		76.7248
-30.052	34.9211		76.1646
-29.9241	39.4469		77.2914
-34.4112	36.868		75.6164
-45.5255	27.9037		69.4682
-43.5921	25.7937		70.6072
-42.2049	29.4531		71.7405
-47.4827	30.3549		68.2843
-35.6054	7.57594		74.6422
-28.9413	7.38205		76.0269
-40.8049	8.62557		72.2235
-36.1957	6.20852		74.5671
-23.3201	8.26703		76.0215
-23.1053	6.55355		76.3554
-19.5017	9.46846		75.6876
-15.6644	12.9513		74.9451
-16.5551	11.7822		75.2174
-15.1519	13.8469		74.7517
-34.6223	10.3635		74.687
-29.1263	10.3257		75.7439
-39.2453	11.5241		72.6627
-19.1866	13.0636		74.0218
-18.3092	13.6111		73.7071
-20.8919	12.2171		74.5895
-17.5822	14.0669		73.5949
-16.9124	14.6731		73.5807
-11.9693	23.304		77.09
-11.4254	26.0002		78.0593
-13.8977	25.4773		76.7299
-12.8068	20.3656		75.8866
-14.7509	15.3232		74.6155
-25.4268	25.9272		75.3043
-13.7626	19.2167		75.1071
-15.182	21.1889		74.9779
-13.1711	17.4244		75.3614
-34.4315	11.536		74.6704
-29.096	11.5193		75.6246
-19.4382	13.9354		73.4254
-21.0872	13.4558		74.0021
-18.5681	14.2019		73.2378
-18.0683	14.5693		73.0656
-42.7977	18.9919		69.2406
-3.43442	34.1622		82.6093
-4.07566	36.9394		82.4217
-5.43068	33.9454		82.1663
-3.16114	31.5854		82.9276
-16.403	3.67544		78.918
-19.2054	2.27762		78.2564
-17.1821	1.01946		79.9592
-14.59	5.2977		79.4993
-16.1531	5.75391		78.0423
-12.7402	7.22502		80.4318
-11.0074	9.56476		81.6067
-12.7124	12.4008		77.2991
-12.8982	14.0614		76.3681
-11.0753	13.4311		78.7356
-8.61299	23.1825		79.8742
-8.10273	24.4384		80.5348
-9.60463	25.4448		79.2245
-17.5376	10.6615		75.4657
-16.7904	9.32539		76.2819
-16.2347	7.63272		77.1455
-18.6501	6.06611		76.9494
-19.2866	-55.0876		83.3814
-16.1749	-54.8259		85.5906
-22.3422	-55.0874		81.132
-19.181	-54.9999		83.1296
-24.1039	-55.2808		80.0575
-23.798	-55.169		80.0382
-3.47281	-49.9008		96.999
-3.4641	-51.1142		96.5571
-3.4605	-48.6224		97.2454
-6.05896	-49.3569		96.534
-8.36874	-51.684		94.5108
-10.7514	-51.49		93.4902
-8.08643	-52.739		93.6618
-6.01353	-51.8862		95.324
-8.37884	-50.4867		95.2694
-13.3254	-51.497		92.0357
-16.1755	-52.1384		89.8252
-13.2035	-52.6934		90.9719
-13.4844	-50.3598		92.7477
-8.3244	-49.1581		95.8499
-8.27224	-47.8684		96.2081
-10.8215	-49.1178		94.769
-12.6255	-47.213		94.2519
-13.3196	-48.1491		93.7436
-9.99665	-47.0339		95.6171
-12.2154	-46.1894		94.503
-19.2402	-53.5252		86.3983
-19.1722	-52.3886		87.7511
-7.5242	-53.778		92.5247
-10.3424	-53.6056		91.3029
-7.07823	-54.2764		91.6645
-5.19502	-53.8692		93.4533
-13.3266	-53.8123		89.4473
-13.1892	-54.3595		88.426
-24.8832	-54.1582		81.6916
-26.1425	-55.4733		80.0751
-19.5734	-56.0628		83.8821
-19.6397	-56.2671		84.1557
-16.365	-56.1399		86.4075
-19.512	-55.9923		83.6537
-20.1753	-57.5509		84.7093
-17.3406	-58.438		87.6741
-19.9645	-57.085		84.6154
-14.4294	-58.9552		90.1875
-14.8832	-59.7894		90.1896
-11.4175	-59.5358		92.0889
-14.1667	-58.1324		89.9453
-7.37745	-57.6721		92.8744
-4.63629	-57.8097		93.7111
-7.17713	-56.5826		92.3204
-10.6799	-57.3451		91.4211
-7.64873	-58.9637		93.3459
-2.66522	-60.621		94.9926
-2.58202	-59.3646		94.6668
-4.93894	-60.3637		94.5417
-2.72057	-61.8117		95.1653
-24.3785	-56.7415		79.3385
-24.229	-56.1457		79.9405
-22.4867	-56.6815		80.7445
-24.3498	-58.1684		78.709
-2.35734	-56.5898		90.0833
-2.40495	-56.0186		91.199
-2.21909	-57.8609		88.9593
-4.36484	-56.5959		89.7121
-2.75919	-62.9869		95.1917
-5.14378	-62.7146		94.7691
-2.814	-64.0991		95.0693
-2.68615	-67.9146		93.752
-2.7764	-66.4227		94.3692
-5.35844	-67.4731		93.4738
-8.05352	-47.0169		96.3549
-5.88425	-46.9616		96.925
-7.40876	-45.6946		96.5152
-2.52576	-58.0161		94.1553
-2.44677	-56.8842		93.567
-2.42675	-56.3207		93.1157
-2.49198	-56.0428		92.6925
-4.51583	-56.1645		92.7081
-7.08584	-56.0517		91.8926
-7.02741	-55.822		91.5194
-10.1145	-55.8414		90.5386
-2.51843	-55.9065		92.0803
-4.46909	-55.8278		91.7177
-13.2686	-55.9887		88.7391
-13.5019	-56.3909		89.0916
-13.1827	-55.8195		88.3626
-15.6225	-62.6667		89.9716
-15.8808	-63.7712		89.6369
-12.5186	-63.4797		91.8963
-15.4001	-61.6756		90.1496
-8.77986	-64.2778		93.4355
-8.94582	-65.3979		93.0664
-5.30217	-64.833		94.4431
-8.58969	-63.3195		93.6642
-2.80818	-65.2158		94.798
-13.077	-54.493		87.7766
-12.9506	-54.3857		87.2441
-9.89991	-54.2634		89.6406
-24.213	-55.8885		80.5851
-22.5418	-56.1159		81.8987
-6.92382	-56.5613		89.022
-6.86527	-55.9349		90.0514
-6.99791	-57.7756		88.0348
-9.91199	-56.4563		87.9259
-6.91823	-55.7453		90.94
-9.88636	-55.6228		89.6619
-8.94835	-66.8016		92.5955
-12.7269	-65.9962		91.1568
-15.131	-60.7189		90.2351
-12.0762	-61.4753		92.1817
-16.0856	-65.2408		89.2054
-18.9723	-64.0074		87.003
-12.6802	-54.0406		86.9086
-15.4731	-54.3535		85.2016
-12.1939	-52.769		86.2834
-9.84578	-53.7041		88.2542
-7.03287	-53.718		89.3161
-6.88252	-54.2202		90.1945
-7.48994	-52.3438		88.0432
-4.8444	-53.6674		89.7557
-11.7534	-49.9036		85.4579
-14.0577	-50.1759		84.3681
-11.6716	-46.1703		84.9075
-9.58021	-49.6653		86.3036
-24.2148	-61.4588		78.0938
-22.2608	-61.4263		79.6039
-23.7904	-65.3052		77.9868
-1.9974	-60.7557		87.9422
-2.15486	-64.708		87.6322
-4.04737	-60.6933		87.6872
-7.51116	-49.534		86.9297
-7.35987	-45.7891		86.379
-5.399	-49.4473		87.3945
-6.75832	-60.6019		87.0874
-6.92352	-64.6757		86.5575
-9.84877	-60.5766		86.0866
-27.8823	-56.2264		74.3139
-28.1207	-56.2465		73.8914
-9.45819	15.3497		80.1593
-9.27526	13.8817		81.5556
-79.7444	-8.14977		-43.3876
-81.2036	-8.62425		-41.6319
-80.3952	-3.48441		-43.4078
-77.9598	-7.58402		-46.8429
-78.9764	-12.6082		-42.5862
-77.9001	11.1611		-4.84617
-76.6647	13.3505		0.246549
-78.5052	13.9819		-9.27608
-78.829	16.0223		-14.7205
-79.7228	15.4946		-21.9974
-79.2927	10.9877		-15.7809
-78.6322	21.4933		-16.1207
-73.3436	-32.6752		-33.7134
-74.5943	-28.7487		-35.604
-72.2332	-36.8801		-31.0552
-75.7627	-30.3281		-32.0547
-75.6837	-25.0654		-37.751
-77.9205	-23.8265		-35.8583
-76.8936	-21.0629		-39.6515
-73.1227	-27.1445		-40.6724
-82.6566	-8.55309		-40.7364
-83.0459	-3.46568		-40.9548
-82.0204	-12.7681		-39.7744
-84.2082	-8.03163		-40.373
-82.5371	-25.0065		-32.6642
-83.5719	-26.1122		-31.5372
-81.2092	-23.437		-34.116
-84.3276	-26.9007		-30.4946
-85.5347	-22.844		-32.6432
-83.0375	-30.8986		-27.9016
-85.0095	-27.325		-29.2702
-88.9561	-17		-30.6688
-90.4194	-12.4921		-33.9118
-88.9204	-16.4123		-29.8607
-77.4453	-39.4162		-19.4257
-77.9086	-37.7999		-22.5258
-76.5982	-38.5818		-21.5301
-76.922	-40.0345		-17.3526
-77.9035	-39.6232		-18.7343
-78.9758	-31.6018		-6.83736
-78.6629	-32.1723		-6.81786
-78.0186	-33.4075		-7.09205
-88.8481	-16.0232		-29.4355
-88.2901	-16.6039		-28.441
-91.9814	-1.32364		-33.4826
-92.1076	-0.687035		-35.0373
-91.8003	-2.63473		-31.7861
-92.2139	9.04407		-31.0015
-92.5063	10.4123		-31.1309
-92.6112	12.5385		-30.0788
-92.1488	14.6684		-26.8955
-92.8182	13.0014		-30.4989
-91.9391	12.3765		-27.79
-81.1873	-8.44276		-6.8775
-82.4844	-2.95708		-7.46348
-80.2317	-12.5092		-6.29732
-80.5959	-7.65568		-5.47395
-75.7856	-24.4211		0.247086
-76.2707	-20.0488		0.831223
-75.2907	-28.2533		-0.291027
-74.7936	-24.7683		3.07007
-79.9193	-19.7624		-9.00753
-79.9042	-17.7791		-9.13685
-80.2775	-21.8383		-9.55345
-79.2882	10.4781		-15.8384
-79.3137	10.4791		-15.6211
-79.8324	11.7139		-19.4735
-87.7968	18.0455		-16.5021
-88.9902	19.7255		-19.807
-88.5632	17.3594		-15.4994
-86.1567	14.9622		-13.3985
-86.9622	18.4254		-17.6946
-88.7267	20.3078		-25.0516
-87.7531	20.0975		-21.8677
-87.9105	19.2262		-26.4297
-89.3965	18.962		-28.8792
-89.0326	20.4527		-24.561
-90.0309	4.55484		-39.7496
-91.0889	4.81313		-39.2141
-90.3285	10.6393		-36.86
-89.2229	4.08476		-39.9239
-83.445	1.67059		-8.07092
-83.7889	0.394266		-8.77915
-92.7888	4.0074		-36.6103
-93.2111	9.23165		-34.3394
-92.8514	3.90225		-36.9925
-92.4563	1.16388		-36.7793
-91.4538	15.6218		-22.7757
-90.3094	15.1264		-18.6103
-91.5371	16.6245		-22.1511
-91.2555	14.2433		-23.533
-85.0865	2.38814		-11.0091
-85.6887	4.71512		-11.7671
-84.4962	0.622903		-10.4035
-92.2266	4.74275		-33.7958
-92.378	2.63786		-35.6951
-83.1831	-4.45493		-12.2449
-83.6746	-2.80368		-11.1276
-83.3647	-4.19305		-12.9773
-88.6135	-3.90476		-26.8296
-90.7759	-1.27875		-28.8519
-88.4949	-5.01605		-26.9879
-88.3174	-3.44057		-26.1756
-76.748	-16.0592		0.871135
-75.848	-16.1912		3.50575
-77.454	-11.491		0.0784451
-83.2678	1.87733		-39.4573
-84.2364	4.41546		-38.5065
-83.08	6.63739		-37.2838
-82.1692	1.26311		-40.6096
-86.647	9.46114		-35.8083
-86.8696	5.29496		-38.7778
-89.0556	14.1762		-33.9025
-86.2977	13.3255		-32.5007
-88.1019	3.11329		-39.8668
-86.9081	-2.49129		-40.6302
-86.4457	-7.5583		-40.2147
-79.6785	-23.1613		-35.009
-80.597	-19.9061		-36.7673
-78.6134	-26.299		-33.1102
-81.3495	-16.4922		-38.4247
-79.6936	-16.7524		-39.4535
-87.6667	-16.5188		-27.3773
-77.5422	-29.2328		-31.3287
-76.3432	-32.8748		-28.9022
-76.6301	-39.6162		-14.4537
-76.1102	-39.8728		-14.2664
-75.5289	-40.0741		-13.9405
-75.4914	-39.9666		-19.4736
-88.7298	-5.77856		-27.4838
-90.8248	-4.43048		-29.7825
-79.9256	-7.01622		-4.30586
-79.1182	-6.58026		-3.00795
-77.6843	-20.6284		-2.85247
-78.034	-20.8203		-3.5504
-80.892	-25.3557		-9.31054
-81.071	-24.2779		-10.1871
-81.9726	-27.4482		-10.9225
-79.6314	-15.5193		-5.80446
-80.1445	-15.7385		-8.10817
-85.8617	15.2069		-29.1884
-84.7399	15.8862		-25.7099
-83.5024	11.4619		-32.0625
-82.6083	9.89503		-33.8799
-81.8001	12.0809		-29.4748
-82.2491	9.5756		-34.9774
-91.2975	6.01086		-28.5706
-91.0953	4.49312		-28.2116
-83.8519	-3.51712		-14.4832
-84.9758	-2.3377		-17.2714
-88.2652	-2.58116		-25.654
-87.6232	-2.49609		-24.208
-90.1278	1.03896		-26.9458
-9.06477	86.62		62.4177
-9.22138	94.1963		55.7069
-16.1799	85.8372		61.9344
-9.02912	79.1306		67.5753
-8.77056	71.7316		71.7732
-15.2858	71.7721		71.0307
-8.50225	63.9791		75.5628
-28.8751	58.1518		74.6406
-23.6087	58.6577		76.2822
-28.9102	53.7838		77.3684
-2.35266	-26.6853		107.714
-4.12133	-26.7367		106
