1811
12.3714	-100.21		45.6456
10.1948	-99.5357		54.7023
10.9989	-147.633		28.0014
12.1145	-153.252		26.2978
11.5447	-99.8646		63.1692
14.8311	-54.0137		89.8492
14.7347	-54.2717		89.0582
14.7091	-54.8094		88.3483
15.066	-55.9469		87.3598
14.9485	-58.619		86.4826
14.7049	-62.4359		85.9086
76.0882	47.3352		13.4843
78.5602	45.6809		2.67642
76.0319	54.9139		8.38849
72.7785	49.7853		23.985
81.1735	26.5775		-20.5151
73.6331	-20.6433		-50.0707
70.8389	-22.4685		-54.9045
50.4425	-95.2015		-55.1778
51.0783	-85.155		-54.0761
53.1941	-98.2857		-49.7572
50.3676	-105.305		-56.3196
47.5099	-92.9281		-60.0261
50.6189	-114.168		-57.6046
51.1567	-122.614		-58.7481
47.5751	-112.49		-62.2485
56.9296	-83.3571		-41.6746
56.1998	-92.737		-42.251
54.597	-78.8792		-47.9545
58.3212	-75.0893		-40.2495
23.967	112.349		21.3275
30.9473	109.523		21.0781
23.6289	116.838		6.14399
16.6664	114.339		21.5961
22.8722	101.06		-78.8296
23.5303	109.808		-63.0422
29.984	99.0574		-76.9363
22.093	90.1646		-91.8951
15.4147	102.461		-80.2566
21.6313	78.2423		-101.341
28.4888	76.6136		-99.3452
21.3489	65.0702		-108.446
14.6663	78.9967		-102.944
23.6736	115.755		-46.0265
30.9016	113.281		-44.4052
16.1369	117.553		-47.0936
23.6625	118.849		-28.236
8.37655	122.432		-11.3402
0.355442	122.849		-11.4793
8.46213	120.199		5.9099
16.1302	121.202		-11.0375
8.33756	121.97		-29.4545
21.0839	52.0999		-113.293
27.5006	50.7588		-111.255
20.7678	38.6696		-116.506
14.5847	52.8517		-114.75
20.2644	24.6456		-118.257
26.5766	23.6926		-116.073
19.7643	10.813		-118.385
13.9701	25.5727		-119.765
17.6357	-27.6085		-107.438
23.3943	-28.3526		-105.294
17.223	-39.2499		-100.216
12.1038	-27.5072		-108.592
18.5012	-15.0642		-113.252
6.82602	-1.18493		-119.514
0.459285	-1.11704		-119.845
7.03932	11.9254		-120.97
13.0437	-1.60278		-118.498
6.52209	-13.9882		-115.93
14.9944	-85.658		-83.115
15.3531	-76.2081		-84.0553
20.1429	-86.4275		-81.7814
14.7639	-95.0467		-82.7593
10.03	-85.216		-83.8821
4.9914	-103.539		-83.4288
9.84116	-103.992		-83.1233
5.10746	-113.144		-83.2001
0.321331	-103.314		-83.5306
5.0979	-93.9296		-83.7709
17.2736	-48.411		-94.2764
22.4813	-48.9907		-92.7264
16.81	-56.5898		-89.8251
11.6351	-47.9431		-95.2818
15.9603	-65.9832		-86.2921
21.447	-67.0919		-84.5719
10.7848	-65.1814		-87.2812
5.57559	-64.8787		-87.7371
5.85394	-55.6618		-91.3003
5.27619	-75.29		-85.3833
0.341638	-65.0491		-87.7965
49.7898	97.3463		17.9411
55.6615	91.8175		16.5687
50.2735	100.969		4.43125
43.7999	101.996		19.3869
47.5104	69.6308		-89.3678
52.985	66.5294		-85.1552
47.148	57.6748		-96.0773
41.6591	72.2655		-93.1708
47.9159	80.4984		-80.2842
48.2864	89.9964		-68.3707
42.5808	93.5856		-71.599
48.9786	97.0604		-54.3421
53.8491	85.611		-64.8145
49.7592	101.387		-39.7094
55.5788	95.7417		-37.9818
43.8814	106.05		-41.2891
50.673	102.974		-24.9644
50.6004	102.989		-10.1223
44.4229	108.053		-9.9468
56.5081	97.1583		-10.2775
46.5099	45.5637		-100.919
45.8346	32.9927		-104.111
40.631	47.4489		-104.823
51.93	43.3565		-96.6439
44.8701	20.2639		-105.886
50.1717	18.8299		-101.583
43.8831	7.37731		-105.961
39.2504	21.3799		-109.685
42.5497	-5.09255		-104.498
41.1499	-17.9222		-100.999
37.3579	-4.76069		-108.104
47.3015	-5.83755		-100.355
40.1756	-30.447		-95.2205
44.8041	-30.194		-91.4413
39.3955	-41.3188		-88.9494
34.9579	-29.832		-99.0912
38.5957	-50.7399		-83.3874
37.6915	-60.124		-78.5979
33.5306	-50.5232		-87.0524
43.0454	-50.9655		-79.1733
35.2947	-88.2838		-73.8475
34.4213	-98.1515		-74.7403
30.4184	-87.84		-77.2023
36.242	-78.7841		-73.7477
39.6906	-89.267		-69.8959
24.4637	-105.561		-80.1938
24.6659	-114.358		-80.3681
19.512	-104.856		-81.6192
24.7377	-96.5504		-79.9925
29.4668	-106.477		-78.1143
36.9171	-69.5579		-75.2937
41.4034	-69.9399		-70.8262
32.183	-68.8952		-78.9935
68.0086	69.2796		-51.5934
69.2486	73.2299		-40.2158
72.0686	62.5213		-45.8636
67.0877	63.1198		-61.9632
63.6414	75.222		-56.745
70.2159	75.4863		-28.9406
74.1271	67.6811		-23.9072
65.7993	82.7901		-32.9672
70.8284	76.4689		-17.814
70.2578	77.2593		-7.08318
73.2891	69.8452		-2.46177
66.4112	84.2005		-9.2717
56.7002	41.1164		-92.1528
57.402	52.3198		-87.2696
61.0294	38.4673		-87.3679
55.9561	29.2794		-95.3318
57.7794	63.2755		-80.7133
58.24	72.8075		-72.1049
62.2808	59.3888		-75.8345
51.9778	-6.54436		-95.4548
53.8158	5.40169		-96.8069
56.4486	-7.38925		-89.9817
50.1376	-18.5398		-92.3715
54.9827	17.1982		-96.9084
59.4263	15.8202		-91.865
48.9193	-29.7364		-87.3634
52.9177	-29.7278		-82.3173
48.1445	-40.7576		-80.7126
47.0047	-50.3562		-74.9676
50.5698	-48.7924		-70.9903
45.8486	-70.6294		-65.2461
49.5524	-73.1577		-58.8267
44.7892	-80.5402		-64.4431
77.7985	34.1334		-47.4209
76.8355	28.1744		-54.8198
75.7904	39.5733		-53.0038
60.9516	85.7124		15.7953
61.3501	89.3135		2.90515
79.7356	44.4788		-8.03012
78.88	52.1974		-12.9806
66.769	-8.23225		-74.3028
63.7029	-8.2994		-79.4014
68.3696	1.19122		-75.7144
69.6027	-8.60438		-68.7929
64.7634	-18.0623		-71.5237
69.2887	10.7129		-76.3563
66.3748	12.496		-81.763
70.2271	19.7606		-74.8876
72.0522	8.60603		-70.3488
71.1475	28.9383		-71.5517
68.1501	32.4077		-77.1568
72.1796	37.3363		-66.1131
73.8028	25.0885		-65.6844
58.6325	-43.0771		-60.3529
56.0195	-45.2766		-63.8588
60.5275	-35.4433		-64.1957
61.2529	-40.9519		-56.5982
56.9409	-50.8301		-56.6587
68.1261	-24.0707		-59.5183
66.0368	-31.3907		-56.2805
65.4981	-25.6511		-63.6327
70.2007	-16.6028		-61.8624
52.3704	-75.802		-53.2646
53.8656	-66.8883		-53.2605
74.7684	-39.5924		-5.91954
75.5034	-35.9922		-3.94456
72.8979	-42.7073		-3.70129
75.5355	-34.2504		-2.53047
80.8959	-8.07375		-4.07376
81.9312	-2.69187		-6.13782
93.1817	3.10832		-38.8573
93.4754	8.98184		-36.449
93.8019	2.70289		-38.156
81.7244	-37.0518		-25.6271
80.3014	-39.9641		-22.2882
93.2167	13.7318		-32.9327
92.2574	14.0509		-33.4231
92.6738	16.8974		-28.8424
94.0871	13.0523		-32.3821
87.1439	8.64299		-12.6728
85.8026	8.63059		-13.3433
92.0346	18.2114		-24.6425
92.9454	17.4932		-23.91
87.5852	-20.1262		-35.7055
82.9477	-37.9291		-18.3246
82.2328	-37.8696		-15.7198
81.1412	-40.0577		-18.801
82.4463	-0.0232034		-7.82918
88.7983	16.4571		-20.311
86.8782	13.3246		-17.7187
87.667	15.5615		-21.8574
84.4595	8.91031		-14.7423
83.549	9.34503		-16.296
91.5911	13.8884		-33.6492
82.7694	9.09478		-17.7069
84.0216	11.1081		-20.2922
85.5464	13.0463		-23.7919
83.3189	10.8684		-24.8543
86.4732	-28.7619		-28.6326
86.3203	-30.5098		-21.1432
79.5052	-41.2882		-19.2645
81.4594	-37.0613		-13.4957
82.7929	-34.1104		-13.4719
83.9002	-31.6751		-14.3321
84.4915	-30.0624		-15.2475
93.9824	2.39152		-37.7539
94.5581	8.05926		-35.432
91.6237	14.7777		-16.6547
91.774	14.1264		-16.3601
92.7587	16.4585		-19.6345
91.7269	13.4975		-16.2175
92.9409	15.2611		-19.1567
91.5198	12.3938		-16.3997
94.454	12.4959		-32.0327
94.0296	15.417		-27.9469
94.5576	11.9775		-31.9062
93.4921	16.7779		-23.438
93.705	16.168		-23.323
93.7067	15.5642		-23.0736
94.1577	14.3413		-27.6042
94.5104	11.5899		-31.6005
93.313	-2.036		-36.7548
91.2038	11.0587		-16.95
88.4382	3.65972		-14.5961
92.9582	10.8259		-25.2412
92.7144	-5.22612		-31.7147
92.8249	-3.32088		-31.4073
92.8087	-1.43238		-30.8202
92.654	0.0744889		-29.9228
92.3497	1.29827		-28.6887
91.4921	2.13301		-26.1892
82.5518	-26.5163		-13.0481
83.7266	-28.1142		-14.6718
86.2754	-3.12858		-11.7068
81.8055	-18.3419		-11.1522
84.6378	-29.326		-15.7317
36.0819	25.6965		73.446
36.9334	94.3153		44.5519
37.3776	100.509		33.4536
9.43895	102.061		47.6915
9.097	109.349		35.6231
0.852321	102.539		47.7557
37.4377	106.176		20.291
37.564	110.31		5.80136
8.72155	115.601		21.7184
0.46991	116.088		21.6116
23.4932	119.17		-10.627
30.7828	116.257		-10.2275
37.6597	112.603		-10.0986
37.8004	112.532		-26.352
68.7486	53.0876		33.6021
75.0986	62.2899		2.84194
76.7074	60.9722		-7.75647
61.6355	91.0875		-10.3399
61.7372	90.8484		-23.1428
8.30569	118.662		-47.6503
8.21959	112.445		-65.0465
0.366367	119.036		-47.8113
37.4369	110.186		-42.6285
37.0715	104.796		-59.1586
76.8895	59.8803		-18.4277
76.4152	58.379		-29.2145
60.7326	89.7518		-35.9359
59.7531	86.4631		-48.5431
75.2981	55.7014		-39.916
74.1976	51.3345		-50.0727
73.1342	45.2699		-58.8228
70.0175	50.3314		-64.7474
43.9292	-91.1404		-65.0872
43.3551	-101.14		-66.3463
43.5401	-110.489		-67.2828
43.8675	-119.101		-68.3828
38.8643	-108.635		-71.8544
7.92192	103.393		-80.9153
7.66132	91.8954		-94.2758
0.413401	103.581		-81.3013
7.64021	79.4139		-103.861
7.68795	66.2812		-110.796
0.437956	79.5244		-104.169
7.71142	53.2776		-115.625
7.57618	40.1285		-118.841
0.452043	53.4601		-115.9
7.29293	26.2072		-120.688
0.467718	26.2305		-121.011
19.198	-2.27288		-116.811
25.3364	-3.20832		-114.46
6.17177	-27.3105		-109.379
6.07848	-39.3833		-101.405
0.441111	-27.4294		-109.522
6.00098	-48.0415		-95.5571
0.375804	-48.2456		-95.525
5.18947	-84.7168		-84.2903
0.324809	-84.4867		-84.4236
35.1594	74.6341		-96.6131
35.716	86.2954		-87.205
34.7149	61.9948		-103.508
36.348	96.56		-74.6819
34.1324	49.2688		-108.358
33.6174	36.1328		-111.509
32.9724	22.6741		-113.178
32.3474	8.99741		-113.176
31.5061	-4.05332		-111.496
30.4311	-16.7576		-107.985
29.2492	-29.0851		-102.526
28.331	-40.3222		-96.0932
28.0508	-49.7795		-90.2928
27.7344	-58.7051		-85.5229
26.8905	-67.9891		-82.1956
26.1161	-77.6954		-80.3103
25.4425	-87.0751		-79.796
34.349	-107.384		-75.3279
34.6715	-116.189		-75.879
58.7944	80.9138		-60.9919
66.3395	55.3997		-70.3161
65.6377	45.7152		-77.2941
64.7487	35.8055		-82.4432
63.9341	25.0971		-85.6573
63.0781	14.3349		-86.9688
62.0423	3.19684		-86.383
60.2314	-8.08263		-84.6665
58.221	-18.8977		-81.7389
56.3534	-28.8911		-77.7659
59.5787	-28.3254		-72.7557
54.8051	-38.665		-72.4599
53.3859	-47.0544		-67.5136
55.529	-58.8866		-53.8434
57.6033	-57.441		-50.4796
75.8344	21.8556		-60.2602
75.0467	14.4462		-63.3848
77.7268	18.025		-54.3035
71.9171	-8.71048		-63.8656
73.3176	-0.806832		-64.7451
62.5571	-27.1016		-68.2188
74.2271	7.11589		-64.9062
63.9317	-38.6233		-52.9505
62.0711	-45.8078		-49.782
17.0633	-99.853		43.1109
59.5593	-74.0394		3.36206
48.8688	-89.7992		4.97465
14.0777	-47.9141		94.803
17.5531	-48.3916		92.5795
20.912	-49.805		89.5677
9.45415	-56.9027		95.9159
9.8307	-57.7604		95.9924
10.1256	-58.7765		95.9712
25.4565	-63.4174		84.2244
24.9564	-61.7015		84.5809
24.44	-60.167		84.9793
18.5972	-44.3151		91.5989
39.1011	-52.9455		76.0883
29.8764	-33.6432		82.3349
31.7205	-37.8063		82.1353
33.0189	-42.1453		81.5208
60.7772	-38.2564		57.1896
20.0921	20.9181		72.8547
79.441	14.2617		-47.9665
82.3882	12.7837		-29.0668
83.039	10.7751		-26.7421
71.2624	-45.7477		-0.262398
27.3205	8.54983		71.9078
56.0727	41.3131		63.4921
8.52994	-33.4639		95.9923
49.6009	17.7285		65.7623
12.6478	-31.1786		93.1932
82.936	10.5704		-25.689
56.0275	-102.052		-43.1575
60.7033	-66.9684		-38.3214
60.0744	-60.3052		-43.4348
60.2503	-54.3922		-47.0981
22.962	-27.4597		84.4774
15.6645	-55.1919		91.7824
27.1552	-54.394		79.9079
7.58927	-52.5945		93.3565
-67.7701	-50.0152		10.4921
-68.6809	-45.2592		11.7392
-69.0933	-47.9227		3.61847
-66.7632	-54.4505		9.21734
-66.5382	-51.9212		18.5254
-54.6388	-114.994		-9.12385
-54.0239	-104.883		-8.82829
-56.8216	-113.924		-13.5192
-55.807	-125.315		-9.95859
-51.8813	-115.814		-4.854
-56.9267	-132.847		-10.9624
-54.522	-134.55		-6.36416
-58.6917	-131.16		-15.5889
-57.8827	-138.733		-11.9637
-47.4374	-98.8595		1.02978
-51.0765	-98.2312		-3.89067
-47.5583	-106.255		0.0923462
-43.6358	-99.8191		5.60679
-48.1083	-93.4221		2.14754
-57.8805	-96.9369		-16.8433
-56.2203	-97.3475		-12.5856
-58.1392	-91.7071		-16.4685
-58.9508	-95.7536		-21.8454
-57.8629	-103.723		-17.2868
-61.1282	-69.4052		20.7129
-61.9494	-67.924		13.0034
-59.2007	-72.972		18.3438
-59.6159	-71.2469		28.4884
-62.5863	-65.8401		22.7728
-74.2556	31.3416		22.4374
-77.1796	29.5957		10.8974
-73.7861	23.5339		25.2853
-70.7148	34.6195		33.2332
-74.9471	39.4236		18.1822
-78.7315	41.4387		-29.4022
-79.9096	33.9667		-24.7315
-79.3121	43.2417		-18.9358
-77.0669	48.5334		-34.4149
-77.9927	38.3654		-38.956
-5.97253	-106.754		39.7766
-6.06187	-102.518		42.2079
-8.71696	-106.628		38.5305
-6.30434	-114.705		38.0535
-3.76847	-106.78		40.6092
-7.73509	-127.19		34.2394
-9.08352	-139.449		30.2501
-4.73799	-127.332		35.4492
-11.0139	-126.306		32.6227
-2.86309	-148.299		29.4558
-3.33196	-153.783		27.9489
-2.44782	-140.057		31.9522
-6.3575	-147.976		28.876
-65.1329	-54.5944		-33.6549
-66.2107	-47.0422		-37.6941
-62.4344	-60.4302		-36.0186
-64.3709	-60.8953		-28.6004
-67.7825	-48.7189		-31.3539
-67.2882	-41.6188		-40.6388
-70.4703	-37.1397		-37.51
-68.3311	-36.8829		-43.0093
-63.5875	-47.2201		-43.9847
-59.8218	-124.471		-31.6595
-60.2479	-127.491		-25.3324
-58.4343	-121.719		-38.3165
-60.0178	-131.065		-33.7372
-1.93321	-127.641		36.1059
-1.42799	-115.093		39.8286
-65.275	-53.6972		27.0788
-64.3939	-58.5399		26.2091
-63.8223	-54.7729		34.6979
-66.2389	-48.153		27.2969
-62.7903	-66.201		5.32786
-64.3345	-62.3899		6.68762
-63.4698	-65.177		-2.5615
-61.0706	-69.8163		3.60212
-10.3654	-88.8914		94.1426
-10.2197	-85.2036		94.9836
-14.4911	-88.4318		91.3329
-10.4649	-92.5685		92.0173
-6.52157	-89.5067		95.8203
-19.0664	-87.5406		87.3668
-19.2445	-83.6526		88.2076
-23.6185	-86.6867		82.3691
-18.7886	-91.4247		85.3444
-3.08254	-81.7771		97.2878
-2.94751	-86.2118		97.5483
-3.11527	-77.2019		96.1733
-6.49387	-81.4295		96.3603
-10.2796	-95.7002		88.7241
-6.5235	-96.1849		90.3717
-14.2737	-95.2214		85.944
-10.0773	-98.1623		83.6561
-10.0339	-99.5198		77.1195
-9.63444	-99.7414		70.0532
-5.92376	-100.072		78.345
-16.6939	-1.125		81.6139
-13.8387	1.45794		83.4423
-16.034	2.71479		79.1824
-19.7093	-2.98187		79.7867
-17.4946	-5.13866		83.9534
-50.0688	-29.4551		73.4196
-50.6098	-34.2702		72.5771
-44.4431	-28.0967		77.2636
-49.7368	-24.4424		73.5964
-55.6863	-29.9407		67.9537
-61.0627	-19.1393		61.8965
-61.0594	-24.687		61.4737
-55.4358	-19.4679		68.3844
-60.6257	-13.5853		62.1971
-65.8616	-18.6582		53.721
-70.896	-0.0347561		40.5106
-69.1808	1.83984		45.0593
-70.398	8.13739		39.844
-72.0836	-0.899878		35.4874
-50.6723	-39.0437		71.2627
-45.391	-37.8539		76.0991
-55.5561	-40.0137		65.0915
-50.182	-44.1245		70.0952
-0.896595	1.42181		100.327
-2.81366	0.952322		99.6279
-0.893603	-3.29156		104.388
-0.978088	6.54621		95.9107
-32.3017	72.0967		69.813
-33.2763	77.456		65.3262
-38.2912	70.3585		66.6491
-30.9514	65.7497		74.6103
-26.6313	73.1003		72.164
-1.54157	-100.363		64.2087
-2.02635	-100.646		72.0869
-4.80876	-100.093		63.412
-1.0311	-99.8774		56.0957
-61.9706	-54.9847		41.8451
-63.3456	-48.7155		42.2212
-60.4382	-61.1288		41.567
-59.5928	-54.5106		48.9677
-2.70093	-96.7886		91.0611
-2.53591	-99.2267		85.5955
-2.75967	-93.8262		94.4827
-2.32477	-100.431		78.9926
-37.1266	-88.6794		58.9237
-37.813	-85.6869		62.3531
-42.1153	-85.835		53.9609
-35.9572	-90.7229		56.063
-32.2562	-90.6638		64.7693
-39.4873	-90.3667		33.3584
-35.0012	-92.4975		38.3882
-42.8003	-88.2233		38.2004
-43.7517	-87.89		28.1536
-36.2306	-92.6828		28.1502
-1.03886	-100.119		48.4385
-1.64247	-102.362		43.4706
-3.52674	-100.156		47.6163
-6.22723	-8.8546		105.629
-3.51716	-8.13426		107.492
-5.71388	-4.63798		101.906
-9.35199	-9.99629		102.506
-6.74923	-12.1818		108.578
-27.8044	-22.8503		83.1943
-24.1531	-19.7353		84.8102
-26.084	-17.797		83.0279
-31.8979	-25.0019		81.9277
-32.6782	-56.5246		77.3681
-30.7492	-56.7337		77.7912
-31.4379	-55.7323		77.7556
-13.8271	-29.4275		95.2575
-15.9007	-29.351		93.2337
-13.2416	-30.5174		94.7966
-15.2911	-27.843		95.2895
-13.6572	-33.6434		92.9545
-11.4999	-33.6245		94.7223
-13.5044	-32.7463		93.212
-16.2278	-33.4242		90.9461
-14.1577	-34.9211		92.6795
-1.7877	-32.7284		103.064
-3.76285	-32.3667		102.233
-2.06293	-33.8984		101.539
-1.66086	-31.4118		105.152
-18.9309	-32.4697		89.0293
-19.4725	-33.8596		88.8092
-18.468	-31.4793		89.4942
-21.3088	-30.6994		87.4372
-7.23701	-20.9876		111.742
-7.32593	-19.3074		112.165
-10.4085	-20.7524		107.465
-7.03971	-23.0569		110.617
-4.22318	-21.5217		114.381
-26.6534	-69.3564		81.3777
-27.3885	-72.9771		80.6177
-22.8183	-70.6606		84.8789
-25.8014	-66.3126		82.1618
-29.9849	-67.5062		78.5049
-31.4777	-50.5004		81.0645
-33.3342	-51.2287		79.7146
-29.2843	-49.7021		82.9456
-30.7965	-46.6714		83.0224
-2.71843	-37.8529		98.9313
-2.47256	-36.2964		99.6388
-4.72271	-37.308		98.6113
-2.92251	-39.3435		98.5063
-5.33972	-0.0777556		98.0771
-5.4224	4.42131		93.9664
-8.44745	-1.86651		95.5177
-20.0087	-20.958		91.205
-20.4528	-20.4043		89.8557
-20.3419	-22.422		90.3861
-19.1694	-20.339		93.3112
-18.9109	-19.3444		93.3416
-5.97399	-33.8181		99.1525
-4.2799	-34.4048		99.9729
-5.86198	-32.8248		99.8647
-7.64031	-33.6889		97.9086
-5.92067	-35.3639		98.5759
-5.51271	-31.9323		101.076
-5.28513	-30.8109		102.831
-18.087	-19.4579		95.3518
-18.7163	-21.0961		94.4342
-17.7304	-18.57		95.5934
-20.3408	-25.138		89.6378
-19.6691	-27.827		89.5024
-19.496	-23.9177		91.8433
-3.35768	-43.8102		98.336
-3.2688	-42.0257		98.2179
-5.97626	-43.3415		98.0822
-3.66892	-45.4921		98.5477
-25.8898	-35.1833		85.4969
-24.2683	-31.5856		85.7298
-28.3577	-35.0509		84.3801
-27.776	-38.7087		85.1411
-23.3456	-35.5236		86.9019
-10.6437	-67.2209		92.8953
-14.7486	-67.0378		91.0216
-10.8613	-69.2914		92.6319
-6.50844	-67.3345		94.1487
-10.3359	-65.555		93.4143
-26.7983	-52.2348		83.5586
-26.5368	-50.6317		84.896
-29.3627	-53.5747		80.082
-27.252	-52.9186		82.6266
-17.4607	-17.9193		95.4537
-15.6634	-16.9036		98.1686
-17.6421	-17.1433		94.0169
-18.4916	-66.6932		88.6269
-18.154	-65.0083		89.2173
-21.7706	-65.6079		86.0207
-18.6933	-68.6682		88.2775
-2.91491	-67.2925		94.7255
-2.87707	-65.9082		95.0858
-2.96251	-69.3368		94.5932
-63.479	27.9954		55.4104
-64.2216	29.3294		53.4194
-65.232	21.9263		50.9401
-62.5425	26.9353		57.2537
-43.1515	56.4014		69.7998
-43.9154	62.4013		66.1185
-49.6708	53.3655		64.613
-42.5634	50.8964		72.8612
-37.0963	58.4581		74.3728
-56.1697	49.679		58.5391
-56.9965	55.4215		54.4014
-61.9057	45.2473		51.3983
-55.5571	44.6905		62.1928
-43.0609	42.4524		75.0497
-42.6277	45.2413		74.7828
-43.6529	39.3815		74.8634
-37.6618	44.2805		79.4827
-65.3672	30.7879		50.0376
-67.8973	24.0775		44.0258
-60.9473	36.9533		58.0181
-66.0858	34.0086		46.8485
-24.6413	32.7991		79.5696
-20.9594	31.5695		79.8991
-23.9722	34.4402		80.543
-28.9655	33.4622		78.8122
-25.5445	30.8147		78.1824
-5.97683	14.3258		85.6655
-5.94864	11.9399		87.1711
-3.19001	16.0852		87.2322
-6.09402	16.2489		84.5895
-8.64422	11.8877		83.3762
-31.9171	-7.75675		76.6074
-25.8184	-6.24858		78.0402
-30.0626	-4.09174		75.7075
-39.5602	-8.46731		74.7415
-33.7753	-12.0206		77.7709
-62.5795	5.5526		55.0293
-60.2631	2.21742		58.6911
-60.3802	7.17104		57.1005
-63.3748	9.86819		53.2821
-64.5462	4.12156		52.9186
-5.64073	8.59087		90.1025
-3.01842	10.2805		91.4031
-8.39942	6.25695		88.1833
-44.2585	36.9432		74.5237
-44.2501	34.8268		74.274
-38.5289	38.6404		78.4335
-49.9721	35.8564		71.0427
-55.105	34.1031		67.1556
-59.0111	30.368		63.0218
-54.5228	32.0693		67.6858
-59.6981	14.9279		57.6773
-61.3298	14.8919		55.8952
-59.4337	11.4972		57.5268
-57.9341	14.965		59.359
-59.4585	18.9825		59.1353
-47.8092	20.1278		68.6578
-45.9148	21.2447		70.1773
-49.5321	18.6578		66.8988
-43.7646	22.1705		71.3949
-41.1458	22.797		72.3038
-43.8093	23.1319		71.7807
-46.2367	22.1743		70.4735
-40.9038	23.7923		72.7014
-38.1536	23.1948		72.8185
-35.1144	22.9965		72.9729
-37.7739	24.0834		73.1736
-34.4944	23.7963		73.2682
-32.177	22.2441		72.8776
-29.4524	20.9659		72.6009
-26.6172	19.2317		72.0259
-24.0365	17.4003		71.3155
-25.1864	19.9035		72.2282
-28.196	21.5728		72.8113
-22.5482	17.9986		71.5893
-22.3355	15.7854		70.7378
-23.638	20.4078		72.5436
-26.9378	22.3498		73.1934
-37.3987	25.0786		73.5848
-33.8287	24.7364		73.7019
-53.4937	13.7156		62.5784
-52.419	12.7747		63.3728
-33.774	33.4864		77.9042
-34.2446	31.4688		76.7703
-33.4644	35.5869		78.8796
-38.9649	32.9725		76.3853
-51.7161	25.6742		68.5835
-50.3881	23.791		68.8932
-48.411	27.0762		70.9913
-52.8733	27.8984		68.3352
-41.6459	5.08783		71.3732
-34.139	4.85218		73.1539
-47.6583	6.13229		68.3981
-42.026	3.52714		71.3675
-27.9022	5.76433		73.2741
-27.6784	4.15228		73.6059
-23.6888	7.02538		72.8616
-19.4481	10.6024		72.0822
-20.3646	9.38927		72.3566
-18.9321	11.5505		71.888
-40.9461	8.07661		71.3774
-34.6149	7.90447		72.8174
-46.4086	9.25512		68.7692
-23.2499	10.5374		71.2452
-22.2852	11.1214		70.9209
-25.1722	9.65722		71.832
-21.5029	11.6062		70.8064
-20.7898	12.2484		70.8008
-14.9815	20.1958		75.5408
-13.9433	22.4654		77.3076
-17.0127	22.4307		75.5645
-16.3729	17.8249		73.5993
-18.5229	13.0701		71.8069
-30.2558	23.7973		73.558
-17.4653	16.9011		72.6327
-18.9603	18.8068		72.7251
-16.8676	15.2172		72.6939
-40.8802	9.4005		71.3468
-34.6199	9.1694		72.7093
-23.5411	11.4372		70.664
-25.348	10.9051		71.2741
-22.5814	11.7196		70.4667
-22.0306	12.1057		70.2992
-50.8015	17.1998		65.1875
-3.06352	30.7053		84.8214
-3.72981	34.0226		85.0348
-5.94807	30.3326		84.1919
-2.20593	27.7432		84.8299
-20.2262	1.76159		76.0726
-23.4991	0.318162		75.4721
-21.0664	-0.839347		77.2313
-17.9609	3.33573		76.6958
-19.903	3.72073		75.1744
-15.6419	5.20405		77.6989
-13.3944	7.40706		79.0347
-16.116	10.2516		74.3455
-16.4616	11.9094		73.4499
-14.1265	11.227		75.8782
-10.3977	19.4056		79.1008
-9.60059	20.5404		80.1624
-11.5138	21.6276		78.7216
-21.4236	8.24977		72.6243
-20.5304	7.0146		73.4255
-19.9607	5.4641		74.2864
-22.8179	3.91519		74.0969
-22.7924	-54.8086		82.8035
-19.1275	-54.2126		86.1852
-26.0624	-55.1257		79.6478
-22.7034	-54.7315		82.5148
-27.8093	-55.321		78.3023
-27.5008	-55.2201		78.3115
-3.96397	-48.818		98.5033
-3.91491	-50.0473		98.1553
-3.90021	-47.5602		98.6694
-6.85851	-48.5683		98.047
-9.51358	-50.898		96.2684
-12.4763	-50.7111		95.1407
-9.37932	-51.72		95.6049
-6.87035	-50.8807		97.1156
-9.52879	-49.8006		96.8759
-15.5295	-50.8097		93.3895
-18.7411	-51.5509		90.8209
-15.4931	-51.8898		92.4119
-15.5294	-49.8212		94.0312
-9.42144	-48.5336		97.3486
-9.31745	-47.2511		97.6371
-12.26	-48.6103		96.222
-14.1776	-46.8353		95.4864
-15.0354	-47.7953		94.9685
-11.1537	-46.5397		96.9984
-13.6514	-45.7767		95.7103
-22.3413	-52.9966		86.6741
-22.1119	-51.8424		88.232
-8.89677	-52.4676		94.7757
-12.2986	-52.4825		93.276
-8.51565	-52.8681		93.9945
-5.99188	-52.4662		95.6844
-15.8062	-52.8998		90.9172
-15.7452	-53.4427		89.8396
-28.6977	-54.2049		79.878
-29.8601	-55.4857		78.1307
-23.0004	-55.7648		83.3857
-23.021	-55.9372		83.7068
-19.2137	-55.4621		87.1783
-22.9736	-55.7058		83.1169
-23.4037	-57.0783		84.2533
-19.8768	-57.3102		88.3477
-23.2599	-56.6525		84.1568
-16.6697	-57.5126		91.3155
-17.0538	-58.2892		91.2152
-13.1847	-57.5236		93.7864
-16.4866	-56.808		91.1488
-8.69175	-55.7483		95.2049
-5.47793	-55.746		96.1003
-8.54281	-54.9174		94.7059
-12.5828	-55.7934		93.3838
-8.90702	-56.6252		95.5473
-2.97904	-57.961		97.1605
-2.88986	-56.8987		96.9128
-5.71667	-57.6959		96.7496
-3.04921	-59.0316		97.264
-27.9729	-56.7472		77.5455
-27.9152	-56.1731		78.1708
-26.1348	-56.7108		79.2101
-27.7313	-58.1		76.939
-2.59408	-54.9417		92.1138
-2.62181	-54.2953		93.4078
-2.49323	-56.0953		90.9718
-5.09466	-55.0716		91.6726
-3.07274	-60.1408		97.23
-5.90947	-59.7547		96.8462
-3.09678	-61.1815		97.0567
-2.92396	-64.5132		95.664
-3.02017	-63.2037		96.2967
-6.04301	-64.1124		95.3225
-8.99664	-46.413		97.7549
-6.62256	-46.2372		98.3087
-8.26347	-45.1121		97.8621
-2.84976	-55.8214		96.4943
-2.74001	-54.9143		95.9763
-2.65186	-54.4575		95.5566
-2.70973	-54.2275		95.1158
-5.26001	-54.4761		95.2163
-8.46194	-54.5016		94.2919
-8.39499	-54.3127		93.8993
-12.1835	-54.6212		92.5983
-2.74573	-54.131		94.4256
-5.18284	-54.1939		94.0591
-15.7528	-54.9703		90.1663
-15.9356	-55.3021		90.4817
-15.6948	-54.8338		89.77
-17.5988	-61.052		90.7463
-17.791	-62.093		90.3275
-14.2046	-61.2677		93.0736
-17.4524	-60.1147		90.9904
-9.86882	-61.2788		95.2482
-10.0402	-62.3796		94.7585
-5.96705	-61.6618		96.4425
-9.66133	-60.3589		95.5737
-3.06534	-62.1617		96.7521
-15.6237	-53.6031		89.0803
-15.4884	-53.5119		88.4448
-12.0187	-53.1295		91.4855
-27.9314	-55.9223		78.8333
-26.2426	-56.1531		80.4317
-8.25717	-55.208		90.8142
-8.2151	-54.506		92.0909
-8.35844	-56.3365		89.7151
-11.8631	-55.364		89.3923
-8.26881	-54.2659		93.1804
-11.9348	-54.4383		91.5382
-10.1091	-63.8254		94.1341
-14.4314	-63.746		92.0912
-17.2279	-59.1673		91.1839
-13.8353	-59.3749		93.5936
-17.9538	-63.4835		89.7931
-21.0445	-62.5294		87.224
-15.196	-53.1665		88.0561
-18.4064	-53.7332		85.7509
-14.6618	-52.0165		87.3978
-11.9156	-52.5988		89.7871
-8.5122	-52.39		91.1188
-8.31195	-52.8495		92.1775
-9.08759	-51.2406		89.6748
-5.77528	-52.2088		91.6451
-14.0697	-49.4877		86.4064
-16.717	-49.8786		84.9366
-13.8469	-46.1839		85.4509
-11.5319	-49.1366		87.5068
-27.0531	-61.1758		76.529
-25.1833	-61.0357		78.3817
-25.7456	-64.5861		76.9736
-2.24008	-58.354		89.8619
-2.29468	-61.7198		89.0956
-4.76409	-58.4254		89.5028
-9.05262	-48.8951		88.2827
-8.74636	-45.6656		87.2103
-6.46945	-48.6959		88.8102
-8.02389	-58.5956		88.6566
-7.88495	-62.1158		87.6901
-11.6424	-58.9201		87.2635
-30.2894	-56.5566		72.1965
-30.2872	-56.7466		71.9715
-11.7144	12.7905		78.1184
-11.1799	11.3456		79.6163
-79.8902	-9.68798		-44.1608
-81.3588	-10.2206		-42.4604
-80.6302	-5.05603		-44.1313
-78.0728	-9.01987		-47.4578
-79.0526	-14.1319		-43.4444
-80.3379	8.57989		-7.46707
-79.4745	10.7051		-2.66883
-80.7555	11.5705		-11.5892
-80.8454	13.7906		-16.691
-81.3271	13.4094		-23.5967
-81.1261	8.69215		-17.7794
-80.6735	19.3701		-17.8981
-73.1334	-34.2349		-35.1913
-74.4544	-30.3069		-36.955
-71.9469	-38.4546		-32.687
-75.612	-32.0071		-33.5512
-75.5949	-26.6018		-38.9672
-77.8699	-25.4471		-37.1123
-76.8583	-22.5878		-40.7362
-72.9716	-28.5329		-41.8028
-82.8418	-10.1825		-41.5616
-83.339	-5.14966		-41.7308
-82.1345	-14.381		-40.6845
-84.3909	-9.6694		-41.1845
-82.4167	-26.765		-33.955
-83.3933	-27.9096		-32.8612
-81.1719	-25.1423		-35.3601
-84.143	-28.7278		-31.8366
-85.4149	-24.6298		-33.8497
-82.7758	-32.7893		-29.3884
-84.8407	-29.1834		-30.6279
-88.9862	-18.8758		-31.8625
-90.4694	-14.2765		-34.9079
-88.986	-18.3234		-31.0997
-77.0766	-41.5342		-21.391
-77.5698	-39.8021		-24.3801
-76.2957	-40.5994		-23.4661
-76.5746	-42.241		-19.4161
-77.5177	-41.7846		-20.6934
-78.9693	-34.5327		-9.24311
-78.6294	-35.0962		-9.22354
-77.9418	-36.2953		-9.50148
-88.9377	-17.9545		-30.6975
-88.3988	-18.5711		-29.767
-92.2942	-3.14874		-34.4052
-92.3805	-2.48005		-35.9058
-92.1406	-4.49435		-32.7737
-92.8541	7.15846		-31.952
-93.1632	8.53339		-32.0555
-93.3511	10.6396		-31.0364
-93.0863	12.7043		-27.9858
-93.5417	11.1154		-31.4267
-92.7926	10.4268		-28.8488
-82.3867	-11.2681		-9.33218
-83.9467	-5.68382		-9.86958
-81.2199	-15.4085		-8.79134
-81.9006	-10.5389		-8.02789
-76.2013	-27.7726		-2.53438
-76.9568	-23.4097		-2.01537
-75.5048	-31.5734		-3.01563
-75.1733	-28.2849		0.163373
-80.4746	-22.5761		-11.3417
-80.5617	-20.5677		-11.4618
-80.7319	-24.6256		-11.8648
-81.1083	8.17607		-17.7571
-81.1454	8.17381		-17.5544
-81.4816	9.51701		-21.1742
-89.56	15.9192		-18.2235
-90.5117	17.6432		-21.2791
-90.3194	15.1928		-17.2453
-88.0632	12.7395		-15.3393
-88.7022	16.3422		-19.3819
-89.9954	18.3597		-26.2296
-89.2604	18.0956		-23.3005
-89.1348	17.2958		-27.6065
-90.3904	17.1039		-29.8329
-90.2842	18.4961		-25.7277
-90.2764	2.92377		-40.3654
-91.35	3.1678		-39.8274
-90.7749	8.94794		-37.5209
-89.465	2.44271		-40.5536
-85.1113	-0.964915		-10.4183
-85.3351	-2.23149		-11.0714
-93.094	2.25776		-37.3381
-93.6938	7.42749		-35.1095
-93.1421	2.16532		-37.6978
-92.7003	-0.576508		-37.5313
-92.6254	13.568		-24.0743
-91.7181	12.9706		-20.1493
-92.7566	14.5691		-23.4677
-92.3661	12.1994		-24.7964
-86.5984	-0.136057		-13.149
-87.2534	2.24516		-13.8425
-85.9702	-1.94604		-12.5929
-92.666	2.91764		-34.6672
-92.6975	0.859581		-36.5061
-84.395	-7.02701		-14.4078
-84.9871	-5.39437		-13.3118
-84.5654	-6.73542		-15.1033
-89.1881	-5.94684		-28.149
-91.2925	-3.24416		-30.0092
-89.0327	-7.05516		-28.3085
-88.942	-5.50674		-27.5342
-77.7036	-19.3804		-2.01244
-76.8226	-19.656		0.484583
-78.72	-14.7137		-2.7954
-83.7198	0.12669		-40.2609
-84.7757	2.65938		-39.3118
-83.7231	4.81618		-38.1592
-82.5548	-0.439517		-41.4005
-87.2856	7.67789		-36.6207
-87.2973	3.5912		-39.5004
-89.7631	12.3832		-34.7059
-87.1799	11.4652		-33.4336
-88.3857	1.44682		-40.5375
-87.0789	-4.12663		-41.3421
-86.5251	-9.18745		-40.9989
-79.6598	-24.8215		-36.2484
-80.617	-21.5427		-37.8884
-78.5528	-27.992		-34.4741
-81.4112	-18.1099		-39.4346
-79.7315	-18.3313		-40.4655
-87.8171	-18.5347		-28.7655
-77.4284	-30.9584		-32.8108
-76.1613	-34.6384		-30.537
-76.324	-41.9778		-16.6375
-75.8088	-42.2354		-16.493
-75.2288	-42.4382		-16.1924
-75.1883	-42.0273		-21.5426
-89.2199	-7.8009		-28.7808
-91.2117	-6.36629		-30.9247
-81.3279	-9.94677		-6.93683
-80.6095	-9.56954		-5.71589
-78.2999	-23.7897		-5.50543
-78.6288	-23.9449		-6.16372
-81.1588	-28.1671		-11.6
-81.3888	-27.0259		-12.4425
-82.1057	-30.1678		-13.1183
-80.4593	-18.4758		-8.32568
-80.9141	-18.568		-10.4896
-86.9557	13.2798		-30.2779
-86.0604	13.8793		-26.9848
-84.4589	9.55463		-33.0705
-83.4748	7.99453		-34.882
-82.9197	10.1185		-30.6657
-83.0349	7.70148		-35.9759
-91.9912	4.05721		-29.6736
-91.7736	2.5267		-29.3416
-85.025	-5.99855		-16.5162
-86.0755	-4.71054		-19.1249
-88.9388	-4.66178		-27.0362
-88.373	-4.62655		-25.6784
-90.8172	-0.988989		-28.1843
-6.94445	87.6938		65.052
-7.47165	94.608		57.6819
-15.1051	86.8861		64.6231
-6.55087	80.9061		70.8684
-5.81785	74.1866		75.554
-13.8397	74.0355		74.8818
-5.08739	66.9531		79.4718
-30.8683	59.7004		77.7082
-25.0142	59.9139		79.9188
-30.9784	54.0509		80.32
-1.3763	-29.9571		107.747
-3.63063	-29.8071		106.275
-1.42556	-28.2284		110.247
-1.39633	-18.257		116.052
-1.39265	-20.0239		116.182
-1.45705	-16.2703		115.328
-4.24876	-18.1269		114.736
-1.42646	-21.8552		115.738
-1.46202	-23.7995		114.673
-2.30426	-35.0255		100.472
-3.11126	-40.8576		98.2568
-5.40177	-40.1841		98.0608
-1.46557	-25.9581		112.808
-4.00477	-25.8751		111.186
-1.38432	-14.145		114.051
-1.32442	-11.3384		111.749
-4.14049	-14.3058		112.844
-5.53851	46.9582		85.4101
-5.41456	51.8056		84.7214
-12.2251	47.8078		84.6678
-5.59939	43.0202		85.5241
-1.02523	16.8764		87.8417
-1.00338	18.9237		86.804
-1.0906	14.4698		89.3466
-1.03655	20.8689		86.0368
-1.25545	22.9183		85.4516
-3.2469	20.0259		85.5083
-3.10459	-52.0178		91.8276
-2.76968	-52.7852		93.3423
-3.47783	-50.8012		90.5326
-2.76786	-52.9927		94.4576
-2.88133	-52.8886		95.2975
-5.19852	-52.9969		94.0827
-3.87667	-51.0192		97.664
-3.66868	-51.8423		97.0143
-3.25188	-52.4428		96.2745
-3.88218	-46.6102		98.6555
-3.58955	-48.5148		89.1091
-3.42048	-45.3415		87.8563
-21.8758	85.8353		63.7354
-22.6031	92.1288		56.7487
-28.1544	84.3294		62.4135
-21.3193	79.8296		69.1603
-18.367	49.393		83.9145
-18.4869	52.9571		83.4624
-24.5926	50.5595		82.8558
-18.905	44.9336		83.8493
-20.3913	41.4615		83.2175
-22.3464	38.1625		82.1922
-26.0805	42.5798		82.279
-23.3572	36.1543		81.3864
-27.9861	37.1436		80.6089
-18.9789	34.6972		81.9249
-29.1516	24.6935		74.0928
-33.1323	25.7253		74.1824
-25.429	23.2094		73.7647
-28.1994	26.1957		74.9803
-31.2463	22.9551		73.1563
-26.8411	28.0971		76.3244
-23.1065	26.822		76.3367
-31.0363	28.9645		76.0198
-47.5106	87.6693		40.0236
-47.1315	82.389		47.3827
-41.5616	91.3207		42.7726
-48.4219	92.6423		29.9539
-33.9238	82.6846		60.3306
-40.0184	80.4452		57.3273
-34.762	88.1804		53.8664
-30.8385	50.9943		81.2192
-36.5919	49.6788		79.4148
-31.0407	46.9742		81.5704
-33.2439	37.7925		79.7662
-32.5325	40.3355		80.5703
-31.5506	43.7426		81.3102
-35.0288	29.2055		75.6423
-39.8124	28.6145		74.5569
-36.2795	27.4024		74.6235
-46.473	77.5981		53.1209
-45.7069	72.8357		57.926
-52.8666	74.4076		47.72
-42.5012	47.6027		74.1721
-48.4914	45.124		69.6417
-44.2964	24.9963		72.3153
-47.2921	23.9482		70.7354
-40.7533	25.7596		73.4501
-44.2808	26.3125		72.6747
-44.427	32.5106		73.8873
-49.6846	31.8218		71.1257
-44.3061	30.1877		73.4703
-44.3238	28.0008		73.0528
-44.7655	67.8392		62.2098
-51.4523	64.5738		56.762
-58.6459	71.5727		40.8671
-63.4992	69.0113		32.792
-58.1926	66.4521		45.8739
-48.2456	20.9337		68.8741
-49.981	19.324		67.0332
-49.7369	22.5265		68.8234
-51.4008	20.7028		66.9522
-48.7967	21.6926		68.9793
-53.8143	30.1284		68.0639
-56.8513	26.8613		64.72
-17.8831	29.5123		79.659
-16.8549	31.0634		80.9175
-18.818	27.5657		78.1001
-15.4579	27.03		79.1347
-15.4237	32.5729		82.0551
-13.2575	30.0347		81.7327
-19.8023	24.8399		75.9732
-21.0449	22.8549		74.3634
-5.12924	38.8259		85.3233
-63.7853	-65.7384		-10.1803
-63.9973	-65.9124		-16.551
-65.5035	-60.86		-8.34913
-79.7312	22.3617		-37.9103
-80.8856	16.5569		-32.8642
-80.28	24.6414		-29.8547
-78.615	28.0729		-42.5504
-79.3208	18.465		-43.5524
-75.6575	-8.63167		-53.2272
-76.7214	-2.77425		-53.2205
-73.4172	-8.72418		-58.7486
-74.5692	-14.6704		-51.7742
-77.4452	3.46447		-52.8108
-79.4934	1.31128		-46.673
-78.1349	9.00683		-50.9406
-75.4483	5.29125		-59.1802
-69.4733	-32.0906		-45.8628
-71.2997	-26.3052		-48.2082
-66.2992	-35.3748		-49.6957
-5.41594	59.0081		82.6918
-12.1773	59.2815		82.2096
-18.7879	59.6948		81.2306
-19.9312	67.1534		77.7569
-18.3235	-97.8199		55.9231
-12.6928	-98.9125		60.0242
-24.595	-96.1005		49.743
-16.0236	-98.4137		48.352
-45.2431	-86.2357		42.2116
-46.4295	-84.4142		45.8804
-49.6522	-82.9555		37.0165
-39.7713	-89.6131		47.2748
-57.7388	60.9425		50.1576
-63.0969	57.2231		42.7035
-20.6011	73.7646		73.7129
-68.0962	66.4188		23.2394
-68.1672	59.9534		28.8173
-71.743	64.1758		13.3474
-23.0629	99.3583		46.9359
-15.9379	100.98		47.5281
-23.2741	106.249		35.1131
-29.5288	97.0887		46.2094
-66.8903	39.4243		42.61
-67.3935	46.4482		38.4252
-52.7175	18.7136		64.9662
-61.5761	25.793		58.6873
-60.2584	24.5196		60.1766
-62.5709	20.4004		55.5695
-58.8005	23.2528		61.4827
-1.57898	-106.906		41.1509
-56.6933	-73.8082		37.177
-55.2654	-77.0802		33.6782
-52.0649	-77.731		44.4634
-57.7599	-70.462		39.6578
-7.78997	-43.3587		97.7377
-7.38546	-41.5737		97.6582
-9.67208	-43.608		97.1923
-25.9722	-48.4097		85.9884
-22.9602	-46.736		89.1907
-25.1643	-44.6676		87.328
-11.2031	-40.2256		95.923
-10.5091	-38.5454		95.961
-14.1266	-40.3548		94.2424
-11.8699	-41.9527		95.9141
-8.67607	-40.17		97.1105
-34.8965	-51.7477		78.7699
-34.7745	-48.2494		80.2585
-36.6819	-52.9448		77.3689
-34.4887	-54.9382		77.4377
-66.6002	15.2328		47.8571
-67.9974	15.8194		44.7074
-67.1547	8.76529		47.5564
-64.9777	14.983		50.8327
-69.4492	16.6008		40.7639
-71.2607	16.5436		35.183
-56.1324	15.0431		60.8954
-56.2482	12.96		60.3843
-63.336	14.7205		53.3346
-81.8231	8.4467		-37.9474
-82.0149	10.9607		-34.016
-80.3947	10.5452		-41.925
-81.5859	4.68315		-41.1279
-77.9059	-18.5411		-42.3851
-75.8284	-19.0172		-45.5004
-68.4668	-53.0094		-18.5548
-69.2185	-49.5377		-24.3111
-66.2909	-58.3894		-21.0833
-67.7679	-55.1687		-12.4447
-70.3908	-48.8465		-16.2202
-81.1892	-0.0095867		-43.1416
-74.0631	-29.2218		3.27682
-72.8137	-30.1596		7.58882
-74.9686	-24.7545		3.62328
-73.1684	-33.4566		2.71244
-73.5435	-1.82966		27.849
-75.0084	-3.1837		19.1037
-72.8059	-9.9272		28.9349
-73.8342	6.68196		26.7445
-58.7744	8.46094		58.4038
-56.9927	6.25688		60.6376
-57.2831	9.88724		59.5456
-56.0525	11.1074		60.5043
-54.6414	9.74787		61.9198
-71.4335	-30.6927		13.8354
-72.6	-25.3394		13.8625
-70.4727	-35.6292		13.2142
-70.2599	-31.0233		20.6032
-24.9344	-13.5983		82.1664
-21.7995	-11.6354		83.7317
-23.8105	-9.09369		80.6558
-28.9387	-15.1641		80.7141
-35.385	-16.8949		78.8308
-36.6601	-21.7061		79.6866
-42.7406	-18.0594		76.3932
-18.3283	-9.48606		86.2206
-18.6136	-12.907		88.3642
-14.8098	-6.71303		89.3045
-21.7529	-19.235		87.4154
-20.218	-17.3527		88.7245
-17.1508	-21.9353		97.0794
-18.154	-22.4762		95.215
-17.0057	-23.7932		96.3942
-15.6299	-21.3103		99.5437
-18.8537	-23.1153		93.5546
-18.5325	-25.3467		92.9013
-39.7858	-36.3907		79.4519
-39.0227	-31.6284		80.0001
-40.4767	-41.4358		78.5909
-34.9732	-35.6789		81.7649
-37.6816	-26.4901		80.0562
-6.22798	-36.9759		98.102
-7.86727	-36.7757		97.2787
-6.61934	-38.6195		97.811
-56.5894	-53.3007		56.247
-54.7709	-59.4516		55.837
-53.0015	-51.5465		63.1738
-58.1922	-47.0532		56.9351
-29.5747	-42.5508		84.2674
-31.9704	-43.2854		82.9712
-26.9902	-41.8294		85.9096
-40.5171	-46.2732		77.3877
-36.9419	-45.1195		79.9261
-44.6742	-47.8178		73.9383
-40.0071	-50.9045		76.2719
-7.04041	-40.0147		97.6845
-52.7126	-65.5687		55.5564
-49.6882	-70.7265		57.0181
-49.4907	-62.4065		62.4796
-55.5879	-67.1963		48.5907
-60.976	-30.0231		60.2465
-64.8103	-30.3936		51.889
-60.5132	-35.4847		58.9801
-27.4042	-92.082		71.4703
-22.4212	-93.1927		77.9637
-28.0833	-89.2834		74.0513
-38.0309	-81.866		65.7165
-33.3618	-83.985		70.5885
-37.1165	-77.553		69.5308
-42.1622	-78.8661		62.2855
-59.7714	-8.14497		62.2426
-53.9982	-8.76362		67.6343
-58.0156	-3.22722		62.7373
-52.0053	8.04422		64.6709
-52.8178	6.1832		64.4468
-56.5388	-0.0226584		63.1481
-54.9127	2.37601		63.8248
-51.2615	-1.29623		67.6957
-50.1587	11.1871		65.5772
-2.758	-90.2628		96.639
-46.0588	-59.4969		68.0615
-42.5076	-56.8604		72.3604
-47.569	-54.848		68.4614
-44.0514	-63.5712		68.3433
-35.9538	-73.2921		72.3978
-32.2356	-75.498		75.5121
-34.1452	-69.0795		75.0123
-38.9857	-70.4753		70.4596
-47.6323	-8.76613		71.5529
-46.1478	-4.76855		71.2865
-48.8276	-13.673		72.2384
-49.0862	-49.6573		69.0143
-49.3937	-19.0648		73.0145
-10.3445	-81.0179		94.6931
-14.675	-80.2872		92.001
-10.6012	-76.4747		93.6751
-19.2473	-79.5184		88.383
-19.1614	-75.3094		88.1571
-23.6496	-78.4906		84.1483
-44.7809	-2.03851		71.1826
-36.6377	-2.14052		73.6842
-43.6115	0.0655762		71.2516
-53.7881	4.3347		64.1599
-49.1882	2.73768		68.0485
-42.7874	1.911		71.2669
-34.7346	1.61841		73.3635
-11.4993	-4.17412		92.6584
-11.3203	-0.0711056		89.0843
-12.0186	-8.16008		95.7081
-13.0594	-15.7578		102.259
-13.3664	-16.8918		102.661
-10.1651	-14.8938		106.642
-12.8594	-14.2078		100.938
-11.074	9.57641		80.9575
-11.0995	7.18368		82.8391
-22.3808	-4.79222		78.93
-1.04125	11.0864		91.9583
-66.7742	2.74677		49.8195
-11.2093	3.77399		85.7002
-58.6406	-66.8997		41.4419
-61.8614	-64.2129		32.8141
-69.1198	-17.9831		45.0169
-70.6701	-17.4765		37.0513
-68.1475	-24.6806		44.3583
-64.6415	-42.6765		42.6052
-66.0558	-42.923		35.1521
-62.5806	-42.0999		50.0637
-65.8605	-36.8038		43.1014
-67.0943	-30.7286		43.6251
-68.371	-31.108		35.6868
-18.2891	-94.3147		82.6999
-10.8849	-72.4997		92.8442
-14.9449	-72.1524		90.778
-6.77435	-72.7356		94.2642
-18.8634	-71.7204		88.1479
-29.1145	9.95327		72.3304
-29.0561	-1.3994		74.8543
-28.3047	0.74976		74.3464
-27.9052	2.47744		73.9202
-3.06027	-72.8393		95.0331
-5.694	24.1892		83.6902
-5.28394	21.4698		83.9883
-3.85594	24.7815		84.4858
-6.92039	26.9023		83.3984
-7.27101	23.3286		82.6885
-20.1525	13.2303		70.9048
-20.1102	14.5309		70.9481
-16.6472	13.4525		72.9389
-8.56424	21.9192		81.4559
-9.83017	24.5068		81.1966
-1.65738	25.2511		85.0339
-5.67954	-29.3442		104.681
-6.09109	-27.7455		106.514
-7.25599	-17.8406		112.159
-10.4989	-17.6456		107.819
-7.28462	-16.2237		111.479
-18.2453	-29.9499		90.2088
-15.7541	-31.5308		91.8134
-17.7904	-28.8373		91.3823
-6.96939	-14.5243		110.588
-5.84241	18.2301		84.0737
-8.25898	29.6468		83.4199
-10.0097	28.6025		82.5039
-20.7377	16.1235		71.128
-11.4755	27.4278		81.3533
-12.562	25.897		80.0323
-13.208	24.2926		78.7593
-20.8427	-36.0272		88.4644
-22.2874	-38.5243		88.2932
-17.8612	-36.4313		90.4995
-24.0518	-41.3999		87.7037
-20.7809	-40.8022		89.946
-26.7589	-54.799		78.6359
-24.7679	-54.72		80.3662
-26.5459	-53.7467		78.2335
-27.3288	-53.3884		82.0024
-24.9376	-52.3859		85.3744
-26.0663	-50.9195		77.6727
-25.0844	-47.7118		77.7476
-22.7731	-50.661		80.5318
-15.092	-36.6593		92.4745
-16.134	-38.5629		92.383
-12.4022	-36.7745		94.3723
-17.6172	-40.6093		92.0373
-18.7772	-42.7227		91.8667
-21.9931	-54.3899		82.7915
-20.5223	-53.0445		83.3446
-19.5759	-50.2889		82.9905
-19.3422	-46.852		82.2044
-9.98234	-36.7379		96.0212
-9.57365	-35.0991		96.1636
-12.8568	-44.1969		95.8317
-16.621	-44.4858		93.713
-18.3368	-15.2853		90.7423
-15.5018	-13.4598		94.4954
-1.10264	-7.65948		108.389
-12.4058	-11.6354		98.8025
-6.64974	-25.3629		108.855
-9.36455	-25.0514		105.429
-12.291	-24.8777		101.682
-14.8247	-25.21		98.1936
-13.0065	-22.7858		102.447
-16.3518	-25.7745		95.8445
-17.1912	-26.7288		93.9661
-17.5411	-27.8007		92.5181
-13.3957	-17.9888		103.151
-13.3452	-19.2765		103.392
-13.3058	-20.905		103.077
-37.0835	-141.782		12.8371
-35.1807	-133.185		14.0278
-41.1113	-140.352		9.52442
-38.5428	-148.047		12.0112
-32.6393	-143.065		16.0843
-32.9359	-121.205		15.634
-28.6671	-122.296		19.4459
-31.4584	-110.695		17.1632
-36.9777	-120.014		11.8341
-33.8413	-95.6589		23.5776
-32.641	-99.1601		20.1676
-29.5916	-97.1977		28.12
-37.861	-94.0197		18.8606
-31.6834	-103.711		18.4336
-35.713	-102.5		14.1473
-27.2653	-104.74		23.1383
-41.8869	-67.3496		68.9073
-39.0568	-63.7119		72.5921
-44.2405	-71.1028		64.5526
-46.4474	-75.1279		58.8848
-47.257	-78.9144		53.8617
-47.2908	-81.8968		49.5786
-36.8862	-60.7745		74.8171
-34.8858	-63.2351		75.4393
-35.0629	-58.4856		76.1727
-38.0996	-57.9845		74.8943
-33.7922	-57.2956		76.9077
-32.6582	-58.9485		77.0358
-41.7389	-92.2163		14.4653
-45.6516	-90.3854		9.35182
-40.517	-96.0394		11.6512
-44.0203	-88.8053		17.8795
-47.161	-85.772		22.3918
-50.4688	-82.815		26.6668
-50.0699	-83.6821		15.7783
-53.2609	-79.9794		30.4534
-55.6061	-77.7643		22.9988
-40.8533	-118.652		7.9856
-42.9077	-130.412		6.97974
-39.6251	-108.378		8.86936
-44.6439	-117.651		3.99559
-44.7686	-138.975		6.09838
-48.2223	-137.613		2.38384
-46.4771	-145.361		5.24667
-39.6618	-101.137		9.97733
-69.2995	-31.1163		28.0946
-70.5554	-24.834		28.3661
-68.1604	-36.9473		27.8807
-57.1201	-76.0673		15.8781
-58.2229	-74.5169		8.69193
-54.7892	-78.9331		12.6514
-73.7106	15.7228		26.4402
-76.2065	13.5443		15.7684
-63.5825	-62.3777		24.6393
-64.6913	-60.4608		16.1052
-67.1465	-42.6186		27.7065
-68.2446	-41.7545		19.9669
-71.8113	-17.4267		29.1506
-72.7857	-18.4668		21.0545
-69.527	-40.5749		12.7135
-70.9914	-39.0253		6.25831
-54.6673	-87.6751		-6.30627
-52.1285	-88.2043		-1.4398
-55.3806	-83.5802		-4.73488
-56.8078	-87.3135		-11.0371
-54.174	-92.3648		-7.55222
-53.9022	-97.7336		-8.24355
-56.4742	-79.818		-2.48467
-57.7659	-76.3845		-0.34126
-58.2201	-79.0755		-8.06779
-54.5594	-80.7298		3.05964
-76.4268	-4.22434		10.6423
-75.1306	-12.3702		12.875
-77.3873	3.85769		8.16471
-78.171	12.3742		5.29138
-78.7044	20.4067		2.80273
-79.0999	28.5417		-0.316015
-79.3504	36.5766		-3.9238
-80.1668	27.6236		-10.8458
-65.6262	-58.5568		8.01742
-66.5087	-57.0587		0.225327
-73.8389	-19.2324		13.8849
-74.9315	-19.9106		7.77072
-48.4141	-116.591		-0.345008
-50.0123	-127.942		-1.03376
-52.558	-82.0961		9.3516
-50.5467	-85.3777		6.25366
-51.5224	-136.158		-1.78535
-53.0281	-142.211		-2.78388
-58.2796	-113.057		-17.7484
-59.0681	-122.493		-18.8627
-58.5521	-86.8623		-15.7426
-59.1366	-82.4497		-14.7792
-59.7708	-85.224		-20.6826
-59.9717	-78.1075		-13.5037
-59.8077	-129.568		-20.1877
-60.4443	-135.113		-21.9855
-67.1181	-56.3997		-6.77859
-72.2717	-37.5549		1.90575
-71.5256	-41.2532		0.449614
-73.5882	-35.6978		-1.238
-75.8583	-20.0044		3.74762
-59.1614	-92.6965		-28.4961
-59.6621	-86.5505		-27.42
-58.1308	-88.5384		-35.1943
-60.5477	-80.8135		-26.4759
-60.3327	-74.5177		-32.4444
-64.2733	-64.4599		-22.9448
-71.6756	-46.3778		-14.9504
-73.1968	-43.6307		-21.3505
-55.9671	-118.912		-45.7964
-55.7371	-110.729		-44.4189
-52.9084	-116.235		-52.7179
-56.2904	-126.577		-47.0593
-70.4543	-44.5113		-28.9368
-72.9296	-40.9299		-27.2658
-74.6482	-39.2664		-26.5824
-75.6254	-38.5498		-26.385
-28.0326	-144.148		19.1263
-29.5172	-150.296		17.8375
-23.401	-145.152		21.852
-26.3181	-135.52		20.7932
-22.3664	-105.534		28.1588
-23.4924	-101.552		29.9938
-22.276	-112.369		26.0513
-17.205	-106.214		32.7883
-30.0609	-94.4502		43.9694
-32.6025	-93.2659		48.8596
-27.1365	-96.018		38.3604
-24.7486	-98.5893		33.2573
-19.5092	-99.5592		38.2131
-24.0413	-123.041		23.414
-19.3974	-124.243		27.0376
-32.7692	-65.6409		76.5146
-31.6986	-62.6645		77.382
-34.5031	-92.1811		52.9397
-30.9614	-60.8045		77.8182
-30.3167	-59.2609		78.1058
-28.5684	-62.4579		79.5618
-29.6223	-57.9817		78.3577
-27.6127	-59.4038		80.0303
-28.1335	-77.326		79.4839
-28.5026	-81.5241		78.17
-28.547	-85.591		76.2605
-22.8828	-56.2656		84.2425
-19.4407	-56.2299		88.0017
-22.7849	-55.7559		82.9041
-19.0147	-55.3804		86.2507
-22.8961	-55.9915		82.3377
-26.167	-55.9258		79.8464
-22.9036	-56.4514		81.9213
-22.8012	-57.7406		81.314
-19.0957	-56.086		84.907
-22.1151	-60.6467		80.874
-18.5905	-59.9686		83.3993
-20.8392	-64.0978		81.0158
-12.399	-106.521		36.3552
-12.9316	-113.76		33.818
-13.1657	-102.748		38.6816
-18.7247	-146.228		24.2922
-20.0906	-152.057		22.6947
-14.1053	-147.037		26.358
-17.1511	-137.737		26.5494
-14.9528	-125.284		30.2252
-6.08421	-100.222		46.6876
-6.92579	-99.4755		54.1997
-9.42439	-100.273		45.0203
-10.0569	-147.616		27.8493
-11.2424	-153.226		26.1584
-8.5114	-99.6557		62.4834
-15.5079	-54.8394		89.168
-15.3897	-55.0896		88.3434
-15.3067	-55.6517		87.5505
-15.5428	-56.84		86.4422
-15.1593	-59.4045		85.4949
-14.4422	-63.0096		84.8598
-75.3253	47.1981		13.498
-72.0167	49.7269		24.0084
-75.2736	54.8181		8.38258
-77.7928	45.5288		2.6663
-80.3899	26.4321		-20.6245
-72.906	-20.612		-50.4342
-70.117	-22.4211		-55.2448
-49.8913	-94.9966		-55.5493
-46.9444	-92.7518		-60.3551
-49.8208	-105.129		-56.6364
-52.6572	-98.0482		-50.1683
-50.499	-84.9243		-54.4999
-50.0573	-114.019		-57.8748
-46.9977	-112.357		-62.488
-50.5772	-122.497		-58.9732
-56.2823	-83.0393		-42.3037
-57.5974	-74.7584		-40.9634
-53.9667	-78.6001		-48.4774
-55.6357	-92.4254		-42.7821
-23.0433	112.395		21.2862
-15.7399	114.367		21.5679
-22.8525	116.842		6.08153
-30.023	109.581		21.0353
-22.0538	101.067		-78.8268
-14.5922	102.464		-80.2541
-21.267	90.1941		-91.8669
-29.1728	99.0668		-76.9317
-22.7611	109.807		-63.0494
-20.886	78.3403		-101.245
-13.9827	78.9952		-102.891
-20.655	65.0772		-108.388
-27.641	76.6623		-99.3239
-22.9441	115.745		-46.0509
-22.9581	118.833		-28.279
-15.4045	117.547		-47.11
-30.1773	113.269		-44.4362
-7.66533	122.426		-11.3619
-7.63177	121.964		-29.4703
-15.4179	121.192		-11.0811
-7.68744	120.199		5.88676
-20.3005	52.0105		-113.284
-13.8674	52.8551		-114.696
-19.8717	38.6623		-116.498
-26.6123	50.7572		-111.257
-19.3349	24.6661		-118.252
-13.0379	25.5861		-119.76
-18.8398	10.8339		-118.383
-25.6499	23.7197		-116.069
-16.7656	-27.5966		-107.451
-17.596	-15.0493		-113.256
-11.227	-27.4991		-108.598
-16.4153	-39.2363		-100.244
-22.5397	-28.3361		-105.313
-5.90706	-1.17813		-119.514
-5.61102	-13.9827		-115.931
-12.1258	-1.58881		-118.497
-6.11252	11.9324		-120.969
-14.3458	-85.6307		-83.1806
-9.37868	-85.198		-83.9247
-14.1183	-95.0187		-82.82
-19.5019	-86.3886		-81.8724
-14.6956	-76.1808		-84.1231
-13.9814	-104.29		-82.6144
-9.19696	-103.975		-83.1578
-14.1056	-113.46		-82.4781
-18.8719	-104.821		-81.6916
-16.5213	-48.393		-94.3229
-10.8796	-47.9301		-95.3113
-16.0992	-56.5666		-89.8844
-21.7354	-48.9674		-92.7908
-15.2804	-65.9576		-86.3582
-10.0995	-65.165		-87.324
-20.7758	-67.0552		-84.6655
-4.8912	-64.8701		-87.7581
-4.61471	-75.2806		-85.4047
-5.13949	-55.6537		-91.3193
-48.9142	97.4235		17.9007
-42.9013	102.072		19.3478
-49.516	100.974		4.37374
-54.8115	91.889		16.5319
-46.6629	69.6632		-89.3534
-47.0956	80.5242		-80.2715
-40.7992	72.2963		-93.1587
-46.2801	57.7115		-96.0657
-52.1515	66.5635		-85.1424
-47.5017	90.0102		-68.3675
-53.07	85.6259		-64.8139
-48.2321	97.061		-54.3562
-41.7895	93.5987		-71.5915
-49.045	101.375		-39.7439
-49.9741	102.957		-25.0271
-43.1644	106.039		-41.3251
-54.8612	95.7282		-38.0182
-49.8895	102.979		-10.2052
-55.7951	97.1492		-10.3536
-43.7098	108.042		-10.0279
-45.6286	45.6035		-100.909
-51.0648	43.3997		-96.6385
-39.7346	47.484		-104.814
-44.9467	33.0337		-104.106
-43.9807	20.3074		-105.888
-38.3454	21.417		-109.683
-43.0021	7.42038		-105.97
-49.3005	18.8776		-101.592
-41.6849	-5.05079		-104.517
-46.4554	-5.79036		-100.388
-36.4731	-4.72527		-108.116
-40.3121	-17.8836		-101.037
-39.3822	-30.4081		-95.2937
-34.1436	-29.8006		-99.1418
-38.6493	-41.2739		-89.0637
-44.0259	-30.1461		-91.5381
-37.8924	-50.6843		-83.5415
-42.356	-50.8958		-79.3672
-32.8135	-50.4797		-87.1716
