1900
-76.2988	1.00549	-26.4357
-80.2703	-26.7087	-49.2394
-80.9446	-41.6709	-30.2879
-83.5964	-35.7899	-29.7552
-84.8166	-32.5813	-36.0248
-82.9617	-36.6683	-38.2976
-81.7146	-35.2999	-25.0092
-83.4983	-31.4651	-28.2511
-72.683	-42.9651	-27.4917
-79.8623	-41.0633	-23.8623
-75.9792	-43.1485	-24.7069
-80.849	-28.4089	-25.319
-78.9766	-31.2907	-22.2646
-86.6882	9.42594	-35.6953
-83.1102	4.18639	-30.9849
-90.891	1.24195	-55.5879
-90.1368	-4.67096	-56.2772
-86.4781	8.15334	-36.6278
-85.213	5.35742	-37.0161
-84.819	3.36319	-34.2535
-90.36	8.69169	-50.8208
-90.203	6.98641	-49.8102
-88.616	-13.1461	-47.3252
-85.4627	2.52004	-39.0692
-87.3038	-4.07227	-44.9683
-86.1368	-17.8578	-44.9896
-77.7679	-20.0796	-26.4881
-77.7984	-23.9526	-25.7209
-78.9198	-15.9644	-28.0119
-79.3822	-15.0779	-25.8652
-81.5931	-5.70045	-28.5382
-81.2793	-8.003	-30.5783
-84.0905	-0.476977	-36.4923
-53.4642	-59.0235	-63.5958
-26.8461	-1.97751	69.479
-25.8534	5.60427	67.2709
-32.3071	-0.910106	68.2253
-21.3772	0.0862029	71.9368
-22.9847	6.81989	71.2035
-52.8278	34.1184	35.2289
-53.344	38.894	35.513
-31.8121	32.4948	50.5777
-56.6557	49.2939	32.6419
-43.8653	52.8426	40.4197
-5.98986	3.7112	82.319
-9.76602	2.8036	79.9329
-6.33107	1.10805	80.274
-8.5524	6.39141	83.5938
-17.8106	12.8518	80.1281
-17.9707	14.2125	78.1355
-20.2369	10.7074	77.3962
-64.6732	84.6314	-40.3588
-69.8613	73.9564	-31.593
-27.2276	-33.2221	72.7382
-26.9097	-29.4473	71.9643
-14.6747	4.8571	79.8628
6.70504	3.71873	81.9783
-9.99216	-0.332658	77.9772
-23.6623	36.7747	45.1558
75.9745	-40.3966	-33.2215
76.1886	-35.7761	-39.0247
67.3807	-36.965	11.1826
66.7313	-47.0944	11.4223
69.3136	-37.5741	-3.33262
59.9192	-103.486	-10.8504
54.911	-104.542	-2.01026
58.8165	-141.521	-6.68106
62.6251	-137.818	-16.2241
61.5492	-124.705	-13.1427
56.6969	-127.884	-4.13971
54.5152	-89.1653	-0.587281
48.0183	-89.035	9.7819
47.4445	-106.506	7.14827
62.9071	-102.484	-20.5219
62.5806	-89.4198	-19.8639
59.3071	-89.8188	-9.96949
64.9131	-55.4323	10.7701
63.2349	-54.6012	28.0477
60.3527	-62.9471	24.2948
62.0594	-63.3727	9.15777
77.3914	42.7506	-23.4836
70.7409	52.4213	-3.55515
68.7948	40.0975	9.54876
74.7099	28.9283	-12.1442
78.8378	26.0684	-62.6901
76.3684	36.6132	-76.5601
78.3196	47.6946	-57.9094
79.5504	35.0352	-44.4928
3.54514	-97.138	47.0286
4.80207	-118.533	40.3959
11.2946	-117.536	37.7552
9.80506	-97.2694	44.5888
6.61489	-142.391	31.0994
14.424	-141.314	28.6386
7.83376	-155.865	27.016
-0.202801	-142.777	32.1042
0.0827908	-156.291	28.215
68.7325	-45.0355	-41.6757
67.6744	-56.1328	-30.7783
63.3074	-56.5499	-44.6091
64.3004	-45.969	-52.9896
70.6922	-36.6918	-48.7331
64.2116	-134.259	-25.8531
62.0986	-129.488	-39.3438
-0.980177	-119.002	41.3476
66.1351	-34.3126	27.4647
65.3157	-45.6443	28.5437
65.75	-56.537	-4.71947
5.88576	-58.0601	89.083
5.37105	-67.0119	88.4375
13.6841	-66.1349	84.7295
13.7147	-56.9446	85.3261
23.0163	-63.8152	77.2054
22.3511	-55.9523	77.9038
6.58772	-50.5942	85.9572
0.187347	-50.8339	87.0762
-0.533174	-58.6511	90.0829
4.84506	-74.4158	81.5151
5.5394	-79.7945	70.3785
14.9729	25.5087	63.722
19.9872	21.8869	62.248
18.7766	28.4013	55.4474
14.392	30.7351	56.3317
53.4637	-7.58369	55.192
54.1019	6.28455	53.2701
42.0377	9.23111	62.5616
42.7172	-2.51311	64.9735
61.8453	-1.30157	40.6053
53.0437	17.1752	51.4654
69.3773	22.2234	12.8395
66.3818	26.4917	20.7452
42.4457	-15.7511	65.9547
52.4438	-22.5808	55.687
4.88767	31.9724	68.9966
0.88174	33.1672	69.3612
1.47648	26.9412	78.695
6.05496	26.2334	78.1163
26.1636	93.8959	22.4198
22.0042	81.3023	33.4947
32.6069	77.8988	28.4688
37.3086	89.5105	18.0164
-1.24358	-86.9945	59.4419
4.70147	-86.8842	58.6842
-0.848491	-80.023	71.1781
60.912	-30.0128	42.0513
59.3818	-42.129	43.469
-0.75962	-68.621	88.7582
-0.946503	-75.012	82.0683
33.3951	-62.393	65.9053
42.4619	-67.4384	49.9852
43.3002	-60.0194	55.5358
35.444	-82.9491	36.7729
45.0155	-80.03	25.9163
50.5486	-70.904	32.7534
39.7534	-74.1178	44.5227
-1.6461	-97.1744	47.7157
6.43529	21.9903	85.5881
12.214	19.7843	81.6624
11.1843	23.6967	75.2089
29.9215	9.4653	65.7562
22.1059	11.5408	67.3878
28.496	-32.1899	73.9662
16.8245	2.59316	77.1819
15.4016	0.268742	76.0874
10.8031	-3.78483	78.4354
15.5253	-5.01908	75.5743
14.978	-2.24296	75.1769
4.02657	3.83894	84.6234
0.618373	3.53524	86.085
0.711553	0.950984	83.8259
3.91482	1.35547	82.5353
20.8235	-4.65928	72.4992
6.83798	15.5824	90.1681
6.54515	11.2121	89.5926
12.2059	10.7363	85.4426
12.8254	14.802	85.4607
29.6512	-46.7693	73.1077
26.8258	-39.1783	75.6743
20.0441	-41.9702	79.9499
21.1219	-48.335	78.4322
29.8296	-20.5908	75.1776
25.6165	-18.3693	77.3676
0.630341	-5.60554	83.5227
4.86718	-5.32037	83.0605
4.18814	-1.52885	81.995
0.77039	-1.68005	82.9781
9.85605	29.3879	66.8765
20.736	10.6267	73.2245
20.6826	10.792	74.9629
21.3706	7.55634	74.6689
6.98015	-2.23827	80.4534
19.8627	2.93293	74.6949
1.30106	-15.6617	88.8455
8.02733	-14.3306	87.7972
6.14746	-10.0847	85.4465
0.509412	-11.0576	85.9864
22.3121	-10.0434	74.7436
27.129	-10.7425	72.3636
13.6648	-40.2157	84.9056
7.09348	-40.8657	86.2442
7.18481	-43.5656	84.284
13.9428	-43.3298	83.0215
22.2902	-23.6445	80.405
25.5752	-28.137	75.9354
17.4876	15.5784	75.8592
19.8834	-38.7626	81.29
0.686018	-41.4003	86.8758
0.635053	-43.1555	84.7413
62.2702	41.5229	25.4341
65.039	40.495	19.9783
56.9729	52.4443	27.4918
28.0998	63.4821	38.1064
43.2496	60.6069	31.0432
46.8955	72.5351	21.2253
58.2809	55.4513	22.2493
60.9123	64.0264	11.3656
44.0739	56.4232	35.2952
29.7646	56.7086	41.8441
17.4567	44.8589	49.4336
25.3513	47.4537	48.1608
22.3869	49.426	48.3944
14.2018	47.7689	50.3421
9.57825	34.1623	59.2975
3.86888	41.2577	58.3643
4.13288	37.7964	61.8323
26.8527	20.4541	61.7422
40.3525	19.2744	58.6838
37.5135	26.8607	55.0831
24.2271	27.1427	56.2882
62.7731	30.8949	26.4246
58.668	34.3396	30.1998
56.0554	30.0553	37.1788
44.0936	51.4956	41.3877
31.1662	52.1514	44.8325
33.1728	50.2675	45.6987
54.1967	48.6288	34.3769
59.0681	41.6771	29.5103
44.327	42.7387	42.8253
39.6917	44.247	44.9991
39.6997	43.1077	45.2335
43.8815	41.6334	42.895
33.4734	44.7483	45.7689
34.2418	43.6637	46.1384
28.5647	42.2179	46.2353
26.9802	43.0433	45.7534
21.3291	39.9377	45.1547
23.6368	39.4749	45.5252
20.7691	37.336	44.8441
18.6685	37.9577	45.3761
20.1958	40.29	45.4543
51.9957	37.5418	34.8391
49.9465	39.2247	36.1728
50.5709	36.3598	36.9529
34.6426	43.7341	45.8525
43.5264	41.5187	42.6266
46.4891	40.0624	39.5221
48.3228	39.1141	36.5994
49.5424	39.0485	34.8749
49.557	38.5928	34.9363
35.7997	48.9717	46.4494
49.7584	43.4317	38.8575
45.1707	45.6766	43.6211
33.8715	37.0546	49.3601
45.3587	36.1823	43.9944
24.4963	36.458	48.1556
22.2772	36.0929	46.2604
20.8669	36.0106	45.3149
12.7625	42.092	49.6959
12.1267	40.5817	49.8932
19.8176	37.6087	44.8308
32.4138	45.6644	46.4343
25.9159	43.7286	46.3739
18.3623	40.7272	46.364
43.874	38.3038	42.5482
44.5722	37.4899	43.3882
33.9629	38.3419	48.3794
33.9696	39.1063	47.014
24.9182	37.707	46.815
22.1763	36.8605	45.62
22.4842	36.8982	44.3977
22.164	37.7072	42.0549
22.9	35.9649	42.1734
22.1503	36.6649	42.0161
46.3306	42.6436	36.812
0.547756	54.8164	54.0002
-0.0395551	50.0685	55.3088
4.63766	49.2479	54.8667
5.66149	53.3855	53.5577
23.466	30.1542	52.4336
19.7182	36.0322	46.1896
9.87406	43.7787	52.0515
23.7253	32.993	49.714
16.2023	-28.0016	78.7392
21.7169	-29.3425	75.9994
8.14304	-19.1851	89
8.24928	-16.662	88.6834
1.33994	-17.644	89.8864
1.20385	-19.7717	90.4537
12.8086	-20.0575	86.9624
7.7452	-22.3937	87.8182
12.388	-23.4976	85.5851
17.6546	-21.5739	83.9677
12.8566	-17.2767	87.0311
17.7688	-19.1176	84.3954
6.42022	-26.0652	85.6331
11.5865	-26.5451	83.3401
26.8798	-29.461	74.3002
17.6528	-30.0603	79.7869
17.7443	-30.9101	80.3501
18.0475	-31.7514	80.6456
12.2979	-31.157	84.908
12.8596	-33.1303	86.1129
5.8388	-30.7331	87.5894
11.7016	-29.1082	84.4832
5.43529	-28.5923	86.8819
0.649744	-33.8276	89.7985
6.35513	-33.1856	89.0735
0.59925	-31.3634	88.6057
22.7216	-30.7899	74.8189
0.339754	-27.9629	84.72
4.93615	-28.0899	83.8233
0.656873	-36.3842	90.0273
6.62765	-35.7256	89.2832
6.92603	-38.0508	88.8011
0.650203	-38.9141	89.4944
12.3679	-15.3189	86.4695
0.498783	-28.8917	87.69
5.26289	-27.4714	85.8872
0.428448	-27.6867	86.5839
11.3375	-28.1347	83.5984
13.5214	-37.1292	86.1799
13.2175	-35.1473	86.3033
10.9725	-27.2042	81.2961
10.9128	-28.6311	81.7615
10.8288	-25.7045	79.2987
15.4891	-26.5465	77.5867
22.96	-33.3208	73.6108
4.73602	-31.4876	81.3886
0.303001	-31.3426	82.3208
5.6892	-26.998	83.1955
5.89947	-25.2813	80.3054
10.7641	-31.7557	79.6113
27.5988	-23.8517	67.1516
30.0914	-26.2695	63.9375
10.6311	-18.6672	76.9999
15.2573	-19.8925	75.6313
27.142	-41.3116	69.785
23.8989	-41.2369	73.4049
5.88861	-17.7503	77.7682
10.7961	-39.5282	79.759
4.54024	-39.4799	81.5545
30.0464	-41.2368	66.3093
78.5784	-19.2802	-55.9806
76.3541	-20.2885	-61.3408
77.7261	-11.1214	-65.0361
79.9153	-11.3602	-59.1838
76.8126	2.03006	-27.0107
77.9141	6.01528	-36.0376
78.9077	20.1913	-32.9912
75.4615	6.62087	-20.0289
78.9903	15.1655	-51.0323
78.4752	7.92836	-44.8833
75.0017	-31.5924	-45.6997
73.016	-37.8403	-39.7503
73.461	-28.9248	-55.602
76.984	-25.7213	-51.149
83.6494	-9.24178	-58.1921
82.4874	-18.9854	-54.801
80.6916	-35.1806	-41.3028
83.4645	-27.6582	-48.0354
77.5396	-42.157	-32.0119
75.0671	-42.1335	-28.0516
77.8112	-35.9753	-20.5386
88.2879	-17.4513	-47.1732
90.6105	-4.41438	-55.2514
82.2608	-25.5107	-34.5548
73.269	-19.5799	-13.3266
72.2771	-28.0683	-11.842
78.751	-19.0723	-24.8722
78.9818	-23.0041	-24.1683
79.6637	7.25274	-43.2209
87.226	-9.69822	-60.9141
89.9904	16.6859	-44.8589
87.6046	17.6556	-47.4374
85.3296	15.3984	-49.6813
92.5988	2.80607	-57.0491
85.8429	6.85167	-37.6887
84.2587	1.88593	-31.9958
89.6435	-8.03058	-48.8054
89.2147	-5.06705	-48.4632
80.3882	-1.70821	-58.9696
83.4735	1.47414	-56.8338
78.6002	-30.764	-44.4767
83.3583	-12.2032	-42.539
82.4801	6.69387	-51.4982
80.1007	4.81298	-53.6415
88.9535	7.41308	-44.5783
0.530618	97.5064	25.9872
14.4826	96.5528	24.833
16.1876	107.577	8.87341
0.587526	109.282	9.07377
0.688213	83.2856	37.8534
11.2154	82.9118	36.637
17.2317	65.7897	43.276
4.98681	6.67987	87.1249
0.664563	6.84644	89.1458
6.6441	18.9428	88.6378
1.09214	19.3684	89.8069
1.15096	15.7122	91.7954
1.04753	11.2619	91.5143
1.26339	22.5713	86.493
0.915708	68.5011	47.0092
0.889046	61.4173	51.3017
7.55258	58.5576	50.6884
7.87836	66.9752	46.4086
0.115251	39.0761	62.3665
-0.0902182	42.5564	58.8653
3.97594	45.098	56.2579
-0.110946	45.9992	56.6811
0.764896	-26.9295	84.2482
0.287572	-24.9674	81.0175
1.11055	-26.2072	86.7501
1.14506	-22.6677	89.288
0.211515	-17.4963	77.7561
28.7606	103.75	7.96746
18.0367	57.6264	46.6939
19.9802	52.1483	48.6449
34.4215	47.2225	42.3341
30.283	46.5303	47.5415
23.5364	44.1911	47.6292
42.9671	105.482	-16.7201
40.2165	97.9982	4.81488
39.6852	43.0819	45.0313
38.8092	46.8402	46.5998
50.4531	82.3989	10.6954
39.4759	45.4949	45.8002
44.9143	44.1658	43.3222
39.8033	47.1312	41.7675
44.0989	49.2572	43.025
62.5914	74.0341	-1.03209
47.0337	40.4274	39.5302
47.6858	41.329	39.2445
43.6663	45.0503	39.418
52.6056	46.887	36.8543
9.84423	45.213	51.4792
66.5124	-58.906	-17.8587
79.5363	8.10242	-61.267
77.5719	14.4006	-75.3745
72.0674	-24.1886	-70.9667
74.7262	-11.6816	-77.2445
76.1708	1.54537	-79.6409
78.9449	-0.820356	-65.6577
67.9892	-35.4237	-62.5137
12.2999	-86.5565	55.8368
24.5843	-84.9288	47.6559
53.2799	-63.4298	39.051
72.1264	64.3017	-17.5203
30.9052	113.005	-16.0821
17.0795	117.733	-16.3258
54.1476	-54.3373	45.7261
9.91895	-10.6454	84.7906
20.3664	-14.6282	80.7217
8.09155	-5.97061	82.2218
14.4536	-11.8251	83.4067
12.2241	-7.50987	80.575
33.2326	-30.857	72.7772
34.3148	-22.9476	72.8977
70.6989	-46.0861	-28.5166
70.0908	-28.4238	-3.85921
71.0317	-19.0501	-5.57205
72.7302	14.0586	-3.66967
69.7404	-0.929325	4.14792
53.143	32.7643	36.6412
67.5995	-14.4801	7.77582
67.3129	-25.8016	9.79547
16.2837	18.8815	70.9024
18.1167	8.54416	79.7824
19.8881	5.61473	76.8501
33.3782	-12.3586	71.1596
50.7702	-34.9566	56.5401
41.7058	-27.5361	66.9563
46.9339	-44.8509	57.9312
61.2769	-14.9365	41.6614
40.6337	-51.0279	62.3062
32.1446	-54.7186	69.3212
51.2878	25.7199	48.8221
49.0011	29.7286	46.8449
39.5276	-36.5997	67.6136
35.6644	-42.4752	69.6616
13.6524	-49.8153	83.0117
35.4347	30.7691	52.9039
12.7118	17.3676	84.1818
65.4602	-7.50453	24.8495
65.7148	-20.7295	26.5409
7.7288	46.5936	53.639
17.4646	-9.15644	77.7122
20.6532	-28.2216	74.3068
20.6972	-21.8067	72.5378
33.444	-136.785	17.9564
36.1133	-150.873	15.208
45.399	-148.149	9.11893
42.0933	-133.774	11.4232
40.7655	-91.7432	19.1666
31.8931	-95.1812	27.9217
30.7109	-113.025	23.2666
39.4423	-109.827	15.2821
30.5232	-35.2064	72.767
51.3898	-77.9734	14.2833
56.3211	-69.9919	19.3498
49.6484	-130.816	4.3316
52.4896	-145.25	2.41194
58.6595	-70.435	5.83411
59.4605	-79.909	-8.80352
55.6705	-78.7222	1.81723
61.0247	-97.9927	-34.9206
71.5727	-34.9685	-12.1048
61.3237	-82.564	-33.8257
55.027	-124.027	-55.2976
54.7034	-109.191	-50.7496
23.8828	-139.087	24.1111
26.4532	-153.115	20.309
20.3959	-97.1716	37.8713
20.5141	-115.621	31.6896
25.4149	-35.2348	76.5354
17.2483	-30.2781	78.4559
17.0538	-32.7972	77.0298
15.9924	-154.981	24.777
17.3047	-40.3967	77.3077
78.0532	55.6412	-37.2988
49.2102	-87.6472	-59.1579
54.3184	-91.4957	-48.3224
48.5846	-105.712	-61.0677
50.0073	-121.212	-63.596
56.6731	-71.8492	-49.1449
31.8006	117.411	-46.6216
17.1179	122.704	-48.0883
17.267	97.8517	-115.568
32.554	94.9471	-111.359
31.096	68.6995	-135.032
16.0918	70.2476	-139.133
29.4103	39.7318	-143.657
15.6289	40.7925	-147.741
32.5489	111.694	-80.0078
17.3067	115.684	-83.0345
1.03682	116.797	-83.911
0.895299	123.625	-48.7233
28.0815	12.7445	-143.417
15.2013	13.7964	-147.62
26.7783	-13.2906	-137.07
14.1102	-12.8181	-141.568
24.9669	-35.0449	-124.676
22.7886	-53.4703	-105.78
11.7183	-53.2078	-107.851
13.0193	-34.7843	-129.17
0.641856	-34.8685	-130.866
0.818678	-12.8425	-142.847
10.2238	-85.2765	-85.3397
20.8534	-86.0842	-82.6172
20.0633	-101.142	-82.1069
9.90318	-100.365	-83.5379
9.8183	-114.686	-83.1086
0.0828369	-114.476	-83.7379
0.12553	-99.6231	-83.1069
22.1503	-68.485	-90.4252
11.2605	-66.8286	-93.1813
0.305546	-66.4917	-92.7242
0.189875	-84.7066	-84.4577
56.6859	98.1436	-43.9204
44.9495	109.01	-45.1986
55.2381	60.4273	-117.476
53.9202	35.0391	-126.378
42.7635	37.7333	-136.068
44.0682	65.2199	-127.118
44.978	89.3836	-104.864
56.2816	81.5578	-97.0401
58.1283	93.5238	-71.582
46.1699	103.928	-76.0426
52.1944	10.2376	-127.262
41.0877	11.5533	-136.259
49.9845	-13.2775	-121.894
39.2315	-13.5158	-130.293
46.5179	-34.1059	-109.943
36.7345	-34.9536	-117.823
44.6145	-52.1652	-91.4393
34.3125	-53.4253	-99.4867
33.1616	-69.5012	-84.6227
40.4922	-103.054	-71.7106
30.5692	-102.16	-78.391
31.5522	-86.4636	-77.1623
41.2929	-86.2978	-69.5205
30.0887	-115.813	-79.6851
19.5538	-114.895	-82.4794
65.8944	71.3148	-86.932
73.5886	59.7111	-73.0469
71.6958	46.0978	-91.6721
64.5363	54.1296	-106.131
74.9084	68.1067	-52.5186
67.9433	81.1518	-64.7824
62.9721	31.5119	-115.516
61.0678	8.62746	-116.889
58.7155	-12.9741	-110.61
54.3886	-32.3326	-99.0512
51.9863	-49.2429	-83.1266
74.7144	20.7372	-88.9662
61.3923	-30.2208	-88.8114
65.7055	-12.8074	-99.8574
71.09	-12.3353	-88.2749
67.0577	-27.2993	-79.6074
67.834	6.43888	-105.587
72.7409	3.66473	-92.4561
69.8702	26.7329	-102.971
57.1915	-45.2679	-75.504
62.4099	-40.5192	-68.5828
58.3246	-53.7661	-58.0432
92.5844	3.57628	-58.4344
90.6541	4.17255	-60.446
89.7431	14.4503	-55.1041
91.7875	13.0722	-53.1108
84.2043	13.5372	-39.7439
86.4753	13.1106	-37.345
82.1564	11.8283	-42.8229
87.7882	2.42773	-61.018
87.0463	12.5098	-56.1327
90.8495	-8.5737	-56.4932
90.9071	14.6932	-43.7229
92.0935	11.4374	-51.936
0.73792	119.583	-16.5653
1.15537	98.4804	-116.593
40.4454	-117.658	-74.1366
1.18013	70.2012	-139.968
1.07745	40.7149	-148.444
0.978593	14.0088	-148.797
0.435169	-53.304	-107.626
-66.855	-36.6245	12.0862
-68.8559	-37.3625	-2.67703
-66.2461	-46.0423	11.9829
-59.5525	-103.663	-11.3302
-54.4456	-104.822	-2.76295
-58.6509	-141.521	-6.68106
-56.4809	-128.003	-4.41775
-61.3306	-124.776	-13.3265
-62.4594	-137.818	-16.224
-53.842	-89.4661	-1.55063
-46.8814	-106.947	6.0942
-46.7817	-89.8347	8.18837
-58.8451	-89.9592	-10.5347
-62.1198	-89.556	-20.1397
-62.5753	-102.629	-20.7762
-64.8805	-54.5475	10.7395
-61.9816	-62.821	8.60716
-60.9487	-62.2574	22.9019
-63.6761	-53.44	26.8315
-76.7828	41.4716	-23.1117
-74.0132	28.0477	-13.2693
-68.8531	39.2178	10.0491
-70.1216	51.2331	-2.68089
-77.8572	24.2722	-62.0348
-78.7646	33.4059	-43.8545
-77.2482	45.86	-57.2499
-75.148	34.6678	-75.8984
-6.77678	-97.3946	46.4338
-12.5654	-97.6959	43.4057
-12.9068	-117.737	37.1419
-6.68301	-118.636	40.0963
-14.6792	-141.374	28.486
-6.96498	-142.42	31.0286
-7.66816	-155.865	27.016
-68.213	-45.6216	-41.2229
-62.7561	-57.0112	-44.287
-67.194	-56.3969	-30.4821
-70.1002	-37.5273	-48.2133
-63.7276	-46.663	-52.5671
-64.0459	-134.259	-25.853
-61.9329	-129.488	-39.3437
-64.9313	-44.6163	28.9664
-65.8301	-33.5967	28.3375
-65.4935	-56.0581	-4.59955
-7.06509	-58.4579	89.3815
-15.5597	-57.2737	85.7997
-15.7578	-66.6331	84.9908
-6.86808	-67.9275	88.4086
-24.8519	-56.296	78.1587
-25.6246	-63.9812	77.0171
-6.70084	-50.4681	86.4154
-7.17078	-74.7587	81.5123
-7.46278	-80.0756	70.211
-15.3079	25.3108	64.2655
-14.709	30.0828	57.1159
-19.7737	27.6283	55.6969
-20.9067	22.2687	60.9715
-53.9463	-9.39241	56.3034
-43.8103	-3.80827	65.2949
-42.7868	7.49858	62.7822
-53.93	2.89688	54.8059
-62.3559	-2.14411	40.7823
-52.2817	15.1676	51.5923
-65.4927	25.6916	21.9966
-69.0575	21.4745	12.8533
-43.6859	-15.3112	66.4993
-53.9147	-21.8655	56.0589
-3.19269	32.0521	69.1367
-3.36166	26.3958	78.2832
-23.7811	92.8938	22.7973
-35.1913	88.8306	18.5873
-29.8366	76.9116	29.1895
-19.0928	80.1548	33.6936
-7.22983	-87.1372	58.3018
-61.3114	-28.2852	42.5931
-59.6373	-41.8976	43.5407
-35.5938	-63.6871	64.9712
-44.4112	-62.0567	54.6465
-43.2887	-69.5384	49.082
-35.2261	-84.0071	35.5041
-40.1722	-75.7673	43.3434
-50.2308	-72.1778	31.7643
-43.6448	-81.3368	24.4415
-4.36441	22.0588	85.5498
-9.77357	23.8073	75.5137
-10.8442	19.8806	81.7042
-23.2474	13.4445	66.4707
-30.7633	10.4822	64.5201
-28.8513	-31.7257	74.7081
-16.922	2.75854	77.5264
-15.6899	0.252722	76.5223
-10.6707	-3.34361	78.9536
-15.3676	-2.25071	75.5729
-15.9865	-4.65074	75.9742
-2.96131	3.88468	84.7473
-2.81824	1.40148	82.6082
-21.9624	-3.75015	72.3975
-4.95497	15.7742	90.1992
-11.7709	15.1889	85.7274
-11.3084	11.1728	85.6773
-4.96514	11.4711	89.71
-30.7131	-46.5142	73.5903
-22.896	-48.4493	79.0771
-20.932	-42.6454	81.031
-27.566	-38.5756	76.2369
-30.8811	-21.0151	75.4994
-26.2113	-18.538	78.1427
-3.16678	-1.37692	82.0437
-4.05261	-5.28145	83.3544
-9.02852	29.3157	67.4219
-21.1117	11.6726	73.2152
-21.6656	8.56217	74.8321
-20.6624	11.4578	75.349
-6.48697	-1.94995	80.6762
-20.4199	3.38428	74.9714
-5.11593	-10.3101	85.934
-5.85252	-15.0302	88.4311
-28.44	-10.4483	73.5104
-23.4767	-9.54806	75.5917
-13.767	-40.4189	85.7015
-14.154	-43.9889	83.8164
-6.25826	-43.0778	84.774
-5.60326	-40.6527	86.8364
-22.4416	-25.569	80.9121
-26.2138	-28.0419	76.4421
-17.0566	15.8187	76.3366
-20.2174	-39.3401	82.3212
-57.0359	51.158	29.4586
-64.8403	39.3655	21.4512
-61.7171	39.7219	27.3957
-44.3607	71.0519	22.7993
-42.7547	60.7831	35.1459
-26.2706	63.7371	39.3634
-58.9099	61.9026	13.0381
-57.912	54.2556	24.1679
-27.369	57.3243	43.3292
-43.5129	56.1736	38.0567
-16.585	44.5341	51.2619
-12.7473	46.5616	51.8962
-19.7749	48.396	49.8399
-23.0224	46.1975	49.874
-9.60814	33.8906	59.9128
-3.99694	37.6613	62.0135
-4.01749	41.1743	58.478
-27.2436	20.6823	60.4155
-25.4332	26.8719	55.9487
-36.8348	26.151	55.5936
-39.754	18.532	58.3394
-54.2357	29.1043	39.3493
-56.7258	32.7552	32.5983
-61.7933	29.4774	27.9494
-44.192	49.987	42.2691
-30.9578	49.8056	47.5159
-29.1482	52.0154	46.4889
-55.1706	46.8408	35.655
-58.129	39.5693	31.526
-41.5473	40.8843	45.495
-41.0164	40.3237	45.2597
-36.3452	41.5103	47.3484
-36.3066	42.2984	47.1388
-29.8087	42.3188	47.4611
-30.4049	41.4903	47.714
-25.2939	40.069	47.4523
-24.2793	40.8248	47.1669
-21.9851	37.7958	45.691
-21.1909	38.4984	45.4964
-18.8331	36.8629	45.7638
-20.2821	38.9744	46.3295
-49.3109	35.5841	37.5878
-47.9227	35.2312	39.698
-30.9699	41.0674	47.5132
-40.4686	40.544	44.5798
-43.648	39.2836	41.213
-46.7805	36.6171	37.7231
-46.7647	37.0711	37.6668
-45.6545	37.4311	39.1302
-33.0814	47.639	48.2675
-47.3777	40.1902	42.0626
-42.8906	43.1924	46.0396
-31.0645	35.45	49.1066
-42.0795	34.6977	45.9875
-23.4549	35.347	47.5654
-21.301	35.1338	46.4147
-20.1741	34.9402	45.6964
-20.8401	35.2175	44.8184
-12.4683	39.8819	50.4166
-13.5898	42.1957	51.1009
-19.8767	36.6391	45.0116
-23.0969	41.6299	47.9288
-28.8349	43.2596	48.2172
-18.5663	39.7586	47.7295
-30.7759	37.1143	48.0335
-41.0882	36.4878	45.3691
-40.4685	36.6511	44.7228
-21.7796	35.4605	45.1352
-23.3176	36.6527	46.3111
-21.9949	35.3192	44.292
-30.6919	37.1984	47.1071
-30.3304	32.8496	44.8318
-21.751	35.9268	42.3779
-22.174	34.2196	42.5095
-21.6586	34.9326	42.3597
-43.3534	40.4276	39.2423
-5.02365	52.8482	53.901
-4.67685	49.0309	55.153
-24.3371	29.4803	52.1715
-18.8201	34.4044	47.0745
-9.84688	43.0527	52.5917
-23.7073	32.5842	49.0745
-16.5676	-29.1094	80.1483
-22.1968	-29.1308	76.3984
-6.29883	-19.6251	89.5402
-6.08273	-17.2746	89.2572
-11.2238	-21.367	87.6593
-11.2749	-24.7774	86.2554
-5.91897	-23.1232	88.3909
-16.8447	-23.5266	85.1966
-11.0168	-19.152	87.6901
-16.6312	-21.7252	85.1755
-10.9331	-27.592	84.7354
-4.57249	-26.5745	86.786
-27.111	-29.2481	75.3514
-17.8592	-29.7108	81.6741
-17.5225	-29.1371	80.8089
-18.3337	-31.1211	82.3793
-12.6235	-32.1688	87.3721
-11.9004	-30.3059	86.0652
-4.77441	-30.6441	88.3447
-4.61825	-28.2755	87.5187
-11.4294	-28.5992	85.5188
-5.15824	-32.9167	89.6555
-23.503	-30.8087	75.7785
-4.38956	-27.8138	84.4412
-5.24625	-35.1667	89.8596
-5.31545	-37.7146	89.3488
-10.8449	-16.8805	86.7942
-4.57764	-27.2883	86.4105
-11.1338	-27.6941	84.5553
-13.5162	-36.7701	87.257
-13.0285	-34.3398	87.5262
-10.3515	-27.9805	82.8631
-10.6831	-28.1313	82.9293
-15.3303	-26.6298	78.7224
-10.2403	-25.6711	80.4833
-23.6348	-32.9853	75.2726
-4.20342	-31.1604	82.143
-4.37527	-27.3077	84.3468
-5.44987	-25.0976	81.2408
-10.6168	-31.307	80.9194
-28.1104	-23.5174	67.5353
-30.66	-26.1112	64.213
-15.0974	-19.4142	76.5481
-10.3246	-18.2817	77.7217
-27.7429	-41.6296	71.3461
-24.5926	-41.1979	74.1274
-3.80145	-39.2644	82.0461
0.409306	-39.5732	81.7259
-5.81337	-17.5751	78.2092
-10.689	-39.2457	80.7542
-30.807	-41.9597	66.9919
-77.8511	-20.6073	-55.3497
-79.1219	-12.8507	-58.5346
-76.8763	-12.6387	-64.4037
-75.5844	-21.6233	-60.7339
-74.9967	5.67906	-19.5418
-78.2993	18.8509	-32.4076
-78.1947	13.5953	-50.3953
-77.7665	6.51925	-44.2591
-74.4073	-32.5276	-45.1231
-72.4915	-38.5432	-39.2169
-76.3179	-26.864	-50.5432
-72.7821	-30.0141	-55.0347
-82.8609	-10.842	-57.5084
-81.7588	-20.4082	-54.1389
-80.1331	-36.1479	-40.6973
-82.8268	-28.9076	-47.383
-77.0703	-42.7666	-31.4777
-74.6332	-42.5809	-27.5383
-87.6195	-18.9378	-46.4626
-89.8251	-6.22564	-54.5087
-72.9231	-19.9916	-12.6884
-71.8969	-28.2854	-11.1934
-78.2966	-19.8505	-24.2279
-78.5356	-23.7236	-23.523
-78.972	5.8438	-42.5905
-86.4038	-11.4415	-60.2023
-86.8431	15.8718	-46.732
-89.2607	14.8729	-44.1364
-84.5466	13.6657	-48.9921
-83.6916	0.574943	-31.3454
-91.77	0.847344	-56.2851
-88.9308	-9.67666	-48.0778
-88.5003	-6.72158	-47.737
-82.6597	-0.195024	-56.1493
-79.5611	-3.2934	-58.3104
-78.005	-31.7824	-43.8674
-78.1361	-3.37321	-25.7313
-81.7022	5.08912	-50.8302
-79.3054	3.25814	-52.9891
-88.2498	5.71204	-43.8633
-82.7233	-13.515	-41.8639
-14.9353	107.551	9.04467
-12.8039	95.7107	25.0302
-9.07044	82.1617	36.4763
-14.8271	66.0368	43.751
-3.87847	6.81053	87.1204
-4.84392	19.0673	88.6931
-5.83217	66.9686	46.5202
-5.40102	58.2678	51.198
-3.94012	44.9515	56.5421
-27.4273	103.715	8.29828
-15.6344	56.8085	47.9088
-17.2008	51.0955	49.9274
-31.0624	44.4971	43.1407
-27.2458	44.5135	49.3318
-21.5211	42.8164	49.2443
-38.9701	97.8919	5.308
-41.6912	105.08	-16.3042
-36.32	41.246	46.9692
-35.4672	44.8201	48.5396
-48.5751	81.4185	11.5939
-42.2096	41.7849	45.9317
-36.07	43.2877	47.7552
-36.3639	44.4202	43.1035
-43.4984	46.9785	44.2575
-61.5006	72.9777	-0.0765492
-44.947	38.9686	42.0215
-44.3547	38.7603	41.805
-40.5076	42.5073	41.3971
-51.8961	43.7999	38.8119
-10.1375	44.7865	52.3613
-66.1669	-58.8258	-17.7178
-78.6513	6.42955	-60.61
-76.4973	12.5552	-74.7198
-73.7655	-13.2767	-76.6398
-71.2351	-25.5234	-70.4045
-78.051	-2.46665	-65.0062
-75.112	-0.220724	-79.0065
-67.2883	-36.4392	-62.0122
-14.6444	-86.9537	55.3108
-25.626	-85.7697	46.5201
-53.6868	-64.6698	38.1063
-71.4107	63.0992	-16.7536
-15.6437	117.652	-16.1781
-29.5315	112.8	-15.7982
-48.2465	38.1397	38.9691
-54.493	-55.9133	44.9479
-8.96441	-10.954	85.5042
-20.333	-15.1702	81.7308
-7.52029	-5.71047	82.5554
-12.2577	-7.18694	81.3783
-14.1624	-12.4443	84.2416
-35.1605	-23.2937	73.1025
-33.581	-31.0712	73.0793
-70.2797	-46.4054	-28.0755
-69.6613	-28.4699	-3.14291
-70.7452	-19.3299	-4.92134
-72.305	13.2657	-3.70122
-69.5413	-1.45533	4.43724
-50.7171	31.756	39.2707
-67.3705	-14.7821	8.36701
-66.9017	-25.9213	10.6581
-16.4563	19.3224	70.9521
-19.8739	6.02044	77.3432
-17.5514	8.86755	80.4525
-34.2145	-11.772	71.5259
-52.0354	-35.5902	56.5475
-43.001	-28.0332	67.1202
-48.1845	-46.4356	57.8076
-62.0547	-15.2923	41.3601
-34.0966	-55.4663	69.2658
-41.9668	-52.9518	62.3773
-50.215	24.2779	49.8132
-46.8407	28.1873	48.2714
-40.7698	-37.3292	68.2726
-36.5339	-43.3736	70.1834
-14.782	-49.7621	83.6473
-34.0329	29.8122	52.984
-11.467	17.6813	84.2663
-65.7241	-7.96061	24.7459
-65.4834	-20.8205	26.9458
-7.67502	46.1494	54.157
-20.7236	36.423	44.6512
-17.8977	-8.71595	78.4772
-20.8991	-27.426	75.4754
-20.7496	-21.3422	73.3287
-33.4338	-136.917	17.6021
-41.9756	-133.939	11.0161
-45.2333	-148.149	9.11899
-35.9476	-150.873	15.208
-39.2215	-92.8941	17.1845
-31.224	-96.0757	26.152
-39.0497	-110.332	14.0961
-30.8603	-113.45	22.1341
-30.8862	-35.0783	73.5402
-50.229	-78.7762	12.6659
-56.0219	-70.084	18.095
-49.4643	-130.976	3.95672
-52.3239	-145.25	2.41195
-58.2615	-70.288	5.04029
-55.034	-78.8808	0.868487
-59.0178	-79.9195	-9.34011
-60.6396	-98.1614	-34.9866
-71.1801	-35.0425	-11.4975
-60.5155	-82.7708	-33.8378
-54.4718	-109.289	-50.7442
-54.8613	-124.027	-55.2975
-26.2877	-153.115	20.309
-24.0319	-139.191	23.8432
-21.6086	-97.6667	36.1743
-21.4823	-115.935	30.7324
-26.2438	-34.9672	76.8851
-17.2687	-29.7963	79.6887
-17.3218	-32.409	78.4838
-15.8268	-154.981	24.777
-17.7522	-40.2012	78.4775
-77.2538	54.0556	-36.6287
-48.8723	-87.899	-59.0617
-48.35	-105.829	-61.0386
-53.9843	-91.7076	-48.2811
-49.8416	-121.212	-63.5959
-56.2052	-72.1976	-48.9718
-15.3598	122.409	-47.9596
-30.1389	116.84	-46.3695
-14.9845	97.3431	-115.398
-13.7912	69.7382	-138.949
-28.8269	67.7022	-134.699
-30.3655	93.9683	-111.035
-13.7525	40.2889	-147.493
-27.3279	38.7801	-143.342
-30.5999	110.857	-79.7278
-15.262	115.249	-82.889
-13.3048	13.333	-147.468
-26.2025	11.8707	-143.157
-12.4873	-13.2067	-141.459
-25.21	-14.0357	-136.859
-23.7421	-35.628	-124.509
-11.7511	-35.0877	-129.086
-10.8387	-53.4071	-107.786
-21.9302	-53.861	-105.65
-9.84096	-85.3406	-85.3141
-9.65474	-100.388	-83.5291
-19.8223	-101.188	-82.09
-20.4848	-86.211	-82.567
-9.65262	-114.686	-83.1086
-19.3881	-114.895	-82.4794
-10.6423	-66.9618	-93.1317
-21.5632	-68.7381	-90.3285
-43.423	108.163	-44.8267
-55.3248	97.0165	-43.4307
-53.2899	58.7238	-116.927
-41.9376	63.8196	-126.663
-40.7447	36.37	-135.642
-52.0592	33.373	-125.857
-54.4372	79.928	-96.5081
-42.9396	88.0505	-104.426
-56.5223	92.0397	-71.0756
-44.3709	102.743	-75.642
-50.5275	8.69913	-126.797
-39.2991	10.3047	-135.886
-37.738	-14.5886	-129.981
-48.5863	-14.6063	-121.497
-45.4209	-35.1351	-109.619
-35.5739	-35.7909	-117.572
-33.4964	-53.9962	-99.2887
-43.8456	-52.882	-91.1724
-32.6126	-69.861	-84.4787
-40.2578	-103.162	-71.6716
-40.9416	-86.5417	-69.4192
-31.199	-86.6503	-77.0857
-30.3351	-102.227	-78.3651
-29.9229	-115.813	-79.685
-64.252	69.4814	-86.3316
-62.7931	52.219	-105.517
-70.176	44.1074	-91.0242
-72.0082	57.8073	-72.4047
-73.7515	66.3781	-51.8697
-66.5389	79.461	-64.1889
-59.5404	6.8994	-116.354
-61.2849	29.6435	-114.927
-53.3776	-33.4767	-98.6606
-57.4273	-14.4639	-110.143
-51.249	-50.0513	-82.7993
-73.4441	18.7925	-88.3173
-60.4499	-31.4536	-88.3573
-66.1722	-28.5934	-79.0979
-70.024	-13.9565	-87.7031
-64.5259	-14.3976	-99.3337
-71.5312	1.84058	-91.8427
-66.4569	4.61334	-105.004
-68.3811	24.7709	-102.342
-57.7681	-54.366	-57.705
-61.7	-41.4498	-68.1446
-56.4721	-46.1341	-75.1245
-91.7407	1.59238	-57.6687
-89.7879	2.21191	-59.6954
-90.9781	11.1123	-52.3551
-88.9048	12.5137	-54.3652
-85.8384	11.5466	-36.6738
-83.5383	11.9985	-39.0876
-81.4592	10.3181	-42.1761
-86.9216	0.563162	-60.2929
-86.2038	10.6567	-55.4163
-90.0675	-10.3714	-55.7512
-90.1991	12.8875	-42.9932
-91.2993	9.49834	-51.1806
-40.2796	-117.658	-74.1365
16.3792	-74.5604	73.7586
13.3161	-75.7443	74.0748
18.8712	-75.0411	70.0458
17.3387	-72.0772	76.684
64.8957	12.6175	30.6424
63.6092	15.3202	33.9474
64.6836	9.17239	31.2347
65.9968	14.0449	26.1505
62.5859	18.2245	35.6986
62.7746	21.2999	32.7333
60.8307	18.8086	39.4277
8.28808	53.1953	52.4408
9.38153	50.3342	52.4182
9.93141	54.6891	51.1501
6.2991	55.8887	52.3983
7.00341	51.2881	53.3131
27.2028	42.0346	43.8559
24.9418	40.3137	43.5069
26.6086	42.8506	41.9527
29.6587	43.393	44.5342
27.3428	41.202	45.4306
10.3574	38.3254	53.5623
11.1496	37.3536	53.0705
10.5425	39.4549	52.4967
9.75139	38.8185	54.2433
14.1579	38.3581	48.7501
16.4227	37.5402	47.3126
14.4946	39.1646	48.0091
11.9137	39.5399	50.491
13.8644	37.3553	49.9654
47.1077	38.2108	39.7947
46.8187	38.5011	39.4546
44.1623	38.1013	43.1029
47.6202	37.6572	39.8199
48.4053	38.3433	37.1419
18.4471	33.3295	49.9411
18.2965	34.1535	49.3643
17.5542	32.499	51.2647
19.9842	32.7797	49.4704
21.7611	37.0069	43.2179
21.8723	36.6164	43.174
22.1479	37.1833	42.0389
22.1259	37.7535	43.3199
21.4734	36.8376	44.1027
25.2304	-30.3504	73.6217
24.9037	-30.1553	73.9846
25.4449	-30.6126	72.9139
25.0417	-30.384	73.8618
23.7156	-28.2747	76.8545
23.9185	-29.2387	75.783
25.2701	-29.4143	75.1992
23.8722	-27.5643	77.3245
21.9749	-27.1448	78.5157
26.0435	-29.8229	74.5443
26.2486	-29.6162	74.6449
26.1028	-30.013	74.2988
27.8978	-28.8841	74.6332
27.1353	-28.8163	74.6964
28.519	-29.6038	74.1584
28.0501	-27.4349	75.1065
26.4726	-31.2088	71.7796
25.5968	-30.4686	72.218
27.7225	-31.9046	70.1847
26.071	-31.5804	72.1893
21.6018	-33.8045	79.0721
21.8499	-34.5403	79.0722
23.5488	-32.0709	76.9848
21.4163	-33.2719	79.0925
19.21	-35.0502	81.7855
20.3189	-20.5047	82.5787
19.8338	-19.0686	82.7899
17.764	-18.5531	84.389
20.2268	-21.1546	82.4583
22.3816	-22.8627	80.6822
24.3315	-30.3607	74.9682
24.4853	-30.4357	74.9971
24.3721	-30.3362	74.7095
22.8505	-30.4313	76.0537
74.3559	-35.1296	-18.4739
73.6645	-35.4261	-17.5407
74.2451	-39.0598	-20.2915
74.9576	-34.1654	-18.76
83.6118	-28.1092	-32.2123
84.2081	-26.83	-35.3324
81.7974	-26.7545	-31.8258
82.9791	-28.8629	-29.5351
84.7136	-29.4707	-32.2918
77.8926	-32.5651	-20.7761
77.8114	-29.8275	-21.065
77.2869	-32.7367	-19.8941
78.7929	-34.1726	-21.7948
76.7167	-21.1099	-27.2974
76.2496	-20.0307	-29.3338
77.1722	-18.8878	-27.9513
77.8684	-21.1706	-26.4052
77.0305	-23.4047	-27.4844
83.9569	-1.52178	-34.4975
83.3046	-3.63819	-34.6799
84.1909	-0.809324	-35.2714
84.0445	-0.782461	-33.7479
87.8805	8.44939	-41.508
87.7041	9.31405	-40.7868
87.5332	7.46125	-41.1823
89.3314	8.87739	-44.7631
80.1071	-20.3172	-35.7017
78.9409	-18.5013	-34.8712
79.1776	-23.8705	-32.0909
82.7682	-23.8243	-37.1692
82.7309	-18.4605	-40.1528
86.1165	-1.53825	-41.0527
86.5515	-0.467152	-41.7105
84.5453	-1.14427	-37.3416
86.0251	-3.06378	-41.7089
89.7691	-14.4766	-49.4832
89.6404	-14.1532	-48.9318
88.7205	-17.3763	-48.1742
90.1196	-13.5419	-50.7439
90.2292	-12.2305	-52.7836
90.5373	-9.95611	-52.4075
90.1649	-13.1153	-53.5907
90.3835	-9.51033	-54.8211
84.5677	-25.713	-37.7758
84.9804	-23.906	-40.2494
85.4891	-26.7453	-38.0937
86.7668	-13.18	-45.9022
85.3388	-14.9001	-44.4757
88.3917	-13.7815	-47.3512
86.8788	-11.8128	-45.939
75.7703	-26.921	-18.6836
75.8441	-29.2735	-18.6151
76.4105	-26.6585	-19.6149
75.3779	-25.9433	-18.3638
75.1751	-24.1743	-18.1391
75.5945	-22.1161	-18.7291
74.7047	-24.1429	-17.217
77.0991	-15.1884	-21.0579
76.6959	-15.6655	-20.5088
77.6244	-15.7193	-21.8084
77.7526	-12.0317	-22.1463
76.2524	-16.3644	-19.8373
75.7733	-16.0299	-18.9746
76.0458	-18.8177	-19.4204
79.3309	-25.2973	-30.0252
79.6924	-25.4363	-27.8494
79.481	-11.9593	-30.6407
78.2402	-15.6608	-29.1535
78.9312	-12.6197	-32.1296
80.9222	-8.27687	-32.0525
80.6	-10.8572	-29.9524
90.4892	1.85485	-52.0897
90.6185	2.53101	-52.5649
90.3688	1.55318	-51.4155
90.7489	0.327923	-53.4144
90.8101	-3.41326	-53.1287
90.8627	-4.16529	-51.4131
90.815	-5.23268	-53.5152
90.7153	-2.29871	-54.3003
90.654	-1.25417	-51.7827
87.1504	6.85911	-41.2303
87.9861	6.44065	-43.853
86.1964	6.36478	-39.9933
89.025	5.60589	-47.0258
88.2782	4.70721	-46.1409
90.2864	4.41911	-50.8492
90.0258	6.57879	-48.0996
42.2156	44.253	44.4159
42.0544	43.5293	44.1389
44.6324	43.4689	43.0487
42.3223	44.9614	44.7873
39.6103	44.8839	45.3266
22.4559	-75.5743	65.0325
21.5175	-78.0162	61.9602
24.8641	-74.1277	64.6139
49.385	40.7834	37.4714
49.7645	41.2051	37.5171
48.1459	41.767	39.2005
48.98	40.4349	37.5584
50.3971	39.7579	36.1793
53.1946	43.0592	35.5711
55.103	44.2088	34.105
51.2119	45.1399	37.9515
50.9298	41.9654	37.0352
53.2989	40.5778	34.4483
69.0477	-46.9209	-10.4072
69.9331	-46.1942	-15.1892
69.2093	-45.079	-9.46181
68.4471	-49.1391	-10.2636
29.7573	37.5145	44.7846
29.4763	38.9925	46.334
33.9266	37.5429	45.486
29.309	35.2954	42.4414
25.5149	36.8584	43.3757
21.0676	36.6275	44.5577
21.3048	36.3535	44.5958
21.3001	37.3618	44.7485
20.6788	36.5629	44.7423
23.301	38.9414	43.4535
23.1231	38.4862	44.6749
22.9886	39.1589	41.6156
19.5129	38.65	45.0221
20.1324	38.4949	44.9612
20.7003	40.1221	45.2301
18.9801	38.859	45.2514
19.2813	37.7819	45.0289
8.96281	40.0392	54.7084
8.24282	40.2489	55.3874
8.77482	41.7761	54.0715
18.9577	-27.3135	79.803
19.2286	-28.1714	78.8618
19.4002	-26.5413	80.168
16.7458	-26.3311	81.4982
62.7361	-69.0786	-10.9143
61.8002	-67.9096	-5.61407
62.297	-71.9596	-12.3468
63.7539	-66.9431	-11.8588
74.8441	-2.78363	-18.7781
73.6382	-9.42917	-14.0439
75.6558	-4.24535	-21.3368
76.3678	4.13726	-24.4206
73.9856	-0.637497	-14.5494
64.0574	-74.2624	-23.6181
63.7474	-76.6242	-25.0874
64.6221	-70.3036	-24.6876
63.4185	-75.5758	-18.5875
62.9767	-109.598	-27.6839
63.0967	-118.108	-29.2737
61.1446	-106.521	-35.4213
62.6592	-100.608	-27.432
63.2998	-111.88	-21.3873
24.6175	-30.8915	75.3186
24.7602	-31.0292	75.3318
24.6727	-30.7082	75.0842
23.1743	-31.2134	76.6847
24.7908	-31.2886	75.405
25.1368	-31.2747	75.1948
21.1103	-32.8531	79.2344
21.0974	-32.3647	78.9654
18.8306	-33.693	81.6499
26.8557	-72.6238	64.4809
30.6774	-72.8827	58.919
27.2029	-69.7173	67.6681
47.6873	-68.1979	-68.2024
46.9594	-65.187	-73.0314
50.3035	-66.7701	-64.8197
46.8684	-71.2779	-67.5169
56.994	89.5816	-10.5257
58.8859	89.9242	-17.8085
53.0566	93.3466	-8.79561
57.7242	86.1738	-6.54863
87.4345	-24.289	-47.5222
88.9111	-19.9473	-51.8417
87.8167	-23.1646	-46.6825
86.1255	-27.8461	-43.7533
86.8422	-24.7221	-48.8779
81.0451	0.96388	-29.0133
79.9381	-3.17917	-26.8195
82.2488	0.773133	-29.3988
82.0339	5.12159	-31.4494
79.566	1.1623	-28.6315
78.3713	-20.3118	-22.7418
77.6907	-20.7938	-21.5071
78.6462	-23.1242	-23.1093
78.6058	-20.8607	-24.2608
77.9273	-18.616	-22.9372
77.6394	-26.8162	-21.211
77.1294	-23.7649	-20.8565
78.6497	-26.7827	-22.5601
90.0423	-14.8197	-55.9042
89.2341	-15.0689	-56.8857
90.9094	-9.00763	-58.809
90.4754	-14.5462	-54.8874
88.1373	-15.2278	-57.8711
87.1701	-20.2175	-54.1931
86.6746	-15.1042	-58.4928
88.7269	-9.40863	-60.7288
77.8599	3.9035	-31.5109
79.0745	5.46864	-33.8539
77.3306	5.4456	-31.161
78.2763	3.15448	-29.5837
83.5529	-23.2182	-52.1147
81.8291	-22.4599	-52.4648
84.3533	-19.303	-55.1302
84.7547	-23.9423	-51.5407
82.3602	-26.5867	-49.0295
85.8835	-28.0617	-38.5564
86.4733	-25.4947	-41.7896
85.5836	-29.636	-35.8847
85.7819	-29.3468	-39.4818
83.6703	-36.8748	-34.0718
82.9929	-38.2535	-30.6078
82.3436	-38.9227	-34.8935
84.5603	-34.0274	-37.6872
84.7614	-33.6185	-33.4583
83.6916	-33.4529	-27.9154
83.166	-35.3904	-27.7058
84.4696	-32.5828	-29.914
83.062	-32.3947	-26.8153
72.1401	-42.872	-21.2797
71.5738	-43.8457	-21.4441
73.1261	-42.0774	-23.2002
72.0229	-41.1899	-17.4251
77.4911	-40.4913	-22.379
78.158	-42.1672	-24.5537
79.0618	-38.8298	-22.3878
76.6377	-37.5569	-20.4917
75.9808	-41.105	-22.8361
85.4575	6.82237	-33.4641
85.5486	8.44005	-33.785
84.0284	3.54721	-31.4934
85.7904	6.62652	-33.9955
85.5095	9.56775	-34.1431
87.207	12.4881	-36.9511
84.7723	9.59792	-34.1825
90.3752	-14.1301	-54.1224
89.2943	-18.1667	-50.4069
91.2861	-8.94522	-56.9478
91.2203	0.16122	-56.4613
90.9532	-0.816711	-55.8411
91.382	-0.659224	-57.2394
91.2847	1.91949	-55.3477
86.0734	7.33221	-36.1767
86.1192	7.15291	-35.5882
85.5155	5.70294	-36.0018
86.6388	8.71388	-37.5816
85.8889	6.44728	-34.4924
84.9509	3.2798	-33.539
87.4268	10.3229	-36.9484
89.2997	-14.0022	-48.3332
90.4218	-11.233	-49.3236
87.7104	-17.2381	-46.4484
85.0257	3.76031	-37.1137
85.5581	5.28391	-38.0332
84.9022	3.7497	-36.5723
85.4826	2.46295	-38.545
85.8727	5.8416	-39.4425
86.452	4.93971	-41.2524
84.3942	-17.7986	-42.6507
85.2554	-19.7314	-42.9953
81.0985	-9.83721	-28.9864
82.217	-5.41542	-30.2127
80.9068	-9.55158	-27.7578
79.9737	-14.5758	-27.8009
84.213	-0.462717	-35.7001
84.5281	1.41199	-35.5763
51.8341	-64.552	-63.296
52.317	-60.4587	-66.7317
52.9883	-64.3571	-60.5674
27.1996	0.00994498	68.4849
28.3109	-2.71348	69.4261
27.8162	1.70746	68.0043
25.3312	-0.162727	68.7272
22.4444	2.3098	70.1497
22.7966	0.959334	69.7241
23.0226	4.7911	69.7026
21.612	2.43122	71.5126
50.2205	54.1863	33.8556
49.8511	53.1322	35.8588
56.407	51.2608	29.4938
50.3753	55.4499	31.7282
44.3371	55.0663	37.3541
8.94389	1.20113	78.7013
8.40208	1.99186	79.5557
8.58013	0.169905	78.5929
10.416	1.00886	77.9935
11.7233	4.72206	80.7752
9.89233	4.60233	81.3625
12.9451	3.57761	79.1534
12.6677	5.78295	81.2951
49.2216	38.6503	36.1698
48.6268	38.7971	36.1646
49.8601	38.3573	36.0127
48.9321	39.0791	36.5514
22.2062	36.4899	43.274
22.7928	36.5159	43.2387
22.5337	36.3217	42.0908
21.9342	36.58	44.2185
19.7467	12.4049	77.5518
19.9754	11.2779	77.8035
20.0054	12.0499	76.7794
18.4274	13.7242	78.895
81.1446	-30.1129	-45.748
79.9323	-32.2862	-43.5198
79.8217	-28.3366	-47.0624
82.2829	-31.3938	-44.769
66.7082	81.9703	-28.4961
64.2017	85.6313	-28.3719
67.3708	78.5955	-22.8234
68.9412	80.5479	-38.1031
28.3356	-38.0209	69.2238
28.8916	-36.28	68.4806
28.6214	-41.24	68.0765
27.2006	-37.2938	70.5109
28.3003	-27.2762	67.5838
26.8542	-26.9797	69.1593
28.8468	-25.0385	65.5807
28.7909	-29.2925	67.3976
-18.776	-74.8795	73.5901
-19.8094	-72.3863	76.6255
-21.1199	-75.3493	69.8347
-15.6426	-76.1389	73.8793
-64.8296	11.4752	30.9869
-65.5648	12.6693	26.8031
-64.8743	8.57388	31.2446
-62.8393	14.3028	35.3028
-61.3451	17.7309	37.4243
-59.922	18.5906	40.7205
-61.5182	20.2583	34.7111
-6.8293	52.4995	52.8705
-8.16193	49.1931	52.8224
-6.56417	50.7832	53.6555
-4.8842	55.3283	52.8607
-7.45522	53.3892	52.0049
-24.8711	39.4071	44.8148
-24.5739	40.4217	42.4968
-23.3326	37.8247	43.976
-24.4619	38.5105	46.2716
-26.6359	40.8133	45.5513
-10.4886	37.917	54.1451
-9.87678	38.4733	54.7887
-10.7017	38.9813	53.0873
-11.3823	36.8772	53.6352
-14.5608	37.1445	49.3295
-16.9054	36.2253	47.6896
-14.2596	36.2243	50.5535
-12.2439	38.7636	50.9644
-14.8009	38.3031	48.7283
-44.1106	37.0332	42.2387
-44.5536	36.8494	42.3661
-40.7288	36.8533	45.1437
-43.7772	36.785	41.9958
-45.7355	37.0665	39.8127
-18.1331	31.7934	50.6348
-19.6544	31.2908	50.0409
-17.5109	31.2743	51.928
-17.965	32.5626	50.0605
-21.5414	35.3881	43.3513
-21.7124	35.4199	42.3699
-21.5354	34.9986	43.3244
-21.3338	35.4564	44.0505
-21.8335	35.9998	43.4405
-26.8033	35.78	44.8428
-23.9976	35.3721	43.7002
-26.8573	33.2341	42.8318
-30.7058	35.4807	45.8052
-26.527	37.4527	46.2188
-25.7009	-30.0157	74.065
-25.3759	-29.8476	74.381
-25.5494	-30.0955	74.3153
-25.8286	-30.3201	73.6595
-24.852	-28.7319	76.9339
-25.8858	-29.2216	75.544
-24.7887	-29.3671	75.8576
-23.3187	-28.2837	78.5792
-24.9869	-28.1289	77.4937
-26.4199	-29.5017	75.0694
-26.4609	-29.6929	74.92
-26.6162	-29.3101	75.3706
-28.0271	-28.4286	75.4026
-28.3173	-27.0511	75.6516
-28.5478	-29.302	75.0247
-27.388	-28.3519	75.5765
-26.5786	-30.8878	73.1563
-26.2187	-31.2525	73.5696
-27.6521	-31.5643	71.7972
-25.7591	-30.0311	73.4374
-22.2583	-34.2317	80.1114
-22.7158	-35.0257	80.0601
-19.3002	-35.6667	83.314
-21.8259	-33.5244	80.245
-24.5122	-32.3935	77.2268
-19.3733	-22.735	83.4291
-18.9446	-20.9102	83.6101
-22.0863	-24.6893	81.3905
-19.5423	-23.5517	83.2832
-16.5788	-20.9604	85.0268
-24.8945	-29.9707	75.3902
-23.61	-30.0348	76.5296
-25.0086	-29.9946	75.0701
-25.0077	-30.0366	75.4347
-73.9612	-35.4134	-17.8879
-74.7364	-34.5969	-18.4352
-73.8481	-39.3283	-19.7449
-73.2714	-35.6674	-16.9568
-83.1001	-29.0601	-31.5566
-83.6672	-27.8739	-34.67
-84.2026	-30.4407	-31.6341
-82.4913	-29.7319	-28.8853
-81.29	-27.6568	-31.1779
-78.3799	-33.0643	-20.1262
-79.3585	-34.6786	-21.1788
-77.9758	-33.2024	-19.2712
-77.6203	-30.3537	-20.4284
-76.2486	-21.8413	-26.6694
-75.7594	-20.814	-28.7084
-76.5656	-24.1267	-26.8544
-77.4078	-21.9256	-25.7678
-76.6997	-19.6795	-27.3199
-83.3713	-2.83084	-33.837
-83.4661	-2.08687	-33.0901
-83.5962	-2.14376	-34.6088
-82.7233	-4.90825	-34.0206
-87.2064	6.82157	-40.8108
-87.0349	7.69516	-40.0935
-88.6216	7.14934	-44.0454
-86.8626	5.8582	-40.4885
-79.5666	-13.368	-34.8536
-82.3064	-10.4428	-38.9944
-78.8255	-15.839	-34.7094
-78.3964	-13.6196	-31.4913
-80.9061	-9.57061	-34.8804
-86.3504	-0.533468	-41.644
-85.893	-1.97738	-41.0173
-84.8531	1.00829	-37.8692
-86.9409	0.854924	-42.8833
-88.2001	-2.18708	-46.094
-78.0944	-34.3314	-41.4996
-79.3472	-33.3043	-42.9083
-76.7821	-33.8171	-41.6713
-77.8774	-36.4689	-39.5107
-89.0641	-16.0771	-48.7581
-89.4031	-15.1808	-50.0151
-88.0423	-18.8918	-47.4604
-88.9408	-15.7421	-48.2084
-89.4902	-13.9186	-52.0515
-89.7954	-11.6701	-51.6701
-89.6156	-11.2626	-54.0839
-89.422	-14.8038	-52.8612
-84.004	-26.8282	-37.1068
-84.3918	-25.1004	-39.5743
-84.9278	-27.8801	-37.4225
-82.2112	-24.8948	-36.5086
-86.0975	-14.6389	-45.2011
-84.6886	-16.2773	-43.786
-86.2056	-13.2892	-45.2359
-87.7117	-15.3097	-46.6361
-83.768	-19.0846	-41.9707
-84.6332	-21.0275	-42.3111
-82.1343	-19.6453	-39.4856
-75.3702	-27.3739	-18.0514
-74.9826	-26.3956	-17.7286
-76.0026	-27.1573	-18.9789
-75.6759	-29.8211	-18.3588
-74.785	-24.6445	-17.5026
-74.3205	-24.5855	-16.5788
-75.1995	-22.6415	-18.0932
-76.6825	-15.8955	-20.4279
-77.3222	-12.8163	-21.5228
-77.1986	-16.4468	-21.1739
-76.2856	-16.3456	-19.8791
-75.8479	-17.0121	-19.2078
-75.6445	-19.4184	-18.7858
-75.3757	-16.6562	-18.3479
-78.84	-26.1108	-29.387
-78.6672	-24.7392	-31.4536
-79.2228	-26.2126	-27.2079
-78.9626	-12.9534	-30.0003
-77.7412	-16.5516	-28.5169
-80.0824	-11.885	-29.3062
-80.3786	-9.38099	-31.4073
-77.5	-18.3704	-27.6557
-78.3005	-18.398	-27.122
-89.7182	0.042041	-51.3486
-89.9697	-1.49907	-52.6691
-89.6061	-0.242247	-50.6759
-89.8409	0.700478	-51.8214
-90.0455	-5.2053	-52.3856
-90.1165	-5.92634	-50.671
-89.8963	-3.03997	-51.0416
-89.9344	-4.11611	-53.5563
-90.0527	-7.01339	-52.7726
-86.4799	5.2727	-40.5397
-85.5422	4.8275	-39.3124
-87.2934	4.79222	-43.148
-88.3006	3.88126	-46.3046
-87.5664	3.02874	-45.4271
-89.2855	4.79992	-47.3693
-89.5215	2.60949	-50.1118
-87.2078	1.9821	-44.1085
-88.7446	0.484205	-47.9174
-85.7875	3.38934	-40.5652
-39.2927	42.2043	46.756
-39.1397	41.7321	46.5633
-36.1943	42.7657	47.3625
-39.3909	42.7295	47.0614
-41.882	41.312	45.691
-24.3431	-76.1301	64.7108
-26.7101	-74.8545	64.2159
-23.1327	-78.7458	61.5348
-46.63	38.3863	40.41
-47.0445	38.6815	40.5637
-47.6099	37.587	39.0403
-46.2643	38.1256	40.3364
-45.4277	39.1391	42.1265
-50.616	40.3992	38.6826
-49.4489	41.8934	40.643
-53.4203	41.6744	36.7016
-50.5037	38.4597	37.4856
-48.2505	39.2324	40.2153
-68.7117	-46.7061	-9.98065
-68.1305	-48.8838	-9.89329
-68.8595	-44.8664	-8.99099
-69.5861	-46.1392	-14.7583
-20.9456	35.6635	44.4569
-21.084	35.1802	44.5116
-20.5473	35.7229	44.7197
-21.2741	36.2187	44.5066
-22.4769	36.8497	43.5565
-22.2581	36.5605	44.5988
-22.2937	37.1951	42.0595
-19.9011	37.7639	45.3939
-20.7552	38.7457	45.8418
-20.341	37.5705	44.9953
-19.424	36.7144	45.375
-19.3589	37.9194	45.8919
-9.02927	39.7337	55.2095
-8.79509	41.4738	54.6005
-8.30013	39.9931	55.8454
-19.8364	-28.7293	80.6354
-16.863	-27.8098	82.8915
-20.139	-28.1094	80.9282
-20.4074	-29.3692	79.4806
-62.394	-68.9171	-11.1564
-63.4254	-66.7687	-12.0202
-61.9361	-71.8629	-12.6242
-61.4883	-67.6369	-5.96014
-74.4373	-3.56297	-18.2233
-73.2992	-10.0124	-13.4597
-73.6126	-1.37291	-14.0423
-75.8748	3.14756	-23.8696
-75.2221	-5.06467	-20.762
-63.4276	-74.3576	-23.6821
-62.9765	-75.6123	-18.7704
-63.9789	-70.4002	-24.6881
-63.0501	-76.7548	-25.1593
-62.6976	-109.702	-27.8081
-62.8702	-118.156	-29.3479
-63.0196	-111.987	-21.5782
-62.2886	-100.754	-27.5832
-60.8641	-106.641	-35.4863
-25.1345	-30.6756	75.6145
-23.8913	-31.0748	77.1002
-25.1599	-30.419	75.4976
-25.3134	-30.9176	75.6124
-26.479	-31.0265	75.5105
-27.1865	-30.1207	75.1806
-26.7568	-31.4768	75.6278
-25.9129	-31.3268	75.6088
-26.5471	-30.1877	75.0545
-21.4617	-32.9791	80.4891
-18.8215	-33.807	83.2893
-21.6712	-32.2986	80.0374
-28.7468	-73.5605	63.859
-29.4493	-70.6823	66.8052
-32.3151	-74.1354	58.0021
-47.1926	-68.6426	-67.9929
-46.4022	-71.6826	-67.3281
-49.808	-67.2306	-64.5943
-46.4201	-65.6876	-72.8046
-55.9891	88.9419	-9.89448
-56.7055	85.5202	-5.83825
-51.9937	92.8491	-8.21176
-57.8383	89.1123	-17.2098
-86.7807	-25.6833	-46.8316
-88.2054	-21.506	-51.1313
-86.1779	-26.117	-48.1939
-85.5164	-29.0975	-43.0815
-87.1681	-24.5678	-45.9861
-80.5132	-0.193964	-28.3967
-79.4382	-4.22513	-26.2029
-79.0383	0.0495611	-28.0281
-81.4672	3.85227	-30.8278
-81.7118	-0.425118	-28.7698
-77.9394	-21.0102	-22.0993
-77.2703	-21.4471	-20.8653
-77.4946	-19.3392	-22.2971
-78.1571	-21.6008	-23.6159
-78.2117	-23.8077	-22.4648
-77.2225	-27.3797	-20.5741
-76.7171	-24.3528	-20.2149
-78.2198	-27.4029	-21.9205
-89.2819	-16.5267	-55.1766
-89.7229	-16.2552	-54.1551
-90.1065	-10.838	-58.0666
-88.4678	-16.7639	-56.1644
-87.3654	-16.9015	-57.1585
-86.4444	-21.756	-53.4973
-87.9088	-11.1978	-60.0034
-85.8988	-16.7429	-57.7931
-77.2996	2.75906	-30.9182
-77.7356	2.03668	-28.9924
-76.767	4.30458	-30.5779
-78.483	4.23832	-33.2486
-82.8649	-24.5867	-51.4522
-81.1346	-23.7914	-51.8142
-81.7075	-27.8323	-48.3836
-84.0684	-25.3285	-50.8716
-83.6222	-20.7833	-54.4548
-85.3182	-29.2053	-37.8864
-85.8701	-26.7465	-41.1077
-85.2104	-30.4931	-38.817
-85.0456	-30.7011	-35.2219
-83.162	-37.7657	-33.4565
-84.2507	-34.5645	-32.8173
-84.0164	-35.0488	-37.0497
-81.8359	-39.7676	-34.2989
-82.5178	-39.0318	-30.0074
-83.2228	-34.2508	-27.2808
-82.6006	-33.1656	-26.1783
-83.9821	-33.4599	-29.2701
-82.7035	-36.1448	-27.0849
-71.7525	-43.0686	-20.7928
-71.6469	-41.3023	-16.9085
-72.7276	-42.3535	-22.6991
-71.1851	-44.0258	-20.9719
-77.5595	-40.6591	-21.6333
-77.856	-42.5614	-23.9698
-75.6927	-41.4017	-22.2546
-77.1662	-37.9396	-19.8922
-79.5235	-39.2326	-21.7658
-84.8719	5.40621	-32.8086
-85.1992	5.19279	-33.3349
-83.4657	2.23496	-30.8509
-84.9572	7.00081	-33.1298
-84.9113	8.1125	-33.4879
-84.1701	8.16341	-33.535
-86.5721	10.9146	-36.2744
-90.4115	-1.72459	-55.7099
-90.4815	0.0323446	-54.5958
-90.5681	-2.55549	-56.4877
-90.154	-2.67685	-55.093
-85.4581	5.85035	-35.5073
-86.0057	7.18155	-36.9056
-84.9046	4.25533	-35.3356
-85.5096	5.6797	-34.9195
-85.2914	5.00342	-33.8292
-86.7953	8.76177	-36.2682
-84.3699	1.91183	-32.8811
-88.6077	-15.5709	-47.6125
-87.0484	-18.6949	-45.743
-89.7133	-12.8814	-48.5914
-85.2258	4.32733	-38.7653
-84.9264	3.80715	-37.3604
-84.4059	2.32701	-36.447
-84.288	2.32966	-35.9085
-80.5868	-10.8737	-28.3406
-81.6844	-6.55863	-29.5661
-79.4874	-15.5002	-27.1539
-80.4079	-10.5632	-27.1145
-83.6143	-1.80761	-35.0367
-83.9272	0.0416282	-34.9136
-83.9316	-2.51908	-36.6718
-51.3297	-65.0346	-63.0535
-52.4894	-64.83	-60.3224
-51.7657	-61.0167	-66.4577
-28.4661	1.51782	67.6839
-26.4756	1.87581	68.0036
-29.0306	3.30704	67.0693
-29.3388	-1.89264	68.9265
-23.4824	3.86785	69.7878
-22.5222	3.47603	71.4101
