1937
-79.8505	-17.0284	-29.4577
-82.344	-12.3836	-30.2662
-82.6437	-9.91184	-32.3851
-79.5507	-18.8204	-28.5742
-80.3749	-18.8301	-28.0307
-91.797	-0.463252	-52.4668
-92.0262	-1.98691	-53.7975
-91.691	-0.745703	-51.787
-91.918	0.190198	-52.9457
-92.0765	-5.65442	-53.4982
-92.1632	-6.36722	-51.7655
-91.9609	-3.51177	-52.1492
-91.9608	-4.58122	-54.6864
-92.0617	-7.44594	-53.8829
-88.7007	4.66316	-41.5673
-87.7743	4.20577	-40.3317
-89.4759	4.20175	-44.1963
-90.4431	3.31462	-47.3812
-89.7124	2.45972	-46.4948
-91.4281	4.24458	-48.4542
-91.6251	2.07765	-51.2204
-89.3703	1.41853	-45.1652
-90.8619	-0.0392388	-49.0046
-88.0004	2.78629	-41.5959
-41.9017	46.3314	39.6261
-41.8206	45.8871	39.3883
-38.5053	47.1681	40.497
-42.056	46.8274	39.9362
-44.5891	44.6909	38.6886
-24.9189	-80.6193	71.9759
-27.4948	-79.1369	71.8554
-23.623	-83.1985	66.859
-49.0863	37.1593	35.7963
-49.4808	37.9196	35.7844
-49.9717	34.7136	35.1528
-48.7964	36.807	35.8434
-47.9646	40.067	36.6268
-53.0162	39.828	33.8837
-52.4476	44.6008	34.89
-55.487	41.9584	32.1861
-52.6565	35.7104	33.4813
-50.8195	38.744	35.316
-68.484	-47.7061	-10.1431
-67.6944	-50.1564	-10.0789
-68.7288	-45.9761	-9.17366
-69.6191	-46.5025	-15.015
-18.2803	34.3017	42.5536
-18.6241	33.3837	42.6938
-17.708	34.2325	42.7968
-18.5248	35.489	42.4108
-20.445	36.5129	41.5167
-20.2563	36.5814	42.37
-20.2409	36.4791	40.1712
-16.2519	37.9739	42.3666
-17.7694	40.2494	41.7285
-17.0659	37.7618	42.0382
-15.7003	35.9561	43.1079
-15.3266	38.3538	42.7959
-6.33636	41.628	53.376
-6.2837	43.6768	52.643
-5.73953	41.9616	54.1615
-19.4235	-26.5037	76.9587
-16.3957	-24.238	79.449
-19.6873	-25.8421	76.979
-20.2099	-27.8802	75.9039
-60.803	-70.9243	-10.9887
-61.9672	-68.8088	-11.8952
-60.3675	-73.8701	-12.5158
-59.5148	-69.5447	-5.54298
-77.2245	-4.25382	-19.2377
-76.1921	-10.6143	-14.5116
-76.6598	-2.14722	-15.0861
-78.3681	2.38089	-24.8435
-77.8478	-5.72397	-21.7692
-62.6353	-74.2733	-23.8275
-61.9032	-75.4432	-18.7718
-63.3059	-70.3563	-24.8677
-62.296	-76.677	-25.3431
-62.2533	-109.728	-28.0948
-62.613	-118.179	-29.5713
-62.4646	-112.108	-21.841
-61.6936	-100.694	-27.8528
-60.5438	-106.663	-35.8111
-25.2803	-31.376	72.9384
-24.0262	-31.4772	74.346
-25.3364	-31.1769	72.7811
-25.4247	-31.5789	72.9281
-26.4474	-31.6865	72.537
-27.5051	-31.0494	71.8679
-26.7052	-32.1482	72.6612
-25.8093	-31.8583	72.8306
-26.7893	-31.1671	71.9985
-22.0485	-32.52	78.4459
-19.8067	-33.1836	82.1624
-22.0297	-32.072	77.9306
-29.6409	-77.6809	71.9901
-30.092	-75.1381	75.646
-33.5688	-77.6238	65.8982
-47.6031	-69.1002	-68.864
-46.7577	-72.1161	-68.1706
-50.212	-67.6712	-65.4677
-46.9152	-66.1862	-73.7047
-57.8364	89.4464	-8.75797
-58.663	86.1379	-4.81747
-53.9342	93.519	-6.78223
-59.5525	89.4061	-16.2473
-88.4654	-25.9517	-47.7477
-89.9796	-21.8147	-52.1337
-87.8382	-26.3976	-49.1243
-87.1053	-29.3336	-43.9255
-88.8933	-24.8416	-46.9063
-82.9807	-0.837396	-29.376
-81.9439	-4.82979	-27.1856
-81.5078	-0.620686	-29.0109
-83.8636	3.17141	-31.8059
-84.1739	-1.0463	-29.7469
-79.8904	-21.4046	-22.9753
-79.2407	-21.8426	-21.7431
-79.6387	-19.7572	-23.1962
-80.1614	-21.9831	-24.4813
-80.1156	-24.1514	-23.2893
-78.913	-27.6868	-21.3372
-78.6037	-24.7103	-21.0454
-79.9124	-27.6946	-22.6747
-91.1313	-16.8811	-56.2574
-91.5896	-16.6035	-55.2273
-92.0149	-11.2411	-59.2123
-90.293	-17.1338	-57.2568
-89.1644	-17.2898	-58.2608
-88.1765	-22.1005	-54.5283
-89.768	-11.6388	-61.1671
-87.6783	-17.1574	-58.9047
-79.6526	2.02466	-31.91
-80.1562	1.31818	-29.978
-79.1184	3.53971	-31.5648
-80.7816	3.50424	-34.2429
-84.4946	-24.9516	-52.4468
-82.7598	-24.1932	-52.8251
-83.2551	-28.1681	-49.3189
-85.7033	-25.6609	-51.8467
-85.3265	-21.1836	-55.5073
-86.9223	-29.4197	-38.6742
-87.5523	-26.9974	-41.9596
-86.7601	-30.6969	-39.595
-86.5943	-30.8863	-35.9586
-84.3765	-37.8841	-34.0654
-85.629	-34.703	-33.4707
-85.3767	-35.2049	-37.7445
-82.9415	-39.8897	-34.8943
-83.6327	-39.1261	-30.5505
-84.5903	-34.3812	-27.8826
-84.0042	-33.3156	-26.7957
-85.4015	-33.5971	-29.9018
-83.9532	-36.2574	-27.6483
-72.2332	-43.2547	-21.2213
-72.1655	-41.498	-17.3282
-73.3185	-42.544	-23.166
-71.6023	-44.2089	-21.387
-78.3627	-40.7766	-22.0696
-78.592	-42.6603	-24.3902
-76.4174	-41.548	-22.7038
-78.1175	-38.0959	-20.3853
-80.4757	-39.336	-22.2219
-87.2365	4.76522	-33.7873
-87.5545	4.5596	-34.3168
-85.8835	1.61129	-31.827
-87.3034	6.34382	-34.1057
-87.2391	7.44233	-34.4628
-86.492	7.4801	-34.5093
-88.8355	10.246	-37.2585
-92.4346	-2.20607	-56.8673
-92.5277	-0.462049	-55.7455
-92.5779	-3.02536	-57.6495
-92.1743	-3.15008	-56.2397
-87.7636	5.21463	-36.5014
-88.2817	6.54354	-37.9045
-87.2159	3.62776	-36.3322
-87.8298	5.04648	-35.9101
-87.6369	4.37382	-34.8142
-89.0808	8.11698	-37.2605
-86.7405	1.30616	-33.8667
-90.541	-15.9245	-48.624
-88.9169	-19.0372	-46.7181
-91.6918	-13.2488	-49.6286
-87.4656	3.70451	-39.7826
-87.1947	3.18459	-38.3711
-86.6902	1.7165	-37.4504
-86.5844	1.71717	-36.9088
-82.9073	-11.3741	-29.3
-84.066	-7.10105	-30.543
-81.6857	-15.9524	-28.0832
-82.7733	-11.0651	-28.0731
-85.9153	-2.38447	-36.0357
-86.2422	-0.551367	-35.9113
-86.1899	-3.08191	-37.6761
-51.7573	-65.4785	-63.9394
-52.8903	-65.2574	-61.1963
-52.3043	-61.5017	-67.3854
-24.5309	-2.10949	65.4223
-22.056	-1.57285	65.6783
-25.0018	-0.849319	64.7375
-26.678	-5.20334	66.7098
-18.8717	0.491045	67.1882
-18.1153	0.599597	68.6341
-19.2978	2.88062	66.4474
-19.3527	-0.45644	66.7839
-54.6389	63.035	31.8212
-55.2135	60.7948	32.6456
-48.4621	66.9052	35.9213
-54.5224	63.8403	30.7676
-59.7886	55.4839	28.1206
-7.00378	1.09203	78.2851
-7.27986	1.79261	78.7966
-7.63395	0.304191	77.3097
-5.88376	1.11779	78.9666
-7.54474	2.80603	79.6563
-8.54884	2.99434	79.369
-6.5055	3.64035	81.2314
-48.9157	33.104	35.2454
-48.3611	33.5036	35.3958
-48.6946	34.1698	35.5744
-49.5578	32.3973	34.947
-19.5667	33.3148	41.6014
-19.7994	33.2012	40.7044
-20.1625	32.9021	41.6197
-19.3977	33.2456	42.327
-15.7368	9.84084	75.3095
-14.8035	11.2058	76.75
-15.9557	9.51789	74.4786
-15.8911	8.77957	75.5186
-67.2134	80.6058	-27.5056
-69.343	78.7916	-37.3179
-67.9508	77.2865	-21.8155
-64.6909	84.4388	-27.2515
-28.1172	-37.6544	70.0908
-27.0524	-36.9869	71.2367
-28.4703	-40.4098	70.0642
-28.6605	-36.0959	68.695
-27.4741	-27.4588	66.0898
-28.2537	-29.4951	66.1463
-27.7286	-25.2277	63.8708
-25.9977	-26.8902	67.5484
-9.88106	2.98097	78.7068
-10.5302	4.10873	79.2539
-10.9258	1.53907	76.9378
7.3845	2.91913	80.3419
6.30687	3.67181	81.7524
7.0713	1.90061	79.5211
6.75367	1.21606	79.0279
5.53201	1.16643	79.6009
-8.07936	-0.576337	76.3465
-9.18846	-0.963014	75.6597
-7.72882	-1.40159	76.2031
77.4558	-38.9383	-35.6378
75.8692	-38.7169	-34.7342
78.3351	-36.1253	-39.0096
78.7302	-39.6887	-35.2383
75.9992	-41.5875	-31.3652
65.337	-43.4976	5.38807
64.3586	-43.2958	13.622
64.0509	-48.449	5.76689
66.6304	-42.9861	-1.54144
66.5311	-38.3264	5.27696
57.1199	-116.347	-7.88057
55.5098	-105.584	-6.87007
54.2006	-117.586	-3.76412
58.7384	-126.598	-8.98572
59.4903	-114.912	-12.1409
59.8719	-133.876	-10.1568
60.7208	-139.67	-11.4526
61.8119	-132.082	-14.7628
57.31	-135.693	-5.61832
47.5325	-98.3308	2.92014
47.1859	-90.9155	4.45839
43.5523	-99.3247	7.15245
48.7383	-107.529	1.48351
51.3834	-97.8337	-1.67591
59.2508	-97.28	-14.5679
60.0841	-104.117	-15.3194
60.8111	-94.9419	-19.9244
58.873	-92.0189	-14.2617
57.0182	-97.4543	-10.2936
57.8517	-59.6388	21.0013
59.8237	-55.6201	21.7056
57.5159	-59.3661	28.7585
55.6241	-63.6126	19.5707
58.3906	-60.2455	13.0448
73.4072	38.1265	-5.55341
74.6549	44.8416	-11.693
69.4935	43.8235	4.161
72.6002	31.4321	-0.84964
76.8557	33.667	-16.4824
79.3076	34.8486	-60.0556
78.3945	29.3987	-68.7932
77.8122	40.5286	-66.99
79.706	39.294	-49.9994
80.0851	28.7767	-53.3204
5.83381	-113.277	31.3122
3.34022	-113.567	31.9286
7.21374	-123.301	31.0065
8.86295	-112.551	30.2425
4.98866	-104.828	33.0413
8.79125	-133.962	29.5365
10.1809	-143.123	27.9511
12.3319	-132.946	28.1104
5.53372	-134.291	30.549
3.61631	-150.702	28.6127
7.29419	-150.303	27.9231
3.12712	-143.88	29.6388
0.0145445	-150.735	28.9109
3.95827	-156.078	27.6155
64.8326	-57.3053	-36.7211
67.178	-51.3316	-35.6351
64.4839	-62.376	-30.4591
62.5234	-63.2746	-38.0714
65.4186	-50.7404	-42.2789
66.149	-45.9554	-46.4805
62.7539	-51.8697	-48.4533
67.2491	-41.8783	-50.1773
69.2167	-41.1497	-44.7043
62.8934	-125.033	-31.2484
63.1551	-131.874	-32.5984
61.1494	-122.215	-38.0647
63.5871	-128.175	-24.7208
2.48237	-134.713	31.2439
1.73466	-124.177	32.5611
-0.499012	-134.792	31.5315
64.2542	-42.3117	21.6073
65.7246	-36.8391	20.4129
64.0538	-40.6244	28.5745
62.9788	-47.1207	22.0375
59.7963	-60.9084	4.9646
58.1991	-64.8053	3.9621
60.9544	-62.1391	-3.21105
61.3665	-56.9216	5.45708
12.6003	-67.975	94.4265
8.37132	-67.6453	96.2451
12.7203	-72.5671	93.1936
17.4964	-68.0427	91.3385
12.3452	-63.0682	94.4125
22.3164	-67.0256	87.5064
22.2811	-71.3353	86.9124
27.1362	-65.8715	82.6968
21.9678	-62.2015	87.1621
3.85355	-58.0286	95.9875
7.62281	-58.1408	94.9883
3.25153	-53.1826	94.041
0.229431	-57.7459	96.3084
4.42708	-62.9645	97.1574
12.6595	-76.4851	90.5147
12.7147	-79.7547	86.256
17.3077	-76.0574	88.0731
8.57872	-76.2724	92.1279
12.6297	-82.5778	80.465
8.37586	-82.9162	81.8738
12.3494	-85.387	73.5013
16.2081	24.2882	57.321
16.7905	21.2602	60.4841
18.8742	21.8349	56.1241
15.3694	26.983	54.4507
13.6131	27.1321	58.6962
53.6961	-2.74359	55.0393
59.8341	-5.09875	49.2541
53.1481	2.67209	53.6661
46.1496	-0.764478	59.9684
53.6953	-8.06483	56.2234
65.0927	3.16798	40.6635
68.2573	1.01093	34.6741
64.0989	8.67061	40.3751
59.5726	6.24282	46.7295
64.9916	-2.28588	41.7116
70.6445	14.1504	19.3549
71.9076	11.5494	15.2428
69.552	21.078	16.6521
68.6745	17.041	22.6453
53.3623	-13.4923	57.1123
52.3345	-18.8049	58.2159
58.3957	-16.5303	51.5244
46.8946	-10.7709	62.1446
2.37568	31.2803	73.6854
2.62049	35.0572	68.8574
0.332382	31.5701	73.7411
2.11324	28.2715	77.7575
4.52418	30.4652	73.1117
31.4453	88.7303	30.6232
26.427	89.6236	32.4642
30.4966	84.38	35.2691
37.1851	86.6972	28.086
32.9196	92.9159	25.3971
3.23109	-89.5929	66.1405
2.30392	-93.4808	54.9019
6.83612	-89.4468	65.4493
4.00638	-86.0904	75.494
-0.236041	-89.5986	66.4211
63.2821	-38.5337	35.1884
61.6742	-35.9415	41.7042
61.7083	-44.4968	36.6588
64.5361	-32.3074	33.8648
4.9593	-75.76	93.1865
4.91561	-71.5964	96.0951
1.40188	-75.0726	93.8333
4.85154	-79.6061	88.6136
4.4782	-82.9646	82.551
0.696085	-82.7196	83.0043
42.1779	-69.2153	61.5752
37.007	-71.3065	67.9509
40.9269	-73.1246	59.2592
46.3364	-66.3676	56.2333
42.4393	-64.7887	64.0831
41.0688	-78.8001	36.2074
37.3504	-83.6535	31.2407
44.1171	-76.9647	31.0331
44.6792	-74.7771	40.6328
37.1532	-81.0042	41.4078
0.634602	-98.3643	42.1628
3.07849	-98.5958	41.1084
-1.71559	-98.3734	42.1563
0.106524	-105.129	33.6791
7.11644	23.5692	79.7193
7.46403	21.4505	82.914
9.84506	21.3822	77.4973
7.0009	25.9636	75.9371
4.4697	25.0363	81.0921
25.3668	4.01845	63.9911
30.3113	2.31085	63.9549
23.6441	8.44228	62.4868
21.5744	6.83466	64.6732
30.4328	-32.2893	70.6619
29.401	-31.7253	70.7828
29.4815	-33.034	70.9545
31.3291	-32.7685	70.5322
12.3597	0.458556	76.2218
13.8708	1.73345	76.242
11.6674	-0.53379	75.855
14.1215	-0.0661713	74.7145
11.5082	-4.18406	74.6507
12.2235	-5.50059	75.0297
13.9136	-4.65477	72.995
11.3488	-2.99762	74.6059
9.52972	-3.31385	75.9311
1.36568	1.3058	82.6248
1.41701	2.80921	84.2458
-0.258001	1.11323	82.9735
1.4024	-0.0735897	81.3958
2.98169	1.45801	81.6721
16.3405	-4.109	71.2217
18.5496	-2.68146	69.3731
15.9458	-2.82905	71.4841
16.9871	-5.59555	71.547
8.06137	13.252	88.318
5.25279	13.7257	90.7436
7.7515	10.7853	87.7246
10.8505	12.1904	84.9473
8.16093	15.2717	88.2581
27.3739	-45.5316	77.9673
30.4041	-43.6232	74.8435
25.9894	-42.1547	78.2141
23.5542	-47.1439	81.4872
28.6202	-49.7229	77.8664
29.5847	-24.889	72.2709
28.8536	-20.2541	72.805
27.1461	-23.148	73.5532
31.9604	-26.4543	71.2272
1.76834	-4.48719	80.3165
1.88051	-6.09769	80.6574
3.48377	-4.2977	80.0219
1.59294	-2.75974	80.3305
-0.1971	-4.63741	80.4141
6.86707	28.92	71.9643
9.40812	26.6998	70.1976
6.93064	32.2124	67.6408
18.2964	7.26362	70.7779
17.3795	9.4121	72.2346
17.6787	8.38972	72.4864
18.4875	5.63922	70.5057
18.6271	7.50052	69.471
4.43874	-1.06951	79.2565
4.50638	-2.66596	79.3331
5.88033	-1.65156	78.3396
4.41045	0.136291	79.597
3.06736	-1.07486	79.9972
4.32247	1.33873	80.5283
4.41896	2.7323	81.9076
16.9363	9.74463	74.0692
16.6053	10.7152	74.0076
17.3833	7.80375	73.7115
18.2807	2.9621	70.4211
17.7687	4.47099	72.1923
17.3666	0.591454	71.0811
2.39401	-8.79049	83.6611
2.61681	-9.6987	84.9175
4.66342	-8.49783	83.4945
2.15375	-7.96595	82.2183
-0.0326707	-9.07942	83.6791
23.5753	-7.07106	69.576
20.9997	-7.34389	70.7883
25.6675	-11.0156	70.9995
26.1578	-7.04322	68.7138
21.6814	-3.60498	68.3198
9.41328	-43.4035	88.9709
9.37961	-41.751	89.1925
5.82709	-43.2881	89.9588
9.44013	-45.6883	89.1717
13.4325	-43.3043	87.4461
25.0838	-26.0565	74.923
25.141	-26.7259	74.7611
27.3316	-29.0205	72.441
24.8739	-24.2654	75.151
16.3419	11.3128	73.6839
16.3735	11.7916	72.2412
14.9518	13.1673	75.7151
17.9061	-42.6597	84.9835
18.2161	-45.0271	84.9314
21.8799	-41.3938	81.9403
17.5713	-40.8022	85.2903
2.7817	-43.1376	90.157
-0.156482	-43.0082	90.1039
2.78929	-45.1924	90.4497
2.6927	-41.7318	90.3262
62.5218	45.4854	25.2112
61.8619	45.7996	26.6782
63.9087	37.3807	22.4145
63.067	45.6842	23.4635
41.1232	76.8374	33.6845
35.2132	79.4618	36.8659
41.003	74.485	36.8262
47.8702	72.2235	30.0042
41.8802	79.3433	29.615
54.7855	66.3445	25.383
54.1322	64.6745	28.9447
60.6079	59.3228	19.5783
55.5959	69.5298	20.5596
42.5441	69.0308	40.1847
41.6715	71.3732	39.4368
36.476	71.0543	42.8755
43.6936	66.4585	40.4786
63.8985	45.4557	20.5183
64.4931	47.1335	17.3298
59.8527	55.3977	26.0193
66.193	36.8865	16.6422
24.6782	61.3018	46.9504
25.0462	58.0787	45.6917
28.7095	61.5172	45.8433
24.3623	63.6586	47.7227
21.0157	60.2487	47.5898
7.13015	39.4701	57.9946
9.10142	36.7571	56.5458
7.11573	41.1378	56.4804
5.11169	41.5332	59.1631
7.21665	37.6507	60.2422
30.9355	16.7969	53.9913
32.7148	13.6278	56.1556
39.0134	15.8453	52.3963
29.1484	19.5242	52.205
24.7892	18.398	54.8295
61.3268	23.1928	30.4203
63.8212	21.1486	28.9391
61.4616	27.0562	27.4416
58.5708	25.3038	31.5476
59.8459	20.9948	34.5794
7.12118	35.255	63.3169
9.3433	32.6759	62.0807
4.85569	37.2265	64.1951
44.3854	64.5049	40.384
50.2166	62.1251	37.1372
38.2631	65.9608	43.1652
44.6247	62.2834	40.2774
55.1664	58.1937	33.8495
54.4516	56.2185	34.7467
58.7869	52.0528	30.933
57.5967	32.7969	30.0615
57.5542	37.3143	30.4255
55.5122	32.9164	31.8515
57.2271	29.4689	30.5862
59.3052	32.4214	28.4084
45.4914	40.4351	39.2167
47.0841	38.5108	38.0924
46.0371	41.3111	38.722
43.6447	42.0011	40.3942
45.0461	39.5418	39.4907
41.4643	43.3797	41.1785
41.6897	44.4305	40.7282
38.8606	44.3957	41.71
41.2471	42.3944	41.455
41.8256	44.9798	40.49
38.8793	45.991	41.071
44.2284	43.5473	39.6493
35.8927	44.8626	42.0745
35.7175	45.8138	41.6686
32.8783	44.8015	42.1935
36.0739	43.8984	42.3024
35.6185	46.3034	41.4518
32.2565	46.2813	41.4569
35.5347	46.6076	41.4702
29.7392	44.1227	42.4992
29.1638	44.9876	42.0178
26.8748	42.7235	42.8084
30.3006	43.2172	42.7949
23.751	40.8549	43.1139
22.7264	41.7109	42.566
20.5714	38.8268	43.5291
22.0298	42.0877	42.2554
21.5002	42.195	42.28
18.8741	39.7133	42.9702
25.4659	43.9732	41.9316
18.2872	36.9423	44.0839
17.4077	37.3589	43.9181
20.7734	42.3474	42.7178
24.4116	44.4132	42.3599
20.0416	42.6916	43.2651
35.3571	47.0516	41.7816
35.2137	47.5885	42.1685
31.8218	46.9864	41.791
50.6595	31.8291	35.6186
51.6864	30.6293	35.0597
50.9197	32.7898	35.5019
49.6497	31.0058	36.7222
48.7248	33.8487	36.0958
48.4036	34.5091	36.3401
49.437	33.8108	35.1968
48.1565	33.2757	36.9185
33.6237	61.48	44.2845
39.0177	60.7738	42.3393
33.1802	64.2363	44.9431
33.867	58.057	43.507
50.5246	47.6473	37.4126
48.7424	44.2924	38.6336
52.2686	51.0429	36.1849
47.225	50.1732	39.2742
39.3002	24.4659	47.0297
45.601	25.1393	43.7103
38.7966	25.491	47.0209
32.1263	24.6317	48.8428
39.9215	23.4675	47.0652
26.0633	26.2411	48.5772
26.168	27.2578	48.3116
21.517	28.2201	47.7569
26.1233	25.1518	48.9714
17.6791	31.8171	46.2806
18.2319	32.0366	45.5905
16.996	32.7778	45.761
16.667	31.93	47.1051
18.4785	30.9381	46.6425
38.4797	26.586	46.8613
44.095	27.4113	43.9174
38.2827	27.6538	46.5869
32.0159	26.9437	48.3698
20.1232	30.7574	45.7363
19.8642	30.3274	46.3457
21.927	29.847	46.5524
20.1607	31.3288	45.1411
19.1137	31.5412	45.3827
18.3729	32.1523	45.1599
17.603	32.8897	45.0135
18.4136	32.3681	44.7644
13.957	45.2636	46.3498
13.3022	48.4748	47.4512
14.3924	40.3918	45.3914
15.7934	47.4954	45.6403
16.1312	34.0907	45.3677
16.6464	33.9784	44.9717
15.3942	34.4049	45.8252
28.0183	45.9472	42.1539
27.612	46.4081	42.6289
28.4732	45.6277	41.7525
14.9457	38.5073	44.8465
14.4983	36.6201	45.4643
16.3128	40.6396	44.3737
38.2276	28.443	46.2972
31.918	28.649	47.6343
38.0617	28.9424	45.8363
20.1666	31.9554	44.7857
20.2999	32.3761	44.121
19.2515	32.338	44.5141
22.1683	31.3467	45.4876
38.0655	29.1674	44.8459
43.3175	30.0496	42.6022
38.1999	29.3166	43.5631
46.6265	31.8279	39.4699
47.0327	31.8655	38.3027
20.9658	32.267	42.6968
21.3038	32.0563	41.3215
18.4974	32.6689	44.4751
48.1864	36.3462	37.2945
48.6876	36.6444	36.9842
47.5705	36.0679	37.4789
3.91909	56.2091	53.5787
1.10935	55.9353	53.7385
3.59055	52.9218	54.2115
6.44156	55.9694	53.1903
4.6494	59.9663	52.8513
19.2823	25.0998	51.363
18.7881	26.6152	50.1924
17.0566	26.8108	51.8166
20.2047	22.9072	53.0269
22.6815	23.4268	51.0577
14.9918	28.7656	52.5391
12.9212	31.1512	53.4869
15.0446	32.4639	48.4533
13.2873	33.8884	49.571
14.9866	33.6246	47.1078
10.3004	43.8586	50.2559
11.2794	46.675	49.2235
9.79427	45.0829	51.1026
19.2941	29.7599	47.1835
18.8327	28.999	48.0929
18.6596	27.9234	49.0686
21.5801	26.151	49.2065
20.9926	-28.9973	75.1922
20.7129	-28.9387	74.7212
24.3749	-30.8943	72.5935
17.2845	-26.8317	78.0418
26.162	-31.6389	71.3412
25.6839	-31.441	71.1817
2.90822	-12.3006	86.6348
5.51605	-12.6232	86.1233
2.82372	-10.9694	86.203
0.003762	-12.2318	86.8557
2.84539	-13.8861	86.8496
8.06458	-16.4489	85.3923
8.02455	-14.8846	85.5745
5.48263	-15.7484	86.079
7.81019	-17.9958	85.0591
10.6399	-17.5865	84.5195
13.6097	-19.1377	83.1408
13.5624	-17.5799	83.3557
13.6362	-20.9285	82.734
16.991	-21.314	80.8839
7.88917	-13.2987	85.5537
10.4759	-14.5121	84.6887
7.78964	-11.9003	85.2981
12.1971	-13.502	83.3716
13.0215	-14.795	83.3989
11.8187	-12.4278	83.0154
9.46052	-11.7906	84.4231
20.7859	-25.0789	77.4695
20.3329	-22.7735	78.6319
7.29005	-19.6745	84.6137
4.57522	-18.6823	85.2766
6.88305	-20.8622	84.0804
10.451	-21.0323	83.6344
13.9696	-23.0146	81.8888
13.917	-24.2489	81.1391
27.9987	-30.8604	71.3535
28.4461	-31.299	71.0442
28.1428	-30.6623	71.3838
27.1546	-29.8472	72.2402
21.7976	-30.8163	75.9305
21.719	-30.7176	75.5719
18.2764	-30.3164	79.3831
21.8341	-31.0415	76.3453
22.2989	-32.2508	77.5054
22.1492	-31.7617	77.2038
19.1538	-32.5094	81.7393
15.782	-32.6402	84.8878
15.5707	-31.7828	84.3267
12.12	-32.3124	87.1394
16.1937	-33.5462	85.1938
7.63011	-29.7462	87.2273
7.99037	-30.9337	88.1599
11.3871	-30.1875	85.6794
7.36404	-28.6354	86.1877
4.36774	-29.8452	88.1796
2.06618	-32.4746	90.2679
2.2028	-33.5803	90.7528
4.94078	-32.2216	89.8152
1.9068	-31.335	89.5961
-0.446909	-32.55	90.3778
26.41	-32.856	70.8331
26.2165	-32.0966	71.211
26.451	-34.3254	70.8414
24.3501	-32.4028	72.0994
1.81686	-29.3791	82.8736
1.76309	-28.2905	84.1392
4.05106	-29.4802	82.4614
1.79247	-31.4273	82.0987
-0.180507	-29.3326	82.9776
2.33197	-34.7616	91.1347
-0.346421	-34.8397	91.2023
2.46123	-35.9122	91.311
5.41585	-34.5467	90.7351
2.65306	-40.0609	90.7314
5.7329	-39.9453	90.4007
2.60859	-38.3949	91.1486
-0.213217	-40.0596	90.6581
7.635	-10.9749	84.9939
6.85943	-9.72989	84.4315
5.33747	-10.3741	85.34
1.77754	-30.1059	88.6749
-0.485109	-30.1358	88.6905
1.67967	-28.8169	87.5243
1.65787	-28.0378	86.6858
4.14315	-27.9532	86.413
1.73784	-27.7621	86
-0.38803	-28.1617	86.7537
7.22715	-27.9704	85.4813
10.9128	-28.6797	84.1022
7.12836	-27.7796	84.8912
1.80646	-27.7756	85.1692
4.06419	-27.7676	84.8816
-0.295762	-27.8285	85.1961
14.6109	-29.4885	82.0122
14.4957	-29.2837	81.3998
14.8424	-30.0075	82.6206
17.0781	-36.4437	85.8459
17.2581	-37.6158	85.7482
16.8359	-35.4189	85.7793
13.436	-36.8843	88.1461
9.42947	-36.8749	89.9071
9.47426	-38.2295	89.6775
9.23366	-35.6229	89.9128
5.74521	-36.9161	90.9404
2.53326	-37.08	91.3054
-0.275485	-37.1614	91.311
13.7012	-24.744	80.3465
10.1271	-22.9148	82.1224
13.4268	-24.7445	79.4753
28.8269	-31.492	70.8828
28.4472	-31.8121	71.0789
28.7419	-31.1492	71.0217
27.8093	-31.718	71.056
27.1993	-31.7726	71.3177
27.7548	-31.9341	71.2187
26.3146	-31.7409	71.9157
24.754	-31.6185	73.4791
6.87373	-29.6665	81.6623
6.8918	-28.5283	82.9798
10.2381	-30.0227	80.4156
6.93017	-31.7369	80.8978
6.97837	-27.927	84.0707
10.4647	-28.447	82.6104
9.35703	-39.9314	89.3894
13.4869	-39.7759	87.7813
16.4679	-34.4658	85.5786
12.901	-34.5707	87.9232
17.3658	-39.1253	85.5713
20.818	-37.9074	82.5676
12.9684	-24.3628	78.7029
9.77254	-22.7744	79.9991
12.3759	-22.8188	77.5129
16.1799	-26.091	76.895
6.69206	-21.4959	80.9852
4.27015	-20.6459	81.1346
7.1729	-20.4403	79.0906
6.59136	-21.643	82.256
11.969	-19.7711	75.8952
9.43273	-18.6887	76.6772
11.4629	-15.9891	74.1575
14.6338	-20.9135	74.7646
26.2562	-37.2707	71.6244
25.9064	-40.7507	72.7276
24.1579	-36.9468	73.1446
1.6626	-34.6675	82.5871
3.88557	-34.7675	82.2362
1.56589	-38.5257	83.704
-0.120568	-34.6818	82.6528
7.17729	-17.7213	77.143
4.86918	-16.9551	77.3187
6.90028	-14.2684	75.1682
6.8236	-35.0439	81.5135
6.51535	-38.7738	82.8363
10.2608	-35.4244	80.477
29.9718	-33.4084	65.6407
30.8191	-33.706	63.9346
11.373	36.3209	51.0955
10.986	35.2857	53.085
78.5053	-16.8971	-59.4154
77.6046	-20.763	-57.4127
77.298	-17.1737	-63.0499
79.244	-12.6864	-60.7148
79.7661	-16.8645	-57.2116
78.967	8.91603	-29.2067
79.4617	10.7149	-34.0296
78.7428	12.1777	-24.9287
79.6368	11.5187	-39.7045
80.0477	16.5318	-42.4287
79.1352	6.3058	-39.4014
79.6155	9.36842	-46.4345
71.6377	-37.8019	-43.2704
74.0632	-35.1397	-42.2338
70.5081	-41.4531	-39.5738
73.06	-34.3904	-46.1998
74.0559	-31.2989	-49.2973
71.8824	-33.8349	-51.559
75.3503	-27.9197	-52.2477
76.1578	-29.5684	-47.63
81.5562	-16.5786	-56.0396
83.5365	-16.1667	-56.0456
80.8629	-20.1982	-54.2252
82.0377	-12.2524	-57.2946
83.559	-32.8046	-42.4853
84.8453	-29.2145	-45.6456
84.6039	-32.9046	-40.946
82.1467	-36.4769	-38.9004
88.3461	-22.8822	-45.0282
88.1646	-22.1472	-44.4766
75.2007	-42.9304	-27.7803
76.0533	-43.3064	-26.8135
74.7901	-42.7684	-25.2773
74.8852	-41.5935	-29.9548
76.508	-32.4943	-17.75
76.0705	-33.1277	-17.5469
75.454	-34.081	-17.5838
88.0743	-21.7036	-44.1916
87.4981	-22.0444	-43.087
91.4807	-8.66342	-52.2332
91.1806	-8.36497	-53.8607
91.787	-9.56443	-50.255
91.9418	1.61913	-52.8626
92.2516	2.9048	-53.3811
92.3158	5.15324	-53.0179
92.103	5.44694	-50.7292
92.4701	5.55617	-53.6207
92.084	7.85371	-50.6019
81.6186	-10.4657	-25.3369
83.2217	-5.22971	-27.3541
80.9905	-9.39319	-24.258
80.3234	-14.2904	-23.7066
74.492	-24.4314	-14.0668
73.4852	-24.228	-11.2727
73.6018	-28.1359	-13.3195
75.3957	-20.1437	-14.9601
79.3619	-21.7061	-24.3189
79.5426	-23.6106	-24.1233
79.6868	-19.9601	-25.1085
79.1882	4.53084	-39.3571
79.873	5.08459	-43.0499
79.7383	4.81414	-38.9222
88.4014	14.4924	-41.3298
89.9265	15.5637	-45.1768
87.1263	14.5859	-42.74
86.6162	11.819	-37.5256
89.5414	13.899	-40.0637
88.6162	15.0556	-51.2775
87.4654	15.4459	-47.7018
89.7871	15.1548	-50.4651
89.3535	12.6266	-54.8944
87.241	13.0314	-52.203
89.8098	-4.34356	-60.9787
88.4207	-4.84255	-61.1131
90.0625	2.34422	-60.3142
91.1591	-4.02143	-60.1944
84.4388	-0.785929	-29.054
84.6078	-2.24973	-29.5771
92.3165	-4.29773	-56.5581
92.9814	1.09739	-55.9079
91.6451	-6.97536	-56.2252
92.6629	-4.47836	-56.6881
91.5234	9.66117	-47.0025
90.562	10.1057	-42.9611
91.542	8.13873	-47.2624
91.6598	10.8364	-46.7016
85.6552	-0.775858	-32.3785
85.0673	-2.3784	-31.3057
86.2573	1.33673	-33.7586
91.5843	-3.01618	-54.2701
91.4192	-5.37064	-55.4967
88.9781	2.10072	-43.9319
88.7194	0.973705	-42.6952
90.4563	0.689163	-47.75
82.9678	-7.56949	-31.7777
83.0764	-7.43289	-32.5713
83.9039	-5.84566	-31.1414
87.9541	-9.87078	-45.5568
90.408	-7.73462	-47.9125
87.5663	-9.29041	-45.1505
87.821	-10.9638	-45.3628
76.2519	-16.3147	-16.176
77.1948	-12.1043	-18.3747
75.3622	-15.9417	-13.6216
82.3623	-7.21576	-57.6233
80.8202	-7.89942	-58.994
82.4248	-2.65905	-56.8994
84.2234	-4.75849	-57.2161
86.3615	0.950123	-57.6937
86.1075	5.36287	-55.7296
88.3071	6.28647	-58.2066
86.5619	-3.5432	-59.1336
87.1047	-5.82695	-60.2301
86.1264	-11.3453	-59.0326
85.5821	-15.9782	-57.1782
78.2426	-28.7587	-46.8748
77.0254	-31.3235	-44.1396
79.3055	-26.1592	-49.5324
80.1374	-23.3444	-52.0248
78.1082	-23.7207	-52.9841
86.6698	-21.849	-42.275
75.7747	-33.8109	-41.6362
74.6207	-36.7338	-38.329
77.3659	-33.5447	-41.2695
74.8705	-39.6749	-32.8419
74.1829	-39.7678	-33.1119
73.7511	-41.8176	-27.6454
74.6025	-41.4868	-22.834
74.2909	-41.118	-23.0032
73.3474	-41.3772	-22.469
88.1418	-11.7662	-45.4889
90.5606	-10.8828	-47.6706
80.1784	-8.5434	-23.5205
79.1332	-7.96341	-22.6864
76.8658	-21.3906	-18.224
77.2485	-21.7104	-18.7914
79.9666	-26.9921	-22.4514
80.8279	-29.251	-23.2464
80.5112	-25.9684	-23.6659
79.3596	-17.0689	-22.4285
80.1734	-17.779	-24.5068
85.6718	7.94307	-53.2518
83.9769	3.02814	-53.9874
84.8799	9.24502	-50.0154
82.3082	0.653924	-54.902
81.0921	0.392538	-56.242
81.9354	3.16273	-51.5664
78.9039	-18.2751	-27.2858
79.7231	-18.2732	-26.7368
91.2055	-0.759613	-49.7072
91.1041	-2.12159	-48.8941
83.5851	-7.09318	-34.1746
82.5875	-9.50747	-34.6356
84.7895	-6.55364	-37.0567
87.5357	-8.33471	-44.9058
89.7875	-5.16908	-46.8894
86.8965	-7.96231	-43.5892
8.15099	103.873	22.396
8.02382	97.8895	29.6542
15.9235	102.739	22.2603
8.44364	109.488	13.3336
0.111283	104.446	22.3498
7.67062	91.7925	35.5966
0.292351	92.1711	35.7264
7.38786	85.4931	40.729
14.8979	91.2599	34.8991
30.1776	80.8028	39.0825
29.8738	78.0509	41.9549
25.1896	80.9455	41.0622
1.43957	4.61654	86.4089
1.78974	6.54186	88.3548
-0.288525	4.57945	86.9434
3.37303	4.39465	84.8674
2.21728	18.2063	91.1726
5.18987	17.7809	90.0583
2.24008	19.963	89.8086
-0.553248	18.3115	91.4478
2.3262	16.232	92.0041
2.36547	13.9377	92.1552
-0.462187	13.9796	92.6477
2.3093	11.5085	91.556
1.49221	-1.33122	80.6492
-0.236973	-1.48901	80.9361
1.94488	-7.1288	81.3044
4.01984	-6.80892	81.2576
-0.144324	-7.33658	81.2577
2.1343	9.0366	90.1919
4.58262	8.66259	88.6318
-0.374812	9.06597	90.8037
2.13816	21.6027	88.0212
4.9232	20.9965	87.1035
2.04294	23.4576	85.3734
-0.493473	21.7427	88.1247
7.08305	72.2658	49.5172
0.75769	71.527	49.6865
6.9029	69.296	50.6001
13.3956	73.8699	48.5418
7.16706	75.5688	47.6713
3.30448	42.6117	59.6274
3.13041	40.7907	61.7046
3.47506	44.2247	58.0647
1.61665	42.9253	59.6953
3.61031	45.9032	56.7924
5.25775	44.9153	56.3769
3.5732	47.893	55.7482
1.87898	46.1891	56.9012
1.92118	-20.1586	80.9877
-0.361137	-20.0013	81.0783
2.16085	-19.2011	79.2448
1.63868	-20.2234	82.8082
1.61274	-20.1075	84.0152
-0.282898	-20.0071	83.9589
3.72541	-20.5553	83.8877
1.71327	-19.5367	84.8669
2.73065	-15.3921	86.721
2.5621	-16.792	86.2551
-0.0953516	-15.4351	86.9965
2.10724	-18.2852	85.7666
-0.264895	-18.373	85.7907
2.76728	-10.3066	85.6971
0.00215377	-10.405	85.8634
2.20414	-16.5806	77.3126
2.12399	-13.2318	75.2706
-0.47912	-16.4581	77.2202
22.4191	101.367	21.7725
21.783	95.9971	28.3186
28.4454	99.4742	20.9311
23.218	106.494	13.2705
19.1821	75.2357	47.2566
19.8462	73.2345	48.0085
24.8605	76.2462	45.3608
19.443	77.7587	45.5293
21.2555	70.9152	48.4512
23.0252	68.0705	48.6394
26.3539	71.832	46.8958
24.0222	65.8431	48.3651
19.9127	64.1953	49.2809
28.0873	66.3753	47.1494
27.1217	47.0514	42.9439
26.5532	49.067	43.211
23.2579	45.6324	43.1569
31.181	48.1417	42.536
30.3252	42.8737	42.4484
33.208	43.5404	42.1304
30.117	42.8799	41.824
28.7404	45.389	41.7346
25.5805	53.2498	44.1044
29.8105	53.9406	43.5265
21.8729	52.1542	44.6214
47.7387	97.7395	-2.24622
49.0615	100.335	-13.7285
41.9854	102.148	-0.441822
47.0372	94.1451	6.565
34.0028	97.3277	19.3987
35.1117	101.663	11.5477
39.8326	94.368	17.0295
29.8465	76.2292	43.5323
30.3186	74.4036	44.4228
35.0872	75.2442	41.2906
32.7061	66.7198	45.4136
32.148	69.193	45.4656
31.2325	72.0045	45.0458
34.0613	53.9612	42.9498
34.6949	49.9521	42.7247
38.8871	53.1543	41.9971
46.0633	90.5373	13.6231
52.3267	86.1594	9.00982
44.8958	86.7545	19.5841
41.1972	73.0011	38.4366
47.8092	69.1426	34.885
42.36	46.6916	41.3684
42.6321	48.1825	41.3677
38.7774	47.8548	42.1063
45.4103	45.2053	40.2805
36.0187	43.6036	41.9881
35.9961	43.7048	41.4141
38.7753	43.182	41.627
44.4917	59.5898	40.1577
43.9754	56.1132	40.2523
49.5768	57.5945	37.7226
43.3109	51.9837	40.7154
43.5605	82.8447	24.8345
50.105	78.4193	20.6168
58.1267	81.75	2.82448
57.4343	77.912	9.25231
63.2441	77.3667	-4.64636
46.2943	41.7516	38.498
47.9073	39.5312	37.3795
46.4994	41.9477	38.4446
47.8634	42.9372	38.871
47.2795	42.6019	38.6873
49.448	40.7692	37.5196
46.8179	42.2712	38.5418
44.8617	39.4157	39.065
46.3229	37.8727	37.8864
43.1259	40.8356	40.2329
44.7626	39.7205	38.2906
53.5475	54.0576	35.4037
56.4979	48.4089	33.0554
17.8696	58.1458	47.9529
15.0076	54.6151	48.1299
18.1257	55.1138	46.5917
17.224	59.7271	48.9386
16.2428	61.3779	49.8857
13.4855	57.9537	50.2759
18.5235	49.8742	44.9913
18.9698	45.2834	44.086
6.31682	65.3488	51.6196
0.831846	64.4378	51.9507
61.9655	-64.7416	-10.8305
63.332	-59.4639	-10.0255
62.9457	-64.2837	-17.1779
79.6263	14.3559	-63.1752
79.2946	9.28308	-67.6431
78.4992	18.6013	-69.5041
80.0349	18.5144	-55.8264
79.9989	10.0782	-56.4711
75.5563	-18.1865	-68.8698
74.3786	-23.38	-65.6488
73.7091	-19.5042	-74.2511
76.5913	-12.7817	-70.5648
77.3592	-6.92506	-72.0616
75.7405	-6.70355	-78.85
78.0816	-1.35205	-71.9669
78.8293	-7.48471	-65.3731
68.6104	-37.9644	-54.4323
65.615	-41.672	-57.2248
70.7047	-33.1588	-58.5412
7.26388	80.2522	44.6186
0.493004	79.9801	44.7551
13.9107	80.6944	43.9838
19.6579	80.9424	42.7706
20.332	85.0968	38.7489
21.3612	-86.9443	58.2793
18.1841	-91.5135	48.3216
27.8047	-85.2849	52.4143
15.5799	-88.3297	62.3777
47.5014	-70.8857	44.3089
43.4923	-73.9357	50.1112
50.5854	-68.4409	38.5731
49.1821	-67.3281	47.6526
56.7136	73.5386	14.9979
62.349	68.1773	8.40756
21.0159	90.5665	33.8107
68.1059	72.5038	-13.5764
72.1375	67.939	-23.0015
67.9958	67.5181	-6.25688
23.7833	111.677	1.58555
30.2237	109.093	1.52436
24.1846	115.956	-12.1567
16.6808	113.552	1.66192
65.6182	50.7667	12.2005
66.5272	56.4783	6.6555
50.1475	38.3652	36.8981
47.5286	35.9931	36.943
47.6974	36.2102	36.2695
60.9277	45.3551	28.0902
61.1365	37.9342	26.6828
59.45	44.1505	29.7253
57.8493	42.9237	31.1468
0.958107	-113.943	32.4122
-1.32859	-113.968	32.5564
56.4607	-59.1483	36.8671
57.8947	-54.939	38.2259
54.0508	-60.3938	44.3008
54.5876	-63.3817	34.6117
6.34329	-8.44276	83.4044
8.21805	-8.99882	83.1011
5.91827	-7.31701	82.142
24.2725	-20.2613	75.6193
23.3575	-15.8338	75.6802
21.264	-17.038	77.8303
9.55744	-7.4587	80.2174
7.14174	-6.71163	80.7739
10.229	-8.55123	81.276
12.4254	-8.35169	79.2323
8.93975	-6.5477	79.1871
33.9425	-27.1848	70.4894
33.4609	-30.9884	70.3377
36.4456	-28.3111	69.664
33.6018	-22.6816	70.7725
65.0425	29.9193	21.5581
63.2794	30.7697	24.127
65.9876	23.9371	22.9021
66.5354	29.4023	18.7745
68.0819	28.9203	15.3341
70.023	27.338	10.3785
53.472	33.2168	33.6437
51.7473	33.4905	35.0587
53.517	31.0622	33.5603
61.4671	31.4665	26.3046
80.5235	1.1254	-58.9093
80.2315	-3.10304	-60.8065
79.9336	2.22703	-63.6154
80.5102	4.33495	-55.8781
76.4393	-24.5552	-55.0823
75.0547	-25.8538	-58.1344
66.96	-52.5462	-21.7455
68.5768	-48.0038	-20.3232
65.9267	-54.1196	-15.1457
65.3178	-58.2873	-23.1604
68.0653	-50.5949	-28.3271
79.8176	-7.85945	-61.2954
72.4669	-24.3134	-7.91968
71.3491	-28.4797	-7.0858
73.5525	-19.985	-8.98151
71.3614	-24.2002	-3.36977
73.545	8.20734	8.52316
73.5496	15.9999	5.05381
73.0531	0.871391	11.6712
75.0053	4.64449	0.366487
56.6911	26.6745	32.3452
54.8724	28.0038	33.2148
55.1075	24.8601	35.4369
53.2849	29.2005	34.1124
51.899	27.906	36.0315
70.1334	-23.3834	3.00047
68.9959	-22.1904	9.28724
68.8647	-28.6735	3.69797
71.6816	-17.9369	1.29164
22.9424	12.683	60.4925
27.2105	11.0977	59.6632
22.3406	16.6866	57.9993
20.0115	14.8656	61.5558
34.6662	9.72928	58.6497
43.1183	8.64353	56.415
36.1041	5.39111	61.0336
17.073	17.5883	63.5491
14.3515	20.8742	65.7928
17.0864	14.5782	66.2746
19.4346	8.00078	67.0722
18.3919	10.2906	67.8134
16.3924	7.57141	76.3306
15.2364	8.96989	78.462
16.0115	5.48264	76.4002
16.9635	6.48775	74.8941
17.3666	5.53103	73.571
16.8493	3.25284	73.6366
39.9017	-8.65373	65.4812
33.7768	-7.77523	67.2103
40.46	-13.9933	66.3389
39.1134	-4.07367	64.44
37.5938	0.816499	63.113
4.81498	-4.39379	79.6964
5.20453	-5.86119	80.3215
6.25561	-4.78507	79.1993
59.33	-32.4075	47.9581
60.914	-26.1236	46.5013
55.7767	-28.4982	54.0154
57.5635	-38.4535	49.6593
27.697	-15.7759	72.2281
24.9915	-14.2051	73.2741
30.0089	-16.6807	71.3068
40.6593	-19.9722	67.0652
40.4599	-25.627	67.7421
45.8607	-22.0525	63.9146
35.9029	-18.5445	69.1092
5.54399	-6.69132	81.1321
55.6597	-44.4226	51.3671
58.04	-48.1456	45.1736
52.5371	-39.3809	57.3012
53.0898	-49.0059	54.3254
64.1908	-7.81312	43.1644
63.3548	-13.6939	44.28
67.2202	-10.717	36.6576
31.519	-72.4964	74.8611
32.1179	-68.5205	76.4571
26.3702	-73.776	80.706
42.1158	-59.8362	66.2359
46.2276	-56.4545	62.1127
40.6166	-54.4067	68.5721
37.3277	-62.3198	71.2608
61.9897	13.4486	39.8595
59.1617	17.4361	39.3026
55.8509	14.8509	45.2967
49.6848	26.5926	39.4963
50.7184	25.1844	39.5009
48.6022	27.9617	39.7681
56.6745	20.0837	39.0289
51.2398	20.0938	43.7165
54.0598	22.0164	39.3758
47.9234	29.3488	39.8282
4.81277	-67.5379	97.2099
1.493	-66.9889	97.8016
48.7846	-35.5746	62.08
46.9621	-39.5793	63.9316
49.988	-30.7479	60.6605
44.2705	-32.5719	65.9551
38.5625	-49.6489	70.3509
41.7599	-46.6728	68.0275
35.6962	-45.3494	71.8919
34.3904	-52.3651	73.5961
47.8717	15.716	49.4486
49.9616	12.0762	51.0294
45.4978	18.2459	48.3086
51.145	-24.7598	59.4138
51.905	7.89372	52.2262
11.909	-58.1506	93.0475
10.7514	-53.3405	91.3411
16.5074	-57.7878	90.1128
21.2864	-57.2724	86.2811
25.6596	-56.2913	82.1893
20.1252	-52.4534	85.3236
43.8568	20.0606	47.5405
42.1771	21.2678	47.3247
35.5177	20.1014	50.0517
52.3221	23.701	39.3933
47.8259	23.0744	43.5367
41.0089	22.4026	47.119
33.2426	22.4667	49.1518
11.8312	23.9651	68.2115
12.0386	21.012	71.5363
11.595	27.0973	64.4569
12.9053	15.7388	78.9818
12.6616	16.782	77.3922
10.5107	18.0563	82.283
13.2337	14.7442	79.7447
10.9387	33.8291	55.0061
11.1054	32.1704	57.3294
21.4332	19.8401	55.4996
2.8684	38.3228	64.5769
0.90249	38.6579	64.5251
66.3379	19.0098	26.4221
11.4064	29.8854	60.624
59.6045	-50.2284	38.4392
61.0547	-50.7549	30.0245
70.3339	-1.14064	27.5305
69.6762	-7.70321	28.7045
71.4979	-3.35658	20.5614
65.916	-25.8946	32.5109
67.2489	-19.7027	31.1982
64.658	-23.0859	39.0044
66.5823	-28.6318	25.9321
68.5742	-13.7287	29.838
68.9994	-16.7851	22.8788
21.6941	-75.0398	85.1095
9.84662	-49.173	90.0866
6.17015	-48.8737	91.3383
14.1046	-48.9964	87.9928
18.9801	-48.3524	85.0594
26.5906	29.9978	46.8169
26.5741	29.2389	47.3196
28.0286	21.4908	50.9282
27.288	22.8877	50.031
26.6302	24.0436	49.4161
2.7892	-48.7119	91.8351
-0.336629	-48.6252	92.0377
6.82051	49.1147	53.806
8.0398	48.0347	52.9635
7.4094	52.1906	53.0943
5.2304	49.8319	54.5125
6.62147	46.2132	54.6351
16.9002	33.9456	44.802
16.4495	35.4628	44.4683
14.6084	34.8909	46.274
9.01053	46.5025	52.0459
9.96038	49.8675	51.2682
3.55419	50.2618	54.8928
1.56202	50.3355	55.0389
5.08072	4.26685	83.4328
5.86101	5.92483	84.8326
8.04386	16.9604	87.7553
7.97832	18.433	86.6104
10.947	15.6556	84.1983
15.9303	-1.21903	72.0309
15.6506	0.0729212	73.014
13.6465	-2.36037	73.5785
7.65739	19.8747	85.2684
7.03752	42.9831	55.4508
8.67547	55.8094	52.4609
10.1761	55.2744	51.6269
16.9317	37.4782	43.7885
11.4283	54.0793	50.6719
12.2603	52.155	49.6268
12.7835	50.4135	48.553
18.6101	-7.53226	72.2136
15.769	-7.42625	73.999
20.3499	-9.85331	73.3583
22.2913	-12.7492	74.6647
18.7939	-10.9071	76.2917
24.6817	-30.526	71.1595
24.5266	-29.1565	70.4416
22.6394	-29.7126	72.633
25.1798	-27.3412	74.5665
22.8384	-24.4816	76.9538
24.1701	-25.8659	69.0088
20.6822	-24.1307	71.2891
23.6467	-21.9563	67.3777
13.2693	-7.01866	75.7503
10.7512	-6.18642	77.2336
14.3756	-8.32551	76.7115
15.7378	-9.59579	77.8696
16.7507	-11.3406	79.0379
19.8626	-28.2347	74.5966
18.3159	-25.9442	74.4201
17.5119	-22.3877	73.225
16.9615	-18.3923	71.703
8.27133	-5.30155	78.37
7.81234	-3.8976	77.706
11.42	-10.8016	82.2666
14.5535	-12.3196	81.118
16.8159	12.831	69.018
14.5923	15.5833	71.8366
1.91568	25.7447	81.7652
-0.44799	25.9644	81.809
12.2713	18.6687	74.8466
6.92008	8.38805	86.5837
9.25622	7.61031	83.7565
11.7651	6.38418	80.861
12.827	8.48389	81.4095
13.9674	4.80405	78.1893
15.1743	3.53103	76.3886
15.5929	2.28608	74.9763
15.6692	1.19396	73.8791
13.3804	13.8251	80.5861
13.4203	12.4979	81.3006
13.2879	10.5996	81.5636
39.1042	-143.582	12.5478
34.5539	-144.939	15.6142
40.7561	-149.511	12.1634
43.2777	-142.064	9.43601
37.1397	-136.152	13.1024
34.7815	-125.813	13.9535
38.8657	-124.039	10.8303
32.7844	-114.743	15.3177
30.4662	-127.438	17.0748
34.1842	-89.1537	26.1442
37.4544	-87.5126	22.1785
30.2307	-91.1497	29.6205
32.3646	-96.107	21.2203
31.9314	-104.884	17.5394
27.7039	-106.666	20.4845
35.8662	-102.972	14.3951
44.8281	-43.4948	65.7276
47.7802	-47.7819	62.1471
41.0157	-39.6739	68.5868
50.2015	-52.9074	57.5055
50.8425	-58.3009	53.8622
50.3291	-63.1181	50.7308
37.6177	-36.847	69.7837
38.9346	-33.7942	69.0677
34.6186	-34.7226	70.0736
35.467	-39.2396	70.9797
32.7244	-33.4377	70.3596
31.4626	-35.1418	70.8587
40.6415	-85.7012	17.6663
42.7181	-80.2795	21.3237
39.653	-92.6598	13.7674
43.991	-84.7602	12.2013
45.8371	-75.6719	25.2698
47.7002	-74.9203	18.6529
49.4414	-71.4682	28.762
52.4152	-67.3585	32.093
53.0149	-67.14	24.7097
42.7636	-122.043	7.58599
45.0994	-132.894	6.81399
46.6348	-120.442	4.17457
40.748	-110.763	8.99145
47.0663	-140.547	6.21073
48.9443	-146.7	5.76544
50.6635	-139.046	2.75153
39.6691	-100.969	11.0134
69.162	-19.7411	15.9062
67.7039	-25.6902	17.6216
70.6703	-13.2563	14.7098
53.7194	-67.2641	17.5682
51.8701	-71.0663	14.7845
55.16	-67.8293	10.0252
72.8237	24.4267	2.28441
75.5683	19.6545	-7.46284
61.5991	-51.5344	22.1202
61.55	-52.1772	14.0735
66.5007	-31.2962	19.3123
66.5337	-33.2887	11.8498
72.114	-5.95563	13.6919
72.4994	-9.33074	6.4047
67.6439	-33.6304	4.74833
69.0273	-33.0746	-1.83303
53.655	-85.8834	-4.31251
53.905	-91.3659	-5.25536
56.2119	-86.5176	-9.08527
53.7588	-81.0255	-2.88202
50.7693	-85.2948	0.838499
54.3553	-97.5548	-5.83956
54.2835	-76.3195	-0.791477
52.2008	-75.7518	5.13633
56.4733	-77.0757	-6.74582
55.304	-72.2221	1.02228
75.8434	1.41693	-7.76125
76.6599	8.47623	-12.3874
74.7566	-5.75156	-3.30935
77.5423	15.8376	-17.4549
78.3987	22.8524	-22.056
78.9061	29.8303	-27.2968
80.0946	26.2429	-37.6164
79.3963	36.6444	-33.0502
62.7402	-52.8407	5.81533
63.8317	-53.5235	-2.32432
73.3184	-12.0043	-0.43311
73.9469	-14.29	-6.2967
50.5239	-118.828	0.3422
52.5144	-129.798	-0.477076
49.982	-75.1238	11.8078
48.3867	-79.6274	8.92916
54.1226	-137.451	-1.20696
55.6531	-143.386	-2.13456
61.3129	-113.779	-16.4119
62.52	-123.353	-17.8823
58.6329	-86.8915	-13.7692
60.572	-83.8908	-19.0466
58.6487	-82.1341	-13.2047
58.913	-77.4631	-12.4
63.1473	-130.381	-19.4009
63.4184	-136.039	-21.0386
64.8351	-54.4255	-9.59071
70.2721	-32.5549	-6.49214
71.6202	-31.6116	-10.1568
69.3492	-36.6156	-6.62133
74.5597	-15.43	-10.2714
60.8901	-92.8266	-27.1726
59.6548	-89.8494	-34.3681
60.7913	-86.5001	-26.2122
61.2386	-80.6648	-25.6319
60.9846	-75.8677	-32.4778
63.8265	-64.4149	-23.965
69.6498	-45.1902	-19.9373
71.1823	-43.7753	-26.9489
58.2066	-119.485	-45.5752
58.5628	-126.758	-47.3207
54.8622	-117.003	-52.534
57.7449	-111.814	-44.0255
69.1721	-46.661	-34.187
71.1418	-42.5928	-33.5142
72.7845	-40.5186	-33.2811
29.804	-146.111	18.425
28.1167	-138.844	19.2105
25.059	-147.241	21.0619
31.2832	-151.994	17.7585
22.7716	-108.457	23.4698
17.713	-110.253	26.2627
23.7466	-118.136	21.6327
23.1651	-100.114	26.9878
33.0997	-83.1564	47.011
29.045	-87.8043	40.2228
36.4681	-79.4775	52.3011
25.3081	-93.2809	33.168
20.1622	-95.474	35.738
25.7864	-128.698	20.3305
21.097	-130.261	23.3376
33.2479	-41.7367	72.5502
31.1648	-38.6158	72.5077
39.0423	-76.3623	56.3169
29.8165	-36.7266	72.3355
27.6389	-38.0902	74.7546
28.8299	-35.2904	72.0289
28.0726	-33.9794	71.9497
27.6417	-32.9084	71.8532
26.3376	-35.0399	73.9883
30.1587	-54.9255	77.6817
31.4502	-59.7815	77.4337
32.2919	-64.3527	76.9673
21.782	-31.3534	77.0489
18.6473	-31.2225	80.6483
21.4437	-30.7585	75.2583
24.5022	-31.3399	72.6358
21.4103	-31.1142	74.6742
17.939	-30.1426	78.2175
21.2786	-31.809	74.3107
21.2899	-33.5145	74.3186
17.6713	-31.2296	76.8051
21.2517	-36.6037	75.2809
21.0442	-40.1909	76.7844
17.7476	-36.2229	77.5249
12.817	-111.601	28.6004
12.7819	-103.312	31.37
14.3552	-121.251	27.454
20.2147	-148.379	23.4293
18.6756	-141.309	24.4879
15.4251	-149.25	25.4954
21.2228	-154.048	22.543
16.49	-131.667	26.0261
5.97318	-98.4071	40.6837
9.65413	-98.0208	39.593
8.68669	-93.277	53.0107
11.1826	-149.883	26.9292
11.9131	-155.423	25.8965
10.9676	-88.9266	64.7876
14.2381	-29.3054	80.6417
14.0307	-29.7046	79.7441
13.7804	-30.5639	78.9017
13.9895	-32.5285	78.3995
13.9995	-35.8739	79.2094
13.855	-39.5931	80.6051
75.66	51.3054	-18.2828
78.4381	47.0597	-28.7416
76.0473	57.5892	-25.4598
71.831	56.2761	-8.4744
80.3244	22.5716	-47.1447
72.5678	-28.4789	-62.5017
70.0972	-31.086	-66.6569
51.0094	-98.5434	-54.9413
51.1441	-89.4954	-53.9858
53.7266	-100.709	-49.4308
51.3657	-107.342	-56.2694
48.3072	-97.118	-59.9894
51.8972	-115.058	-57.7786
52.5172	-122.62	-59.4468
48.7749	-113.677	-62.5063
56.997	-85.7562	-41.815
56.8773	-94.7173	-42.0474
54.2059	-82.6203	-48.2736
58.0529	-77.6657	-41.1308
24.1848	118.899	-27.878
31.2497	115.727	-27.3283
24.1947	119.926	-44.6567
16.6929	121.157	-28.209
23.7466	82.311	-127.12
24.4507	95.109	-113.3
31.2664	80.756	-124.56
22.9184	67.9577	-137.777
15.8449	83.2315	-128.9
22.254	53.3733	-143.892
29.4882	52.274	-141.338
21.745	38.6061	-146.842
14.8662	53.6237	-145.596
24.5417	105.33	-97.5105
32.1062	103.202	-95.1187
16.627	106.811	-99.1077
24.4632	112.918	-80.2304
8.45189	120.819	-64.1498
0.124948	121.139	-64.4743
8.44778	123.154	-45.9562
16.5407	119.727	-63.4424
8.45102	115.618	-82.4004
21.3399	24.9725	-147.696
27.9609	24.159	-145.12
20.8698	11.5188	-146.787
14.5683	25.3486	-149.422
20.2646	-1.99315	-144.414
26.6892	-2.37712	-141.807
19.6951	-14.678	-140.595
13.7889	-1.4873	-146.295
17.2514	-45.6594	-118.515
23.166	-45.9134	-116.2
16.7318	-54.3422	-107.956
11.5991	-45.725	-119.581
18.3105	-36.2345	-128.132
6.43213	-25.7114	-138.77
-0.152267	-25.7828	-139.229
6.62261	-14.2715	-143.652
12.824	-25.7955	-137.444
6.08585	-36.074	-131.403
14.9806	-93.7225	-83.5723
15.2162	-86.0953	-84.8286
20.2581	-94.1565	-82.0981
14.8215	-100.874	-83.2691
9.84485	-93.453	-84.2436
4.81685	-107.247	-83.3977
9.77604	-107.588	-83.4378
4.95057	-114.581	-83.4233
0.0585593	-107.078	-83.3548
4.87803	-100.053	-83.5375
16.7464	-61.4272	-99.3024
22.0542	-61.8892	-97.8116
16.3188	-68.3715	-92.7759
11.0776	-60.8628	-100.098
15.6387	-77.0772	-87.971
21.1645	-77.7855	-85.9646
10.3818	-76.4348	-88.9794
5.15633	-75.9495	-88.8132
5.37673	-67.2379	-93.7096
4.93627	-85.287	-85.4081
-0.0939085	-75.9346	-88.3656
49.9458	102.207	-27.2095
55.6879	96.2534	-27.1179
50.9041	102.642	-41.9431
44.0107	107.292	-26.9926
48.7956	47.7823	-128.514
54.2733	45.7648	-123.291
48.1466	34.3811	-131.724
42.9269	49.4521	-133.29
49.4283	60.895	-122.378
49.7282	73.3034	-112.693
43.9866	76.1392	-117.027
50.38	83.8312	-100.366
55.3425	69.8217	-107.875
51.2153	91.9415	-86.8095
57.0919	86.7205	-83.5414
45.2637	96.2639	-89.7068
52.069	97.3502	-72.3214
51.6492	100.972	-57.2122
45.4719	106.169	-58.4354
57.5438	95.0743	-55.776
47.2805	21.5686	-133
46.3946	8.96325	-132.483
41.3672	22.4687	-137.561
52.6836	20.4401	-128.004
45.3624	-3.31543	-130.604
50.7642	-3.70327	-125.814
44.3342	-15.1283	-127.004
39.5865	-3.11001	-134.703
42.9173	-25.8155	-121.895
41.442	-36.0899	-114.604
37.493	-26.2083	-125.593
47.7942	-25.6076	-117.338
40.3018	-45.6371	-105.136
45.0652	-44.6567	-101.256
39.375	-54.0338	-95.9105
34.9315	-45.8488	-109.284
38.5359	-61.8994	-88.0585
37.6445	-70.1719	-81.3222
33.3249	-62.335	-91.7743
43.1126	-61.3632	-83.7595
35.9398	-94.7774	-74.1691
35.5983	-102.62	-75.6255
30.8278	-94.7757	-77.4326
36.2799	-86.7635	-73.9197
40.5795	-95.1525	-70.2417
24.9575	-108.644	-80.9721
24.8212	-115.354	-81.0822
19.772	-108.175	-82.2569
25.234	-101.789	-80.6815
30.2669	-109.25	-79.0262
36.8349	-78.6048	-76.4322
41.3805	-78.2359	-71.9773
31.9962	-78.5469	-80.1207
41.1566	42.1308	41.0963
41.0532	42.3157	40.4617
69.0501	56.7719	-89.8931
70.0461	63.4225	-79.4822
72.7103	51.4622	-82.2486
68.3463	48.171	-98.753
64.981	61.4431	-96.782
71.2579	68.6	-68.8585
74.8308	62.0866	-61.661
67.0847	74.9111	-74.9231
71.9478	72.5103	-57.9009
71.0055	75.9485	-47.1843
73.7024	69.6986	-40.4938
67.3186	82.3581	-51.2715
57.4618	19.3355	-122.866
58.4004	31.2695	-121.256
61.7926	17.9118	-117.347
56.5427	7.43588	-122.517
59.1415	43.673	-117.89
59.8699	55.3376	-111.878
63.6336	41.0388	-111.858
52.1853	-25.0774	-111.772
54.2156	-14.9121	-116.765
56.253	-24.5675	-105.699
50.2398	-34.6483	-105.115
55.4913	-4.17714	-120.452
59.7926	-4.32176	-114.833
49.0379	-43.3086	-96.9827
52.6891	-42.1759	-91.6478
48.2693	-51.9049	-87.5366
47.0707	-59.9922	-79.5653
50.4922	-57.7061	-75.7865
45.6712	-77.8611	-66.2746
49.3444	-79.1732	-59.6444
45.1608	-86.9868	-64.7822
77.3135	23.1394	-76.2081
76.5903	15.688	-81.8702
75.7924	27.0492	-83.3022
60.62	89.7855	-26.2909
61.7134	90.435	-40.3722
79.6435	43.176	-39.3106
79.1891	49.5521	-46.4359
66.5774	-22.2605	-89.8533
63.5477	-23.3317	-94.8964
68.5487	-14.2169	-94.162
69.2841	-21.4606	-84.3023
64.2262	-30.1237	-84.1058
69.5701	-5.6099	-97.7391
66.7879	-5.18781	-103.737
70.4739	3.14081	-99.1107
72.0926	-6.19128	-91.0711
71.4893	12.5178	-98.7099
68.7704	14.5107	-105.387
72.6278	21.7662	-95.8156
73.815	10.2381	-91.6728
57.3504	-50.23	-66.1018
55.0624	-52.8974	-69.1471
59.4984	-43.9181	-71.8612
59.8025	-47.684	-62.885
55.5453	-57.0044	-60.716
67.3229	-33.2397	-70.6132
64.9736	-39.1426	-65.2748
64.5924	-35.2272	-74.0952
69.6421	-27.1428	-75.1576
51.9661	-80.6667	-53.8038
53.0886	-72.1474	-54.765
71.8528	-36.6529	-14.2255
72.5849	-32.804	-13.4423
69.9015	-39.2406	-11.0613
72.7264	-30.8447	-12.5729
78.2484	-6.56434	-21.8936
79.1891	-2.08116	-25.4371
92.2527	-3.96939	-59.1531
92.5698	2.31938	-58.6386
92.9171	-4.21931	-58.0629
80.2415	-40.0294	-34.3723
78.8255	-42.3422	-29.9698
92.3428	7.8683	-56.5295
91.1817	8.20531	-57.498
91.8134	12.0901	-53.2339
93.2297	7.20417	-55.4944
84.8235	8.00036	-33.9358
83.5146	7.77483	-34.8915
91.0482	14.7257	-49.1948
92.0849	13.9272	-48.1359
86.2916	-25.5107	-49.3059
81.8873	-38.7063	-26.0165
80.9093	-37.8302	-23.3165
80.2153	-41.4793	-25.8261
80.1462	0.202604	-27.52
86.0209	14.0554	-44.0466
84.3163	11.3061	-40.5357
84.9388	12.4275	-45.5623
82.2759	7.3622	-36.4812
81.3348	7.00399	-38.4279
89.8705	8.16936	-58.1112
80.8556	6.50789	-39.5867
82.0767	7.9092	-42.688
83.6417	8.96134	-46.7061
82.1384	5.78113	-46.8126
85.3931	-31.9456	-39.4138
85.2819	-31.6868	-31.3586
77.964	-42.9211	-26.1058
79.72	-36.3119	-21.5254
80.7727	-33.3434	-22.7553
82.0578	-31.1858	-24.3017
82.9114	-29.7445	-25.6952
92.9637	-4.42091	-57.231
93.6117	1.51074	-56.7437
90.3362	13.0746	-39.4828
90.6188	12.058	-39.1516
91.8486	13.9443	-43.2024
90.3506	11.2388	-39.0825
91.5938	12.1875	-42.542
89.7095	10.2062	-39.1163
93.5455	6.59722	-54.7071
93.1194	10.4283	-51.4811
93.4197	5.9875	-54.1985
92.6506	13.0146	-47.3401
92.7303	12.0958	-46.94
92.2283	11.553	-46.5819
92.5796	9.32111	-50.7622
92.9532	5.74719	-53.9201
91.2352	-8.29537	-55.173
89.1469	8.84478	-39.3824
86.295	2.2852	-35.0403
91.4583	6.51	-47.4079
91.6456	-10.1523	-49.047
91.6283	-8.25496	-49.3242
91.4974	-6.35166	-49.3364
91.2124	-4.74134	-48.9207
90.8091	-3.31677	-48.0974
89.8982	-1.96749	-45.9052
80.5473	-25.922	-25.1255
81.7429	-27.7866	-26.1038
84.5397	-3.62011	-30.3053
80.2279	-18.1409	-25.8716
82.8584	-29.1117	-26.6142
35.027	48.2502	42.4841
36.0794	106.072	0.704864
37.1518	109.533	-12.2604
8.55736	114.97	1.44832
8.59863	119.541	-12.6727
-0.0151061	115.608	1.19155
37.7297	111.911	-27.2231
