1907
84.486	14.6308	-41.767
82.2133	15.55	-44.3487
80.1453	13.3618	-46.613
87.1364	0.938733	-54.021
81.1214	5.42776	-34.6804
80.0217	0.851585	-29.0273
84.8114	-9.21535	-45.8609
84.3451	-6.34582	-45.4973
75.8788	-3.28405	-56.0567
78.6989	-0.196297	-53.8692
74.9935	-30.9064	-41.8433
79.2234	-12.9343	-39.6529
77.7403	4.99018	-48.4992
75.5389	3.15869	-50.6717
83.8274	5.74928	-41.536
0.312601	95.9359	27.3421
15.102	95.4036	25.9782
15.8807	106.113	11.1699
0.292948	107.563	11.564
0.222301	82.553	38.0077
14.1057	83.2133	36.1754
23.9876	73.4826	41.6252
2.30492	8.88198	82.487
-1.45713	8.99047	84.3264
4.22036	20.3263	83.9984
-0.895743	21.0104	85.3089
-1.06972	17.4009	87.698
-1.17266	12.8827	87.3275
-0.472191	24.407	81.2063
0.213231	71.6175	45.6966
0.375124	65.6049	48.9393
13.0757	66.8375	48.1759
12.8663	72.7025	44.4973
1.64796	41.5003	58.6691
2.04064	44.7498	54.6831
5.35275	47.0642	52.2264
2.05488	48.01	52.5687
-1.27204	-21.3853	84.9417
-1.12734	-19.8989	81.2228
-1.44416	-20.7459	86.9252
-1.58138	-17.4714	88.508
-1.38255	-13.1649	76.7227
28.1515	102.484	10.2964
25.2007	69.6593	44.6054
27.5436	64.7204	46.5567
31.1315	45.4056	42.0253
29.0621	49.4328	44.4765
22.0977	47.7952	44.8587
40.6111	103.457	-13.6575
38.8501	96.6955	7.31518
36.3805	44.1115	43.1886
36.5805	48.3319	43.8798
48.1953	81.1927	13.0013
36.5966	46.9099	43.3435
41.786	44.1182	41.7628
36.4258	44.8959	41.8987
45.8185	47.2788	39.9292
58.1133	71.7407	1.48564
43.9107	39.678	39.3153
44.3394	39.9692	38.9982
40.1525	42.3796	40.2829
50.9283	41.006	35.7498
14.8355	53.0261	48.5001
63.4876	-57.574	-15.6682
74.804	6.15284	-58.2726
72.8092	11.9592	-72.3202
68.3677	-25.4009	-68.4341
70.5443	-13.4382	-74.5114
71.6365	-0.640321	-76.728
74.403	-2.59331	-62.7539
64.8381	-36.0647	-60.1928
12.877	-92.5172	51.2983
23.5768	-89.9328	45.0467
50.5514	-63.4233	40.7597
66.5148	61.3576	-14.6215
29.3228	111.102	-13.008
16.1291	115.846	-13.1718
51.6112	-52.6731	46.8324
5.87596	-5.73239	83.4956
17.3007	-11.9427	80.8216
4.39873	-1.81415	79.7892
11.4023	-8.6253	82.4229
9.52125	-4.38654	79.0004
30.9166	-28.2869	74.8443
31.5012	-21.0802	73.9231
67.7287	-45.1338	-26.0815
68.1732	-26.6806	-1.08201
69.6014	-18.0725	-2.82049
69.7561	12.5031	-1.21262
69.4692	-1.77963	6.35537
48.0752	27.7476	37.5152
67.7078	-14.2744	10.0333
65.9765	-24.4534	12.1902
12.5692	19.213	67.2551
12.8247	9.2378	76.8553
14.7389	6.89022	74.0266
30.4009	-11.7551	70.8613
47.8951	-32.2371	56.6856
39.1866	-25.5106	67.6363
45.207	-42.399	59.8669
58.3266	-15.622	39.8365
39.729	-50.2465	65.2255
31.867	-55.1671	71.6927
46.2495	18.9627	46.317
43.969	23.6145	45.2676
37.7266	-33.5921	69.8608
34.2713	-39.8111	72.2451
12.6158	-49.006	84.1641
31.4834	25.3186	50.5779
9.17179	17.9538	79.3948
64.8845	-9.33541	23.932
62.9657	-20.3342	25.8275
9.07947	49.9821	50.0823
14.9464	-6.34049	76.942
17.9831	-24.9379	76.6879
16.763	-18.4113	73.7055
32.9625	-137.843	16.7071
36.1133	-150.873	15.208
45.399	-148.149	9.11893
41.4392	-134.712	10.451
36.4602	-94.7393	18.2457
28.2022	-98.7894	25.0269
29.0043	-116.096	19.7974
37.2682	-112.198	13.2234
28.8218	-32.9115	75.6457
46.4731	-79.3184	15.8514
51.304	-69.8894	22.1312
48.9409	-131.542	3.70222
52.4896	-145.25	2.41194
54.4281	-69.9311	8.02599
56.4383	-79.6494	-7.53929
51.8888	-78.9524	3.21734
59.6456	-97.9736	-34.37
68.9588	-33.2805	-9.32709
59.3029	-82.3398	-32.7732
55.027	-124.027	-55.2976
54.1475	-109.25	-50.5419
23.5961	-140.318	22.581
26.4532	-153.115	20.309
18.4752	-102.335	31.3001
19.5041	-119.572	26.6192
23.0223	-32.3913	78.7822
14.6105	-25.6658	80.2177
14.5305	-28.454	79.2257
15.9924	-154.981	24.777
14.4433	-36.3412	79.8915
72.2551	52.6179	-34.1541
48.0889	-87.7967	-58.4969
53.0726	-91.5466	-47.7106
48.0741	-105.805	-60.8329
50.0073	-121.212	-63.596
54.7744	-71.8049	-47.8949
29.6755	114.469	-42.9727
15.8809	119.859	-44.337
16.2604	94.5003	-111.309
30.5332	91.3843	-107.24
29.2923	65.0155	-130.981
15.2784	66.7845	-134.956
27.7517	36.2179	-139.865
14.8798	37.4603	-143.838
30.3538	108.491	-76.0287
16.1166	112.681	-78.9276
0.871575	114.058	-79.7045
0.568511	121.33	-44.8834
26.5137	9.54778	-139.99
14.4866	10.7407	-144.093
25.3619	-15.9841	-134.133
13.482	-15.4216	-138.541
23.7639	-37.0896	-122.279
21.8793	-54.7173	-104.001
11.2971	-54.3939	-106.055
12.4702	-36.7814	-126.709
0.774557	-36.7356	-128.364
1.0012	-15.2541	-139.763
10.0468	-85.6417	-84.7172
20.4806	-86.4422	-82.0169
19.9242	-101.292	-81.889
9.83685	-100.522	-83.3029
9.8183	-114.686	-83.1086
0.0828369	-114.476	-83.7379
0.128086	-99.7745	-82.8691
21.4787	-69.1849	-89.2268
10.9339	-67.5301	-91.9384
0.318578	-67.1098	-91.4945
0.192813	-85.0306	-83.8529
52.7564	94.9975	-40.3687
41.9464	105.98	-41.6003
51.7166	56.6856	-113.75
50.5631	31.4675	-122.868
40.1901	34.1301	-132.416
41.3631	61.4613	-123.229
42.0769	85.7331	-100.905
52.5091	77.8804	-93.2515
54.0679	90.0894	-67.8941
43.0049	100.586	-72.2107
49.0362	7.03024	-124.07
38.6567	8.29967	-132.955
47.131	-15.9393	-119.116
37.05	-16.2377	-127.442
44.163	-36.0332	-107.642
34.9023	-36.9606	-115.489
42.7515	-53.2573	-89.6738
32.913	-54.6265	-97.7387
32.1471	-70.135	-83.4579
40.1033	-103.171	-71.4664
30.3494	-102.281	-78.1855
30.954	-86.7823	-76.57
40.4135	-86.5589	-68.8797
30.0887	-115.813	-79.6851
19.5538	-114.895	-82.4794
61.3472	67.7273	-83.328
68.3988	56.3495	-69.6303
66.8869	42.719	-88.2691
60.3042	50.4947	-102.561
69.4308	64.8334	-49.1775
63.0825	77.7248	-61.2544
58.9628	28.059	-112.133
57.3276	5.55493	-113.794
55.3589	-15.4575	-107.885
51.6166	-34.0636	-96.7465
49.7626	-50.2003	-81.279
69.9486	17.8807	-85.8222
58.2585	-31.7615	-86.4628
61.9481	-15.0906	-97.1565
67.0606	-14.3552	-85.5691
63.6166	-28.6769	-77.1773
63.6694	3.57841	-102.573
68.3232	1.13558	-89.5101
65.3809	23.5176	-99.7133
54.6787	-46.0998	-73.5303
59.5935	-41.2412	-66.4454
56.0216	-53.9743	-56.2607
87.0856	1.65224	-55.4031
85.2508	2.20025	-57.4232
84.2008	12.2685	-52.0098
86.1518	10.9504	-50.0144
79.3054	11.7955	-36.7161
81.4722	11.406	-34.3127
77.4239	10.1279	-39.8087
82.6326	0.544199	-58.0271
81.74	10.4175	-53.0652
85.78	-10.0032	-53.5722
85.4141	12.736	-40.6382
86.504	9.39843	-48.8496
0.365354	117.678	-13.2541
1.16551	95.4219	-112.232
40.4454	-117.658	-74.1366
1.32019	67.0417	-135.713
1.2711	37.6717	-144.468
1.18222	11.202	-145.2
0.48442	-54.3667	-105.834
-65.2744	-33.3611	13.2243
-67.3888	-34.5564	-1.22085
-64.0706	-43.7507	13.1664
-57.7112	-104.405	-10.8474
-52.1322	-106.177	-2.35015
-58.6509	-141.521	-6.68106
-55.6954	-128.607	-4.4831
-60.7264	-125.146	-13.2826
-62.4594	-137.818	-16.224
-50.6761	-90.9531	-0.422511
-44.0044	-109.072	6.17905
-42.3684	-92.5918	9.83405
-56.4002	-90.627	-9.637
-60.1153	-89.6779	-19.3247
-61.0345	-102.801	-20.3046
-62.0918	-53.5993	12.1102
-58.5431	-63.156	10.4244
-56.6539	-62.9193	24.5694
-59.8343	-52.2303	27.42
-71.314	41.534	-19.867
-69.8154	28.3324	-9.15347
-62.3005	38.3991	12.1196
-64.645	50.8721	-0.110836
-73.0483	24.7276	-58.8674
-73.7921	33.8512	-40.7478
-72.1446	45.8654	-53.8214
-70.3382	34.6536	-72.4549
-5.44141	-104.233	37.0119
-9.64434	-103.9	35.2288
-11.0838	-122.302	31.5948
-5.47463	-123.448	34.0217
-14.2122	-142.606	27.0557
-6.64589	-143.732	29.4392
-7.66816	-155.865	27.016
-65.8324	-44.1944	-39.5399
-60.6647	-55.9969	-42.89
-64.9516	-55.0699	-29.0419
-67.3794	-36.1339	-46.2997
-61.3995	-45.5964	-50.8918
-64.0459	-134.259	-25.853
-61.9329	-129.488	-39.3437
-61.1417	-42.7112	28.8476
-62.2403	-30.5721	27.7731
-63.0873	-54.6079	-3.21279
-4.40585	-59.47	88.3325
-12.7697	-59.8562	84.9334
-12.2312	-69.7719	82.9401
-3.67277	-67.9121	86.347
-22.6364	-59.9415	78.4573
-22.6466	-69.8854	76.6336
-5.849	-50.2276	87.097
-5.01843	-76.3955	79.6923
-6.79976	-84.4221	69.547
-12.5106	24.8658	61.4809
-11.4065	30.7829	56.258
-15.9766	26.2278	55.1583
-17.6262	19.2911	58.6728
-51.3249	-10.2296	53.025
-40.5186	-5.26799	61.79
-39.1948	3.57015	58.3579
-51.3104	-0.517333	51.5654
-60.6802	-4.71144	38.3136
-50.0609	10.0271	49.3091
-61.1026	24.2725	22.9199
-65.1604	20.9376	14.7324
-40.2459	-14.4073	65.2758
-50.195	-20.0471	55.044
-2.92064	35.3637	65.1466
-3.92198	28.8092	73.2477
-25.8408	92.5419	25.3911
-36.2044	88.4458	21.7779
-33.7264	78.8146	31.8989
-24.0552	81.7069	35.3852
-5.3629	-93.2504	53.6978
-57.5406	-25.939	41.5722
-55.6426	-38.8072	43.6339
-33.4878	-67.9835	66.486
-42.4095	-62.7483	57.3217
-41.2567	-71.8634	51.7106
-31.0203	-87.7493	35.6771
-37.9138	-78.817	45.3491
-46.2344	-74.3701	34.3652
-38.6391	-84.4706	26.9654
-4.99244	23.5917	80.3679
-8.70703	24.8626	70.8447
-9.81139	20.594	76.6774
-18.8641	11.0451	63.1798
-26.1488	6.50005	60.9698
-25.3072	-29.5796	77.2887
-14.8917	4.50572	73.6366
-14.2288	2.33786	72.9025
-10.7064	-0.680243	75.7055
-14.096	0.00489013	72.0923
-14.8985	-2.3117	72.7051
-5.28295	7.67216	80.4139
-5.45409	5.8208	78.5686
-19.0668	-2.23805	69.4199
-6.01031	16.8658	85.8769
-10.6921	15.7948	80.7657
-10.3009	11.974	80.7446
-5.86524	12.5926	85.2565
-28.6845	-44.6731	75.7315
-20.9704	-48.6489	79.8403
-19.72	-39.9275	82.34
-24.8981	-36.185	78.9406
-27.0395	-18.2014	76.7404
-23.0858	-15.8405	78.4445
-5.67866	3.12954	78.1663
-5.92735	-1.235	80.0926
-7.81691	30.7334	63.9009
-17.1191	11.1306	69.5584
-17.4983	8.60482	70.9617
-16.7967	11.4935	71.3008
-7.742	1.78723	77.0513
-17.0246	4.70032	71.1507
-6.27634	-5.51588	83.4392
-6.81729	-9.06195	86.5437
-25.6079	-9.37415	72.88
-21.3057	-7.90634	74.3488
-12.9457	-36.3026	86.952
-12.8251	-41.4904	84.8685
-6.1247	-41.8282	86.0337
-6.3167	-36.7026	88.2863
-20.5451	-21.0448	80.9408
-22.775	-25.2165	78.5391
-14.1651	15.7474	72.0853
-18.8753	-35.5183	83.7107
-53.8359	52.0632	30.675
-58.8841	38.0673	22.8606
-56.501	37.8859	28.5198
-45.1633	72.7782	25.3622
-43.8089	65.4575	34.2674
-32.9063	70.7504	39.8079
-55.7428	62.835	15.1558
-54.4132	54.84	25.3025
-33.5979	67.1903	42.5368
-43.5818	62.2252	37.8639
-20.3832	53.5396	47.4505
-19.8999	58.0963	48.8832
-28.1427	59.5454	47.1187
-28.0726	55.0989	46.2993
-7.14208	35.8284	57.5919
-2.16841	40.1791	58.5735
-1.6417	43.5151	54.468
-23.7209	15.2477	57.0444
-20.9974	22.8298	54.1757
-33.4051	20.3095	52.155
-36.8108	12.6547	54.3656
-50.3689	24.6	38.597
-52.49	29.8589	33.0333
-56.9211	26.5266	28.6306
-44.575	54.2821	41.2785
-35.5301	58.269	44.638
-34.9872	62.8075	44.2789
-52.0386	46.9578	36.104
-53.6085	37.825	32.64
-39.8774	44.4264	42.9093
-39.5142	43.8271	43.0969
-35.1369	46.4398	44.3144
-35.1669	47.1226	44.1659
-29.2185	47.5753	44.3551
-29.5511	46.9282	44.6246
-24.0127	44.9478	45.0663
-23.0758	45.4492	44.7771
-19.0193	41.4402	45.3119
-17.7978	41.7554	44.9388
-14.0226	39.0282	46.7636
-16.0531	42.3445	45.5557
-46.4613	34.3298	38.5857
-45.2773	32.4115	40.0368
-30.2073	45.4608	45.17
-38.81	42.4863	43.4808
-41.7897	39.8525	41.628
-44.2265	35.9125	38.8201
-44.213	36.3836	38.757
-43.3539	37.0009	40.1596
-35.2466	53.6968	44.8456
-45.3579	42.0405	40.9337
-41.4872	46.269	43.4979
-29.4555	31.5305	50.3517
-40.0561	31.0488	46.2933
-20.6892	33.3165	49.1272
-18.2984	34.7575	47.7347
-16.7167	36.0528	46.9773
-17.5988	36.4054	46.0978
-9.29235	44.3911	48.7157
-13.4951	49.1674	47.7746
-15.6967	38.5273	46.0135
-21.9531	46.1343	45.5317
-28.7635	48.4266	45.0394
-14.3459	44.0128	46.3154
-29.5258	33.8745	49.455
-39.2097	33.6303	45.9633
-38.8184	34.5699	45.4916
-18.9638	35.7556	46.4462
-21.4345	35.2509	47.6346
-19.23	36.2061	45.5737
-29.4996	34.7112	48.455
-28.9707	33.4055	47.1216
-18.6747	37.744	43.6652
-19.2585	35.7337	43.9793
-18.5776	36.611	43.72
-41.3938	40.5795	40.0669
-5.87436	58.242	50.9226
-3.05522	52.0615	51.2783
-19.877	27.3141	52.3641
-14.6589	36.0513	48.362
-8.31311	47.4887	49.477
-19.8258	30.4317	50.6642
-15.4316	-25.1622	80.2885
-19.8668	-26.7726	78.2708
-7.34937	-14.4787	88.0063
-7.21232	-11.2764	87.56
-11.6191	-16.0053	86.5092
-11.4492	-19.2638	85.9506
-6.95261	-17.7412	87.4543
-16.2265	-18.5697	83.9188
-11.4443	-12.975	86.3006
-16.158	-16.1068	84.1573
-10.8587	-22.3312	84.7296
-5.84522	-20.8206	86.4929
-23.6755	-26.5466	77.6163
-16.4	-25.999	82.4553
-16.0394	-25.3445	81.5758
-16.9841	-27.3874	83.5961
-12.4325	-28.2525	88.5253
-11.8168	-26.0729	87.6582
-6.04401	-25.6262	89.8835
-5.79267	-22.4756	87.8106
-11.1794	-23.7413	85.917
-6.31784	-28.0837	91.0042
-20.1715	-27.1928	78.2858
-5.16258	-22.0707	84.6413
-6.53382	-30.4705	91.4731
-6.50207	-32.9936	90.827
-10.2871	-10.1914	85.7509
-5.65741	-21.3691	86.5124
-10.8198	-22.8133	84.6925
-13.1563	-32.8127	88.5691
-12.9056	-30.4609	88.9339
-10.2539	-22.8526	82.9001
-10.2546	-23.2654	82.8857
-14.1071	-23.039	78.8758
-9.92389	-21.3979	80.3517
-20.0746	-29.5451	77.8819
-4.72062	-25.5259	82.4598
-5.30582	-21.5775	84.5312
-5.81966	-20.2894	81.1268
-10.0025	-26.4054	80.9982
-23.42	-20.1687	69.5195
-25.9905	-22.7079	66.4886
-13.5764	-16.3085	75.4462
-9.76646	-14.7166	76.424
-23.8629	-37.693	74.8803
-21.0273	-37.3586	77.5359
-4.15121	-33.552	83.2205
-0.535778	-33.7494	83.14
-6.14115	-13.5804	76.8796
-9.86696	-34.2463	81.7186
-26.629	-37.7829	70.4242
-74.2901	-19.2353	-52.9679
-75.2086	-11.6076	-55.9706
-72.9617	-11.601	-61.8103
-71.7309	-20.4609	-58.3502
-72.1359	7.2448	-17.1652
-73.8193	19.8574	-29.6463
-73.8459	14.4996	-47.5148
-73.828	7.70629	-41.5521
-71.5167	-30.9109	-43.0824
-69.8024	-36.8725	-37.351
-73.0812	-25.358	-48.3275
-69.5428	-28.7173	-52.8901
-78.6962	-9.51971	-54.8802
-77.9544	-18.9205	-51.7089
-77.0495	-34.2932	-38.6591
-79.3036	-27.1601	-45.1354
-74.4045	-40.8124	-29.6595
-72.1768	-40.5884	-25.7906
-83.6107	-17.1322	-43.9941
-85.1136	-4.76052	-51.7452
-71.4236	-17.4458	-10.8146
-70.402	-25.6314	-9.47201
-75.8073	-17.568	-22.1286
-76.075	-21.3826	-21.484
-75.0107	7.11685	-39.8961
-81.9154	-10.1128	-57.5135
-81.8677	16.955	-43.7562
-84.192	16.0731	-41.172
-79.7587	14.7197	-46.0479
-79.9564	2.31812	-28.7895
-86.6788	2.18669	-53.3757
-84.5456	-8.00517	-45.4343
-84.0893	-5.10152	-45.06
-78.275	0.987542	-53.3666
-75.4039	-2.1691	-55.5884
-74.9229	-30.0516	-41.7675
-75.2252	-1.49795	-23.372
-77.3563	6.26464	-48.0279
-75.1225	4.38082	-50.2202
-83.5953	7.14003	-41.0463
-79.1052	-11.7448	-39.4223
-15.2407	105.831	11.9147
-14.4449	94.8812	26.9904
-13.3568	82.5196	37.5503
-23.5495	72.6008	43.0448
-5.2369	8.9595	82.339
-5.69825	20.3285	84.0447
-12.5888	72.1147	45.5101
-12.36	66.0967	48.8912
-1.61504	47.2692	52.4015
-27.4498	102.119	11.5177
-24.7391	68.653	45.8258
-27.5728	63.9736	47.3445
-29.9248	46.2612	43.5741
-28.1484	50.0283	45.6291
-20.8037	47.9652	46.1081
-38.1465	96.4526	8.80382
-39.893	103.514	-12.5219
-35.0791	44.8903	44.6724
-35.1144	49.3606	45.2546
-47.5256	81.1829	14.8568
-40.4329	44.9981	43.3742
-35.1826	47.8775	44.7991
-35.0662	45.7999	43.433
-43.5972	50.191	42.2235
-57.6844	72.3731	3.01181
-43.0615	41.0011	41.0341
-42.7341	40.6221	41.3133
-38.857	43.1957	41.9033
-49.161	44.1966	38.5156
-12.765	52.987	49.0204
-63.8651	-57.56	-16.3442
-74.267	7.3055	-57.7242
-71.9596	12.9804	-71.6119
-69.7994	-12.6196	-73.9674
-67.797	-24.6678	-68.0501
-73.8364	-1.55034	-62.2256
-70.7596	0.261562	-76.0699
-64.4521	-35.4343	-59.9967
-12.0986	-93.0032	50.7826
-22.1681	-90.8967	44.3265
-50.7667	-65.1709	40.1054
-66.2785	62.5148	-13.5436
-15.3883	115.773	-12.6594
-28.591	111.036	-12.1098
-45.6567	37.8215	39.7168
-51.6437	-53.9269	46.8645
-9.22279	-6.32705	83.4315
-18.9061	-12.1182	80.4302
-8.45003	-2.24283	79.5816
-12.0856	-4.60997	78.8122
-13.8866	-8.88358	82.2569
-31.3061	-20.1992	74.6604
-30.1419	-27.7038	75.8701
-67.9848	-44.6514	-26.4518
-68.6852	-25.5778	-1.58029
-69.9714	-16.6291	-3.19761
-69.8369	14.1596	-1.32733
-69.5344	0.0623679	6.04885
-47.4779	28.5815	39.2971
-67.9555	-12.5204	9.75415
-66.537	-23.1651	11.7998
-13.445	18.7013	67.1287
-16.4013	7.12553	73.0425
-14.6535	9.63633	75.6943
-31.0981	-11.0512	70.7544
-48.0943	-30.9563	57.7566
-39.1669	-24.2569	68.6684
-45.1784	-41.9682	60.574
-59.1529	-15.0987	39.848
-32.361	-56.6743	70.9209
-40.0221	-50.5411	65.1392
-46.633	18.9487	46.8622
-43.5308	23.8452	46.5069
-37.526	-32.3606	71.0497
-34.1502	-38.8405	73.1369
-12.9628	-50.1839	84.1017
-31.1631	24.8798	51.4002
-10.4756	18.2749	79.2955
-65.1574	-7.74448	24.072
-63.3935	-19.3086	26.1506
-6.4931	50.3762	50.4973
-16.8897	38.4921	45.7007
-17.0687	-6.3488	76.1624
-18.1527	-24.8077	77.3386
-17.7881	-18.3494	73.4945
-32.5437	-138.079	16.6766
-40.9577	-135.031	10.4122
-45.2333	-148.149	9.11899
-35.9476	-150.873	15.208
-33.8569	-96.4292	18.4646
-25.8145	-99.9971	24.9335
-35.9172	-113.081	13.2807
-27.8437	-116.756	19.7792
-28.1581	-32.3795	76.5454
-45.3811	-81.6683	15.3209
-51.1039	-72.696	20.9566
-48.4951	-131.877	3.65524
-52.3239	-145.25	2.41195
-54.6013	-71.2595	6.89853
-51.5267	-80.1956	2.44692
-56.3132	-80.3482	-8.17834
-59.3993	-98.1205	-34.5004
-69.4792	-32.4776	-9.87025
-58.7755	-82.4664	-33.0087
-53.9743	-109.276	-50.574
-54.8613	-124.027	-55.2975
-26.2877	-153.115	20.309
-23.3136	-140.455	22.5652
-16.9377	-103.008	30.8529
-18.9046	-119.95	26.4918
-22.7687	-32.1498	79.5533
-15.5682	-25.5893	80.2762
-15.3201	-28.2165	79.3884
-15.8268	-154.981	24.777
-15.251	-35.9696	80.091
-71.9111	53.9036	-33.2829
-47.868	-87.752	-58.5183
-47.8876	-105.799	-60.8411
-52.8746	-91.5689	-47.7851
-49.8416	-121.212	-63.5959
-54.5718	-71.6952	-47.9945
-14.7393	119.934	-43.9896
-28.5976	114.642	-42.3284
-13.9353	94.6472	-110.986
-12.6966	66.9147	-134.637
-26.7746	65.2931	-130.386
-28.3206	91.6827	-106.633
-12.5947	37.5819	-143.468
-25.2917	36.4578	-139.326
-28.7029	108.776	-75.4459
-14.3707	112.822	-78.6175
-12.171	10.8441	-143.838
-24.2598	9.74354	-139.544
-11.4805	-15.3444	-138.357
-23.4477	-15.8275	-133.781
-22.3147	-36.9669	-122.03
-10.9457	-36.7237	-126.577
-10.2949	-54.3441	-105.98
-20.9361	-54.6185	-103.861
-9.65708	-85.6251	-84.704
-9.58386	-100.519	-83.2989
-19.6836	-101.285	-81.881
-20.1143	-86.4096	-81.9944
-9.65262	-114.686	-83.1086
-19.3881	-114.895	-82.4794
-10.2738	-67.4921	-91.9011
-20.8787	-69.1097	-89.1574
-40.9383	106.3	-40.732
-51.8728	95.5274	-39.3549
-49.6418	57.2421	-112.823
-39.0377	61.8725	-122.434
-37.8608	34.4997	-131.687
-48.4817	31.9655	-122.01
-50.7667	78.4896	-92.3242
-40.0574	86.1799	-100.107
-52.7675	90.7215	-66.9548
-41.5307	101.036	-71.4161
-47.1227	7.45407	-123.327
-36.5615	8.6114	-132.331
-35.2656	-15.9884	-126.948
-45.542	-15.5904	-118.521
-42.9508	-35.7501	-107.228
-33.5592	-36.7615	-115.142
-32.0514	-54.464	-97.542
-42.0171	-53.0208	-89.4465
-31.6249	-70.0198	-83.3708
-39.9089	-103.155	-71.4626
-40.1287	-86.4964	-68.8629
-30.6265	-86.7339	-76.5439
-30.1159	-102.274	-78.1711
-29.9229	-115.813	-79.685
-59.8779	68.5143	-82.3459
-58.5169	51.1997	-101.577
-65.4527	43.5922	-87.3148
-67.0995	57.3373	-68.6818
-68.6529	65.8939	-48.1955
-62.0055	78.5632	-60.2487
-55.6545	6.09322	-112.992
-57.1596	28.6834	-111.212
-50.6039	-33.6793	-96.3181
-53.9601	-14.995	-107.248
-49.1338	-49.8835	-81.0497
-68.8003	18.7751	-84.9914
-57.4001	-31.2658	-86.0356
-62.9145	-28.0657	-76.7675
-66.0937	-13.6551	-84.9608
-60.765	-14.5156	-96.5133
-67.1926	1.9126	-88.7641
-62.2568	4.23108	-101.768
-63.8811	24.274	-98.8029
-55.7517	-53.6263	-56.2422
-59.1274	-40.734	-66.2426
-54.1396	-45.6957	-73.3154
-86.6052	2.89273	-54.7388
-84.7379	3.41231	-56.7598
-85.7559	12.3021	-49.345
-83.7496	13.5922	-51.3397
-81.3282	12.8948	-33.8818
-79.1157	13.2463	-36.2875
-77.1726	11.5264	-39.3917
-82.1054	1.72188	-57.4113
-81.2809	11.7048	-52.4388
-85.4151	-8.86594	-53.0406
-85.1681	14.1875	-40.0625
-86.1207	10.7547	-48.2005
-40.2796	-117.658	-74.1365
16.8083	-77.03	74.7097
13.9786	-78.2225	74.701
19.1183	-78.0387	71.5549
17.5161	-74.1323	77.4712
62.3786	8.7928	30.2439
60.6026	10.9196	33.0647
62.7727	5.4755	30.5398
63.5214	10.7386	25.7687
58.8634	13.199	34.7083
58.501	16.2107	32.1901
56.805	13.4404	38.2486
13.0422	61.5914	49.6985
15.168	59.6643	49.6514
16.7432	64.9803	48.6239
9.86948	62.3127	49.7669
10.4378	57.3466	50.3836
23.4165	41.6846	43.3414
21.2051	40.2904	43.3841
23.2675	42.0546	42.0472
26.1687	43.1323	43.4512
23.483	41.7315	44.2281
9.53411	40.541	51.3902
10.0984	39.5255	51.3642
9.86108	41.8248	50.1937
9.13392	41.0085	51.7072
12.3786	40.535	48.1755
13.9398	38.8624	47.3591
13.0379	42.1294	47.2625
11.1585	42.2542	48.6875
12.0473	39.1434	49.4105
42.8572	34.9634	40.9368
42.6034	35.1729	40.8622
39.8016	34.2681	44.0507
43.2107	34.2656	40.9097
44.2098	35.3477	38.6129
15.7285	33.6447	50.3737
15.4824	34.5671	49.852
15.1429	32.9323	51.4133
16.9792	32.6753	49.9152
18.5325	37.1781	43.881
18.6425	36.6973	43.8239
18.9904	37.1929	42.6902
18.8022	37.9551	43.8696
18.0942	37.2457	44.7789
23.0048	-27.4586	76.2694
22.7564	-27.3601	76.3764
23.1332	-27.728	75.8566
22.8425	-27.4113	76.5107
21.8223	-25.7692	78.1847
22.1035	-26.7561	77.2725
22.9718	-26.5809	77.171
21.8883	-25.1432	78.5665
20.4089	-24.9839	79.2051
23.5447	-26.9164	76.7632
23.6836	-26.7132	76.8353
23.5721	-27.0869	76.6827
25.3421	-26.1231	76.8213
24.4821	-25.9708	76.9643
25.8881	-26.9063	76.5119
25.4876	-24.8535	77.0121
23.5828	-28.17	75.1242
22.7571	-27.448	75.333
24.3101	-28.7212	73.6591
23.2927	-28.476	75.604
19.3537	-30.4683	81.7001
19.7087	-31.364	81.5421
21.336	-28.8447	78.9546
19.2294	-29.7463	81.5554
16.9549	-31.7744	84.8036
16.9118	-17.1351	82.9672
16.3774	-15.5623	83.0338
13.8347	-14.7247	84.5004
17.1209	-18.0556	82.7334
19.1607	-19.9255	81.4994
22.1171	-27.0943	77.2469
22.2002	-27.1844	77.2977
22.1764	-27.1074	77.0605
20.7365	-26.8756	78.1086
71.4364	-33.8193	-15.719
70.8131	-34.0502	-14.7873
71.207	-37.7478	-17.5907
72.0599	-32.9239	-15.9938
79.9077	-27.8482	-29.4101
80.3943	-26.753	-32.5333
78.2379	-26.4986	-29.0255
79.3734	-28.4507	-26.7293
80.9283	-29.1819	-29.4948
74.8091	-31.5148	-17.986
74.7832	-28.895	-18.2577
74.255	-31.6288	-17.1043
75.6038	-33.1382	-19.0178
73.3623	-20.7982	-24.4921
73.1633	-19.8742	-26.5227
74.059	-18.7212	-25.1159
74.7613	-20.8563	-23.5713
73.9389	-23.0273	-24.6767
79.7729	-2.4599	-31.5377
79.2173	-4.47992	-31.7327
79.9445	-1.80411	-32.3071
79.8568	-1.73259	-30.7864
82.8708	6.83836	-38.4721
82.697	7.68821	-37.7506
82.5952	5.9034	-38.154
84.1327	7.148	-41.7113
76.5245	-20.4431	-32.8805
75.4627	-18.654	-32.0444
75.7944	-23.6999	-29.2918
78.9768	-23.9135	-34.3631
78.8095	-18.8638	-37.3139
81.5685	-2.6884	-38.0764
81.9248	-1.69286	-38.7254
80.2175	-2.18322	-34.3746
81.5042	-4.17439	-38.7416
85.0445	-15.4658	-46.5972
84.9346	-15.1246	-46.0415
84.15	-18.1914	-45.3158
85.3241	-14.6036	-47.8522
85.3555	-13.4082	-49.8867
85.5933	-11.2111	-49.4849
85.302	-14.2856	-50.7067
85.3994	-10.8585	-51.9052
80.6565	-25.7858	-34.9755
80.9635	-24.1496	-37.4432
81.5068	-26.8026	-35.2971
82.3275	-14.0377	-43.0113
81.057	-15.6352	-41.6047
83.7908	-14.6931	-44.4588
82.4061	-12.7212	-43.0359
72.918	-25.9658	-15.8698
73.0458	-28.2213	-15.8075
73.5985	-25.7797	-16.7938
72.6009	-25.0221	-15.5447
72.4725	-23.3238	-15.3132
72.8556	-21.4056	-15.8962
72.0891	-23.2513	-14.392
74.0536	-14.9548	-18.1947
73.7512	-15.3744	-17.653
74.4459	-15.4854	-18.9441
74.5105	-11.9967	-19.2677
73.4159	-15.9996	-16.9885
73.0503	-15.6618	-16.1262
73.2504	-18.3139	-16.5767
75.9942	-24.9856	-27.2237
76.39	-25.0193	-25.0317
76.0343	-12.2332	-27.7571
74.9832	-15.7151	-26.2968
75.4806	-12.9163	-29.2571
77.2385	-8.79239	-29.1437
77.0721	-11.181	-27.0548
85.2785	0.192194	-49.0726
85.3695	0.82611	-49.543
85.1896	-0.0746664	-48.4008
85.53	-1.32092	-50.409
85.685	-4.91558	-50.1526
85.7799	-5.5957	-48.4375
85.7239	-6.6825	-50.5539
85.5482	-3.88149	-51.3177
85.5146	-2.79454	-48.7874
82.2654	5.33376	-38.2071
82.9874	4.85757	-40.8228
81.4139	4.89859	-36.9792
83.9031	3.95125	-43.9907
83.2588	3.12859	-43.1167
85.0482	2.70037	-47.8159
84.797	4.85371	-45.0541
39.2	45.3652	42.4114
39.0089	45.0689	42.1798
41.4029	43.8297	41.5187
39.4345	45.6954	42.7146
36.5736	46.5036	42.9506
22.5944	-79.0743	66.8487
21.7647	-81.8708	63.0799
24.8885	-77.5512	66.8925
45.3705	38.2903	38.392
45.8094	38.6636	38.417
44.7104	40.0841	38.9844
45.0369	38.1108	38.429
46.0674	36.5485	37.7113
49.1741	38.8967	36.4683
51.0612	38.7928	34.7788
48.922	40.5706	37.2927
47.2438	38.7183	37.8796
48.76	36.8146	36.0279
66.0149	-44.8745	-7.73875
66.9522	-44.4643	-12.5793
66.2297	-42.9743	-6.75612
65.3478	-47.1022	-7.63362
25.5302	35.0277	45.0043
25.603	35.5125	46.3291
30.1059	34.3926	45.9387
25.6295	34.1476	43.4614
22.0197	35.4244	43.8051
17.5117	37.3833	45.2451
17.9551	36.6335	45.1975
17.6202	38.3298	45.1723
17.2202	37.3312	45.3841
19.6726	39.0629	43.6564
19.1839	39.1645	44.7542
19.8175	39.0275	42.1053
16.3595	40.1806	44.9084
16.8343	40.0271	44.6938
17.5787	41.9097	44.4296
15.8305	40.4703	45.2105
16.0541	38.6711	45.5006
8.58322	42.2069	51.7431
8.08328	42.4034	52.2158
8.56986	44.0712	50.9488
17.2556	-24.7658	80.6779
17.8531	-25.8927	79.6912
17.5432	-23.9772	80.8501
14.5994	-23.2664	82.6617
59.5668	-68.1026	-9.0645
58.3588	-66.8339	-3.6079
59.2306	-71.1698	-10.6634
60.5899	-65.8312	-9.91183
72.0369	-3.1511	-15.9236
71.4809	-9.26632	-11.2154
72.6055	-4.58985	-18.4725
72.672	3.26082	-21.5357
71.5077	-1.08582	-11.7659
61.4242	-73.6615	-22.1238
61.2272	-76.1231	-23.7046
61.921	-69.5919	-23.0387
60.6635	-74.9686	-17.1122
61.9916	-109.656	-27.4176
62.563	-118.169	-29.1629
60.1747	-106.554	-35.0952
61.1911	-100.608	-26.9281
62.2795	-112.009	-21.199
22.2261	-27.6695	77.5288
22.3537	-27.8733	77.5207
22.2674	-27.4629	77.3962
21.0232	-27.798	78.7145
22.3831	-28.1452	77.5828
22.6908	-28.157	77.4386
18.9296	-29.2783	81.5979
18.9824	-28.725	81.1735
16.4949	-29.9916	84.5752
26.7784	-75.9858	66.9324
30.5807	-76.3894	61.3987
26.9895	-72.8856	70.1497
46.1309	-68.5678	-66.9675
45.3523	-65.6803	-71.6959
48.6124	-67.0759	-63.522
45.4148	-71.6123	-66.3855
53.4999	87.3983	-7.63383
55.048	87.4929	-14.7775
50.0384	91.3419	-5.92399
54.1715	84.0536	-3.76485
83.094	-24.8393	-44.7459
84.2963	-20.8248	-49.0291
83.4383	-23.7279	-43.8836
81.9934	-28.1239	-41.0027
82.5278	-25.3074	-46.1199
77.2026	0.0930326	-26.0778
76.4055	-3.77309	-23.9057
78.2966	-0.11681	-26.4534
77.8617	3.96815	-28.4917
75.8457	0.310444	-25.7083
75.0322	-19.8853	-19.894
74.5113	-20.2888	-18.6602
75.6057	-22.5824	-20.2648
75.5351	-20.4847	-21.4121
74.9735	-18.2708	-20.0794
74.6757	-26.017	-18.3864
74.2623	-23.0831	-18.019
75.5845	-26.0542	-19.7337
85.1802	-16.0159	-53.0491
84.4113	-16.282	-54.0425
85.8043	-10.4968	-55.9
85.5875	-15.7298	-52.0213
83.3803	-16.4483	-55.042
82.6563	-21.1462	-51.4109
82.0137	-16.3256	-55.6754
83.7511	-10.919	-57.8426
74.0362	2.85981	-28.5861
75.0259	4.27762	-30.91
73.4989	4.33445	-28.2398
74.5247	2.18569	-26.6629
79.3692	-23.9284	-49.3848
77.7614	-23.1799	-49.7433
80.0016	-20.2506	-52.3638
80.527	-24.6216	-48.8079
78.3859	-27.0628	-46.3364
81.8733	-28.1119	-35.7738
82.3325	-25.7749	-38.9964
81.6579	-29.5147	-33.1045
81.7696	-29.3998	-36.7236
79.9342	-36.4489	-31.384
79.3349	-37.6134	-27.9105
78.691	-38.4689	-32.2544
80.707	-33.8435	-34.982
80.9552	-33.2596	-30.7118
80.0595	-32.8149	-25.1338
79.5537	-34.6795	-24.9472
80.749	-32.0854	-27.1342
79.4939	-31.732	-24.0229
69.1656	-41.5481	-18.6768
68.6096	-42.5196	-18.8662
70.087	-40.8698	-20.589
69.1006	-39.6538	-14.7462
74.2486	-39.3003	-19.6859
74.833	-41.0787	-21.9016
75.7619	-37.6952	-19.6587
73.5396	-36.3196	-17.7553
72.8198	-39.9091	-20.1715
80.882	5.50737	-30.4715
80.8912	7.04127	-30.7859
79.7644	2.45505	-28.5237
81.1777	5.3003	-30.9987
80.7986	8.10443	-31.1396
82.1948	10.8107	-33.918
80.1248	8.14174	-31.1842
85.5039	-15.2935	-51.2496
84.6565	-19.0512	-47.5646
86.1815	-10.3873	-54.0288
85.9158	-1.57716	-53.4604
85.7086	-2.49296	-52.8482
86.0758	-2.39108	-54.2457
85.9504	0.150533	-52.3306
81.3558	5.9178	-33.1699
81.4213	5.75958	-32.5835
80.9083	4.37384	-33.0049
81.8	7.20277	-34.5629
81.2623	5.11373	-31.4934
80.5553	2.13836	-30.5585
82.4822	8.73384	-33.9211
84.6282	-14.9464	-45.4412
85.5807	-12.3325	-46.4036
83.252	-17.9857	-43.5885
80.5039	2.50311	-34.123
80.908	3.92146	-35.0329
80.4079	2.51013	-33.5844
80.9236	1.21825	-35.556
81.1415	4.41305	-36.4337
81.672	3.49967	-38.2424
80.2899	-18.3378	-39.8038
81.0985	-20.2252	-40.1607
77.5602	-10.1815	-26.0808
78.4279	-6.0288	-27.2844
77.4322	-9.85736	-24.8518
76.6299	-14.6315	-24.9193
79.9401	-1.48636	-32.7343
80.1758	0.306989	-32.6011
50.0279	-64.8377	-61.9144
50.3932	-60.8534	-65.2181
51.1362	-64.5807	-59.1677
22.7043	1.68933	65.0567
24.364	-1.69228	66.7859
23.1593	2.93699	64.1059
20.7311	2.23005	65.2485
17.781	4.47357	66.7312
18.221	3.39259	66.3642
18.0638	6.93668	65.9256
17.0376	4.49892	68.3675
51.8419	53.1541	32.9157
52.341	50.8037	33.9289
55.3357	47.7196	29.4044
51.3274	55.0387	31.7093
46.5611	57.9429	36.7205
5.9108	3.77404	76.0071
5.27743	4.71277	76.723
5.51746	2.95924	76.0002
7.30415	3.2166	75.4767
7.99471	6.43902	77.7088
6.45759	6.65022	78.0756
9.22911	5.20683	76.4439
8.71145	7.27327	78.0641
44.8905	35.6781	37.839
44.4064	35.8986	37.9161
45.5104	35.073	37.5726
44.7521	36.3749	38.118
18.9494	36.3909	43.8423
19.5241	36.0931	43.782
19.3263	36.2308	42.8001
18.6752	36.4436	44.6861
14.263	12.828	74.5337
14.4143	11.8004	74.837
14.5443	12.6224	73.735
13.2155	13.9856	75.6169
77.3463	-30.3433	-43.0883
76.2807	-32.3502	-40.8869
76.0732	-28.6569	-44.4021
78.4461	-31.5655	-42.1097
61.9137	79.0855	-25.3341
59.6784	82.8202	-25.1926
62.5007	75.7661	-19.7651
63.9121	77.3742	-34.6881
25.1184	-34.9076	72.9858
25.5386	-33.1574	71.9608
25.6413	-38.2913	71.7059
24.0538	-34.0895	74.4129
24.2564	-24.0301	70.3797
22.8841	-23.6803	71.9794
24.5547	-21.821	67.7726
24.952	-26.0897	70.3125
-16.5219	-79.4977	73.1112
-16.9155	-77.2736	75.6603
-19.0087	-80.374	69.8801
-13.8838	-80.3687	73.3904
-63.1089	9.0928	30.0269
-63.9041	11.5247	25.826
-63.4478	5.76423	30.3097
-61.4613	10.9336	33.0921
-59.4675	13.368	35.2011
-57.5054	13.4277	38.7961
-58.941	16.7344	32.9109
-11.2708	61.6303	50.2712
-13.1634	59.6626	50.2846
-8.2488	57.5807	50.739
-8.48505	62.3327	50.1773
-15.5787	64.3835	49.4744
-22.9556	42.0423	44.8032
-22.5731	42.4257	43.5457
-20.9607	40.4501	44.6345
-23.0943	42.0749	45.6587
-25.3791	43.7242	44.9831
-6.77958	40.5793	52.0105
-6.36273	41.0958	52.3533
-7.00891	41.9256	50.9687
-7.38675	39.523	52.1601
-9.42503	40.6427	49.3668
-11.4357	38.9127	48.6641
-9.13091	39.1301	50.6521
-8.26703	42.4197	49.6791
-10.2162	42.3428	48.2328
-41.9916	35.1246	42.7797
-42.3575	34.4715	42.7912
-38.9717	34.3461	45.798
-41.7316	35.331	42.6941
-43.4114	35.7795	40.5789
-13.8324	32.9386	51.8017
-15.5382	31.7347	51.3335
-13.4197	32.0678	52.7868
-13.4436	34.0806	51.294
-18.4704	37.1241	44.6619
-18.6266	37.1765	43.6951
-18.4908	36.6299	44.672
-18.2205	37.1619	45.3269
-18.8028	37.9242	44.6654
-24.8097	34.978	46.513
-21.6074	35.3543	45.0794
-24.8998	34.0938	45.0008
-29.4164	34.3061	47.4149
-24.89	35.4439	47.8383
-22.4585	-27.4052	77.2082
-22.2175	-27.298	77.3243
-22.3035	-27.3546	77.4514
-22.5575	-27.6548	76.821
-21.563	-25.6797	78.9976
-22.4776	-26.5409	78.0567
-21.5859	-26.6844	78.2485
-20.4389	-24.8743	79.8738
-21.7397	-25.0474	79.2811
-23.0453	-26.8861	77.6264
-23.0614	-27.0564	77.5542
-23.2006	-26.681	77.6874
-24.871	-26.0711	77.6317
-25.0972	-24.7679	77.7477
-25.3407	-26.8566	77.3511
-24.0541	-25.9218	77.7761
-22.9618	-28.0501	76.1213
-22.6724	-28.3694	76.6121
-23.6847	-28.5127	74.6648
-22.1904	-27.3367	76.3244
-19.784	-30.0683	82.184
-20.1162	-30.9165	82.0061
-18.1611	-31.3889	84.6844
-19.6167	-29.3697	82.0966
-21.0866	-28.716	79.8159
-18.5503	-17.4729	82.6418
-18.0882	-15.9417	82.7167
-20.387	-20.0129	81.2923
-18.6854	-18.3819	82.4366
-15.8908	-15.1551	84.1468
-21.592	-27.0203	78.2298
-20.4804	-26.7592	78.998
-21.6466	-27.0326	78.0418
-21.6701	-27.1158	78.2749
-71.8461	-33.013	-16.1467
-72.6621	-32.1529	-16.4211
-71.6001	-37.0621	-18.0312
-71.23	-33.2517	-15.2383
-80.0248	-26.8546	-29.4364
-80.4445	-25.7477	-32.4957
-81.0625	-28.2164	-29.5168
-79.5578	-27.4662	-26.8121
-78.3512	-25.4818	-29.0723
-76.0028	-30.6176	-18.2556
-76.8716	-32.2629	-19.3026
-75.6532	-30.736	-17.4181
-75.3174	-27.9176	-18.5321
-73.4925	-19.6439	-24.6201
-73.2438	-18.7193	-26.6127
-74.1085	-21.9236	-24.8192
-74.9234	-19.6928	-23.6966
-74.1919	-17.5281	-25.2109
-79.6936	-1.05554	-31.3061
-79.7832	-0.31188	-30.5564
-79.8482	-0.398699	-32.0578
-79.1664	-3.10287	-31.5286
-82.6718	8.26517	-38.0223
-82.5004	9.12801	-37.3033
-83.8813	8.54832	-41.2006
-82.3939	7.32686	-37.7207
-76.4362	-11.4696	-32.5242
-78.7513	-8.65879	-36.5395
-75.79	-13.9136	-32.4272
-75.478	-11.6449	-29.215
-77.5755	-7.71386	-32.4723
-82.1018	1.064	-38.9616
-81.7486	-0.344252	-38.3678
-80.7982	2.62124	-35.2256
-82.5719	2.40402	-40.163
-83.7375	-0.62216	-43.3703
-75.0974	-32.5342	-39.4585
-76.2231	-31.5126	-40.82
-73.8566	-32.0531	-39.6422
-74.9657	-34.6358	-37.5237
-84.799	-14.3401	-46.2016
-85.066	-13.474	-47.4326
-83.967	-17.0993	-44.9769
-84.6955	-13.9911	-45.6538
-85.057	-12.2795	-49.4309
-85.2988	-10.0509	-49.0141
-85.0523	-9.71656	-51.4033
-84.9914	-13.1767	-50.2482
-80.6683	-24.7691	-34.8893
-80.9341	-23.1164	-37.3052
-81.5418	-25.8095	-35.2063
-79.0127	-22.869	-34.299
-82.1357	-12.8755	-42.6973
-80.9158	-14.4919	-41.3401
-82.2046	-11.5413	-42.7104
-83.6145	-13.5473	-44.1104
-80.1677	-17.2234	-39.5962
-81.0096	-19.141	-39.9537
-78.7628	-17.7485	-37.1695
-73.2324	-24.8941	-16.1825
-72.9188	-23.9201	-15.8556
-73.9101	-24.7022	-17.0834
-73.6387	-27.2284	-16.1425
-72.7767	-22.1706	-15.6101
-72.417	-22.089	-14.705
-73.1161	-20.2017	-16.1571
-74.2479	-13.6146	-18.3426
-74.6604	-10.6098	-19.3668
-74.6341	-14.1607	-19.0821
-73.9447	-14.0358	-17.8158
-73.6109	-14.6666	-17.1699
-73.4694	-17.0306	-16.789
-73.2371	-14.3124	-16.3171
-76.1272	-23.9347	-27.3164
-75.8766	-22.6332	-29.3432
-76.5746	-23.9564	-25.1565
-76.0685	-10.9358	-27.7245
-75.053	-14.4676	-26.3271
-77.1107	-9.8533	-27.0064
-77.2286	-7.44987	-29.0414
-74.9003	-16.2284	-25.5085
-75.6646	-16.216	-24.9678
-84.9289	1.47044	-48.522
-85.175	-0.0647091	-49.8517
-84.8516	1.20775	-47.8627
-85.0126	2.10681	-48.9801
-85.3565	-3.69274	-49.6256
-85.4867	-4.36381	-47.9353
-85.192	-1.53953	-48.2622
-85.1867	-2.66107	-50.7687
-85.398	-5.48203	-50.0361
-82.0581	6.75088	-37.7839
-81.2519	6.31953	-36.5883
-82.7633	6.24551	-40.3646
-83.6367	5.30453	-43.4879
-83.0146	4.48043	-42.6438
-84.4838	6.21007	-44.5167
-84.7033	4.01307	-47.2633
-82.748	3.47962	-41.3559
-84.105	1.96709	-45.1308
-81.4889	4.89861	-37.8462
-37.7815	46.2889	43.9616
-37.649	45.9746	43.715
-35.1659	47.4713	44.4352
-38.0006	46.6374	44.2642
-40.0884	44.689	43.1188
-22.3873	-81.2932	65.1257
-24.7581	-80.0819	64.969
-21.4802	-83.8153	61.5493
-44.3264	39.0795	40.3927
-44.6243	39.5326	40.4801
-45.1045	37.2001	39.8447
-44.0541	38.8747	40.4099
-43.3554	41.1783	41.0327
-47.896	40.2405	38.7532
-47.2369	42.9851	39.8426
-50.0658	40.9801	37.0679
-47.6125	37.6477	38.3116
-45.8646	39.8726	40.1258
-66.6559	-44.5587	-8.5146
-66.0131	-46.8806	-8.45173
-66.8846	-42.6011	-7.52094
-67.4888	-44.0724	-13.2383
-17.5603	37.3167	45.7168
-17.9049	36.5432	45.8309
-16.975	37.276	45.9775
-17.8084	38.2845	45.6152
-19.6261	39.1026	44.6812
-19.4414	39.1213	45.5743
-19.391	39.1151	43.2782
-15.4705	40.2753	45.7239
-16.9708	41.9845	45.1982
-16.3057	40.0542	45.3763
-14.901	38.7058	46.378
-14.4983	40.6244	46.1589
-5.70559	42.3352	52.3694
-5.64771	44.2409	51.6033
-5.14689	42.5597	52.7899
-18.0129	-24.6949	80.8432
-15.8582	-23.4463	82.5414
-18.4459	-23.9373	80.835
-18.2772	-25.7505	80.183
-59.8145	-68.5104	-9.85393
-60.9016	-66.1614	-10.704
-59.3904	-71.6051	-11.3806
-58.7078	-67.4109	-4.56782
-72.1345	-1.60664	-16.005
-71.6592	-7.73522	-11.417
-71.611	0.530602	-11.8815
-72.6699	4.79326	-21.4695
-72.6762	-3.08957	-18.5288
-61.2375	-73.8623	-22.5728
-60.6491	-75.2863	-17.6406
-61.7781	-69.72	-23.5132
-60.9282	-76.3288	-24.1066
-61.7802	-109.843	-27.5213
-62.3708	-118.279	-29.2254
-62.0317	-112.261	-21.3096
-60.9526	-100.847	-27.0956
-59.9764	-106.675	-35.1807
-21.7094	-27.6039	78.4947
-20.7821	-27.6734	79.5721
-21.7347	-27.3998	78.3679
-21.8296	-27.8095	78.4822
-22.696	-27.9186	78.1597
-23.6217	-27.2722	77.5812
-22.9156	-28.3866	78.2538
-22.146	-28.0929	78.3977
-22.9911	-27.3883	77.6876
-19.3828	-28.9211	82.085
-17.6635	-29.6733	84.461
-19.4108	-28.4218	81.6673
-26.7095	-78.8333	64.868
-26.9986	-76.4314	67.6493
-30.5845	-78.8399	59.5878
-45.7798	-68.3923	-66.9205
-45.0868	-71.4623	-66.3517
-48.2901	-66.8853	-63.4894
-44.9413	-65.4868	-71.6117
-52.8889	87.7423	-6.25176
-53.5938	84.4107	-2.31357
-49.4061	91.5379	-4.53078
-54.4472	87.9465	-13.5054
-82.9406	-23.849	-44.4754
-84.0571	-19.7969	-48.6536
-82.3401	-24.3364	-45.8409
-81.9246	-27.1768	-40.8265
-83.307	-22.7145	-43.6135
-77.1839	1.57038	-25.9284
-76.4509	-2.31352	-23.8356
-75.828	1.7881	-25.581
-77.7908	5.45517	-28.2606
-78.286	1.35836	-26.2851
-75.2335	-18.6676	-20.0573
-74.7498	-19.0731	-18.8515
-75.1576	-17.0177	-20.2256
-75.7087	-19.2894	-21.5508
-75.8213	-21.4322	-20.4437
-74.9742	-24.9541	-18.6437
-74.5479	-21.9362	-18.2554
-75.8413	-24.9911	-19.9569
-84.8315	-14.9468	-52.5724
-85.2677	-14.6477	-51.5497
-85.4011	-9.3861	-55.3427
-84.0575	-15.2296	-53.5671
-83.0185	-15.4108	-54.5727
-82.3511	-20.1473	-51.0286
-83.3276	-9.84039	-57.2976
-81.6319	-15.3005	-55.2171
-73.987	4.31403	-28.423
-74.4965	3.66062	-26.5228
-73.426	5.80001	-28.0692
-74.9205	5.72269	-30.6871
-79.1486	-22.9745	-49.0992
-77.5011	-22.2259	-49.4683
-78.204	-26.1457	-46.1257
-80.2857	-23.6671	-48.5155
-79.6875	-19.2608	-52.0027
-81.8954	-27.1416	-35.6774
-82.2712	-24.771	-38.8246
-81.7859	-28.4598	-36.6225
-81.7419	-28.5656	-33.0633
-80.0679	-35.6568	-31.4435
-81.088	-32.3891	-30.7463
-80.7589	-32.9905	-34.9549
-78.8195	-37.726	-32.332
-79.5615	-36.8547	-28.0513
-80.2814	-31.9303	-25.2691
-79.7472	-30.8227	-24.1765
-80.9357	-31.1822	-27.2191
-79.8095	-33.846	-25.1111
-69.5556	-40.9964	-19.1579
-69.5711	-39.0594	-15.2868
-70.4529	-40.2828	-21.0196
-68.9854	-41.9947	-19.354
-75.0908	-38.3886	-19.8566
-75.2917	-40.391	-22.1903
-73.2957	-39.2076	-20.5134
-74.8112	-35.5798	-18.1082
-76.9528	-36.8911	-19.9345
-80.8144	6.99719	-30.1585
-81.1103	6.78374	-30.6768
-79.707	3.93773	-28.2808
-80.8131	8.53685	-30.4524
-80.7077	9.60287	-30.7908
-80.0078	9.63768	-30.843
-82.0351	12.3046	-33.4851
-85.5183	-0.353195	-52.863
-85.5655	1.40021	-51.7331
-85.6662	-1.18201	-53.6436
-85.3213	-1.27201	-52.2704
-81.2508	7.3856	-32.8138
-81.6568	8.66767	-34.1701
-80.8083	5.82931	-32.6731
-81.3238	7.23281	-32.2342
-81.1846	6.59063	-31.1655
-82.3302	10.2174	-33.5055
-80.4858	3.60026	-30.2843
-84.4062	-13.8072	-45.0674
-83.0943	-16.8828	-43.284
-85.3445	-11.1647	-45.982
-80.9944	5.8335	-36.0577
-80.7794	5.35419	-34.682
-80.3781	3.93051	-33.8025
-80.2865	3.94265	-33.2712
-77.5893	-8.8281	-26.0268
-78.4436	-4.62511	-27.1637
-76.7398	-13.3444	-24.9408
-77.4832	-8.48435	-24.8148
-79.8375	-0.0818195	-32.4769
-80.071	1.73054	-32.3254
-80.0981	-0.80296	-34.0994
-49.7238	-64.6262	-61.8884
-50.8435	-64.3653	-59.1591
-50.0352	-60.5999	-65.1523
-23.9792	0.624113	65.0296
-21.9654	1.0626	65.2332
-24.3191	1.67895	64.2213
-25.4978	-2.32125	66.7294
-19.0813	3.35382	66.6588
-18.5082	3.79685	68.0167
-19.2979	5.49239	65.9823
-19.5728	2.46308	66.2896
-49.1916	56.3773	35.9387
-49.5522	54.6037	36.9687
-44.0318	60.5062	39.0002
-49.1798	57.6616	34.5769
-53.7213	50.9429	32.248
-8.32208	5.92952	76.7961
-8.51596	6.39608	77.1136
-8.8533	5.07542	76.0785
-7.32459	6.09098	77.3333
-8.62525	6.99636	77.6496
-9.48479	7.00614	77.4683
-7.60665	7.66184	78.7908
-44.0374	36.153	39.8671
-43.5465	36.3383	39.9185
-43.8862	36.8892	40.1298
-44.6673	35.5703	39.6163
-18.7616	36.3134	44.7399
-18.9231	36.1737	43.8487
-19.3211	36.0103	44.7397
-18.6424	36.3447	45.4501
-15.8221	13.0113	73.6269
-14.8264	14.1582	74.7006
-16.059	12.7017	72.9381
-16.0175	12.0325	73.8705
-61.3519	79.8668	-24.1879
-63.2813	78.2416	-33.6119
-61.9997	76.5887	-18.583
-59.0698	83.5096	-24.036
-24.523	-34.3752	74.1168
-23.456	-33.6144	75.5626
-25.2396	-37.7008	72.7052
-24.9035	-32.6706	73.0718
-24.0956	-23.7124	70.9443
-24.5975	-25.7503	71.0581
-24.7144	-21.4383	68.0373
-22.7284	-23.4396	72.5724
-10.694	6.90397	76.9906
-11.1606	7.72715	77.3013
-11.6998	5.56397	75.7686
5.28726	6.67926	78.2276
4.23039	7.5707	79.2991
4.88564	6.063	77.7149
4.51873	5.62454	77.4006
3.21908	5.90789	77.8803
-9.20169	4.07104	75.3652
-10.2186	3.55928	74.8522
-8.8966	3.30094	75.3366
74.3359	-38.1406	-34.2327
72.894	-37.8739	-33.317
74.9341	-35.416	-37.5001
75.5637	-38.903	-33.8742
73.2438	-40.6784	-30.0736
64.7572	-39.6412	6.3434
63.7946	-38.724	14.235
63.8571	-44.374	6.241
65.7621	-39.9349	-0.705511
65.6254	-34.8333	6.31392
57.2283	-115.917	-7.44974
55.7158	-104.531	-6.37059
54.3836	-117.086	-3.305
58.8146	-126.665	-8.76865
59.5501	-114.564	-11.7918
59.9073	-134	-10.0777
60.7208	-139.67	-11.4526
61.8411	-132.173	-14.6963
57.3405	-135.849	-5.53386
47.9507	-97.3383	3.66557
47.7841	-90.1044	5.09493
44.057	-98.6103	7.91313
49.0826	-106.537	2.1744
51.7703	-96.6362	-1.06031
59.2993	-95.8447	-14.1218
60.0859	-103.35	-14.9006
60.6344	-95.1095	-19.5078
58.9305	-90.0737	-13.7264
57.1897	-95.9763	-9.80035
58.465	-57.0415	20.6186
60.0459	-52.2873	21.208
57.2162	-56.6492	28.0816
56.5942	-61.7469	19.4261
59.311	-57.6015	13.0258
66.9505	37.8222	-3.91922
68.2941	44.3527	-10.2648
62.9931	43.2464	5.23889
66.1345	31.3449	1.0898
70.3812	33.4256	-14.5535
73.4477	34.2272	-57.6411
72.7764	28.7677	-66.2383
72.1722	39.7404	-64.5026
73.8117	38.682	-47.7793
74.1366	28.3361	-50.9733
6.61178	-112.849	34.382
4.11224	-113.074	35.1314
7.78489	-122.933	33.2016
9.64134	-112.232	33.1179
5.94347	-104.183	36.7652
9.12598	-133.894	30.7734
10.3289	-143.293	28.459
12.683	-132.91	29.3732
5.87901	-134.225	31.794
3.64457	-150.828	28.6978
7.32492	-150.418	28.0374
3.28112	-144.072	30.1236
0.0452162	-150.869	28.9878
3.95827	-156.078	27.6155
63.2639	-56.6036	-35.5944
65.2892	-50.5286	-34.4156
63.2804	-61.7101	-29.5369
61.2116	-62.692	-37.0179
63.4263	-50.0373	-40.924
63.8373	-45.2973	-44.9642
60.8026	-51.2736	-47.0081
64.6455	-41.2862	-48.5321
66.5563	-40.4636	-43.1328
62.8898	-125.061	-31.1551
63.1551	-131.874	-32.5984
61.131	-122.228	-37.9345
63.5901	-128.212	-24.659
2.83241	-134.65	32.481
2.31138	-123.77	34.8015
-0.136221	-134.734	32.7771
62.7211	-37.4899	21.8037
63.3031	-32.3507	21.1019
61.1716	-36.1035	28.5394
62.1251	-42.5933	21.6752
60.2462	-57.8715	5.17271
58.7314	-62.1943	4.23493
61.0095	-59.0637	-2.74717
61.6736	-53.4132	5.64739
8.97024	-61.9222	86.8456
5.19498	-61.9236	88.0056
9.04193	-66.2367	85.8389
13.4349	-62.353	84.9755
9.09675	-57.8586	87.1366
18.1113	-62.2296	82.5392
18.337	-66.6378	81.6763
22.9663	-61.9246	79.1934
17.7795	-57.7588	82.7627
2.77481	-54.246	88.6285
5.68934	-53.9396	87.9486
2.75601	-49.8634	87.5705
0.137371	-54.5548	88.9995
2.59666	-58.3284	88.9539
9.11469	-70.5619	83.5884
9.53116	-75.04	79.9188
13.5621	-71.0228	81.9679
5.52792	-70.2753	84.5122
10.2575	-79.216	74.9699
6.27651	-79.4073	75.6548
10.7821	-83.1628	69.2877
14.5359	26.4341	57.4373
14.6974	22.9286	60.0435
16.6718	24.1718	56.7532
14.3428	29.6048	54.7167
12.6013	28.9946	58.2383
44.6209	-2.72706	56.9352
50.5391	-5.17392	51.8289
44.3848	2.48122	55.4769
38.4237	-0.437506	60.4035
44.6438	-7.6817	58.2008
55.8225	3.45746	44.2812
59.675	1.49755	38.1551
54.9151	9.24382	43.8186
50.25	6.33577	49.7184
55.7784	-2.22365	45.03
63.8105	14.8239	21.8502
65.8808	12.1715	17.6889
62.7476	21.5189	19.0352
61.2549	17.6537	25.1261
44.7179	-12.8585	59.18
44.6085	-18.1956	60.0881
49.6742	-15.7094	53.8498
39.3997	-10.3026	63.3725
2.47725	32.9857	69.5482
2.92956	36.336	65.5289
0.574403	33.3762	69.5344
2.12884	29.4611	73.6641
4.33294	31.9578	69.2076
30.6401	86.7519	27.3167
25.7127	88.0929	28.9635
29.6624	81.5671	32.041
35.8586	84.5648	25.1025
31.7695	91.452	22.247
3.3406	-88.5866	63.1672
3.02849	-93.0748	54.502
6.68425	-88.3442	62.6321
3.13504	-83.7987	70.4706
0.199768	-88.7834	63.3195
59.0361	-34.621	35.1401
56.278	-32.6365	42.0016
58.2038	-40.4665	36.2111
59.647	-29.0253	34.2729
2.58818	-70.4427	84.7684
2.42551	-66.3537	87.1053
0.378966	-70.8612	84.6467
2.95913	-75.3089	80.7853
2.92473	-79.8017	75.951
-0.0998232	-80.0674	75.9333
37.5697	-68.071	60.6473
32.6532	-69.0097	66.7587
36.6072	-71.8817	58.3033
42.1925	-65.7564	55.278
37.8624	-63.5904	63.1185
40.0161	-78.3888	35.9449
36.832	-83.7539	31.1988
43.7874	-76.2615	30.7465
43.0016	-73.9525	40.0563
35.546	-80.8725	41.1383
1.53539	-97.8107	45.0877
4.05069	-97.9022	44.2882
-0.948737	-97.8878	45.1273
0.932504	-104.457	37.7081
6.23515	24.2629	76.0013
6.51368	22.1647	78.7521
8.4099	22.2949	74.3373
6.19089	26.9424	72.3642
4.08234	25.6915	77.1417
22.8155	5.22904	62.9437
26.6054	3.21105	62.949
21.1778	9.72988	61.3483
19.3812	8.37836	63.6415
26.0042	-27.8486	76.312
25.0163	-27.2327	76.457
25.1307	-28.5663	76.5602
26.8441	-28.4163	76.1529
10.4413	3.84237	75.3634
12.0137	4.81965	75.3874
9.71808	3.05334	75.0701
12.2875	3.25206	74.1901
9.54753	-0.432977	74.3876
10.2744	-1.82534	74.9736
12.0271	-1.08835	72.9638
9.40598	0.725553	74.2324
7.42115	0.666718	75.3546
-0.872349	6.44501	80.3253
-0.515905	7.16177	81.2096
-2.41612	6.3007	80.621
-1.05104	5.63946	79.6482
0.62649	6.61923	79.667
14.4234	-0.788274	71.2593
16.642	0.153925	69.2618
14.0664	0.435604	71.3807
15.0134	-2.29712	71.8866
6.57571	14.3915	83.696
4.09926	14.782	85.9332
6.15348	12.1777	83.3154
8.99999	13.6348	81.0595
6.71902	16.3364	83.6087
23.5169	-42.3623	78.6221
26.6959	-40.2957	77.0719
22.2797	-38.6005	79.9939
19.7029	-43.6681	80.9015
24.6435	-46.6993	77.4296
25.1864	-21.658	77.5827
24.3992	-17.4839	77.8349
22.9248	-20.3923	78.6326
27.343	-22.7387	76.7122
-0.812516	1.24788	79.3535
-0.583311	-0.926313	80.1432
0.891708	1.21444	79.0807
-1.00386	3.15584	79.0385
-2.70295	1.2445	79.3819
6.3782	30.2494	68.4604
8.37678	27.8384	67.4631
6.702	33.3746	64.8396
16.5133	9.37474	69.9591
15.5667	11.5804	71.2212
15.866	10.5889	71.5111
16.6957	7.75922	69.7538
16.8143	9.49936	68.6321
1.97081	4.18531	77.8503
1.99302	2.58529	78.1603
3.50753	3.21093	77.1312
1.98588	5.31887	77.9856
0.540516	4.54143	78.4733
1.98054	6.23818	78.6499
2.21668	7.19285	79.6054
15.0457	11.9959	72.8181
14.6827	12.9096	72.6507
15.5324	10.1477	72.6452
16.4825	5.3429	69.8771
15.9863	6.84573	71.5351
15.5628	3.32973	70.6857
0.766945	-7.51088	85.6818
1.17711	-9.2055	87.1003
3.10441	-6.98579	85.2694
0.372758	-5.26493	83.4653
-1.65191	-8.1071	85.9193
21.1353	-4.85643	70.9027
18.7071	-4.60651	72.0072
22.4445	-8.70948	73.9886
23.4166	-5.25037	70.1886
19.5582	-1.36362	68.3818
8.56785	-38.7595	86.4538
8.73959	-36.7166	87.552
5.36093	-38.9504	86.5713
8.45435	-41.3928	85.6237
11.8459	-38.7902	85.6326
21.1497	-22.661	79.9012
21.4606	-23.5516	79.4402
23.1484	-24.8181	77.9227
20.996	-21.302	79.9574
14.4137	13.4809	72.2863
14.5011	13.8668	70.9382
12.9873	15.1342	73.8272
15.1737	-38.692	84.4799
15.4887	-41.1052	83.4244
18.3468	-37.7713	82.9247
14.9558	-36.7714	85.5599
2.51927	-39.0763	86.7174
-0.365798	-39.094	86.7583
2.58178	-41.6108	86.0822
2.44954	-37.1372	88.167
56.5578	42.0362	26.7928
55.9818	41.3244	28.6904
57.5379	35.9958	24.3447
57.1091	42.9397	24.5731
39.5173	72.5461	31.7287
34.0017	74.9475	34.5444
39.4809	68.2661	35.613
45.257	68.5843	28.2441
40.3475	76.7836	26.9609
50.5354	63.5761	23.8048
50.5504	59.6627	28.005
55.0591	57.2534	18.5994
51.2986	67.8096	18.668
40.969	61.7079	39.8989
40.1954	63.7566	38.9066
35.4887	64.524	42.3379
42.0312	59.3385	40.5081
57.7997	43.5978	21.2298
58.1163	45.6987	17.7165
54.9377	50.8865	26.0923
59.606	36.3109	18.1916
24.9597	57.8743	46.8938
25.0674	55.1683	46.2092
28.5229	57.7204	46.0107
24.7094	60.01	47.4118
21.3921	56.5326	47.5833
7.10415	39.9711	55.3658
9.02898	37.7521	54.9113
7.12656	41.4216	53.7901
5.19983	41.8971	55.9894
7.18509	38.2484	57.6905
27.4995	18.7242	54.2605
28.926	14.6589	55.6693
34.4664	17.4185	52.991
26.0439	22.1825	53.0704
21.7782	20.4083	55.324
54.2088	23.2504	32.4446
56.2509	21.2857	31.0274
54.7229	26.7187	29.349
52.0619	25.3613	33.5805
52.5141	21.5072	36.8642
7.02175	36.1142	60.9045
8.99648	33.7476	60.3156
4.97485	37.9848	61.5137
42.4905	57.0688	40.8683
47.5402	53.3118	38.1899
37.19	59.5173	43.2129
42.5187	54.8299	41.1071
52.2254	48.7104	34.7935
51.5975	46.7604	35.6761
54.616	44.6662	32.1028
51.9427	32.6847	32.0893
52.26	35.9604	32.5663
50.5751	33.664	33.7385
51.3628	29.5601	32.5846
53.3141	31.9751	30.4508
42.0152	40.8715	40.7453
43.4159	39.3208	39.6303
42.5079	41.394	40.4072
40.3533	42.4182	41.8968
41.6299	40.424	40.7732
38.4595	43.762	42.6961
38.7356	44.4934	42.3532
36.4198	44.7611	43.1239
38.2271	43.1469	42.7854
38.881	44.8551	42.1749
36.5501	45.9172	42.6193
41.0036	43.345	41.3015
33.822	45.3382	43.4095
33.739	46.1059	43.0656
31.0368	45.279	43.5192
33.9432	44.6434	43.4941
33.6564	46.5019	42.8764
30.4813	46.5293	42.9369
