1908
70.8769	7.04135	11.0456
70.5355	14.506	7.2502
70.6219	0.212955	15.0725
72.3484	2.76386	3.06239
51.9182	26.4103	34.5987
49.9606	27.7718	35.0922
50.2351	25.5388	38.0953
48.4314	29.2754	35.6156
46.9006	28.9999	37.779
69.7356	-24.0185	5.7127
68.5368	-21.6386	13.0897
68.9549	-28.5017	6.71874
70.5754	-19.3989	4.4929
23.1864	21.8895	59.3214
27.3344	20.942	59.5874
22.1064	24.4336	57.431
19.0245	23.2512	59.7088
33.0575	19.5021	60.312
39.2695	17.9632	60.4828
34.3399	14.9387	62.2231
16.1407	24.1051	61.7659
14.302	24.7891	63.608
16.4814	22.5802	63.2851
19.6441	16.2464	63.0543
17.6711	19.3699	63.336
18.3651	15.3234	72.6588
16.7681	16.1267	74.7466
18.0838	13.4779	72.7685
19.1889	13.9695	70.9644
19.4445	12.9569	69.15
18.934	11.2211	69.646
36.8258	-8.20064	65.1433
32.7225	-6.72261	65.6941
36.2	-14.1265	64.9405
36.6008	-1.04637	65.062
35.5178	7.75988	63.8725
6.08498	1.83906	78.9534
6.73702	0.373022	80.1452
7.65328	1.53645	78.2483
52.33	-30.0166	50.036
53.836	-24.3294	51.0357
48.3772	-27.4493	54.5238
50.8992	-36.9012	49.0784
25.7533	-11.9206	68.5074
23.9459	-9.87265	70.2273
27.7589	-13.8974	67.3499
36.0699	-19.5209	64.7028
35.6079	-24.3161	64.3852
39.8003	-21.8184	62.0734
32.9794	-17.4139	66.4746
7.39142	-1.09013	81.3025
49.0381	-44.5506	49.1478
52.5171	-47.8418	44.6297
45.3183	-39.3728	53.5656
46.1271	-50.368	50.9071
58.4833	-3.08815	51.7322
57.1567	-11.3319	52.1692
62.0759	-6.43602	45.8869
28.133	-74.6674	74.5753
29.0962	-70.8922	76.2764
23.4812	-75.4198	79.8472
36.9215	-62.394	63.8837
40.0912	-59.1776	58.331
35.8936	-56.772	65.3363
33.509	-64.9017	70.5381
55.6382	16.558	46.0093
53.6639	20.238	44.4769
49.7188	19.2858	51.0897
44.8655	29.1287	41.4247
46.0572	27.2615	42.0216
43.7851	31.0681	40.949
51.6759	22.495	43.5342
46.7747	23.6351	48.3065
49.466	24.099	43.0555
43.0187	32.3779	40.5091
3.31438	-67.288	93.4495
0.235793	-67.4864	93.4419
41.742	-35.1682	57.5532
39.858	-39.8552	58.3144
43.024	-30.1572	57.72
37.7719	-31.6447	61.1946
34.8589	-51.6003	66.2251
36.3876	-47.9543	62.1456
33.2782	-45.5256	67.0478
32.5408	-53.7252	71.374
42.8166	22.0825	54.6349
44.2963	19.0384	56.6014
41.65	24.2371	52.5506
44.1079	-24.6645	58.6259
45.5837	15.7714	58.9584
11.1096	-57.6996	92.1784
11.7177	-53.5015	91.195
15.8485	-57.7034	89.5565
20.5636	-57.3337	85.4618
24.6981	-56.7243	81.0954
20.5981	-52.8565	84.4588
40.4307	25.6865	51.1351
38.7396	26.8494	49.8505
33.6325	27.9777	52.3937
47.6222	25.6578	42.5785
43.4017	26.4889	46.7907
36.9339	28.1071	48.697
30.7883	30.1994	49.3485
11.8832	26.1991	66.0611
12.0393	23.8409	69.5572
11.8266	28.7456	61.9864
12.8207	19.8718	74.0984
12.0956	20.646	73.5018
10.4419	19.8318	78.688
13.3762	19.3029	75.746
11.4357	37.7533	52.1139
11.8384	33.7711	54.6831
21.5593	27.0021	55.3084
1.96109	38.1666	61.6877
0.0334695	38.5113	61.6935
61.2241	19.7192	30.135
11.8449	31.1063	58.099
56.424	-50.235	38.4458
60.8196	-51.301	30.4503
65.9348	1.47144	34.6974
65.5426	-3.92381	37.1931
68.2198	-1.91685	26.5202
62.4139	-23.9165	38.4204
63.6866	-17.1249	38.6622
59.3305	-21.041	45.6226
64.6759	-26.5329	31.0323
64.694	-9.87097	38.6793
66.4972	-14.1199	30.0946
19.2695	-75.7847	83.3786
12.0091	-50.7232	89.988
7.52291	-50.6561	91.2569
16.5367	-50.4949	87.5299
20.644	-49.705	83.6024
24.9116	35.2517	44.4572
24.9891	35.0399	44.9237
28.3299	29.6396	52.6493
27.5106	30.7727	50.9849
26.4247	32.0144	49.2313
3.83495	-50.5576	91.9955
0.755845	-50.7526	91.944
6.37256	47.6165	53.2472
7.82396	47.1071	52.5242
7.37626	49.8485	52.6484
4.70732	48.2652	53.8467
5.95899	45.8573	53.5395
18.2692	35.5636	41.8597
18.2041	36.6258	41.6441
16.5798	37.1786	43.4692
9.17812	46.6295	51.8073
9.87297	48.144	51.5585
2.33451	48.8813	54.4067
-0.261457	48.9349	54.875
5.52862	9.15825	80.5603
6.22485	9.90405	81.5144
8.11947	18.1879	83.361
8.01555	19.482	82.4647
10.9887	18.0516	80.2999
17.5717	7.11933	68.8447
17.4403	8.3121	69.5237
15.0361	6.3679	70.8682
7.65868	20.5921	81.7082
6.0118	45.0073	53.2103
8.58066	51.8268	52.2915
9.73351	50.4733	51.9324
18.7242	37.769	41.522
10.7907	49.2492	51.5895
12.0548	47.5571	50.8441
13.5658	45.2715	49.4812
19.6359	-2.27615	70.1357
16.7592	-1.45215	72.3237
20.5728	-4.88373	71.4708
21.9178	-7.89853	72.3947
19.0696	-5.44726	75.011
25.0955	-25.7786	66.1976
26.468	-25.5417	63.3872
23.7278	-23.4969	67.7446
25.5547	-23.1626	70.5183
23.4925	-18.4264	74.2363
26.6624	-24.2812	61.5027
24.6689	-21.6556	64.4103
25.9662	-22.5572	60.6626
14.0337	-0.517215	74.297
11.4059	0.522037	76.2173
14.9538	-2.04625	75.6354
16.1662	-3.78124	77.1364
17.6608	-6.19999	77.9563
22.0502	-21.6552	69.2398
22.5213	-20.6593	67.9528
22.2545	-19.3164	67.5116
21.5282	-17.7535	67.5277
9.326	1.15748	77.5609
8.73648	2.64957	76.2352
13.1253	-6.40892	80.8362
16.0511	-7.5216	79.4779
16.2464	20.8518	64.4779
14.1192	21.4564	68.162
2.14628	25.6773	79.2098
-0.138181	25.8178	79.2347
11.7321	21.8852	72.7803
7.11569	11.3648	82.5926
9.5923	11.5316	80.1725
12.6425	12.0283	77.4169
13.6921	13.9168	77.7622
15.4422	12.3492	74.8599
17.0621	11.6958	73.0094
17.6619	10.4893	71.6535
17.7252	9.49913	70.4352
13.8341	18.5502	76.8393
14.0808	17.4417	77.5492
14.1168	15.817	77.8409
38.8031	-142.997	12.3916
34.316	-144.374	15.5076
40.7561	-149.511	12.1634
42.913	-141.51	9.25705
36.3749	-134.486	12.7597
33.2693	-122.124	13.3118
37.2579	-120.75	10.101
30.0578	-109.314	14.0065
29.1203	-123.394	16.5552
27.5033	-85.5489	22.5858
30.9393	-84.9662	17.9686
23.9219	-86.2375	26.6358
25.7813	-91.5511	17.3914
27.6192	-99.239	15.1147
23.7449	-100.127	18.5565
31.4167	-98.1719	11.7899
38.2927	-44.2842	59.3505
40.7375	-49.2163	56.7773
35.2995	-39.4684	62.2759
43.1822	-55.2909	53.6144
44.5534	-60.9498	51.2293
44.663	-65.6712	48.4029
32.6806	-35.164	64.4192
33.3192	-32.02	64.2187
30.2898	-31.0191	66.0046
31.7422	-37.2051	65.563
28.94	-29.3723	66.3993
28.5632	-30.8002	66.6333
34.999	-84.2235	13.9616
38.0429	-80.0046	18.2708
34.2822	-89.6733	10.3052
39.897	-83.7218	9.45004
42.1673	-76.0462	22.8472
45.2587	-75.8939	16.8202
46.6767	-72.6787	26.7067
50.2665	-69.0777	30.2104
52.4499	-69.0499	23.2389
41.1219	-119.164	6.7996
44.2681	-131.612	6.42078
45.0847	-118.034	3.42647
37.9018	-106.732	7.4737
46.661	-140.091	6.01963
48.9443	-146.7	5.76544
50.315	-138.74	2.57807
35.4274	-97.0266	8.47129
67.6645	-17.8967	21.5688
66.953	-23.2725	22.2259
68.6069	-12.6254	19.9351
53.9846	-69.0184	16.7571
51.0681	-72.2201	13.774
55.3364	-68.6982	9.78814
69.6591	22.4631	3.74577
72.2735	17.4221	-5.708
63.0669	-51.9899	23.0002
63.8052	-52.4096	15.6938
66.2202	-29.0059	23.0674
67.1499	-31.6668	15.2299
69.7065	-6.33112	18.0727
70.6641	-10.7796	9.95094
68.1252	-33.4192	7.98211
69.0793	-34.2882	1.08382
52.2132	-84.5521	-4.81761
52.3648	-89.7689	-5.9253
55.1171	-85.0985	-9.32406
52.613	-80.0345	-3.33975
48.8576	-84.1295	-0.252982
52.8423	-95.7547	-6.6466
53.4747	-75.7827	-1.15754
51.0613	-75.6056	4.38208
55.8067	-76.2862	-6.72835
54.8963	-72.0601	0.910387
73.1338	-0.802483	-5.08871
73.5463	6.13276	-10.1028
72.5047	-7.80967	-0.280212
74.0447	13.3885	-15.5736
74.5832	20.3415	-20.5411
74.7884	27.2718	-26.1125
75.7538	23.5088	-36.2739
74.9975	34.0526	-32.1445
64.263	-52.7765	7.63556
64.6569	-53.3813	-0.489593
71.562	-13.8822	2.82453
72.1956	-16.2736	-3.21002
49.1184	-116.833	-0.320284
51.8035	-128.996	-0.824088
48.249	-75.6347	10.5647
46.0105	-79.435	7.28771
53.8213	-137.25	-1.35805
55.6531	-143.386	-2.13456
60.5698	-113.308	-16.5604
62.1532	-123.184	-17.9827
57.735	-85.508	-13.799
59.6439	-84.8204	-18.9041
57.8655	-80.9898	-13.0759
58.2956	-76.5293	-12.0887
63.0232	-130.361	-19.442
63.4184	-136.039	-21.0386
65.0711	-54.5675	-7.68241
69.9584	-34.306	-3.723
70.9294	-33.4903	-7.44748
69.273	-38.1849	-4.07607
72.7331	-17.4986	-7.31147
60.0442	-93.3976	-26.9913
58.8669	-90.4049	-33.9786
59.9131	-87.2574	-25.9217
60.3756	-81.6116	-25.1885
60.1057	-76.849	-31.746
63.133	-65.8509	-22.9175
68.9349	-47.0683	-17.9687
69.9907	-45.7029	-24.9859
58.0814	-119.488	-45.5018
58.5628	-126.758	-47.3207
54.734	-117.018	-52.4389
57.4433	-111.874	-43.8641
67.7969	-48.4693	-32.4002
69.6085	-44.5267	-31.5965
71.0956	-42.5561	-31.2957
29.5793	-145.467	18.327
27.5759	-136.944	19.0008
24.8908	-146.615	20.9986
31.2832	-151.994	17.7585
19.4475	-100.725	22.2145
15.3707	-101.449	25.7189
21.7002	-111.363	20.9823
18.4095	-92.486	24.817
27.08	-80.6199	45.3824
23.641	-83.1974	38.4573
29.8461	-78.7653	50.5586
20.0277	-86.8316	31.0829
16.8331	-87.306	35.3136
24.6887	-124.301	19.9734
20.2666	-125.657	23.188
31.252	-39.8474	67.5566
29.2476	-34.6974	67.8665
32.3061	-77.3003	54.4585
28.3136	-32.6318	67.6982
27.7721	-35.1824	69.9708
28.0162	-31.9786	67.3971
27.6525	-31.6022	67.2394
27.2797	-30.968	66.9535
27.1292	-33.4725	69.1262
28.862	-55.7715	76.3985
29.3091	-61.0793	77.3813
29.5801	-66.4952	77.0486
24.6243	-32.0582	71.5854
21.9747	-33.168	76.073
23.161	-30.7873	70.71
24.6784	-30.1847	67.8404
22.5993	-31.3482	69.87
20.5757	-31.4248	74.2828
22.6468	-33.0197	67.9594
22.8802	-35.4276	67.2041
19.8828	-33.9865	71.7093
23.1421	-38.951	68.4778
23.2309	-42.8531	70.5587
20.2566	-39.8901	72.8652
11.546	-101.968	28.7296
11.0862	-92.9568	31.3949
13.5105	-113.442	27.5954
20.1042	-147.812	23.4005
18.4092	-139.327	24.4408
15.3752	-148.765	25.5139
21.2228	-154.048	22.543
15.9719	-126.883	26.0569
7.14904	-88.0501	42.6028
9.70151	-88.0249	41.0053
7.96517	-86.3885	53.4449
11.1682	-149.429	26.9599
11.9131	-155.423	25.8965
9.46479	-84.5319	63.7945
16.9692	-31.8209	77.4957
16.8441	-32.7216	76.0136
16.753	-34.7139	74.6706
16.738	-37.2885	74.4259
17.1451	-40.147	75.7045
16.8978	-43.2068	78.2208
71.4815	49.3488	-18.3846
73.9729	44.6713	-28.363
71.6119	55.5849	-25.6824
67.9	54.7828	-9.18248
75.8556	19.7295	-45.707
69.4874	-30.7536	-60.7378
67.1087	-33.2566	-64.9722
50.5322	-98.7047	-54.5286
50.5091	-89.8024	-53.3899
53.255	-100.861	-49.0759
51.0678	-107.41	-56.02
47.8392	-97.2846	-59.547
51.7743	-115.067	-57.6625
52.5172	-122.62	-59.4468
48.6527	-113.686	-62.3795
56.2246	-86.29	-41.2274
56.2328	-95.045	-41.6439
53.4324	-83.1301	-47.5547
57.1815	-78.429	-40.3475
21.7372	118.999	-30.4072
28.5273	115.786	-29.8792
21.7716	119.289	-46.611
14.5317	121.254	-30.6776
21.5774	80.2553	-126.652
22.1648	93.137	-113.195
28.5993	78.5592	-124.122
20.8887	65.8725	-137.011
14.205	81.322	-128.383
20.3768	51.3082	-142.914
27.1062	50.0578	-140.392
20.0083	36.5978	-145.722
13.5202	51.7219	-144.574
22.1969	103.511	-97.8238
29.3135	101.28	-95.4637
14.7616	105.098	-99.3708
22.0875	111.343	-81.0335
6.8717	119.707	-65.3921
-1.00397	120.053	-65.6209
6.74774	122.527	-47.7742
14.5349	118.578	-64.7583
6.98281	114.197	-83.091
19.7302	23.0495	-146.496
25.8615	22.0874	-143.949
19.3852	9.70666	-145.546
13.451	23.5802	-148.187
18.9201	-3.66012	-143.162
24.897	-4.18452	-140.579
18.4962	-16.1837	-139.355
12.9247	-3.00522	-145.013
16.5818	-46.6023	-117.353
22.1948	-46.9576	-115.047
16.2375	-55.076	-106.831
11.2498	-46.5587	-118.402
17.4497	-37.3826	-126.943
6.24307	-26.7706	-137.504
0.0992546	-26.6939	-137.928
6.35591	-15.4787	-142.352
12.1987	-26.996	-136.205
5.98261	-36.9758	-130.171
14.9105	-93.7872	-83.1828
15.1109	-86.2114	-84.248
20.1298	-94.2333	-81.7139
14.7803	-100.913	-83.0492
9.84202	-93.4923	-83.8474
4.83097	-107.25	-83.2987
9.77512	-107.595	-83.3457
4.95057	-114.581	-83.4233
0.088335	-107.076	-83.2518
4.91444	-100.057	-83.2967
16.3684	-61.9839	-98.239
21.4688	-62.5189	-96.7605
16.059	-68.7536	-91.8083
10.9367	-61.3361	-99.0122
15.4738	-77.303	-87.1745
20.8705	-78.0486	-85.1877
10.3499	-76.6189	-88.1603
5.26846	-76.07	-87.9688
5.48771	-67.4842	-92.6882
5.02916	-85.3184	-84.7943
0.161306	-75.9887	-87.5014
46.4991	101.789	-29.4449
51.987	95.579	-29.1334
47.2884	101.587	-43.6382
40.8009	107.086	-29.3904
45.1219	45.1851	-127.621
50.2672	43.0672	-122.397
44.5747	31.8193	-130.693
39.622	46.9637	-132.392
45.6738	58.3054	-121.683
45.9312	70.7833	-112.266
40.526	73.7189	-116.609
46.5323	81.4298	-100.272
51.2089	67.2017	-107.43
47.3364	89.7165	-87.0937
52.9072	84.3871	-83.7472
41.7206	94.1452	-90.0345
48.2055	95.3824	-73.017
47.8911	99.3924	-58.3803
42.0225	104.726	-59.7134
53.5004	93.3501	-56.806
43.8571	19.0903	-131.88
43.1492	6.60285	-131.309
38.3436	20.1125	-136.431
48.9146	17.8549	-126.884
42.3098	-5.52859	-129.407
47.3866	-6.02721	-124.61
41.5278	-17.1613	-125.798
36.9116	-5.19713	-133.502
40.4071	-27.6438	-120.692
39.2734	-37.6852	-113.408
35.2962	-27.9234	-124.4
45.0171	-27.5335	-116.117
38.4962	-46.9811	-103.953
43.0354	-46.0999	-100.04
37.9068	-55.1305	-94.7564
33.3674	-47.0992	-108.12
37.3827	-62.7513	-86.9705
36.7702	-70.7814	-80.3563
32.3493	-63.1072	-90.7157
41.8202	-62.2881	-82.6384
35.6086	-94.916	-73.749
35.4004	-102.706	-75.4021
30.5751	-94.8854	-77.0376
35.8104	-86.9935	-73.302
40.1801	-95.3157	-69.801
24.9236	-108.654	-80.8956
24.8212	-115.354	-81.0822
19.7496	-108.181	-82.1772
25.1247	-101.843	-80.4697
30.2216	-109.265	-78.9529
36.1885	-78.9945	-75.6305
40.6487	-78.672	-71.1457
31.4533	-78.8941	-79.3368
37.2347	41.1607	41.5616
37.2294	42.4322	39.989
64.239	53.934	-89.2917
65.2272	60.688	-79.1089
67.7778	48.5769	-81.5603
63.5467	45.2651	-97.9489
60.3455	58.6622	-96.2425
66.4141	66	-68.7465
69.9127	59.4446	-61.4258
62.4101	72.38	-74.9241
67.1544	70.1069	-58.0795
66.3612	73.8351	-47.7107
69.0338	67.57	-40.9157
62.8191	80.3441	-51.9582
53.4098	16.6588	-121.738
54.2043	28.5166	-120.217
57.5129	15.1605	-116.198
52.6821	4.87625	-121.328
54.8456	40.8887	-116.987
55.494	52.5615	-111.156
59.0878	38.175	-110.929
49.1914	-27.0903	-110.515
50.8591	-17.1447	-115.519
53.0974	-26.6544	-104.395
47.6506	-36.4186	-103.855
51.8467	-6.59146	-119.228
55.9209	-6.82166	-113.583
46.8363	-44.8377	-95.7226
50.3694	-43.7763	-90.3321
46.4751	-53.1734	-86.2956
45.6472	-61.0017	-78.3948
48.9586	-58.8102	-74.55
44.8806	-78.3378	-65.4138
48.5326	-79.6722	-58.8026
44.5476	-87.2849	-64.1276
72.4639	20.1572	-74.9301
71.8175	12.7262	-80.5164
70.8895	24.0598	-82.1207
56.7131	88.8735	-28.0702
57.5981	88.9973	-41.6818
74.9868	40.5429	-38.6227
74.3371	46.8917	-45.9266
63.0042	-24.5851	-88.4009
60.0975	-25.5757	-93.4967
64.6016	-16.7322	-92.7412
65.6336	-23.8537	-82.7871
61.1104	-32.2202	-82.6236
65.3136	-8.28081	-96.3647
62.6221	-7.81036	-102.411
66.0033	0.353988	-97.7789
67.8019	-8.89804	-89.6331
66.8391	9.63499	-97.4368
64.1846	11.6552	-104.169
67.8142	18.8105	-94.6176
69.1521	7.34251	-90.3334
55.5748	-51.6045	-64.6627
53.3721	-54.1726	-67.7787
57.3014	-45.5355	-70.3769
57.9369	-49.1697	-61.3745
54.1238	-58.1491	-59.3702
64.4531	-35.2968	-68.9957
62.5507	-40.9858	-63.6573
61.8349	-37.1843	-72.54
66.3378	-29.4089	-73.5534
51.1735	-81.1692	-53.0088
52.1316	-72.8637	-53.7618
71.1193	-38.6152	-11.7958
71.7065	-34.7761	-10.8564
69.6131	-40.9044	-8.72934
71.7918	-32.8082	-9.90119
75.3999	-8.99903	-19.3549
75.9745	-4.63191	-23.0598
87.0861	-7.29288	-57.3246
87.2567	-1.04596	-56.8551
87.7446	-7.5596	-56.2115
77.9037	-42.4522	-32.3668
76.8658	-44.6763	-27.9724
86.9741	4.49918	-54.7893
85.9021	4.88306	-55.7781
86.4894	8.75242	-51.5248
87.8399	3.81081	-53.7269
80.6252	5.09082	-31.9255
79.4393	4.92755	-32.8966
85.8224	11.4388	-47.5019
86.8059	10.6058	-46.4086
82.4806	-28.372	-47.3123
79.7481	-41.228	-23.8428
78.9701	-40.299	-21.077
78.2962	-43.904	-23.7379
76.7392	-2.41468	-25.229
81.353	11.0164	-42.3152
79.9371	8.36904	-38.704
80.3552	9.41896	-43.8093
78.2553	4.54993	-34.5076
77.3656	4.22073	-36.4804
84.67	4.89099	-56.4014
76.9128	3.73765	-37.6489
77.9131	5.0567	-40.815
79.2375	6.0158	-44.9013
77.9151	2.90199	-44.9532
82.1991	-34.6891	-37.321
82.402	-34.4194	-29.1147
76.262	-45.2203	-24.0765
77.9204	-38.7222	-19.2027
78.7325	-35.8123	-20.379
79.76	-33.7344	-21.9019
80.4163	-32.3525	-23.3004
87.8145	-7.75861	-55.3655
88.2815	-1.88232	-54.9227
85.4142	9.88031	-37.643
85.7091	8.85547	-37.279
86.7011	10.6645	-41.4201
85.4799	8.04762	-37.1924
86.5314	8.92471	-40.7076
84.9191	7.0416	-37.2039
88.1622	3.19777	-52.9218
87.7558	7.04851	-49.7174
88.0691	2.59612	-52.3999
87.3561	9.67306	-45.5791
87.459	8.75441	-45.1546
87.0189	8.23518	-44.7852
87.2969	5.9675	-48.9722
87.6481	2.37465	-52.1153
86.3782	-11.5318	-53.254
84.4439	5.71059	-37.4477
82.1288	-0.674551	-32.9056
86.4279	3.23318	-45.5264
86.9616	-13.3778	-47.0192
86.8905	-11.4908	-47.3087
86.723	-9.59244	-47.3332
86.4381	-7.97456	-46.9233
86.0672	-6.53208	-46.0975
85.2472	-5.14349	-43.8853
78.1592	-28.4126	-22.6522
79.2978	-30.329	-23.6811
80.8146	-6.45048	-27.9813
77.5469	-20.6524	-23.3537
80.3113	-31.721	-24.2235
30.3266	43.4569	43.8117
33.2597	107.556	-2.73464
34.2654	110.273	-15.2862
6.48426	116.585	-1.6086
6.6416	120.37	-15.4513
-1.8175	116.986	-1.62171
34.7678	111.859	-29.7172
35.2251	111.906	-45.0483
6.68483	122.534	-30.8876
-1.42027	122.909	-31.1215
21.8151	116.525	-63.751
28.9487	113.473	-62.47
35.5804	109.532	-61.2302
35.9149	105.087	-77.2468
63.7443	61.0361	-1.15164
70.8442	61.5449	-33.5699
72.5366	57.1915	-43.4256
58.3582	87.102	-55.0594
58.7612	83.4178	-67.6581
7.07189	106.078	-100.184
7.08356	95.3469	-115.826
-0.686171	106.451	-100.418
35.6181	98.2947	-92.681
35.3031	88.4811	-107.55
72.5966	53.125	-53.6776
71.7401	48.6946	-63.8422
57.7657	78.7518	-79.9446
56.6612	72.0334	-91.3672
70.6702	43.2785	-73.6728
69.6239	36.3647	-82.5506
68.6751	28.2296	-89.6187
65.9721	31.8002	-97.035
44.3733	-96.3477	-64.7875
44.3227	-104.536	-66.4083
44.7226	-112.128	-67.6625
45.2263	-119.435	-68.8662
40.2132	-110.737	-72.6698
6.85639	82.042	-129.1
6.67072	66.9666	-139.394
-0.424257	82.1223	-129.408
6.68493	51.9278	-145.283
6.76123	37.4179	-148.057
-0.216271	52.016	-145.396
6.8378	23.9247	-149.008
6.7582	10.8566	-148.29
-0.0698122	24.1679	-149.195
6.53599	-2.46978	-146.043
0.0431537	-2.37717	-146.303
18.0548	-27.2724	-134.146
23.8487	-27.6619	-131.355
5.5931	-46.3968	-119.16
5.54911	-54.7387	-107.423
0.14448	-46.4107	-119.22
5.55789	-61.0655	-98.8983
0.173157	-60.999	-98.6132
4.98067	-93.0085	-83.5242
0.11885	-92.7422	-83.1052
33.5092	48.6082	-136.809
34.224	62.7621	-130.831
32.8495	34.496	-139.67
34.7171	76.2678	-120.856
32.1707	21.1759	-140.55
31.5738	8.16626	-139.655
30.9514	-4.61811	-137.35
30.3975	-16.9224	-133.432
29.6943	-27.8652	-128.051
28.8364	-37.8594	-120.928
27.8482	-47.0788	-111.937
27.1163	-55.4949	-102.467
26.9434	-62.9151	-94.1562
26.7786	-70.3407	-87.3431
26.2082	-78.5061	-82.6163
25.7337	-86.8973	-79.9214
25.4893	-94.5361	-79.6208
35.4613	-109.869	-76.269
35.267	-116.736	-76.9108
55.88	63.3811	-102.211
62.7704	35.5108	-104.148
61.9565	24.3427	-108.306
61.019	13.7029	-110.494
60.2277	2.97428	-110.351
59.4415	-7.19815	-108.208
58.4497	-17.0357	-104.074
56.6798	-26.2934	-98.8048
54.9125	-34.6347	-92.6016
53.4859	-42.2346	-85.8476
56.421	-40.9064	-80.9081
52.3875	-49.7517	-78.0479
51.3193	-56.5085	-71.2289
53.2416	-65.3928	-55.2812
55.2719	-63.5797	-52.2153
70.942	5.54556	-83.8879
70.243	-2.0112	-84.535
72.6235	3.33865	-76.739
67.8567	-23.0178	-77.8995
69.1268	-16.2109	-81.1246
59.1226	-39.1294	-76.6799
69.7324	-9.06473	-83.7118
60.5251	-46.6702	-58.3577
58.9169	-52.659	-53.5181
13.0628	-87.69	39.103
56.7831	-68.4369	2.91023
44.6342	-83.7007	4.75142
15.0306	-10.5534	80.813
17.9527	-11.7896	79.4912
20.7503	-14.1494	77.2816
10.4081	-34.6805	88.6961
10.5891	-35.4139	89.0389
10.6313	-36.1944	89.4377
26.2794	-39.0824	74.0864
26.0767	-37.725	73.504
25.7579	-36.593	73.045
19.5406	-9.78903	77.103
34.6747	-28.5721	64.0924
29.5523	-5.66477	65.9707
29.6963	-11.1491	66.5196
30.2575	-15.8162	66.9545
55.6164	-18.1236	51.7469
18.0861	40.6242	42.4091
74.1981	1.30885	-69.2779
75.8327	4.3364	-50.0182
76.1157	2.3907	-47.0278
68.2841	-42.7619	-4.58199
25.1491	34.8317	45.3355
48.7083	54.0533	30.8885
46.3104	33.6767	36.5007
8.4296	4.70579	75.235
44.1046	35.5689	38.3489
12.1365	7.27943	72.8341
76.8985	1.77903	-45.6224
56.6609	-103.665	-42.6918
59.059	-70.6609	-39.1406
58.0774	-65.3315	-44.9686
57.6988	-60.2888	-49.3395
22.8756	4.4337	65.0932
27.1632	-27.878	66.5467
17.9198	-33.5594	81.1997
25.519	-29.6992	66.6105
9.78902	-16.2722	79.4085
-65.6099	-41.0531	7.66657
-66.5929	-36.5894	7.90513
-66.3445	-41.6132	0.660498
-64.4575	-45.3101	7.93293
-64.8398	-39.2138	16.0589
-55.8547	-114.815	-8.01379
-53.7893	-103.256	-7.1472
-58.3955	-113.733	-12.2413
-58.0033	-125.981	-9.08848
-52.7666	-115.66	-4.01134
-59.4856	-133.71	-10.2182
-56.8765	-135.495	-5.68956
-61.4867	-131.957	-14.805
-60.5551	-139.67	-11.4525
-44.3146	-95.1674	2.07358
-48.9774	-95.0602	-2.20859
-46.2429	-104.311	0.91941
-39.5176	-95.6917	5.93242
-43.9116	-88.3518	3.43348
-57.8552	-95.2	-14.5527
-55.429	-95.0969	-10.4171
-57.4771	-89.5498	-14.1215
-59.4414	-94.6546	-19.806
-58.7852	-102.647	-15.3229
-59.4808	-58.5236	21.0372
-59.6473	-59.0785	14.0237
-56.8452	-63.131	19.5268
-58.4309	-57.7058	27.2709
-61.2634	-53.4075	22.3003
-69.5332	37.2323	-5.86115
-72.5542	32.838	-16.8466
-68.7392	30.6304	-1.34473
-66.086	42.7415	3.42244
-70.8067	43.8495	-12.0566
-74.3275	34.0147	-59.3479
-75.1928	27.9245	-52.4891
-74.8615	38.3717	-49.4936
-72.811	39.7074	-66.3833
-73.357	28.6499	-67.9254
-5.96564	-102.595	32.7376
-5.43973	-92.8589	35.2134
-8.47973	-102.013	31.4107
-7.25226	-114.907	31.8883
-3.83858	-102.789	33.524
-8.74099	-128.97	29.9477
-10.0434	-141.158	28.0953
-5.65388	-129.214	30.9886
-12.0584	-127.915	28.4813
-3.50118	-150.246	28.6394
-3.79269	-156.078	27.6155
-3.15447	-141.876	29.7777
-7.15549	-149.842	27.9653
-62.8614	-57.2307	-35.3367
-63.2563	-50.7031	-40.7684
-60.5867	-63.1149	-36.8701
-62.6935	-62.2622	-29.2593
-65.154	-51.3133	-34.095
-63.7429	-45.9666	-44.9079
-66.5672	-41.2379	-43.0406
-64.5608	-41.9401	-48.5757
-60.5989	-51.797	-47.0013
-62.5889	-124.919	-31.2366
-63.3062	-128.085	-24.7308
-60.8466	-122.088	-38.0023
-62.9894	-131.874	-32.5984
-2.78465	-129.635	31.6916
-2.33038	-115.716	33.5392
-63.7562	-36.4069	24.0391
-62.8292	-41.4885	23.9654
-62.0313	-33.2057	30.9499
-64.7104	-31.8754	23.5137
-60.2025	-59.126	6.1194
-61.9449	-54.7841	7.08266
-60.7877	-60.0516	-2.03933
-58.2671	-63.1233	4.76139
-9.75913	-68.4571	91.1483
-9.8681	-63.4785	92.0767
-14.1742	-68.5635	88.8823
-9.65962	-73.075	89.5355
-5.74516	-68.2171	92.5182
-19.0411	-68.2525	85.7921
-19.3329	-63.013	86.1231
-24.0756	-67.8847	81.2812
-18.5793	-73.3201	84.2976
-2.50762	-58.7071	94.0678
-2.58559	-63.3201	94.3842
-2.4368	-54.0447	92.9504
-5.90539	-58.5744	93.2193
-9.615	-76.8372	87.0826
-5.98256	-76.2162	88.3064
-13.7965	-77.2126	85.0289
-9.89144	-79.744	83.075
-10.1443	-81.6533	77.9383
-10.1253	-83.4868	71.7039
-6.42968	-81.7259	78.9809
-14.8101	27.9047	56.2884
-12.8133	28.9476	57.3651
-14.7013	30.4671	52.8523
-17.0213	27.8657	55.097
-14.7824	25.9605	59.4257
-46.3307	9.45885	61.7521
-46.6752	1.93987	62.4733
-40.0481	11.3283	63.2621
-45.7076	15.9054	60.2592
-52.0235	6.50019	58.3665
-56.6978	14.0486	50.4608
-57.0402	9.45449	51.8802
-51.2762	17.5358	55.3543
-55.4061	17.8339	48.761
-61.2241	9.82382	43.4952
-65.8957	16.2057	22.0265
-63.4263	19.2919	25.8571
-65.4366	22.2277	18.5101
-68.0007	12.8923	16.9819
-46.6373	-4.02463	61.939
-42.2092	-2.66553	63.5653
-51.2355	-6.65457	58.2021
-46.8154	-9.83383	60.3937
-2.00096	31.9438	70.2971
-3.99987	31.249	69.661
-2.09315	28.5089	75.0883
-1.87458	35.5226	65.2943
-31.35	88.3873	27.4861
-33.3844	93.9265	21.9725
-36.5097	85.7648	24.9848
-29.3764	81.5573	33.0974
-26.6169	90.1777	29.349
-2.73365	-85.019	64.991
-3.01774	-83.372	73.3447
-5.74893	-84.859	64.1768
-2.33382	-86.8103	55.4424
-59.3789	-29.3367	37.3
-60.5788	-24.345	37.4287
-57.9517	-35.8792	37.3791
-56.3104	-25.155	43.5247
-2.82544	-75.6582	88.8832
-3.03176	-78.9004	84.652
-2.65358	-72.0135	91.6434
-3.09637	-81.5352	79.5215
-36.281	-71.5455	58.1891
-37.1138	-67.3648	60.3771
-40.1569	-68.193	52.6994
-34.6888	-74.3425	55.9659
-32.1462	-73.9483	64.7782
-35.1488	-76.7407	34.6058
-31.6129	-78.2209	39.6558
-38.9451	-73.6216	38.9525
-38.6929	-75.8776	29.5126
-30.9195	-80.3125	29.208
-1.67262	-88.2974	44.6577
-1.05167	-93.1383	36.3126
-4.02112	-88.3184	43.9279
-6.68965	24.1867	75.9928
-4.67052	25.1404	78.2162
-6.53829	26.7662	72.4998
-8.72358	23.0984	73.0336
-6.85259	22.1556	78.6426
-23.7805	14.4043	62.9402
-20.0897	16.1569	62.7064
-20.716	20.7185	61.9132
-27.7707	13.8958	63.3017
-29.5192	-29.3084	65.0329
-30.6457	-30.1169	65.0317
-29.3671	-30.2475	65.252
-29.2877	-29.1249	64.784
-12.3293	9.85668	73.6254
-14.5084	9.27299	71.8642
-11.5268	8.9965	73.3874
-14.0541	10.8801	73.2462
-11.4292	5.35968	72.3566
-9.06942	6.22666	73.8103
-11.1852	6.68041	72.2349
-14.161	4.56745	70.6963
-12.0165	4.10874	72.979
-0.960364	6.76503	80.9443
-2.50489	7.19444	79.9367
-0.929172	5.68904	80.0642
-1.0752	7.67363	81.8665
-16.8096	4.86395	68.7171
-17.5204	3.12639	69.097
-16.4633	6.48582	68.6458
-19.1028	5.62039	66.5496
-6.90304	15.0516	84.131
-7.14948	16.7802	83.9872
-9.03854	15.4327	81.5328
-6.51762	13.1593	83.6297
-4.9448	14.9415	86.1009
-26.7916	-47.5209	73.455
-27.0306	-52.1785	74.7362
-22.7064	-48.7661	78.9292
-26.1572	-43.5197	72.678
-30.2673	-45.679	69.1624
-28.7606	-18.234	65.3371
-30.9294	-21.348	64.0367
-26.9962	-16.4671	67.3324
-28.1459	-12.4611	65.2857
-1.25364	1.96045	79.9438
-1.0541	3.28781	79.4257
-3.25271	2.52491	79.2153
-1.57228	0.765549	80.8669
-6.28081	29.6795	68.6075
-6.42167	32.5396	64.391
-9.0023	27.6762	66.981
-17.8424	16.9331	66.093
-17.8384	16.6715	64.6992
-18.8056	14.8999	66.3373
-17.8985	17.4927	67.9197
-16.4321	18.4469	66.6077
-4.04087	5.33704	77.4805
-2.5636	4.86651	78.6106
-3.90339	6.55799	77.7923
-5.54887	5.74362	76.2894
-4.37573	4.07222	77.6399
-3.95186	7.64393	78.5615
-4.12339	8.51277	79.5309
-16.9183	18.4262	69.7033
-18.1976	16.6937	69.5943
-15.7605	19.31	69.0765
-18.8951	11.9678	66.599
-18.255	9.80603	67.5162
-18.9317	13.5032	68.0099
-3.53216	-3.61858	84.9032
-2.85796	-1.39802	83.5196
-6.29748	-3.01501	84.3241
-3.60352	-5.84456	85.7886
-24.1813	0.376139	64.5233
-22.6101	3.60515	64.3659
-26.9834	-0.156759	63.2906
-25.6344	-3.31077	64.8986
-21.4532	1.02117	67.0452
-11.3102	-46.0285	88.2164
-14.9423	-45.5063	85.6425
-11.1746	-48.2639	88.6491
-7.48696	-46.4786	89.5446
-11.5477	-43.9358	87.8057
-26.1309	-20.7352	68.5751
-25.8398	-18.7243	68.9886
-28.2177	-24.9174	65.9997
-26.1977	-21.1577	68.429
-14.7079	19.8401	67.6952
-12.8722	20.731	69.9283
-14.2171	20.4867	66.1437
-18.7299	-44.4783	81.8919
-18.7096	-42.5977	81.5552
-22.425	-42.7813	77.3976
-18.6185	-46.6795	82.5788
-3.33972	-46.5622	90.1924
-3.33537	-44.4044	90.2091
-3.10513	-48.5596	90.6825
-57.9636	42.3981	25.8518
-58.6476	43.3968	23.407
-60.0338	36.9039	23.4685
-56.9559	42.0155	28.5026
-37.827	69.5904	34.3879
-40.0634	76.3127	27.3826
-44.4703	66.7571	29.5498
-37.3368	64.0957	39.0589
-32.3021	71.8574	37.4757
-50.5038	62.7581	24.3616
-52.0136	67.3943	18.0746
-56.4723	56.7204	17.9584
-50.0021	58.2721	29.1069
-37.7108	57.95	41.5442
-37.7219	59.6831	41.1837
-37.4776	55.9504	42.0334
-31.7863	57.9522	44.7424
-59.733	44.0221	19.9677
-62.9583	36.2244	16.2049
-55.0386	50.6438	26.3643
-60.6951	45.6055	16.2873
-21.0363	47.9698	47.6125
-17.4174	46.5129	48.2119
-20.218	49.131	48.2247
-24.9073	49.1932	46.618
-21.8298	46.7647	46.8033
-5.88755	40.0649	55.1412
-6.11295	37.6242	57.3742
-3.72731	41.717	56.3545
-5.58793	42.2199	53.8936
-7.9914	38.2661	53.6605
-28.4379	27.5201	55.7738
-22.7705	28.3296	54.9391
-27.4086	30.3812	53.0042
-35.5458	26.5402	56.0285
-29.5088	24.5413	58.4358
-56.4034	26.9235	33.434
-54.1963	26.6212	38.607
-53.8367	28.3581	34.2785
-57.0755	29.0552	29.9032
-58.5016	25.0529	32.3929
-6.34177	35.1419	60.5552
-3.81195	37.2592	61.0127
-8.78001	32.8074	59.8269
-37.5798	54.1019	42.4184
-37.6224	52.2747	42.7854
-32.5525	54.2521	44.5559
-43.0772	52.3948	39.825
-48.7197	49.6411	36.4816
-53.038	45.7613	33.3357
-48.139	47.9402	37.5222
-52.9361	33.4225	31.8915
-54.9485	33.0837	30.3906
-52.3893	30.8342	32.6739
-50.8802	33.584	33.0576
-53.1549	36.3903	32.1315
-40.9834	39.4513	40.4252
-39.3506	40.8543	41.9491
-41.2967	39.9489	40.6152
-42.5082	38.0718	38.8957
-40.6035	39.3177	40.0582
-37.4382	42.1448	43.0364
-34.9935	43.2017	43.7039
-37.5567	42.598	42.9973
-37.2574	42.0115	42.6558
-37.6653	43.0338	42.9315
-39.8166	41.7128	42.0615
-34.9551	44.0711	43.3752
-31.9124	43.821	43.9472
-31.7411	44.1928	43.7268
-31.9928	43.7193	43.6514
-28.664	43.9257	44.0476
-31.5207	44.6231	43.504
-31.3839	44.9527	43.4587
-28.1433	44.5224	43.4906
-25.7877	43.1519	44.0268
-25.4864	43.3362	43.7443
-26.2506	43.2275	43.7333
-23.4001	41.9355	43.722
-21.5972	40.6376	42.9879
-20.385	39.447	42.3375
-21.053	40.8799	42.8179
-20.5089	41.0823	42.6119
-22.365	42.2496	43.1449
-19.2452	39.9293	41.8731
-19.8336	41.269	42.4434
-19.5875	38.2907	41.6879
-19.0441	38.514	41.4391
-19.2408	41.5595	42.541
-21.1722	42.7001	43.1821
-18.8088	41.9184	42.8497
-31.1765	45.1099	43.7752
-27.5617	45.0484	43.6726
-31.0576	45.1696	44.2302
-46.4974	33.523	35.6475
-46.5399	33.9004	35.5331
-47.2206	32.4138	35.4501
-45.6529	33.4506	36.9978
-44.4146	34.8297	35.767
-43.7992	34.5399	36.5188
-44.9934	34.6999	35.0796
-44.0743	35.4727	35.9839
-28.8658	50.3773	45.7398
-29.6171	49.0323	45.521
-28.4514	51.7163	45.9094
-33.1158	51.1832	44.67
-44.7508	42.7735	40.5033
-43.6588	40.9232	41.2459
-41.546	44.9234	42.4288
-46.3184	44.7105	39.2893
-35.5052	32.7846	46.2847
-29.4478	33.9212	46.5453
-35.1849	33.8854	45.9784
-40.5866	31.9722	44.5824
-35.812	31.7086	46.946
-24.6257	35.2229	45.9402
-24.3942	35.8714	45.7086
-24.8521	34.3473	46.4436
-21.0667	35.7456	44.7027
-17.4988	35.7838	43.5982
-18.2986	35.5422	42.8028
-18.1955	35.6436	43.9627
-16.2457	36.217	44.6166
-17.0507	36.1459	42.9536
-34.9386	34.4961	45.7813
-29.2738	35.3506	46.3285
-34.7788	34.8857	45.5236
-39.8589	33.9749	43.9066
-19.6762	36.2911	42.9576
-19.5084	36.1432	43.497
-19.2274	35.8584	42.4569
-19.7898	36.3495	42.6316
-21.0777	36.552	44.0049
-18.6908	35.4939	42.2067
-18.1938	35.5252	42.0038
-18.8448	35.5712	41.8305
-13.6758	40.9951	44.4859
-11.8762	42.0112	46.4006
-14.659	41.9472	44.9318
-15.1271	40.401	43.1502
-16.7955	36.7807	42.3348
-17.3209	36.3862	41.9905
-15.9204	37.6186	42.7868
-24.1084	44.0505	43.4833
-23.7022	44.2886	43.9341
-24.5639	43.8227	43.2437
-15.9738	39.9816	42.4873
-17.0026	41.2045	42.6805
-15.3101	38.9258	42.6848
-34.6833	35.2531	45.0072
-34.5395	35.0213	44.1437
-29.1978	36.0852	45.646
-19.9403	36.4731	42.4028
-21.3036	36.8228	43.2632
-19.4957	36.0365	41.7999
-20.2204	36.3194	41.7298
-34.3596	33.624	42.8283
-34.4691	31.697	41.1957
-38.8221	33.5445	41.3431
-42.007	33.9692	38.9796
-42.5918	33.1996	37.302
-20.5284	35.4531	40.4139
-20.5082	34.2855	38.9745
-19.0645	35.7213	41.5257
-43.829	36.5766	37.4577
-44.222	36.8173	37.519
-43.2292	36.555	37.3009
-4.01528	53.5144	53.494
-4.69132	55.8959	53.078
-6.99896	52.1996	53.3531
-3.32853	50.9888	54.1027
-18.9476	32.1106	49.5109
-22.2027	32.1224	49.836
-19.0699	30.5089	51.646
-16.7335	32.1712	49.8988
-19.1552	33.2704	47.8719
-14.66	32.865	50.715
-12.726	34.0958	51.539
-14.8622	36.866	46.1572
-14.7723	37.7953	44.6054
-13.1273	37.8008	47.4693
-9.01119	41.9874	48.9884
-8.24066	43.2626	50.8786
-9.75864	42.5577	48.2776
-19.0298	35.6524	44.1864
-19.1811	35.1671	44.8751
-19.3885	34.3815	46.2279
-21.7136	34.0299	46.5638
-20.0011	-19.4772	71.9328
-16.6562	-17.904	74.6698
-23.3222	-21.7672	68.9818
-19.9603	-19.7565	70.7627
-25.5739	-24.8236	66.5363
-25.3139	-24.9664	65.4095
-3.63281	-7.82606	86.0851
-3.50488	-8.70142	86.0139
-3.7051	-7.32301	86.0296
-6.86128	-7.67915	85.4752
-9.0898	-10.1999	83.9623
-11.4796	-10.9126	82.5844
-9.08941	-11.9053	83.3069
-6.69333	-10.0625	85.0254
-9.0612	-8.80225	84.3945
-14.6306	-11.7037	80.412
-17.8979	-12.9937	77.4791
-14.6972	-13.2954	79.8961
-14.3635	-10.3688	80.6351
-9.07822	-7.94449	84.5136
-8.97753	-7.2919	84.5256
-11.2046	-8.67444	82.9679
-13.3133	-8.26152	80.3014
-13.6768	-8.86922	80.4487
-10.7219	-7.32082	82.8938
-13.0724	-6.89854	80.3776
-20.7946	-15.7664	74.073
-20.6082	-14.1235	74.5095
-8.95196	-13.7212	82.5643
-11.4866	-14.2892	81.056
-8.54438	-14.8554	81.4723
-6.34456	-13.1908	83.7822
-14.565	-14.9673	79.1578
-14.1155	-16.3553	78.0844
-28.7775	-27.4513	65.0098
-28.1143	-25.3246	65.9544
-28.8763	-27.3578	64.9912
-28.9372	-28.5402	64.8094
-22.855	-30.4125	69.9412
-23.2726	-30.5153	70.2393
-20.0227	-30.8868	74.1199
-22.3704	-30.5107	69.4448
-24.1768	-31.6257	70.9001
-21.1945	-32.6062	75.6006
-23.9195	-31.1056	70.7126
-18.7605	-33.4848	79.3532
-18.9619	-34.2878	79.6208
-15.7353	-33.9815	82.6029
-18.5148	-32.7124	79.0054
-10.9686	-32.6824	84.2968
-6.57438	-33.196	86.3972
-10.7891	-31.9086	83.3808
-15.0962	-32.2689	81.6028
-11.1721	-33.5617	85.1271
-2.75053	-35.0919	89.261
-2.7322	-34.3774	88.5993
-6.65418	-34.7278	87.9801
-2.85659	-35.8553	89.7874
-26.1927	-33.1938	61.4107
-25.6477	-30.5201	62.8208
-25.8831	-33.1485	62.2348
-26.9235	-35.7704	60.2446
-2.801	-34.8736	82.2618
-3.06074	-33.3438	82.513
-2.23517	-37.1322	82.422
-5.84305	-35.0073	81.3609
-3.01045	-36.7204	90.3579
-7.14827	-36.3748	89.0969
-3.10284	-37.7741	90.6604
-3.50735	-42.4391	90.0736
-3.48311	-40.7701	90.0196
-7.84693	-42.2201	89.0644
-8.82074	-6.77856	84.6624
-6.81425	-6.65153	85.6476
-8.70464	-5.59209	84.4043
-2.70501	-33.5832	87.6311
-2.84413	-32.7991	86.4455
-2.93239	-32.172	85.2681
-3.01713	-32.0446	84.2258
-6.55787	-31.8168	84.2058
-10.5639	-31.4317	82.5802
-10.4667	-31.3081	81.7027
-14.4524	-31.0919	80.2829
-3.13462	-32.4061	83.211
-6.62838	-32.1343	82.2594
-17.4904	-30.9409	77.4559
-17.8452	-31.3633	77.9635
-17.1192	-30.8605	76.8502
-18.9402	-37.1777	80.1777
-18.7744	-38.5913	80.2759
-15.9238	-37.8493	83.5479
-19.1539	-36.0374	80.1477
-11.9072	-38.2105	86.9432
-11.9216	-39.8477	86.7628
-7.65287	-38.8269	89.2302
-11.8926	-36.9765	87.0384
-3.29187	-39.1718	90.3809
-13.7417	-16.9086	76.6881
-13.9157	-17.0421	75.064
-10.9399	-16.1527	78.2036
-29.1254	-29.0231	64.725
-29.1103	-28.4591	64.7614
-28.2923	-28.8429	65.0256
-27.964	-28.952	65.2074
-27.4275	-29.2715	65.5447
-26.1731	-29.948	66.9414
-9.48945	-34.9212	79.8649
-9.96436	-32.785	80.1079
-8.96204	-37.1944	80.0679
-13.1239	-34.6033	77.6597
-10.2825	-31.6406	80.8402
-13.676	-31.2296	78.7621
-11.9554	-41.796	87.0065
-15.3778	-41.3537	84.4413
-19.1279	-35.1036	79.9258
-16.0527	-35.6616	83.3911
-18.6071	-40.6641	81.0327
-22.0424	-38.877	76.5424
-14.6064	-16.9897	73.6954
-17.1552	-17.9699	71.8981
-15.6534	-16.8	72.3683
-11.6031	-16.124	75.4644
-8.59885	-15.1655	76.8501
-8.10709	-15.4462	77.947
-9.98445	-14.6578	75.8169
-5.92211	-14.4117	77.7596
-17.8282	-16.7175	70.0228
-19.5434	-18.0194	68.1131
-19.2258	-16.4111	68.2243
-14.5454	-15.0523	73.0319
-27.3643	-38.2853	58.9632
-26.9246	-38.5192	61.0811
-27.7901	-40.9335	57.5274
-2.09869	-39.3511	82.9142
-2.10583	-41.4859	83.3862
-5.0033	-39.4221	81.921
-11.5679	-13.8015	74.6678
-11.5354	-12.8335	73.8242
-7.19202	-12.9169	76.1178
-8.69072	-39.4646	80.4624
-8.05492	-42.2832	81.034
-12.4859	-39.9083	78.4921
-26.72	-32.3971	58.2356
-27.9402	-31.4216	55.5417
-10.6683	39.017	48.8565
-10.2918	38.1532	50.5101
-74.1805	-17.2763	-57.8323
-75.3975	-17.258	-55.6035
-74.7561	-13.1066	-59.17
-72.9797	-17.5276	-61.501
-73.4793	-21.1039	-55.7903
-74.8158	8.00697	-27.772
-74.5053	11.2495	-23.7322
-75.1543	9.83093	-32.6742
-75.1931	10.6773	-38.3961
-75.0588	8.60818	-45.1007
-74.8079	5.51838	-37.9554
-75.4599	15.6703	-41.2677
-68.8064	-37.9453	-41.5514
-69.956	-34.5834	-44.4828
-67.9794	-41.5538	-37.8682
-71.0458	-35.3381	-40.4756
-70.6853	-31.5316	-47.5967
-72.6513	-29.8385	-45.9049
-71.7122	-28.1873	-50.5664
-68.6585	-34.0168	-49.8959
-77.0773	-16.9878	-54.4263
-77.3997	-12.7016	-55.7165
-76.5634	-20.5737	-52.5755
-78.8841	-16.5857	-54.4363
-77.5327	-31.1782	-43.0026
-78.6092	-32.4069	-41.9682
-76.2541	-29.4742	-44.39
-79.7126	-33.12	-40.7284
-80.6808	-29.5566	-43.905
-78.6289	-36.7597	-37.1232
-80.7088	-33.2314	-39.1638
-83.7529	-23.3185	-43.2754
-84.9316	-19.7028	-47.7194
-83.583	-22.5936	-42.7143
-72.8484	-43.0827	-25.9678
-73.3981	-41.7616	-29.5602
-72.437	-41.752	-28.1412
-72.582	-42.9149	-23.4313
-73.6835	-43.4679	-24.9956
-75.1986	-32.7923	-15.5598
-74.8466	-33.4476	-15.3834
-74.0623	-34.577	-15.5119
-83.4951	-22.1563	-42.426
-83.0024	-22.4917	-41.3047
-86.1051	-9.20462	-50.6393
-85.7786	-8.89291	-52.2868
-86.4541	-10.1145	-48.6346
-86.3365	0.9849	-51.3992
-86.5899	2.26294	-51.942
-86.6256	4.48653	-51.6115
-86.4246	7.14231	-49.2264
-86.7449	4.89294	-52.2262
-86.4729	4.75703	-49.3121
-77.8085	-11.1402	-23.3569
-79.0751	-5.9811	-25.4964
-76.7852	-14.8979	-21.6426
-77.228	-10.0911	-22.2792
-72.1643	-24.7945	-11.7276
-72.7695	-20.6108	-12.6571
-71.5377	-28.413	-10.9747
-71.3214	-24.5791	-8.85393
-76.1447	-22.1699	-22.2121
-76.3556	-20.4536	-23.0229
-76.3889	-24.0461	-22.0098
-74.8899	3.76185	-37.866
-75.4031	4.03548	-37.4335
-75.433	4.33869	-41.5972
-83.1577	13.64	-40.068
-84.4775	14.7335	-43.953
-84.2406	13.0353	-38.7789
-81.6366	10.951	-36.1795
-81.97	13.7425	-41.4922
-83.148	14.2908	-50.0605
-82.1766	14.6402	-46.491
-81.9006	12.2866	-50.951
-83.7828	11.9128	-53.6392
-84.2478	14.3776	-49.2486
-84.3021	-4.85506	-59.5141
-85.5391	-4.53912	-58.723
-84.4494	1.76494	-58.9192
-83.0249	-5.34332	-59.64
-80.0503	-1.59749	-27.3208
-80.2255	-3.03467	-27.8134
-86.6886	-4.84356	-55.0527
-87.2187	0.49811	-54.4608
-87.0009	-5.01974	-55.1808
-86.1294	-7.49806	-54.6901
-85.9542	8.9021	-45.6393
-85.1568	9.30288	-41.5881
-86.0701	10.0649	-45.3623
-85.9875	7.39488	-45.8692
-81.076	-1.55405	-30.6776
-81.5562	0.541651	-32.1204
-80.6008	-3.14442	-29.5579
-86.0481	-3.59375	-52.7564
-85.909	-5.91497	-53.9685
-78.7986	-8.25009	-29.9393
-79.6348	-6.56582	-29.33
-78.8756	-8.11074	-30.7487
-83.0647	-10.4404	-43.8708
-85.2004	-8.3158	-46.2773
-82.9696	-11.5228	-43.6649
-82.7106	-9.87043	-43.4667
-73.3447	-16.8744	-13.9358
-72.5822	-16.5107	-11.3288
-73.9789	-12.7528	-16.2429
-77.5944	-7.71687	-56.0903
-79.2757	-5.29313	-55.7082
-77.589	-3.21398	-55.4111
-76.1432	-8.37952	-57.4666
-81.126	0.363817	-56.2596
-81.3494	-4.07482	-57.657
-82.8242	5.65605	-56.8561
-80.8672	4.71847	-54.3487
-81.8682	-6.33058	-58.7413
-81.0845	-11.7995	-57.4856
-80.7208	-16.3958	-55.5804
-74.5818	-29.0589	-45.1366
-75.4045	-26.4854	-47.8219
-73.5998	-31.5904	-42.3731
-76.0236	-23.6917	-50.3395
-74.141	-24.0509	-51.3133
-82.2745	-22.3015	-40.4808
-72.6068	-34.0458	-39.8591
-71.7406	-36.9274	-36.5349
-72.491	-41.6392	-20.9242
-72.1957	-41.2654	-21.0821
-71.3398	-41.5063	-20.5482
-71.4877	-41.9546	-25.8027
-83.2812	-12.3178	-43.7866
-85.4098	-11.4337	-46.0037
-76.4602	-9.25213	-21.5435
-75.5147	-8.68459	-20.7125
-74.0594	-21.8429	-15.9862
-74.4136	-22.1626	-16.5669
-76.9647	-27.3854	-20.323
-77.3812	-26.3836	-21.554
-77.7947	-29.6228	-21.1463
-76.0317	-17.6206	-20.3094
-76.751	-18.3171	-22.4222
-80.4914	7.2527	-51.9046
-79.8301	8.50849	-48.6823
-78.9888	2.39121	-52.5619
-77.4776	0.0475256	-53.4466
-77.1689	2.50554	-50.129
-76.3201	-0.196841	-54.7909
-85.7607	-1.3984	-48.1806
-85.7072	-2.75267	-47.3402
-79.2985	-7.77077	-32.3823
-80.3136	-7.22184	-35.3087
-82.6695	-8.92808	-43.2295
-82.115	-8.56905	-41.9043
-84.6193	-5.7897	-45.2754
-9.8891	106.331	19.3869
-10.1024	111.402	10.2757
-17.4261	104.955	19.068
-9.76819	100.625	26.7539
-9.30241	94.3556	32.8585
-15.9745	93.0436	32.0415
-8.6796	87.0233	38.4744
-27.9101	74.0131	39.0036
-23.442	75.5867	40.1506
-26.5362	67.1425	44.0458
-1.18397	8.56348	82.9706
-2.92078	8.90993	82.1164
-1.49655	9.66176	84.174
-2.5743	18.7543	86.619
-2.54923	16.9221	87.4291
-2.69735	20.4251	85.4195
-5.22522	18.5476	85.4059
-2.45583	15.0078	87.5084
-2.19277	13.0094	86.7394
-1.00563	4.53744	79.4669
-2.02684	-0.369681	82.0285
-4.76887	0.815445	81.6579
-1.91268	11.1805	85.4821
-4.02037	11.2191	84.1922
-2.77593	21.7953	84.1922
-2.65777	23.3915	82.2867
-5.17767	21.444	83.0174
-6.67494	66.6152	49.483
-7.12064	72.2339	46.6441
-11.5689	65.7073	49.1379
-6.01378	62.049	51.6081
-1.90646	42.6102	56.8665
-2.19164	44.4605	55.7406
-1.80627	40.4535	58.8235
-2.58878	45.5638	55.737
-2.66775	46.6693	55.7849
-4.27573	44.8684	55.3839
-2.8453	-13.9347	78.5786
-2.59907	-14.4819	79.9035
-2.92417	-13.2712	77.9957
-2.80179	-14.5311	81.8006
-3.00343	-14.0505	83.4308
-5.43118	-14.7403	80.9606
-3.45276	-10.3142	85.6039
-3.45161	-11.8002	84.8798
-3.41775	-13.1411	84.387
-3.67364	-6.86703	86.0803
-2.90145	-12.2914	77.4721
-3.26882	-11.1076	76.6087
-23.6497	103.285	18.4386
-24.2837	107.941	9.93099
-29.3483	101.059	17.4955
-22.9008	97.9519	25.0923
-16.1782	64.6646	48.5672
-17.4043	70.168	45.4014
-21.3151	63.4074	47.7301
-15.8714	59.9908	50.2987
-16.6616	56.1463	50.3959
-18.5685	52.5683	49.4336
-21.4367	56.1444	48.8538
-19.5955	50.3665	48.7536
-23.4385	51.6541	47.4901
-16.2855	49.2468	49.7925
-23.2171	44.5016	44.3791
-27.0296	45.3348	44.5366
-20.1677	43.3318	43.968
-22.9412	44.9544	44.9572
-26.7656	43.6411	42.3083
-27.2529	44.2123	40.245
-29.2725	44.2403	42.3052
-24.9819	43.5595	43.3918
-22.3515	45.692	45.8291
-18.9009	44.4431	45.8214
-26.3453	46.7703	45.55
-46.8525	97.6471	-5.26084
-46.3471	94.2852	3.36226
-41.5998	102.33	-3.60403
-47.8456	99.9807	-16.4214
-34.545	98.5651	15.9013
-39.92	95.2085	13.5579
-35.4585	102.524	8.12042
-25.6384	62.3168	46.7889
-31.1234	62.0253	44.57
-26.2038	59.5196	47.2714
-27.8681	53.147	46.1261
-27.1889	54.7916	46.5335
-26.2951	56.8347	47.1854
-30.5793	47.3584	45.2657
-34.1958	47.2537	44.769
-30.8408	45.7975	45.0107
-45.5685	90.9405	10.2866
-44.2594	87.0303	16.248
-51.1189	86.0936	5.94104
-37.521	61.3653	40.8131
-43.8464	59.4493	36.3282
-38.1242	43.4818	43.9944
-40.9121	42.0695	42.9483
-34.8648	44.564	44.5258
-38.127	44.2378	44.1241
-32.1532	44.0699	42.3335
-34.9523	43.4892	42.0345
-32.4844	44.7178	40.2742
-37.65	50.7206	43.1041
-42.7197	48.9778	40.9574
-37.7433	48.9166	43.3938
-37.9329	46.5145	43.8556
-42.172	82.243	21.7099
-48.222	77.6958	17.4233
-56.2253	81.2719	0.151069
-60.7363	76.626	-6.8265
-55.3476	77.3124	6.46085
-41.5339	40.3447	40.6685
-41.8126	40.549	40.6811
-43.131	38.816	38.9974
-43.1259	40.341	41.2618
-44.6164	38.8663	39.546
-42.6303	40.502	41.0733
-42.2039	40.5734	40.8421
-40.3498	39.806	39.2128
-40.3736	40.5784	37.792
-38.779	41.1972	40.4474
-41.8478	38.3417	37.8072
-47.4874	46.3012	38.3197
-50.7198	43.0064	35.9004
-14.38	45.1003	48.3393
-13.6878	46.5689	49.4173
-15.3958	43.9854	47.0629
-12.0982	43.9841	48.2739
-13.3956	48.1053	50.3612
-11.1653	47.0827	50.6939
-16.3987	43.1264	45.4321
-17.4113	42.6662	43.9718
-5.47631	58.7325	52.6208
-61.3065	-62.5117	-9.7033
-61.8383	-64.2089	-16.1618
-62.789	-57.3606	-8.56081
-74.6811	13.6822	-61.9998
-75.1928	9.39079	-55.1928
-75.1744	17.7506	-54.7313
-73.458	17.9365	-68.4175
-74.3258	8.68412	-66.3944
-71.2346	-18.5009	-67.3719
-72.0709	-13.1477	-69.1067
-69.4344	-19.7895	-72.8023
-70.3436	-23.6547	-64.1143
-72.6519	-7.3437	-70.6529
-74.1639	-7.93192	-63.9059
-73.2357	-1.82477	-70.6063
-71.0041	-7.09244	-77.4913
-65.6256	-38.077	-52.8385
-67.3354	-33.3304	-56.9539
-62.8143	-41.7284	-55.6858
-7.92559	79.361	42.944
-13.6885	78.2895	42.1425
-18.9914	77.0434	41.1561
-20.2343	84.5363	36.0821
-18.1164	-83.5089	57.1513
-13.2765	-84.5055	61.1056
-23.5131	-81.863	51.0804
-15.7896	-84.9573	48.2476
-42.0913	-70.8008	42.1578
-43.6544	-67.8488	44.8139
-46.5903	-68.393	36.3689
-37.0898	-73.605	47.6957
-53.9595	72.3833	12.1692
-59.0273	66.7885	6.18906
-21.6741	91.7663	30.7734
-65.0116	71.6022	-15.1816
-64.8094	66.5712	-7.84735
-68.5279	66.9734	-24.0956
-24.6186	112.585	-1.63116
-17.8612	114.665	-1.46717
-24.7188	116.309	-15.1035
-30.7015	109.789	-1.73886
-61.9158	49.2597	10.8724
-62.7593	55.0017	5.17655
-45.4399	37.5618	38.1027
-43.1177	36.832	36.667
-43.3509	37.0701	35.907
-55.894	41.3148	30.279
-54.4419	40.452	31.9616
-56.8943	36.6365	28.7208
-52.7288	39.706	33.5596
-1.73288	-103.156	34.1092
-54.7485	-57.8522	34.6647
-53.3116	-62.7465	32.1225
-49.3954	-60.2206	41.739
-55.5269	-52.3537	36.5015
-8.42766	-2.80591	83.4455
-7.73079	0.0398912	82.1144
-10.3284	-2.97862	82.1841
-25.1504	-13.2625	70.0229
-22.6541	-9.25483	73.2561
-23.9727	-6.93631	71.0157
-10.911	2.13624	79.2483
-9.68692	3.06375	77.859
-13.5997	1.83751	78.172
-12.0055	0.342933	80.3022
-8.672	1.87424	79.9794
-34.1195	-23.2429	63.5728
-33.5643	-16.1436	63.1696
-37.2953	-23.9252	63.1925
-33.7478	-28.99	64.2106
-61.2752	31.4466	23.1328
-62.9102	30.1291	19.6567
-61.3363	26.0752	25.3928
-59.4662	31.9535	26.1999
-64.7753	28.8277	15.919
-66.5945	26.929	10.7857
-48.9094	34.034	34.2589
-47.2166	34.3134	35.2878
-48.8537	32.1036	34.2556
-57.4847	32.3449	28.4117
-75.7257	0.547321	-57.491
-75.7382	3.7006	-54.4892
-75.0797	1.66802	-62.244
-75.4847	-3.62426	-59.3461
-72.5648	-24.8601	-53.4354
-71.224	-26.1255	-56.5183
-65.5963	-52.5137	-20.2077
-66.3086	-50.588	-26.731
-63.9364	-58.2136	-21.8375
-65.0011	-52.9156	-13.5424
-67.1523	-47.8214	-18.6384
-75.1745	-8.32686	-59.7915
-70.5179	-24.6472	-5.41461
-69.6773	-24.2023	-0.794467
-71.2467	-20.4374	-6.51685
-69.7439	-28.6992	-4.57857
-69.7444	8.14531	9.27934
-70.964	3.93826	0.9921
-69.6126	1.66087	13.2154
-69.3604	15.5411	5.65235
-51.8826	29.0997	34.6964
-50.2777	28.6127	37.8293
-50.0062	29.8336	34.9134
-48.6076	30.8025	35.0127
-47.0912	30.7389	37.1191
-68.7436	-22.4491	5.55819
-69.7095	-17.8184	3.8206
-67.9264	-27.0071	6.63778
-67.6133	-20.1092	12.855
-19.7965	23.8826	60.1744
-17.168	24.0697	60.4125
-19.5947	25.8063	57.8144
-23.7969	23.4349	60.3642
-30.333	22.2584	60.5877
-31.1797	19.0459	62.1836
-37.674	21.0101	60.2252
-14.8855	24.4249	61.7079
-14.8455	23.1376	63.2978
-12.7596	25.2196	63.4681
-18.5574	16.5935	63.2666
-16.5197	19.8633	63.52
-16.4529	16.3543	72.8299
-17.7012	15.365	71.2029
-16.146	14.3934	72.9762
-14.5634	16.8887	74.9555
-18.5269	14.4993	69.4781
-17.9772	12.2837	69.8103
-37.522	-1.28086	64.393
-36.0063	5.3501	64.5066
-38.6636	-7.20577	63.6715
-33.5015	-0.655414	64.37
-33.2054	13.2135	63.5163
-4.99741	3.04558	78.3558
-6.60683	3.49454	77.3967
-5.84961	2.20413	79.4922
-53.223	-20.8591	49.5422
-51.7528	-28.1637	48.7174
-50.1963	-17.6776	54.8556
-54.3556	-15.6737	50.7683
-27.2783	-7.88672	65.1938
-29.5797	-9.50603	63.432
-24.8973	-5.40832	67.9362
-39.7525	-12.2862	62.9107
-36.0522	-11.3712	63.5677
-43.4621	-13.6222	61.3793
-40.403	-17.8927	62.3343
-6.85289	1.44488	80.7662
-49.4317	-38.3737	48.8145
-46.5462	-47.4988	50.5487
-47.0262	-33.4364	53.5184
-52.3204	-42.3704	43.8766
-56.8851	2.14919	52.6578
-61.1699	-2.60506	45.2047
-56.3334	-5.16377	52.6592
-27.546	-75.6858	72.0223
-22.6136	-76.6299	78.1322
-28.4294	-71.9382	73.8859
-37.2339	-61.8921	62.16
-33.2118	-64.872	68.5282
-36.6624	-56.523	63.893
-40.5497	-58.348	57.062
-54.0159	21.7855	46.5178
-48.9023	23.9641	51.0692
-52.2597	25.4121	44.7692
-44.7596	31.3302	40.8011
-45.6549	29.9811	41.4177
-43.9988	32.8862	40.4876
-50.7101	27.4225	43.6094
-48.9337	28.5253	42.9014
-45.8021	28.6047	48.0864
-43.6169	33.7081	40.2882
-2.54003	-67.8831	93.2235
-44.6834	-30.0913	57.1533
-42.0718	-27.1556	60.2739
-46.4496	-21.7633	57.6471
-42.4653	-37.8075	57.7213
-35.7636	-51.8569	64.8082
-31.8733	-55.2045	69.8657
-34.595	-47.4508	65.8115
-38.6157	-47.7401	61.2327
-42.5759	25.4472	54.3924
-41.0997	28.0617	52.3008
-43.959	22.3511	56.5062
-46.8335	-15.2042	58.8166
-44.9852	19.6272	58.4909
-9.96798	-58.4259	91.6647
-14.5812	-58.4058	89.0209
-10.2859	-54.0462	90.4724
-19.0978	-58.3573	85.4169
-18.7663	-53.6074	84.4524
-23.3538	-57.7129	81.0244
-39.7442	29.5725	50.7802
-32.8816	30.6833	51.6608
-38.2698	30.3265	49.367
-47.1943	29.174	42.0806
-42.5977	30.0711	46.1835
-36.8051	30.9554	48.0702
-30.5417	32.1923	48.3461
-10.7964	26.3959	65.4401
-10.9164	28.2349	62.2506
-10.8664	24.433	67.9497
-10.7886	20.7175	73.389
-11.3061	20.0731	75.1786
-8.70691	20.5711	77.2088
-10.3271	21.5209	71.9408
-10.2277	36.2933	52.5525
-10.6067	33.4246	55.1131
-19.4909	28.1917	54.6808
-1.75469	38.2765	61.4869
-60.7803	22.1008	30.1657
-10.8237	30.7419	58.5404
-55.9794	-44.9938	38.2146
-60.1644	-46.0191	30.665
-65.5022	4.91714	33.4631
-67.9799	0.486153	24.7773
-65.3109	-0.868988	35.8025
-62.1173	-19.5336	37.2092
-64.0462	-23.1256	30.4032
-59.0989	-15.1804	44.6902
-63.3688	-13.7742	37.38
-64.3883	-6.82304	37.3569
-66.2881	-11.9514	28.9043
-18.0633	-76.9598	82.2569
-10.9037	-50.8307	89.5593
-14.8364	-50.3121	87.0762
-6.71917	-50.8219	90.936
-18.6621	-49.8824	83.1704
-24.4376	36.7795	44.7238
-24.3454	36.5071	45.1555
-26.8933	31.7046	51.107
-26.11	32.4796	49.3879
-25.4041	33.4072	47.763
-2.72285	-50.7178	91.6375
-6.53185	46.9296	54.3869
-6.06684	45.1108	54.7173
-5.1352	47.9058	54.9185
-7.49477	48.6544	53.4734
-7.49219	45.6132	53.3574
-17.7667	36.2358	41.7443
-17.9028	37.4263	41.4179
-14.8512	38.3288	43.5774
-7.98605	44.5308	52.1534
-8.66385	45.2772	51.5068
