1910
38.3107	32.5836	40.8084
38.8372	30.9787	40.086
31.6229	29.5495	42.0486
31.5915	29.3069	41.4329
34.061	29.7199	41.4129
41.6032	36.4282	37.1611
41.5282	35.9474	37.4405
36.5248	32.76	41.8094
37.4476	34.8918	41.475
35.8747	30.701	41.591
24.3741	31.5932	41.2614
25.5653	38.0581	40.9726
21.4043	35.9849	39.6007
41.374	35.321	37.892
39.453	35.9553	39.921
37.7017	36.704	41.0859
35.5755	29.8655	41.1319
35.4774	29.5637	40.3443
36.7607	29.9597	40.7485
38.197	30.0899	40.2116
38.2057	29.7092	39.7757
-28.2202	41.2163	41.1334
-24.0033	38.2298	39.8814
-23.0787	35.8258	39.842
-23.3103	34.2855	40.1938
-24.0028	32.6115	40.1705
-43.1465	32.4183	38.1571
-45.7363	34.8628	34.9866
-45.86	36.1269	34.6435
-43.9872	38.9874	36.4959
-41.2301	41.4046	38.5664
-37.8093	43.4655	39.4001
-33.1489	43.3817	40.3161
-30.9764	39.3641	42.8905
-33.4756	33.5142	44.2244
-36.6854	33.59	43.5101
-39.0101	36.3497	42.1208
-39.2874	39.7744	41.0563
-36.998	41.8962	41.0771
-33.932	41.7845	41.6746
-35.5136	37.8695	43.2122
-22.3397	38.3696	39.0149
-26.8744	42.7231	40.2021
-20.9896	35.4321	39.7486
-20.8966	34.2355	39.779
-21.4927	33.2618	40.0369
-22.9701	32.1099	38.6066
-31.2585	30.2901	43.0516
-43.1275	30.986	38.4721
-47.5273	34.6553	33.0454
-47.5235	35.1474	32.9943
-44.7694	39.4847	34.7743
-42.2799	42.4236	36.8645
-38.3694	44.7894	38.7143
-32.5889	44.9236	39.424
-31.2451	35.8965	43.7994
-42.2129	35.5145	39.6967
-26.745	34.5637	42.7582
-25.8347	37.476	41.74
-40.2637	31.9249	40.7218
-31.1164	31.3739	43.5821
-42.5249	38.4796	38.65
-37.1362	31.3796	42.2091
-37.5514	30.6646	40.5224
-39.3848	30.7892	39.8419
-25.8999	39.2418	40.8534
-25.7424	39.8399	40.4454
-27.01	39.3722	41.571
-24.7395	37.9114	40.6573
-34.8278	31.7904	43.5327
-34.6385	31.0664	43.0789
-32.4581	32.2865	43.9663
-35.0693	33.1163	43.9701
-37.2322	32.4248	42.791
-40.8619	39.9806	39.7066
-40.7586	39.0681	40.1482
-40.1871	40.851	39.7775
-41.773	40.0285	38.7766
-39.3359	41.8771	39.7976
-38.3202	41.1006	40.9461
-37.53	42.8348	40.143
-39.7679	42.5939	38.9356
-35.5443	43.1264	40.4277
-35.495	42.22	41.1941
-33.4311	42.7133	40.9627
-35.541	43.7266	39.7936
-31.1806	41.7635	41.5156
-32.439	40.946	42.1667
-29.7472	40.6411	41.9636
-30.6718	42.5593	40.8512
-37.1706	35.7679	43.1494
-38.2298	34.6946	42.7067
-36.2292	35.333	43.5585
-37.5386	36.965	42.761
-33.5664	39.9025	42.686
-34.6237	40.3041	42.3905
-33.2587	38.77	43.1376
-35.3107	34.7413	43.8625
-34.4861	35.2633	43.8943
-38.017	38.0169	42.2686
-39.3349	37.9896	41.5778
-37.6101	39.0189	42.1401
-37.3228	40.0745	41.8742
-36.4164	40.379	42.0217
-35.5223	40.8774	41.9906
-25.333	40.3153	40.1142
-23.3208	38.3875	39.5485
-24.5536	40.5208	39.7278
-27.6635	41.9606	40.5038
-22.2829	36.7146	39.4566
-23.1859	36.8555	39.6641
-22.0324	35.6402	39.5929
-21.6284	36.8956	39.4103
-21.9514	34.8918	39.6949
-23.1105	35.0561	40.0435
-22.0362	34.2941	39.7672
-20.9449	34.8369	39.7589
-22.2628	33.6304	39.7988
-23.8645	33.2984	40.373
-22.3812	33.0552	39.7328
-21.1982	33.7509	39.9062
-22.445	32.7306	39.4997
-23.9688	32.2189	39.8113
-22.2054	32.6815	39.3621
-45.1657	33.4228	35.7409
-44.5586	33.6917	36.4875
-46.5012	34.5548	33.9831
-45.3908	33.0852	35.5541
-43.1235	31.8765	38.1925
-46.952	35.0591	33.3941
-46.0593	35.4798	34.5022
-46.6296	35.764	33.6993
-47.5253	34.9014	33.0199
-45.6796	37.3794	34.6042
-45.2195	37.3924	35.3252
-44.4352	39.1731	35.6649
-46.149	37.3263	33.9479
-43.0633	40.6863	36.6408
-42.7074	40.3188	37.3983
-41.6664	41.9773	37.5888
-43.5412	40.9804	35.7863
-40.1725	43.1295	38.2423
-38.0548	44.023	38.8787
-40.4024	43.6378	37.7191
-35.4773	44.335	39.3258
-32.8317	44.0247	39.8225
-35.5417	44.8694	38.9657
-30.1097	43.2248	40.3077
-29.7128	43.8321	39.8595
-33.5256	35.538	43.9389
-31.9861	34.4096	44.0987
-33.2537	36.6578	43.74
-32.7603	37.7185	43.4539
-30.854	37.4786	43.4473
-42.5581	39.8443	37.9209
-43.4135	38.7773	37.3621
-28.5327	36.8853	43.1587
-28.3592	38.271	42.7006
-28.857	35.1699	43.5478
-26.1181	35.946	42.3926
-29.8762	33.6313	43.8411
-28.5896	32.9365	43.2959
-27.2305	31.4734	41.5153
-27.2185	31.9126	41.9445
-31.1456	30.803	42.8389
-26.997	31.2135	40.9496
-24.5153	35.3969	41.2443
-24.2646	36.2329	40.7894
-25.0679	34.2175	41.5688
-43.4661	33.8375	38.0522
-41.8337	32.0887	39.4769
-41.3048	33.6546	40.3682
-44.2891	35.3008	37.1844
-34.6086	30.6569	42.4109
-37.1043	30.8578	41.5099
-34.4941	30.41	41.7682
-44.5885	37.4903	36.2644
-44.5464	36.9929	36.5246
-39.6033	33.772	41.7058
-38.9034	31.8424	41.5412
-40.4923	35.8729	41.1524
-26.9029	32.6777	42.2178
-28.2524	39.3444	42.2162
-24.0625	36.9446	40.3617
-44.415	36.3407	36.977
-42.4908	37.0149	39.247
-40.7142	37.7198	40.6483
-38.5974	31.0303	41.0366
-39.7719	31.1277	40.4543
-38.4812	30.7349	40.1749
-41.1956	31.2505	39.6927
-41.2145	30.8712	39.2115
16.2008	-70.165	88.8636
17.2244	-75.509	73.4421
25.2802	-70.7969	80.6193
64.168	11.4823	24.9856
61.9599	4.52891	35.0862
69.1273	3.25368	18.5849
57.1662	15.4201	32.8224
12.0206	55.7155	53.8139
19.3281	60.6427	52.6118
44.2731	32.7577	35.9734
24.3708	41.4566	39.1958
19.6809	37.3497	41.1244
20.0036	37.5482	38.3627
24.4848	40.5891	40.6077
41.9398	24.0314	41.9119
8.77534	37.7451	54.3634
10.5281	38.7943	49.8157
8.99577	41.2866	52.3786
14.4368	37.7209	43.5641
14.1473	35.0003	45.4621
43.3926	33.5733	36.1175
17.2702	30.737	45.3504
13.7657	32.2957	49.1535
17.1645	28.396	48.4027
17.6244	33.3725	41.4415
17.6277	34.8013	41.5615
20.9854	31.3807	38.0166
32.7428	-31.2246	69.8067
32.3286	-31.4918	69.14
29.9823	-30.1563	72.2293
32.8933	-30.2443	70.4494
29.1271	-27.3452	75.2435
33.708	-31.1294	69.5681
33.2438	-27.9916	71.2028
34.6117	-30.766	69.4896
36.498	-30.3157	69.3155
32.6584	-31.8402	69.2736
23.7485	-33.5742	83.5413
31.5878	-33.1734	72.0583
26.4673	-21.9237	79.6137
19.4446	-17.0073	84.6937
30.3773	-30.943	72.0851
30.2535	-30.7177	71.6995
40.1685	29.8197	39.2851
28.5988	29.1806	42.4059
72.4324	-43.0896	-19.6435
74.4655	-41.992	-21.2465
83.8956	-32.3764	-36.6255
82.5009	-26.5039	-41.4862
78.565	-34.3691	-23.6319
76.3232	-32.9045	-20.3276
79.3795	0.198943	-33.3731
78.3731	-6.51345	-28.0779
87.8519	7.78222	-45.6397
87.4137	5.15733	-46.4822
76.1976	-26.0564	-30.9641
82.2186	-8.1329	-34.7787
83.4611	-3.72626	-36.5983
79.8455	-13.1231	-34.9394
81.6287	-12.0591	-39.5374
88.6616	-16.2827	-52.2955
88.2555	-14.0523	-56.0214
84.5811	-28.9194	-42.6979
74.3374	-32.6008	-18.0157
75.8574	-27.3552	-20.3239
75.3237	-23.3113	-19.1998
76.6543	-16.2703	-22.188
76.6542	-22.1261	-21.8246
78.0542	-16.4523	-24.4869
76.5889	-20.808	-31.409
88.6426	-4.34277	-56.387
87.7948	-1.89161	-52.3589
88.4734	-5.67287	-54.8127
88.5023	-7.56069	-52.824
88.8612	-11.4068	-53.5443
88.655	0.0340063	-53.7647
87.3741	-4.37485	-49.7791
82.971	-7.53686	-38.7808
28.2168	-76.9549	59.7402
46.5336	35.698	35.3095
44.7129	39.4859	36.9857
68.1068	-51.857	-15.6357
69.6786	-46.5499	-14.7874
66.9809	-50.3017	-4.19951
20.6516	32.096	42.0951
17.1624	33.1667	42.2111
7.03181	44.0758	54.774
21.8563	-27.5743	80.3831
21.2974	-25.048	82.7014
60.8603	-67.8573	-5.21069
58.0334	-74.453	-6.96367
62.0521	-73.2777	-18.1544
74.0201	-11.0109	-11.3828
75.0117	-14.0644	-18.4455
60.9785	-81.7881	-19.8316
62.6871	-72.5176	-31.6488
63.1449	-121.43	-23.2874
60.7705	-115.085	-36.8235
30.5901	-32.2032	72.8578
32.7322	-31.6519	70.0274
30.5637	-31.3731	72.3197
34.2562	-31.7212	69.5154
22.8712	-30.1946	83.0512
23.2259	-31.5716	83.6213
34.0293	-72.5467	66.7683
42.0843	-70.9951	-77.2647
49.1214	-65.2627	-71.0248
50.0532	-72.2754	-61.9648
61.5253	81.8766	-14.6903
53.4504	94.8664	-16.7488
52.2749	90.2296	0.618354
89.0263	-14.3642	-59.867
87.589	-14.4222	-62.0264
87.307	-24.1611	-52.7318
86.1589	-25.1997	-54.7372
83.8313	-33.0649	-46.5803
84.879	-31.0517	-44.0229
80.5966	-8.00834	-29.1569
77.71	-27.0081	-23.0619
83.8531	-24.6684	-57.0004
79.314	-29.8665	-51.5303
82.8208	-39.0033	-31.1917
80.0898	-44.7958	-31.5394
82.0132	-39.824	-39.9805
83.9215	-35.8193	-37.7648
81.0844	-38.4841	-26.3038
82.885	-34.6831	-29.7979
72.0083	-45.8588	-28.6124
78.9296	-44.2222	-24.9116
75.2718	-46.1831	-25.7065
85.854	6.0077	-38.392
82.734	0.870224	-33.5402
87.2835	-21.693	-51.7796
88.5807	-8.21097	-59.2293
89.2901	-2.33204	-58.6156
85.6423	4.73383	-39.3304
84.2287	-0.00425926	-36.8566
88.7557	3.43416	-52.7755
88.8555	5.13073	-53.8274
87.4342	-16.5811	-49.892
83.4974	-3.82943	-39.0768
85.2805	0.654054	-44.6529
84.6618	-0.885853	-41.7503
86.2469	-7.5219	-47.6673
85.135	-21.204	-47.3862
80.5322	-31.5439	-26.8859
77.7947	-23.1401	-28.385
77.7431	-27.0021	-27.4684
79.4641	-18.1998	-27.9068
78.9145	-19.0824	-30.0737
81.1204	-11.228	-32.8976
81.5103	-8.93076	-30.8776
80.5347	-31.3439	-30.2225
52.8788	-60.9837	-65.4744
24.0806	-2.6997	68.8073
30.1489	-3.48959	66.4982
20.8247	5.71269	66.6261
17.7669	0.591757	72.3166
18.3556	6.94296	70.8476
50.8315	29.7737	31.3275
51.6293	35.8088	32.2667
29.8228	24.6408	46.8458
48.4508	58.1506	38.6493
57.5886	49.0787	31.0141
9.47046	1.833	82.4237
6.5709	0.434483	83.7339
9.8875	-0.950181	80.2887
7.93562	4.99611	86.5738
12.5409	3.85328	81.2511
14.4454	11.2029	81.0513
16.1088	9.5194	77.5137
14.5463	12.5876	78.806
63.7597	82.874	-41.3821
68.8355	72.028	-32.7626
33.025	-34.2268	68.1993
32.5954	-30.5607	67.2355
-14.5236	-69.1681	87.9035
-24.375	-68.8169	78.7631
-16.0278	-73.9769	72.1366
-64.5411	11.2226	25.7337
-68.7965	2.46218	19.3135
-62.3646	4.46332	35.612
-57.5133	16.6038	33.5732
-11.804	56.3928	54.0488
-18.3918	61.9721	53.2021
-48.0384	35.3996	34.0575
-47.1907	33.6981	34.6839
-26.8745	42.7232	40.2021
-22.3397	38.3698	39.0149
-22.841	38.4096	41.7326
-27.3104	42.0224	41.7275
-44.2587	25.3345	41.6956
-8.94981	37.6834	54.756
-9.0729	41.2751	52.8217
-10.7352	38.8903	50.3369
-15.7213	38.391	43.7636
-15.1958	35.5071	45.7882
-46.3658	34.5275	34.9146
-18.5277	31.2255	46.0561
-17.7705	28.6463	49.2442
-14.2366	32.6494	49.7009
-20.569	34.1295	41.4587
-20.8483	35.5893	41.437
-22.9702	32.11	38.6065
-31.0746	-30.6524	68.7514
-30.7421	-30.9518	67.9862
-27.8732	-29.5909	71.5438
-31.1938	-29.6591	69.4581
-27.1736	-26.9879	74.8883
-32.1752	-30.5578	68.5039
-31.6333	-27.4701	70.4059
-35.2925	-29.7592	68.134
-33.1946	-30.2089	68.3894
-31.0358	-31.282	68.1536
-22.1835	-33.4867	82.1578
-29.5256	-32.589	71.1898
-19.5574	-17.3469	83.7327
-25.6079	-22.2191	79.1759
-28.2685	-30.3707	71.3615
-28.2572	-30.1773	70.8735
-43.1275	30.9861	38.472
-73.1769	-32.1576	-17.4012
-73.5091	-41.2545	-20.8636
-71.2964	-42.3785	-19.284
-80.3039	-28.8083	-35.2379
-83.0859	-31.3745	-36.1545
-81.7448	-25.5479	-40.9524
-77.4969	-38.7497	-20.6093
-75.4304	-32.3612	-19.7443
-78.7132	0.708627	-32.5349
-87.0348	6.17816	-45.8278
-87.4887	8.79078	-44.9769
-75.642	-20.2582	-30.6882
-75.2142	-25.4607	-30.3082
-81.4864	-7.46711	-34.0167
-82.805	-3.00978	-35.8424
-82.2967	-6.77046	-38.0619
-80.9253	-11.2896	-38.8395
-86.7474	-20.456	-51.3115
-74.1599	-38.6449	-39.7424
-73.9196	-43.0664	-33.6931
-88.1799	-15.0208	-51.7995
-87.8343	-12.7536	-55.5403
-83.8643	-27.8542	-42.2188
-74.6771	-26.9388	-19.6199
-74.1314	-22.9994	-18.4095
-75.5853	-15.9547	-21.331
-77.0275	-16.0499	-23.6674
-75.5386	-21.7374	-21.0454
-79.5741	-30.5551	-29.68
-79.0406	-12.4903	-34.1969
-88.3091	-3.06311	-55.8598
-88.1013	-4.42451	-54.2741
-88.434	-10.1422	-53.0294
-88.0861	-6.34196	-52.2775
-84.8016	1.57539	-43.9733
-87.408	-0.727818	-51.7799
-88.3257	1.24832	-53.1976
-86.9299	-3.26452	-49.1817
-28.0187	-74.2096	58.087
-47.1249	40.7239	35.9893
-67.0265	-50.9404	-15.5347
-65.7147	-49.4308	-4.18335
-68.5009	-45.8066	-14.5373
-7.16804	44.0062	55.0691
-20.5892	-27.5504	79.3
-20.5741	-25.1769	81.6421
-60.173	-66.0732	-5.70124
-61.3719	-71.8416	-18.4001
-57.5033	-72.5704	-7.43128
-72.8177	-11.0693	-10.3232
-73.8956	-13.8992	-17.5066
-60.3497	-80.3954	-20.0606
-61.5765	-71.4216	-31.6825
-62.893	-121.107	-23.3236
-60.4835	-114.778	-36.8251
-28.3324	-31.614	72.1828
-28.3828	-30.7802	71.6396
-31.0255	-31.0697	68.9734
-32.7958	-31.1546	68.3804
-21.7512	-31.5417	82.228
-21.4034	-30.1648	81.6415
-34.1554	-69.4405	64.4508
-41.7594	-70.4907	-77.167
-49.5622	-71.6848	-61.8383
-48.7196	-64.6363	-70.8861
-62.0058	82.2358	-14.3142
-52.8371	90.5067	1.00399
-54.0394	95.1864	-16.3996
-88.672	-12.9717	-59.4234
-87.2446	-13.0401	-61.5936
-86.7761	-22.8929	-52.2933
-85.6595	-23.9284	-54.3091
-83.172	-31.9292	-46.1638
-84.1778	-29.9407	-43.5777
-79.7582	-7.51352	-28.3256
-76.6018	-26.4904	-22.3852
-83.3719	-23.4377	-56.5711
-76.3974	2.06841	-37.2774
-75.7458	-1.78902	-27.9839
-78.7023	-28.8231	-51.0783
-79.2102	-43.7734	-31.232
-81.9261	-38.0043	-30.8061
-83.136	-34.7564	-37.3476
-81.2517	-38.7448	-39.6123
-80.1424	-37.5886	-25.895
-81.9563	-33.7685	-29.3366
-71.0402	-45.0225	-28.2922
-78.1662	-43.2657	-24.5896
-74.3061	-45.2773	-25.4
-79.5188	-30.7996	-26.338
-77.6429	-33.6739	-23.1122
-85.3646	6.80522	-37.6508
-82.1027	1.48302	-32.7336
-89.0085	-0.999073	-58.1038
-88.2563	-6.86729	-58.7447
-85.1463	5.54716	-38.5965
-83.9419	2.75156	-38.9562
-83.6423	0.729587	-36.0954
-88.585	6.34092	-53.2499
-88.449	4.62455	-52.1911
-86.8906	-15.4065	-49.3679
-84.1299	-0.0343834	-41.0436
-85.743	-6.47535	-47.054
-84.5079	-20.1182	-46.8633
-76.7883	-22.5861	-27.6821
-76.7113	-26.4075	-26.8179
-77.9754	-18.5116	-29.341
-78.5067	-17.66	-27.1515
-80.7041	-8.35794	-30.0793
-80.307	-10.613	-32.1337
-82.8752	-3.06088	-38.3451
-52.4064	-60.3003	-65.2989
-24.4385	-2.98627	69.277
-21.0753	5.23139	67.4796
-30.8981	-3.33673	66.7475
-17.9862	0.478787	72.4423
-18.4418	6.6773	71.4593
-52.5849	30.9275	30.4898
-53.3227	36.9571	31.253
-31.9516	25.6125	47.4367
-58.3374	51.0017	30.4163
-48.8344	60.4955	38.7601
-6.14693	2.60762	85.8239
-9.70333	1.71452	82.6473
-6.99984	0.332318	83.7189
-7.96464	5.18424	86.6602
-14.3322	11.7064	81.2834
-14.4279	12.999	79.0863
-16.0048	9.9283	77.9528
-64.3656	83.496	-41.0029
-69.2766	72.6102	-32.3212
-31.6696	-33.6188	66.8458
-31.2367	-30.0567	66.0173
-12.4886	4.03756	81.4778
5.8991	2.52582	85.9153
-10.0862	-1.16218	80.4518
-23.4228	32.9724	42.6696
74.8136	-43.954	-34.0487
74.9845	-39.5205	-40.1593
66.6851	-38.8246	11.593
65.5925	-49.585	12.7781
68.9269	-40.0525	-3.13215
57.8436	-104.379	-11.9378
52.1078	-105.081	-3.73443
58.8165	-141.521	-6.68106
62.6251	-137.818	-16.2241
60.8785	-124.827	-13.6343
55.8434	-127.825	-4.87772
50.4809	-90.9549	-2.36709
41.5089	-90.5746	6.44445
43.8905	-106.102	4.40614
61.3227	-103.383	-21.2776
60.5897	-91.106	-20.632
56.5738	-91.5309	-11.062
63.3702	-59.6825	12.4871
60.2595	-60.8381	29.1968
56.9014	-69.8008	25.9701
59.2846	-68.4758	10.2142
75.3952	38.4133	-25.0582
69.2962	49.0147	-4.18836
66.8853	35.6377	8.03152
73.728	24.6857	-14.0819
76.4036	20.8125	-65.3547
73.5721	31.1717	-79.5449
75.7546	42.6382	-60.2934
77.4908	30.1239	-46.7026
7.2187	-88.318	40.5426
6.71834	-111.951	36.2884
12.2723	-111.293	33.3327
11.6283	-88.5508	37.9556
7.09432	-140.594	30.0628
14.6284	-139.641	27.4594
7.83376	-155.865	27.016
0.474035	-140.856	31.1555
0.0827908	-156.291	28.215
67.5288	-48.2686	-42.783
66.3322	-58.9847	-31.397
62.0654	-59.2645	-45.7041
63.0349	-49.1474	-54.4611
69.349	-40.325	-50.196
64.2116	-134.259	-25.8531
62.0986	-129.488	-39.3438
1.56466	-112.259	37.5487
63.9382	-36.1024	26.2571
62.5212	-49.1214	28.7798
64.1559	-59.6353	-4.11323
7.94621	-54.3941	101.702
7.30207	-62.2482	100.97
16.7876	-63.0763	96.4824
17.4365	-54.8453	96.8484
27.4378	-63.3037	86.6149
27.6742	-55.7155	86.8418
8.36591	-46.4405	96.8633
1.13785	-46.2682	97.8909
1.13577	-54.3818	102.51
7.27843	-69.7652	92.1646
7.54885	-75.0574	75.4206
13.5517	23.8435	62.873
18.9814	19.0215	59.516
17.925	24.8299	52.6882
13.2639	29.1662	54.6969
52.5777	-14.9846	52.4978
53.2057	-4.54129	51.0074
39.975	0.865905	59.918
42.1278	-9.43597	62.1226
62.4787	-8.31487	37.2357
50.9957	6.87281	48.0944
68.6004	17.4878	9.93803
64.4037	21.2149	17.8655
43.427	-19.3301	62.9046
51.5647	-25.4063	52.779
3.83458	33.1085	70.7183
-0.160028	34.5407	71.0737
-0.05734	27.1303	81.481
4.19189	25.9968	80.6729
27.1168	96.9277	26.406
24.9352	85.95	36.6412
35.3011	82.6775	32.3503
38.2549	92.1047	21.8987
1.56424	-80.0402	57.3403
7.15092	-80.1429	56.0962
0.684146	-74.7498	76.4784
58.7977	-31.589	39.6575
56.488	-45.7329	42.5262
1.18703	-62.7483	101.238
0.799051	-69.4455	92.203
36.8279	-65.5871	71.8225
42.5576	-73.8598	52.8791
44.3069	-66.3058	58.4768
30.3377	-82.3256	33.8749
37.6617	-82.5777	23.4056
46.3658	-77.5177	33.6768
37.2587	-77.9341	44.9164
3.1328	-88.2774	41.7141
4.78932	21.4354	88.7955
9.71651	18.3255	83.9026
8.79073	22.6289	76.7914
26.5	7.50385	62.5629
18.7994	12.7573	65.2977
35.2826	-33.7401	69.3937
14.4559	2.58206	78.5768
13.9388	0.23743	77.8147
10.7493	-3.84627	81.0836
15.1331	-4.62056	77.0786
13.9295	-2.18037	76.8041
3.31979	2.69578	88.8586
-0.0342444	2.32021	90.4533
-0.105388	-0.0252367	88.0962
3.24931	0.4839	86.7211
19.3639	-3.59974	72.8076
5.58277	15.0336	95.3423
5.38806	10.3418	94.6711
10.0038	9.53903	88.1648
10.6801	13.5239	88.3341
34.3135	-47.31	75.1296
32.4813	-39.9952	74.3633
25.1339	-40.8864	83.0937
26.5176	-47.7217	84.4658
34.8646	-21.5137	71.7082
30.4985	-18.6388	74.8298
-0.0280722	-6.47389	86.949
4.32735	-6.0565	86.6288
3.55676	-2.22571	86.0403
-0.127292	-2.52907	87.0425
8.52277	28.995	67.7271
16.8079	10.9529	72.9991
16.4371	10.5391	75.2709
17.1654	8.21876	74.6169
6.42584	-2.64239	84.3139
16.6877	3.61977	75.3503
-0.228984	-14.985	90.2597
6.4495	-13.7797	89.7261
5.54403	-10.0436	87.8316
-0.0347996	-10.9576	87.8749
25.4528	-10.423	74.2464
30.2453	-12.0956	71.3737
16.7222	-36.4127	88.9703
7.97982	-35.7557	92.3195
8.2221	-39.8823	92.3844
16.4224	-40.3117	89.4178
27.6163	-24.626	77.91
32.8828	-29.2498	71.0075
13.8908	14.2142	76.9701
24.3889	-36.7354	83.0072
0.90738	-35.9145	92.6075
1.24342	-39.6259	92.7744
60.3779	36.2794	24.6471
63.2683	35.8892	18.7925
58.324	51.5477	27.9814
34.6529	72.6726	40.444
47.1257	66.2299	33.171
48.4307	75.0619	24.6099
59.2314	54.7147	22.9773
61.0313	63.2096	12.757
47.5372	62.0947	36.5699
35.8901	67.8407	43.5253
21.5551	52.3471	47.8062
28.8792	53.9459	46.2547
28.7304	58.206	48.9132
21.2298	56.5409	51.0757
8.61511	34.3501	59.0847
3.61533	42.0441	59.3752
3.67216	38.8239	62.7296
24.8658	15.2246	57.699
37.0457	10.535	55.028
33.8843	17.7074	50.3212
23.0802	21.3335	52.1762
59.4234	24.0788	24.1341
54.6048	27.3113	28.359
51.5407	21.6901	34.0038
47.9654	53.7215	39.6777
38.0321	62.5128	44.8335
38.3999	57.6489	44.4393
55.5154	46.1805	33.5422
56.6821	36.3091	28.9306
40.1859	42.5048	38.9275
35.631	44.9782	39.6734
35.5875	44.2443	39.7027
39.7961	41.8353	39.0021
29.2326	45.1668	39.8327
29.5454	44.4546	39.8919
23.0634	41.9645	40.1063
22.4019	42.5903	40.1143
17.4923	38.8793	41.0216
18.2518	38.4841	41.1242
16.6449	35.4057	41.8986
15.4531	36.0878	42.5467
16.6459	39.5253	41.8497
47.2375	32.1656	34.0543
45.3071	34.4247	35.3595
45.7886	30.0066	35.5523
30.1922	42.8452	40.0951
39.2035	40.4114	39.1294
42.1564	37.5698	37.1624
43.7179	34.6837	35.7237
44.8497	34.1861	34.306
44.8381	33.7034	34.362
37.2613	52.6938	43.1355
46.6634	40.3442	37.0501
42.2159	44.7055	39.9933
29.0892	27.3321	45.873
40.2261	27.4103	41.8021
20.6756	29.9802	44.8742
18.1903	31.4871	43.457
16.9973	32.8604	42.7341
15.3256	47.7265	47.4813
12.0001	42.3082	47.6961
16.2128	35.4767	41.9405
28.7214	46.0635	40.701
21.4429	43.4398	41.1824
15.9706	41.3642	43.0248
39.0141	31.0829	40.87
39.352	30.0017	41.4304
28.8806	29.4983	44.8536
28.8245	30.3526	43.7662
20.5081	31.5396	43.5059
18.2205	32.3979	42.428
18.434	32.8658	41.5089
18.4468	34.6721	39.4559
19.0688	32.5104	39.6806
18.4582	33.4979	39.4703
41.9417	38.3479	35.6759
-0.212949	58.6325	55.6392
-0.172214	52.1347	56.6354
4.57093	51.6358	55.9517
7.17127	58.1554	55.1052
21.75	25.1724	48.7131
16.1346	33.1654	43.8042
10.7271	46.1393	50.6541
20.8477	27.7201	46.4961
21.4256	-27.9905	78.7344
29.4892	-30.6976	71.4449
7.28222	-18.8939	90.8914
7.0387	-15.9787	90.5998
-0.244184	-16.8563	91.4007
-0.182583	-19.3825	91.9768
13.5569	-19.4654	88.644
7.0033	-21.3175	90.2187
13.7608	-22.2223	87.8484
21.3618	-22.2628	83.8104
12.7653	-16.5934	88.7768
20.9697	-19.6811	84.2681
5.82237	-23.1167	89.1172
13.6762	-24.4329	86.2833
33.8897	-30.6363	69.6836
22.0403	-27.9988	80.0612
22.3201	-28.344	80.9492
22.7428	-29.2324	82.1303
14.8591	-26.8356	88.6661
15.7166	-28.69	89.2536
6.30389	-25.5594	91.9548
14.0923	-25.3044	87.2852
5.80492	-23.8715	90.3077
0.284064	-27.9912	93.5419
6.88533	-27.615	92.9379
0.272146	-25.732	92.5478
29.9255	-31.1515	71.2742
0.0974672	-24.0869	87.4081
5.57571	-24.043	86.8888
0.343237	-30.4095	94.0705
7.43747	-29.8512	93.4338
7.70912	-32.3209	93.2083
0.500163	-32.8739	93.8977
10.8033	-14.3099	88.6882
0.137872	-23.9981	90.8161
5.6425	-23.441	89.0923
0.0179689	-23.6532	89.3868
13.7095	-24.8046	86.181
16.9518	-33.2412	89.2607
16.5187	-30.8636	89.4992
13.3026	-25.0238	84.2301
13.3343	-25.3775	84.1689
13.1545	-23.8651	81.3348
19.5453	-26.0255	77.8696
29.6455	-33.3982	71.0793
5.59792	-26.9595	84.2215
0.255011	-26.8253	84.8744
5.75612	-23.6953	86.8042
7.04279	-22.6773	82.9924
13.3977	-28.2088	81.7409
30.5724	-23.5595	64.7015
32.7038	-26.6366	61.2885
12.0797	-17.6131	78.1005
17.7177	-19.1843	75.5166
31.1665	-41.3069	70.6088
28.1313	-40.1115	74.6074
6.77763	-16.7844	79.4089
13.1099	-34.6388	83.4725
5.2513	-33.3779	85.8547
33.1266	-41.9409	65.777
76.8589	-23.8012	-57.9508
74.2175	-24.7919	-63.4519
75.6888	-15.9363	-67.4025
78.0117	-16.1519	-61.3835
76.5311	-2.12803	-28.8835
76.9915	1.52688	-38.0845
77.4311	15.5995	-35.0881
75.4893	2.57684	-21.9609
77.1604	10.1977	-53.421
77.0577	3.18796	-47.0994
73.7134	-35.4803	-47.1434
71.7511	-41.4018	-40.8832
71.7652	-32.9942	-57.397
75.4907	-29.9318	-52.867
81.6114	-14.2252	-60.3727
80.6551	-23.6655	-56.7123
79.2567	-39.2204	-42.4708
81.7923	-32.1035	-49.5547
76.299	-45.7591	-32.7365
73.9846	-45.537	-28.6587
77.029	-39.4609	-21.0243
86.4781	-22.3224	-48.8774
88.3446	-9.74459	-57.3938
81.159	-29.6748	-35.7781
73.782	-22.774	-14.3363
72.3769	-31.0305	-12.4211
78.4043	-22.9115	-26.0824
78.5383	-26.7824	-25.2244
78.2975	2.51493	-45.3851
84.9311	-14.8833	-63.1242
87.9233	11.3661	-47.043
85.528	12.3898	-49.697
83.303	10.2023	-51.9926
90.1185	-2.73778	-59.3255
84.4638	1.95819	-39.6949
83.3286	-2.73853	-33.852
87.7117	-13.1386	-50.7389
87.3049	-10.192	-50.4484
78.4123	-6.68165	-61.3249
81.422	-3.63948	-59.1613
77.2161	-34.8331	-45.8724
82.0011	-16.8104	-44.2969
80.6395	1.67063	-53.7889
78.2911	-0.131092	-55.9733
87.0988	2.21928	-46.6846
-0.116908	100.722	30.1002
15.0704	99.6865	28.7645
16.0965	110.332	12.875
-0.208638	112.107	13.1727
-0.0723822	87.5025	41.4982
13.7049	87.3292	39.7068
24.5221	74.7235	45.0073
4.09058	5.39403	91.5176
-0.0361811	5.5515	94.0424
5.32412	18.4631	93.2894
-0.0752116	19.2372	94.9666
-0.0606603	15.4571	97.5725
-0.0558799	10.6346	97.3643
-0.0988966	22.3199	89.9911
-0.250474	74.2167	49.6252
-0.38841	67.0729	53.2809
13.2493	66.8448	52.4128
12.9318	74.4598	48.3238
-0.201056	40.1175	63.4657
-0.165572	43.2893	60.1804
3.7066	46.1693	57.2477
-0.151512	46.9113	58.0348
0.0866144	-23.7471	87.2055
0.164906	-22.5443	83.0823
-0.0130004	-23.3262	89.4784
-0.169828	-21.6299	91.153
0.103384	-16.6942	79.368
29.0135	106.202	11.8027
25.7398	69.2191	48.3775
27.949	62.8999	49.9888
30.1499	43.7465	38.8131
28.3989	48.0265	42.1675
21.0997	45.8266	42.9573
42.2765	105.847	-14.625
40.4452	99.7434	8.2151
35.5508	42.6165	39.8476
35.8441	47.5124	41.4471
50.834	83.4334	13.6564
35.6734	45.8224	40.4831
40.8973	43.2042	39.5052
35.5956	43.5365	38.8504
45.7394	49.3093	39.9772
61.9524	72.8236	0.22946
43.2908	38.4491	37.0158
43.7727	38.9298	36.801
39.2804	41.1182	37.6417
51.8866	43.173	35.4097
14.6131	52.0451	51.0361
64.9607	-61.7406	-18.0065
77.395	2.97982	-63.8049
75.0092	9.01224	-78.3055
70.0962	-28.6051	-73.2765
72.3764	-16.6085	-79.9267
73.5786	-3.71199	-82.5634
76.7542	-5.88381	-68.1915
66.4334	-39.2213	-64.4093
13.4515	-80.4481	52.9749
22.6951	-81.2503	44.73
51.1722	-71.0912	40.8071
70.4824	61.0831	-17.9628
30.2764	114.109	-13.5139
16.3087	119.277	-13.5038
52.3714	-61.1684	46.6267
9.28232	-10.355	87.235
24.2831	-15.0598	79.6765
7.61597	-6.39441	85.5868
16.1159	-12.0686	84.5617
13.082	-7.75164	82.8904
38.7215	-32.2551	68.2802
38.4191	-24.621	68.8744
69.5892	-49.2231	-29.1196
70.458	-30.9851	-4.26515
72.1756	-21.9439	-6.56436
73.4268	9.98937	-5.97363
72.7895	-4.71432	1.98032
48.4326	25.8948	34.6605
70.1572	-17.6682	6.22561
67.8827	-28.5029	9.06919
13.5932	17.8172	70.664
14.1341	7.46113	81.3108
16.0389	5.47595	77.6876
35.5274	-14.6001	68.6465
49.6439	-37.2053	54.4417
43.6501	-29.724	63.8367
47.0319	-48.5862	58.0334
60.9252	-19.8087	38.1613
42.3898	-55.1777	64.4128
36.416	-56.7156	74.3146
47.1776	15.181	44.3718
44.2541	20.3237	42.4334
42.0613	-38.2321	65.7222
39.0892	-44.0835	68.9307
16.9775	-46.9055	92.5122
31.5586	21.6546	48.0146
10.4315	15.9813	86.8503
67.9103	-12.4027	20.9112
65.452	-24.3902	23.3623
8.29442	49.5462	53.9204
19.5009	-9.11679	78.4825
26.5437	-28.3823	72.2511
23.9884	-21.3357	70.8771
32.8644	-135.56	16.5422
36.1133	-150.873	15.208
45.399	-148.149	9.11893
41.2057	-132.932	10.0836
32.9378	-91.3145	14.269
25.7135	-91.5613	22.5341
28.3604	-109.398	19.0479
36.0256	-107.926	11.6569
36.7588	-36.848	69.4402
44.4643	-82.4144	12.1863
51.1517	-76.5806	19.7285
48.6781	-130.397	3.24786
52.4896	-145.25	2.41194
54.7799	-74.8986	5.77776
56.6013	-82.2964	-9.60875
51.3756	-81.8745	0.660246
59.9012	-99.0204	-35.6062
71.2348	-37.8538	-12.3645
59.8679	-84.2902	-34.6093
55.027	-124.027	-55.2976
54.2867	-109.588	-51.1787
23.7145	-137.505	22.7251
26.4532	-153.115	20.309
18.3202	-89.8065	31.6248
19.8886	-110.273	27.1035
31.9744	-36.0669	73.0618
21.6478	-28.3695	78.5917
21.5121	-30.6774	77.3611
15.9924	-154.981	24.777
20.4699	-37.0186	80.124
75.8368	51.2478	-38.8879
48.4846	-88.755	-60.0904
53.448	-92.5378	-49.1577
48.231	-106.147	-61.5276
50.0073	-121.212	-63.596
55.5494	-73.7833	-50.2365
30.2242	116.211	-46.0994
15.6476	121.908	-47.4157
14.9203	94.2988	-118.876
29.8409	90.9832	-114.571
28.2285	63.8916	-139.481
13.6473	65.846	-143.732
26.6657	34.6094	-148.634
13.3006	36.0352	-152.885
30.2599	109.026	-81.5661
15.2985	113.417	-84.5971
-0.631405	114.891	-85.4922
-0.471516	123.485	-48.0495
25.5836	7.74258	-148.358
13.1085	9.11303	-152.742
24.6661	-17.7892	-141.539
12.3786	-17.0372	-146.231
23.3405	-38.7759	-128.368
21.7511	-56.2034	-108.465
10.9368	-55.7657	-110.623
11.7096	-38.2994	-133.036
-0.284388	-38.1081	-134.83
-0.453047	-16.7167	-147.61
10.0107	-86.1528	-86.4413
20.54	-86.9895	-83.6636
19.9399	-101.473	-82.5183
9.81704	-100.696	-83.9822
9.8183	-114.686	-83.1086
0.0828369	-114.476	-83.7379
0.086611	-99.9335	-83.5776
21.5267	-70.3016	-92.2764
10.8041	-68.5845	-95.1571
0.0556188	-68.1061	-94.7236
0.099544	-85.4982	-85.5794
54.7483	95.6795	-44.0142
43.2257	107.253	-44.9259
51.9201	55.0743	-121.456
50.6433	29.4285	-130.79
39.6823	32.312	-140.786
40.9228	60.0986	-131.349
42.032	85.0775	-107.97
53.1606	76.9084	-100.052
55.4112	89.8389	-73.3506
43.6455	100.778	-77.673
49.1423	4.79123	-131.631
38.2472	6.28115	-140.936
47.3323	-18.1923	-125.845
36.7967	-18.2538	-134.519
44.474	-38.1587	-113.179
34.8556	-38.8652	-121.284
43.2303	-55.1786	-93.7686
33.0779	-56.2908	-101.997
32.3964	-71.3691	-86.3245
40.2246	-103.485	-72.1249
30.4082	-102.494	-78.7598
31.1307	-87.414	-78.1662
40.72	-87.3626	-70.5189
30.0887	-115.813	-79.6851
19.5538	-114.895	-82.4794
62.7333	66.387	-89.8111
70.5818	54.6445	-75.6894
68.4579	40.5692	-95.0182
61.1636	48.6253	-109.832
72.2863	63.7239	-54.2742
65.1486	76.9991	-66.6358
59.6188	25.8028	-119.597
57.9336	3.1018	-120.922
56.015	-17.9513	-114.225
52.3155	-36.4616	-102.013
50.5233	-52.4095	-85.3164
71.7134	15.1543	-92.2751
59.3227	-34.4344	-91.524
63.0242	-17.8175	-103.157
68.54	-17.3217	-91.2488
65.0197	-31.6151	-82.1166
64.7453	0.921322	-109.271
69.8597	-1.74116	-95.7448
66.5995	21.0329	-106.684
55.6985	-48.5984	-77.5928
60.8882	-44.0612	-70.5744
57.1317	-56.5253	-59.5626
90.0464	-1.99952	-60.7493
88.1183	-1.36192	-62.8329
87.3242	8.95573	-57.4833
89.3722	7.53466	-55.4194
82.673	8.60336	-41.8722
84.9571	8.13144	-39.4096
80.6199	6.94074	-45.0064
85.3806	-2.9624	-63.4176
84.738	7.13334	-58.5385
88.5457	-13.8769	-58.5845
88.8825	9.36772	-45.8615
89.7348	5.92278	-54.2027
-0.323082	121.313	-13.6519
-0.751547	95.3479	-119.964
40.4454	-117.658	-74.1366
-0.782954	66.2262	-144.645
-0.743642	36.3846	-153.674
-0.609011	9.72929	-154.023
-0.0647836	-55.6561	-110.422
-64.9377	-39.0667	12.2181
-67.403	-39.7695	-2.68777
-64.0568	-48.7664	12.695
-57.4696	-103.148	-12.1199
-51.7169	-103.572	-3.87977
-58.6509	-141.521	-6.68106
-55.5357	-127.331	-4.90978
-60.6159	-124.426	-13.68
-62.4594	-137.818	-16.224
-50.208	-88.7791	-2.66031
-43.4048	-104.411	4.43416
-41.4829	-87.5865	6.3738
-56.1628	-89.8824	-11.3486
-60.0509	-89.8209	-20.8324
-60.9299	-102.427	-21.4108
-62.3269	-57.5889	11.6032
-58.7584	-65.7011	9.15769
-57.3897	-65.7557	23.18
-60.541	-56.7787	26.3756
-75.3258	38.7987	-24.3173
-73.4054	24.7012	-13.1275
-66.9087	35.6743	8.78018
-69.3996	49.1774	-3.57088
-76.4212	21.862	-64.8198
-77.4358	30.8829	-46.0411
-75.9646	43.6194	-59.7756
-73.8816	32.3854	-79.1243
-1.44262	-88.2518	41.0364
-7.21974	-88.3075	38.8558
-9.55522	-110.944	33.7601
-3.65978	-111.792	36.5038
-13.8136	-139.536	27.5498
-6.19022	-140.541	30.1066
-7.66816	-155.865	27.016
-66.7411	-47.4347	-42.4692
-61.3043	-58.4382	-45.508
-65.4508	-58.0173	-31.2763
-68.6554	-39.4745	-49.8121
-62.405	-48.3411	-54.1742
-64.0459	-134.259	-25.853
-61.9329	-129.488	-39.3437
-61.8493	-47.7182	27.6476
-63.1344	-36.0043	25.7849
-63.171	-58.2256	-4.44794
-5.3291	-54.3292	101.347
-14.9292	-54.0627	95.9093
-14.2311	-62.4068	95.7138
-4.40688	-62.4918	100.522
-26.2054	-54.0541	84.7679
-26.029	-61.2573	84.7093
-6.28767	-46.3208	96.4414
-5.41591	-69.3913	91.774
-6.23031	-74.5539	75.146
-13.6268	24.0616	63.4085
-13.2753	29.3971	55.4119
-18.1713	25.2649	53.326
-19.176	19.5257	59.9461
-53.0562	-14.7217	51.8683
-43.14	-8.8681	61.7091
-41.2981	1.47469	60.0681
-52.6866	-4.01459	52.3293
-62.6564	-8.90323	36.9068
-51.4301	7.09069	49.3958
-64.4597	21.2956	18.8351
-68.4318	17.024	11.0512
-44.0412	-18.9734	61.8569
-51.9627	-25.1147	51.1946
-4.02965	33.1609	70.7445
-4.20422	26.2317	80.6836
-27.482	97.08	27.0717
-38.7831	92.3681	22.5109
-35.7344	82.9778	33.3391
-24.9321	86.0528	37.8911
-4.05386	-80.0042	56.2571
-58.9345	-31.4621	38.1606
-56.8314	-44.0683	40.116
-36.5889	-62.4519	69.3179
-45.3129	-62.183	55.6993
-43.4289	-70.0625	50.1786
-30.187	-79.1625	33.4613
-38.0624	-74.674	43.1445
-46.5766	-73.3741	31.4053
-37.6534	-78.9087	22.9142
-4.84787	21.4519	88.8906
-8.8591	22.8656	76.9054
-9.67022	18.6229	84.1407
-19.0343	12.5401	66.1507
-27.0604	7.40736	63.391
-33.9301	-33.1105	68.1306
-14.6409	2.47932	78.8073
-14.1429	0.190367	77.9474
-11.0073	-3.98373	81.0955
-14.1981	-2.175	76.9126
-15.3821	-4.6544	77.1391
-3.49937	2.76807	88.8778
-3.59027	0.536673	86.6491
-19.7709	-3.73992	72.6929
-5.53617	15.0995	95.4908
-10.4668	14.0011	88.4583
-9.89095	9.99159	88.2906
-5.34693	10.4592	94.7934
-33.2373	-45.7004	73.1515
-25.0004	-46.8159	82.6386
-23.6156	-40.5845	81.2239
-31.017	-39.0607	72.7693
-33.8691	-21.3299	71.4775
-29.4597	-18.8014	74.5835
-3.94749	-2.16168	85.9154
-4.5865	-6.23558	86.5646
-8.637	29.0282	67.9866
-16.8273	11.0864	73.552
-17.1863	8.29452	75.1466
-16.3835	10.823	75.7805
-6.95235	-2.70838	84.0598
-16.7764	3.62127	75.5579
-5.82097	-10.4282	87.7935
-6.79134	-14.0802	89.4601
-30.3191	-12.1224	71.1455
-25.4686	-10.5262	73.8706
-15.1744	-36.4935	87.9194
-14.8771	-40.3893	88.2826
-6.29437	-39.7536	91.8977
-6.03393	-35.7221	91.8055
-26.2579	-24.766	77.7303
-31.1456	-28.6681	70.1376
-13.8193	14.5379	77.2768
-22.6564	-36.5189	81.6712
-58.7992	53.1525	27.8158
-63.3255	36.3074	19.0464
-60.7526	37.155	24.2663
-49.2254	75.4913	24.9835
-47.5259	67.6794	33.7535
-34.8788	73.6385	41.3058
-61.4659	63.5223	13.162
-59.7771	55.6439	23.072
-35.862	69.4304	44.1691
-47.439	64.3321	37.3579
-21.7816	53.4187	47.8286
-20.6834	57.976	51.403
-28.8904	60.1868	49.1652
-29.4073	55.5805	46.4349
-8.81918	34.2388	59.379
-4.05226	38.7625	62.7245
-3.97407	41.9899	59.371
-25.3083	15.7066	58.3181
-23.3387	22.228	52.8297
-35.5874	18.6548	50.8629
-38.8116	11.4278	55.3986
-53.0111	22.9031	33.7144
-55.6973	28.392	28.0037
-60.2193	24.7609	24.1235
-48.8313	56.2114	39.2365
-38.1626	59.5216	44.9561
-37.7396	64.3376	45.5009
-56.4406	48.3517	32.7269
-57.6013	37.482	28.1507
-43.237	43.9075	38.0594
-42.8816	43.1999	38.1563
-38.3279	45.4517	39.6855
-38.3003	46.2241	39.6695
-31.7291	46.405	40.426
-32.1163	45.6376	40.4949
-25.8494	43.3427	41.2743
-24.9385	43.8673	41.1158
-21.221	39.4815	41.5052
-20.2656	39.7929	41.2109
-17.5049	36.836	42.5507
-19.0682	40.3902	41.8485
-49.7702	33.1359	32.7816
-48.4965	31.0119	34.26
-32.8408	43.9615	40.8544
-42.2181	41.6482	38.3988
-45.1224	38.6674	36.2902
-47.5275	34.6553	33.0454
-47.5234	35.1477	32.9943
-46.644	35.6559	34.4895
-37.7653	54.3415	43.4026
-48.7485	41.6343	36.0157
-44.8873	46.3092	39.1253
-31.7078	28.4252	46.5294
-43.1588	28.5985	41.2617
-22.6175	30.6139	45.4675
-20.422	32.1662	43.9329
-19.2541	33.5884	43.0092
-19.9717	33.9037	42.1694
-12.4153	42.6266	47.9101
-15.8329	48.2059	47.7288
-18.7583	36.2489	41.894
-23.8012	44.6491	42.0414
-31.1842	47.3561	41.3556
-17.627	42.2133	43.2191
-31.7872	30.6344	45.5169
-42.4224	31.1656	40.8204
-42.0813	32.2076	40.2792
-21.0605	33.1389	42.606
-23.2192	32.331	43.9039
-21.3533	33.6591	41.6891
-31.8054	31.5109	44.4095
-31.2586	30.29	43.0516
-20.9895	35.4322	39.7483
-21.4929	33.2618	40.037
-20.8967	34.2354	39.7792
-44.7694	39.4848	34.7742
-7.40229	58.6522	55.2742
-5.03272	52.0102	55.9834
-22.3437	25.8104	49.3509
-17.6596	33.7562	44.2761
-10.866	46.3027	51.0366
-22.0472	28.2531	47.1866
-20.1877	-27.9997	77.6491
-27.6151	-30.2184	70.4932
-7.35194	-19.1433	90.5835
-7.33393	-16.2533	90.2636
-13.5235	-19.816	88.0451
-13.2869	-22.5234	87.3091
-6.90535	-21.5023	89.8809
-21.0479	-22.5343	82.778
-12.9268	-16.9547	88.2316
-20.8148	-19.9494	83.2986
-12.9526	-24.7131	85.5571
-5.37961	-23.4041	88.8303
-32.3987	-30.0685	68.636
-20.8299	-28.2285	79.9474
-20.7016	-27.9579	78.9661
-21.1725	-29.0849	81.0915
-14.5288	-29.0285	88.2216
-13.7583	-27.2053	87.8074
-5.26197	-25.876	91.7417
-5.16324	-24.2998	90.0767
-13.1099	-25.5956	86.5848
-5.44893	-27.8317	92.7711
-28.0612	-30.6586	70.2837
-5.07712	-24.318	86.5844
-5.7386	-29.9894	93.2529
-5.76728	-32.3319	93.0117
-11.0215	-14.6855	88.3068
-5.14387	-23.7351	88.8159
-12.8839	-25.0696	85.4854
-15.503	-33.3998	88.1478
-15.1865	-31.1066	88.3765
-12.6358	-25.364	83.4676
-12.6299	-25.7118	83.4176
-18.5389	-26.0984	77.0157
-12.5826	-24.1597	80.6113
-27.8712	-32.9122	69.9137
-5.01066	-27.2163	83.9288
-5.28336	-23.9761	86.4815
-6.60353	-22.9755	82.5432
-12.518	-28.4491	81.0028
-29.7293	-23.3752	64.0337
-31.9871	-26.2038	60.4089
-17.1971	-19.3459	74.991
-11.7695	-17.8649	77.6434
-29.8817	-40.3781	68.9373
-26.6195	-39.5277	72.8286
-4.00282	-33.4457	85.5813
0.607207	-33.3929	85.8641
-6.57319	-16.9962	79.1107
-11.7334	-34.6939	82.6668
-32.2557	-40.6788	64.1436
-76.3572	-22.7632	-57.4833
-77.591	-15.0652	-60.9
-75.3585	-14.8166	-66.9624
-73.7869	-23.7378	-63.0266
-74.714	2.71832	-20.9689
-77.0327	16.0853	-34.2606
-76.8997	11.0483	-52.7651
-76.6173	3.91853	-46.386
-72.9781	-34.6053	-46.6992
-70.9297	-40.5723	-40.482
-74.8598	-28.9814	-52.4068
-71.2005	-32.0519	-56.9858
-81.2254	-13.0575	-59.8818
-80.1381	-22.5455	-56.2537
-78.5073	-38.2037	-42.082
-81.1617	-30.9963	-49.129
-75.4103	-44.813	-32.4204
-73.0208	-44.6701	-28.3386
-85.9031	-21.1507	-48.3826
-87.9771	-8.43735	-56.8971
-72.4883	-22.6166	-13.4802
-71.0136	-30.7806	-11.724
-77.3646	-22.3846	-25.3645
-77.4787	-26.2052	-24.5647
-77.8102	3.23825	-44.6602
-84.5873	-13.5681	-62.6848
-85.2607	13.4001	-49.0527
-87.6256	12.4042	-46.3952
-83.0246	11.1935	-51.3561
-82.6445	-2.08906	-33.0665
-89.8351	-1.36576	-58.8295
-87.2033	-11.959	-50.2019
-86.8183	-9.04629	-49.8861
-81.096	-2.53574	-58.611
-78.0676	-5.61822	-60.7936
-76.4923	-33.8833	-45.4275
-77.5198	-6.11576	-27.2075
-80.2698	2.6298	-53.1663
-77.9225	0.807839	-55.3658
-86.6898	3.24275	-46.0353
-81.3383	-15.9041	-43.682
-16.5382	110.391	13.1607
-15.3406	99.729	29.3026
-13.6913	87.218	40.6303
-24.097	75.5426	45.9238
-4.12356	5.49807	91.5563
-5.30515	18.4514	93.3529
-12.9441	74.7841	48.9776
-13.1324	67.395	52.8499
-4.02834	46.0241	57.3347
-29.5097	106.34	12.2237
-25.4144	70.563	48.903
-27.9643	64.622	50.2892
-32.5888	44.9236	39.4241
-30.4282	49.2764	42.5528
-22.6802	46.784	43.3594
-41.0058	99.9713	8.66298
-42.9155	106.074	-14.2985
-38.3823	43.7704	39.8671
-38.0642	48.9197	41.6173
-51.4372	83.7838	14.1261
-43.7818	44.608	38.6423
-38.2367	47.0998	40.5578
-38.3696	44.7893	38.7143
-47.3289	51.4638	39.1299
-62.3746	73.0884	0.604519
-46.4073	40.1056	35.8226
-46.0686	39.5867	36.0411
-42.2797	42.4236	36.8645
-53.0111	45.0252	34.5426
-14.548	52.6317	51.3066
-64.0947	-60.5395	-18.1066
-77.1908	4.04164	-63.2634
-75.0772	10.2563	-77.8841
-72.25	-15.37	-79.5963
-69.791	-27.5053	-72.9492
-76.5353	-4.74309	-67.7159
-73.5854	-2.42021	-82.2084
-65.9448	-38.2999	-64.0832
-10.8287	-79.6402	52.902
-21.5278	-79.1192	44.563
-52.1646	-67.0493	37.6656
-70.7347	61.487	-17.447
-16.9647	119.34	-13.3426
-30.9288	114.251	-13.2407
-49.0078	36.7339	34.0861
-53.5265	-57.5813	43.5135
-9.6136	-10.7634	87.0405
-23.8471	-15.2539	79.1599
-8.00035	-6.68334	85.4544
-13.2846	-7.86486	82.6327
-16.3535	-12.3304	83.8871
-37.8928	-24.2011	67.9308
-37.8523	-31.5219	67.0547
-68.6522	-48.3669	-28.852
-68.8789	-31.0121	-3.4863
-70.7352	-22.0272	-5.58726
-72.7491	9.67062	-4.81009
-71.5946	-5.15228	3.23047
-50.4773	27.1032	33.7789
-68.541	-18.1611	7.45259
-66.1278	-28.9895	10.1013
-13.6817	18.0143	71.0449
-15.9784	5.70451	77.9911
-14.0238	7.93704	81.5764
-35.768	-14.5048	68.1872
-50.1515	-36.416	52.1013
-43.5212	-29.0782	62.2418
-47.4923	-46.0227	55.3916
-60.9093	-20.3576	37.3589
-35.7268	-54.3208	71.8029
-42.5588	-51.9848	61.8777
-48.461	16.6774	44.6789
-45.8681	21.7544	42.6338
-41.846	-36.9298	63.8541
-38.5359	-42.3584	66.956
-15.1083	-46.5281	91.4862
-33.4711	22.6909	48.6541
-10.2795	16.4423	87.0791
-66.9918	-13.2022	21.3635
-64.5635	-24.9751	23.432
-8.67595	49.991	53.923
-19.5665	36.1676	41.6928
-19.3236	-9.17753	78.5299
-25.008	-28.1195	71.2116
-23.1254	-21.3883	70.3351
-32.2701	-135.184	16.6537
-40.7138	-132.419	10.1493
-45.2333	-148.149	9.11899
-35.9476	-150.873	15.208
-32.8533	-88.0297	14.6253
-25.4492	-88.9202	23.3401
-35.2638	-106.414	11.9279
-27.1649	-108.241	19.5264
-35.5429	-35.9319	68.1935
-44.6721	-78.8364	11.6624
-51.2028	-72.8329	18.3845
-48.2826	-129.838	3.25542
-52.3239	-145.25	2.41195
-54.5831	-72.1921	5.00628
-51.2115	-79.3395	0.164438
-56.147	-80.4543	-9.99911
-59.4185	-98.3202	-35.6336
-69.8977	-37.4336	-11.8571
-58.8942	-83.3348	-34.6443
-53.9944	-109.328	-51.1494
-54.8613	-124.027	-55.2975
-26.2877	-153.115	20.309
-22.9738	-137.284	22.8541
-16.6199	-88.5322	32.8412
-17.9167	-109.596	27.6825
-29.9199	-35.3972	72.0625
-20.3586	-28.3603	77.47
-20.0801	-30.6011	76.2197
-15.8268	-154.981	24.777
-18.925	-36.8941	78.8016
-76.046	51.941	-38.3179
-48.0699	-88.3007	-60.0142
-47.9508	-105.927	-61.483
-52.9853	-91.9945	-49.1103
-49.8416	-121.212	-63.5959
-54.938	-73.061	-50.1301
-16.572	122.038	-47.3092
-31.1098	116.471	-45.9026
-16.3875	94.6168	-118.811
-15.2432	66.1994	-143.675
-29.7034	64.5959	-139.393
-31.2239	91.5928	-114.443
-15.0242	36.4122	-152.766
-28.0448	35.3309	-148.569
-31.4266	109.471	-81.4014
-16.5303	113.648	-84.5107
-14.3359	9.4957	-152.723
-26.6991	8.451	-148.343
-13.2486	-16.6894	-146.238
-25.4565	-17.1241	-141.551
-23.8064	-38.2246	-128.377
-12.2475	-38.009	-133.044
-11.0512	-55.5706	-110.615
-21.8487	-55.8178	-108.447
-9.82501	-86.0762	-86.427
-9.64935	-100.664	-83.9754
-19.7585	-101.41	-82.509
-20.3228	-86.8349	-83.6321
-9.65262	-114.686	-83.1086
-19.3881	-114.895	-82.4794
-10.6855	-68.4478	-95.1383
-21.3797	-70.0327	-92.239
-44.0482	107.647	-44.6585
-55.4884	96.2095	-43.6909
-53.0476	56.2409	-121.278
-42.2383	61.067	-131.219
-40.8776	33.3427	-140.707
-51.6692	30.6768	-130.67
-54.2544	77.9063	-99.8097
-43.2798	85.8989	-107.787
-56.3552	90.641	-73.0617
-44.7197	101.412	-77.4414
-49.9656	6.04345	-131.567
-39.2339	7.30593	-140.904
-37.4797	-17.3059	-134.521
-47.9006	-17.0327	-125.816
-44.7128	-37.2114	-113.144
-35.2066	-38.0824	-121.279
-33.0824	-55.7308	-101.954
-43.1333	-54.4744	-93.6867
-32.1783	-70.9769	-86.2612
-40.0023	-103.314	-72.0911
-40.3748	-87.0139	-70.4444
-30.8559	-87.1718	-78.1145
-30.1992	-102.4	-78.7565
-29.9229	-115.813	-79.685
-63.5599	67.4897	-89.5047
-62.063	49.9141	-109.599
-69.0423	41.8703	-94.702
-70.8948	55.7459	-75.2941
-72.712	64.5979	-53.8289
-65.8762	77.9068	-66.2772
-58.5859	4.48696	-120.811
-60.4561	27.1886	-119.429
-52.4076	-35.4349	-101.914
-56.3957	-16.682	-114.138
-50.3172	-51.6219	-85.183
-72.049	16.5229	-91.9522
-59.2631	-33.3578	-91.3521
-64.8391	-30.5151	-81.8667
-68.5743	-16.0172	-91.0076
-63.2436	-16.4933	-103.005
-70.092	-0.35022	-95.4882
-65.2113	2.35646	-109.098
-67.2	22.458	-106.452
-56.572	-55.7902	-59.3457
-60.4805	-43.1868	-70.3168
-55.3886	-47.7667	-77.3996
-89.7884	-0.608427	-60.2614
-87.8924	0.00772332	-62.3491
-89.1521	8.78616	-54.8536
-87.1316	10.1809	-56.9218
-84.5182	8.92215	-38.6655
-82.2557	9.37719	-41.1349
-80.1989	7.71514	-44.2868
-85.1291	-1.66815	-62.9269
-84.5267	8.29783	-57.9714
-88.1718	-12.5224	-58.1257
-88.5555	10.4135	-45.2099
-89.4759	7.16536	-53.6351
-40.2796	-117.658	-74.1365
19.3263	-72.2426	82.4033
16.0359	-72.7993	82.6097
21.4344	-73.2878	77.4168
20.7968	-70.2533	86.2062
65.608	6.07329	26.712
63.5358	8.03257	29.6149
66.1172	2.62309	27.3242
66.7819	8.50138	21.8171
61.4712	10.2909	31.2806
61.2073	13.6911	28.3293
58.9306	10.0361	35.4916
12.9869	61.0157	53.866
15.2348	58.495	53.414
17.1233	63.6209	52.6876
9.63208	62.4044	54.0865
9.97689	57.2141	54.5605
21.8416	38.9347	39.9373
20.0499	37.3544	40.1004
22.0764	39.4559	38.8315
24.5275	40.6492	39.9358
21.7166	38.9336	40.7552
9.29396	38.9027	52.4876
9.96884	37.6926	51.6812
9.65594	40.2077	51.3031
8.78037	39.4915	53.4221
12.6068	38.2793	46.1859
14.2656	36.2968	44.3001
13.1969	39.87	45.4195
11.0898	40.3526	48.6279
12.3035	36.8635	47.385
42.249	32.1281	38.3777
41.9943	32.35	38.2878
39.141	30.8071	41.205
42.6311	31.4815	38.3638
43.7102	33.3764	36.1302
16.0391	30.7013	47.3559
15.7124	31.6582	46.7579
15.6701	30.0551	48.7086
17.2076	29.5118	46.8113
17.9221	33.9731	40.6314
18.03	33.4567	40.5826
18.4412	34.0856	39.4689
18.1462	34.7792	40.6199
17.4388	33.9539	41.5089
32.7544	-31.5202	69.3151
32.4915	-31.4077	69.4896
32.7856	-31.7675	68.9598
32.5951	-31.47	69.5957
31.5083	-29.7182	71.7557
31.8683	-30.7992	70.5507
32.7726	-30.648	70.2374
31.5507	-29.0455	72.2329
29.731	-28.7588	73.7191
33.3389	-30.9945	69.6913
33.4686	-30.7814	69.7652
33.3653	-31.1682	69.6029
35.0077	-30.1188	69.7465
34.1965	-29.982	69.9338
35.5249	-30.9303	69.3665
35.0473	-28.7395	70.1171
33.0131	-32.1634	68.3356
32.244	-31.4083	68.6476
33.3316	-32.6389	67.0874
32.8126	-32.4833	68.8083
27.1733	-32.7065	78.4561
27.5407	-33.5789	78.2548
30.9302	-32.7347	72.6652
27.1093	-32.0951	78.2329
23.4822	-32.498	83.6384
24.1703	-21.2541	81.8717
23.5075	-19.5796	82.2055
20.4046	-18.5543	84.4908
24.4159	-22.1988	81.5445
27.0757	-23.6043	78.9263
31.8805	-31.1411	70.5123
31.9881	-31.2466	70.5195
31.9305	-31.1513	70.3121
30.3117	-30.7825	71.9159
73.7457	-38.342	-18.9378
73.1037	-38.5786	-17.964
73.4134	-42.293	-20.6876
74.4105	-37.4442	-19.2686
82.4827	-32.2658	-33.2813
82.9676	-31.0952	-36.5164
80.7993	-30.8131	-32.9374
81.95	-32.9248	-30.5104
83.4963	-33.6764	-33.3123
77.2529	-36.0841	-21.3875
77.2849	-33.3735	-21.7886
76.6884	-36.1976	-20.4751
78.022	-37.7521	-22.3812
75.9701	-24.8267	-28.5291
75.7642	-23.8293	-30.6434
76.7409	-22.7252	-29.2497
77.4246	-24.971	-27.5889
76.5128	-27.1499	-28.6254
82.9448	-6.14272	-36.3285
82.3267	-8.20358	-36.4768
83.124	-5.46647	-37.1273
83.0648	-5.39909	-35.5801
86.2031	3.36387	-43.5794
86.0551	4.24486	-42.8567
85.9056	2.41253	-43.2394
87.4315	3.64927	-46.8855
79.1472	-24.4725	-37.1196
78.1003	-22.6028	-36.332
78.3542	-27.8326	-33.3204
81.5681	-28.0991	-38.501
81.475	-22.8815	-41.7064
84.6696	-6.40873	-42.9783
85.0423	-5.38573	-43.6671
83.3571	-5.86113	-39.2216
84.5593	-7.92374	-43.6218
87.8067	-19.5068	-51.3006
87.7096	-19.1702	-50.7401
86.856	-22.2854	-49.8979
88.0914	-18.6276	-52.6044
88.1135	-17.3801	-54.7214
88.4124	-15.1513	-54.3829
88.0241	-18.2599	-55.5284
88.1696	-14.7467	-56.8636
83.2375	-30.064	-39.0577
83.5593	-28.3569	-41.6419
84.0844	-31.1407	-39.3411
85.1051	-18.0053	-47.6836
83.7929	-19.6032	-46.2023
86.5795	-18.7185	-49.1402
85.2126	-16.6653	-47.7498
75.4378	-30.289	-19.475
75.5178	-32.6339	-19.3036
76.1429	-30.1143	-20.4334
75.1393	-29.3022	-19.1895
75.0488	-27.542	-19.03
75.4859	-25.5559	-19.7161
74.6604	-27.4638	-18.0915
76.9011	-18.9037	-22.3451
76.5784	-19.3236	-21.7761
77.2869	-19.4636	-23.0902
77.4456	-15.8599	-23.5506
76.2134	-19.958	-21.0726
75.8504	-19.586	-20.2119
75.977	-22.3532	-20.5538
78.5512	-29.1997	-31.1535
78.9823	-29.309	-28.9084
78.9092	-16.0987	-32.1859
77.7566	-19.6397	-30.5796
78.2992	-16.7549	-33.6956
80.2202	-12.5842	-33.7156
80.0176	-15.0567	-31.5098
88.3116	-3.49174	-54.2588
88.4076	-2.83944	-54.7544
88.2297	-3.77005	-53.5649
88.518	-5.03683	-55.5881
88.6151	-8.72808	-55.2336
88.7372	-9.44256	-53.4664
88.6155	-10.5294	-55.5965
88.4688	-7.64599	-56.4539
88.507	-6.56559	-53.895
85.5498	1.83571	-43.2839
86.2304	1.32291	-45.9393
84.698	1.41108	-42.0297
87.0867	0.380275	-49.1557
86.4275	-0.45345	-48.2453
88.1464	-0.922538	-53.0284
87.9906	1.28052	-50.2515
38.2877	44.305	39.8005
38.1021	43.9608	39.528
40.4689	42.8306	39.1837
38.5269	44.6909	40.1673
35.6423	45.3656	40.0221
24.3813	-74.5691	70.7396
22.7386	-76.4328	65.8699
26.8467	-74.0212	70.5654
44.9989	36.9417	36.0982
45.4724	37.4683	36.212
44.1682	39.1713	36.8478
44.6361	36.7002	36.103
45.7904	35.0174	35.3926
49.6008	38.4265	34.6311
52.6305	39.5078	33.2984
49.1918	41.5889	36.2865
47.1146	37.9492	35.9083
48.8941	35.6164	33.8457
68.0657	-49.7655	-10.1656
68.9581	-49.1251	-15.2128
68.3332	-47.8765	-9.21742
67.3435	-52.0099	-9.97521
24.2332	30.8247	41.6923
24.1868	31.1329	43.0417
28.8966	30.0481	42.6694
24.7478	30.2588	40.1449
21.108	31.7632	40.5516
16.9732	34.1494	41.959
17.3138	33.3099	41.941
17.0989	35.1437	41.8817
16.7667	34.1457	42.0929
18.8483	36.0035	40.3916
18.352	35.9865	41.4556
19.138	36.0962	38.9334
16.3001	37.3683	41.7398
16.6723	37.141	41.4761
17.0434	39.1351	41.3628
15.8753	37.7425	42.1065
15.8874	35.699	42.2024
8.09534	40.8524	54.1985
7.45718	41.1031	55.1102
8.10884	42.8196	53.5602
25.197	-28.0365	77.7652
26.2095	-29.1737	75.9935
25.6678	-27.4912	77.7103
21.4222	-26.3987	81.8196
60.4692	-71.9079	-11.1493
59.2821	-71.08	-5.66273
59.9738	-74.6357	-12.7378
61.6457	-69.8011	-12.0096
75.1965	-6.55816	-20.4658
74.4596	-12.8732	-15.4833
75.7029	-8.08361	-23.0028
75.9501	0.0479762	-26.3141
74.7588	-4.35568	-16.3189
62.2205	-76.5853	-24.192
61.9431	-78.8214	-25.7159
62.8779	-72.7587	-25.2228
61.349	-77.9416	-19.1337
62.0502	-110.211	-28.2274
62.5807	-118.39	-29.6357
60.3165	-107.175	-35.98
61.3501	-101.636	-28.1079
62.2533	-112.444	-21.9766
32.0411	-31.7501	70.717
32.165	-31.9561	70.6855
32.0808	-31.5432	70.5751
30.6439	-31.7083	72.4596
32.1654	-32.2093	70.7818
32.4675	-32.2314	70.5788
26.7161	-31.5821	78.4576
26.9387	-31.2424	77.7989
22.9799	-30.8247	83.4393
29.083	-73.2013	70.7241
32.0278	-75.1698	63.0978
30.1702	-70.5269	75.1122
46.7438	-70.1944	-69.6796
45.9551	-67.3762	-74.6521
49.3075	-68.8526	-66.2659
45.9803	-73.1091	-68.9135
56.2641	89.0023	-8.8994
57.8093	88.7675	-16.7163
52.512	93.2916	-6.78462
57.116	85.6402	-4.83482
85.6265	-28.9936	-49.0775
86.8876	-24.886	-53.6031
86.0234	-27.9009	-48.2416
84.4784	-32.3562	-45.1299
85.0122	-29.4069	-50.466
80.4604	-3.42184	-30.8431
79.5797	-7.39734	-28.5397
81.578	-3.6809	-31.2192
81.1943	0.573958	-33.3787
79.0757	-3.14742	-30.4738
77.7561	-24.0429	-23.8697
77.2232	-24.4482	-22.5963
78.2712	-26.8507	-24.133
78.2456	-24.6493	-25.4014
77.7381	-22.3679	-24.1281
77.2426	-30.3918	-22.0557
76.8965	-27.3443	-21.8143
78.1623	-30.4456	-23.4337
87.8218	-19.97	-57.8666
87.0109	-20.1948	-58.877
88.5168	-14.3473	-60.9483
88.2662	-19.7086	-56.8296
85.9303	-20.3131	-59.8904
85.1494	-25.0938	-56.0232
84.5147	-20.1286	-60.5414
86.3602	-14.6747	-62.9281
77.2249	-0.446627	-33.4625
78.231	0.990384	-35.8517
76.7089	1.1078	-33.1401
77.7476	-1.15601	-31.4934
