1934
-77.7893	-26.7357	-20.2054
-77.2149	-29.2827	-19.2434
-76.7181	-24.246	-18.6912
-76.2714	-24.1937	-17.766
-77.323	-22.2504	-19.259
-79.3363	-15.5565	-21.5019
-80.1347	-12.4974	-22.5535
-79.7373	-16.0862	-22.2636
-78.9511	-15.9974	-20.9591
-78.4965	-16.6534	-20.2964
-78.0747	-19.0462	-19.9087
-78.1134	-16.313	-19.4249
-80.837	-25.6661	-30.5692
-80.7773	-24.3061	-32.6058
-81.197	-25.7557	-28.415
-81.912	-12.5839	-31.0443
-80.4723	-16.1794	-29.5888
-83.123	-11.4998	-30.3635
-83.5239	-9.00946	-32.4306
-80.0888	-17.9899	-28.7478
-80.8988	-17.9979	-28.2352
-92.9462	0.638628	-52.3866
-93.1425	-0.886633	-53.7216
-92.8306	0.350173	-51.7179
-93.0848	1.29862	-52.8527
-93.0982	-4.57576	-53.4748
-93.1589	-5.29561	-51.7766
-93.0301	-2.42633	-52.1144
-93.0208	-3.49026	-54.628
-93.0439	-6.37473	-53.8762
-89.9909	5.71001	-41.4882
-89.0639	5.23603	-40.2466
-90.7439	5.26483	-44.111
-91.6855	4.40016	-47.2892
-90.9363	3.52705	-46.4073
-92.6831	5.34873	-48.366
-92.8321	3.18498	-51.1244
-90.5681	2.47412	-45.0981
-92.0169	1.03946	-48.9451
-89.2492	3.81949	-41.519
-39.4653	42.6658	43.2261
-39.2664	42.206	43.023
-36.6659	43.1833	44.362
-39.7653	43.2137	43.4501
-41.9591	41.4899	41.9961
-21.9276	-75.4539	67.6853
-24.4222	-74.53	67.432
-21.6779	-77.2031	63.9924
-47.2971	37.1954	38.2083
-47.6277	37.7549	38.2403
-48.5323	35.9241	37.4529
-46.9943	36.9156	38.2646
-45.7929	38.6072	39.2916
-51.6445	39.7515	35.8741
-50.8525	42.849	36.8707
-54.3872	41.4852	33.6072
-51.4722	36.9543	35.6551
-49.1136	38.5644	37.6497
-68.0819	-46.538	-11.2333
-67.3215	-48.7613	-11.1137
-68.3097	-44.6668	-10.2707
-69.3118	-45.9372	-15.9684
-18.6756	33.2061	44.3699
-18.9665	32.4979	44.4609
-18.1331	33.1514	44.6175
-18.9498	34.0983	44.3121
-20.7922	34.8274	43.537
-20.6009	34.8669	44.4019
-20.5958	34.9711	42.1244
-16.9047	36.0186	44.4598
-18.3456	37.7939	44.186
-17.6672	35.8445	44.1531
-16.3503	34.4502	44.9713
-16.0224	36.3194	44.8722
-6.49182	38.0523	52.1507
-6.45889	40.0798	51.4459
-5.95515	38.2416	52.6276
-20.059	-29.417	76.8735
-17.2532	-28.1488	79.4432
-20.5751	-28.7239	77.1756
-20.5914	-30.4065	75.5621
-61.0804	-69.0446	-11.9581
-62.1609	-66.8641	-12.8738
-60.7289	-71.9802	-13.3648
-59.7904	-67.8604	-6.76662
-78.3445	-3.41153	-19.0418
-76.9979	-9.78332	-14.384
-78.0047	-1.31802	-14.821
-79.5987	3.26976	-24.6172
-78.7996	-4.86965	-21.63
-62.8197	-74.3474	-24.4067
-62.1336	-75.6491	-19.4706
-63.4363	-70.3702	-25.4709
-62.5068	-76.7411	-25.844
-62.507	-109.712	-28.0308
-62.7808	-118.176	-29.4725
-62.778	-112.004	-21.7582
-61.9951	-100.755	-27.9234
-60.755	-106.638	-35.7513
-25.7943	-32.1155	72.2488
-24.1641	-32.2363	73.7349
-25.8779	-31.9106	72.1089
-25.9301	-32.3152	72.2299
-26.9967	-32.4064	71.8633
-28.1307	-31.7593	71.2659
-27.2111	-32.8612	71.9584
-26.3136	-32.5866	72.1271
-27.3983	-31.883	71.383
-21.0697	-33.3808	77.2846
-18.2229	-34.0747	79.9038
-21.1957	-32.9132	76.8599
-26.35	-73.7101	67.3
-26.0095	-72.2935	70.144
-31.1797	-73.5347	61.8697
-48.0291	-68.7508	-68.3026
-47.1564	-71.7879	-67.6283
-50.6165	-67.3033	-64.9734
-47.4025	-65.8297	-73.0652
-60.929	91.3467	-9.13942
-61.6575	87.8658	-5.19929
-57.2284	95.6224	-7.29958
-62.5566	91.2855	-16.4755
-88.97	-25.0594	-48.0339
-90.6214	-20.8576	-52.3133
-88.3578	-25.5054	-49.3774
-87.4975	-28.495	-44.302
-89.4134	-23.9388	-47.196
-84.192	0.0860108	-29.3064
-83.0181	-3.934	-27.1489
-82.7464	0.290931	-28.9014
-85.1987	4.12427	-31.6994
-85.3618	-0.113854	-29.7083
-79.9749	-20.6043	-23.2654
-79.3502	-21.0392	-22.03
-80.0661	-18.9382	-23.4347
-80.5249	-21.1743	-24.7873
-80.3728	-23.3645	-23.669
-79.0154	-26.94	-21.8095
-78.8046	-23.9331	-21.4127
-80.0369	-26.9463	-23.1643
-91.9174	-15.8637	-56.3256
-92.3686	-15.5827	-55.3168
-92.9459	-10.1731	-59.1731
-91.0905	-16.123	-57.2895
-89.9737	-16.2918	-58.2528
-88.8535	-21.1515	-54.6285
-90.7252	-10.5931	-61.0496
-88.5098	-16.1715	-58.8504
-80.9917	2.94086	-31.7095
-81.4783	2.22992	-29.8058
-80.5216	4.4582	-31.337
-82.1503	4.44694	-34.0449
-85.1104	-24.068	-52.5336
-83.4104	-23.3177	-52.8543
-83.7712	-27.3285	-49.4821
-86.2877	-24.7723	-51.9891
-86.0534	-20.2553	-55.512
-87.2396	-28.6077	-39.1425
-87.9721	-26.1426	-42.3398
-87.0608	-29.8947	-40.0685
-86.8349	-30.1069	-36.4989
-84.4572	-37.2089	-34.7319
-85.7529	-33.9832	-34.1135
-85.5614	-34.4715	-38.3089
-83.0105	-39.2449	-35.5447
-83.6287	-38.4948	-31.3005
-84.6211	-33.69	-28.605
-84.0373	-32.6192	-27.4946
-85.4824	-32.883	-30.5871
-83.9414	-35.5997	-28.4048
-72.0593	-42.7903	-21.9841
-71.8999	-41.0113	-18.1463
-73.1792	-42.0501	-23.8853
-71.433	-43.7649	-22.1509
-78.1834	-40.2405	-22.9179
-78.4437	-42.1448	-25.2347
-76.2595	-41.028	-23.5029
-77.9386	-37.5153	-21.1876
-80.3091	-38.7645	-23.0829
-88.5621	5.75828	-33.735
-88.8683	5.55841	-34.2702
-87.1334	2.57363	-31.7917
-88.6743	7.34488	-34.0365
-88.6425	8.45003	-34.379
-87.9076	8.4832	-34.4099
-90.281	11.2952	-37.1654
-93.558	-1.09178	-56.7582
-93.6833	0.657913	-55.6335
-93.6826	-1.91235	-57.5421
-93.2702	-2.0477	-56.1477
-89.0888	6.22906	-36.4365
-89.6313	7.57398	-37.8289
-88.5027	4.63123	-36.2732
-89.1503	6.05795	-35.8535
-88.9427	5.3766	-34.7686
-90.4694	9.16185	-37.1916
-87.9633	2.28367	-33.8425
-91.2832	-14.9379	-48.7858
-89.5765	-18.0927	-46.9154
-92.5014	-12.2299	-49.7592
-88.7472	4.72824	-39.6994
-88.466	4.196	-38.2999
-87.9215	2.71265	-37.395
-87.8173	2.71013	-36.8556
-83.7147	-10.4847	-29.4006
-85.0306	-6.18623	-30.5871
-82.3078	-15.0986	-28.2535
-83.5814	-10.1827	-28.1715
-87.0316	-1.41364	-36.0247
-87.4108	0.427428	-35.8856
-87.2794	-2.10638	-37.6687
-52.1642	-65.0918	-63.4717
-53.2766	-64.8687	-60.7813
-52.7676	-61.0847	-66.8624
-30.667	0.4225	66.1602
-28.8388	1.28785	66.2963
-31.2725	2.4035	65.3438
-31.5213	-4.0645	67.8495
-25.9868	3.84036	68.12
-25.1216	3.06765	69.9658
-26.3684	7.66948	67.1246
-26.3714	2.38986	67.6579
-54.8757	59.0768	32.6658
-55.1316	57.2606	33.4179
-49.423	63.3787	36.9267
-55.1975	60.5266	31.8793
-59.4369	52.9314	29.0331
-7.29589	1.665	79.0085
-7.56696	2.33978	79.5225
-8.41716	0.948776	78.1677
-5.74893	1.63059	79.5216
-7.91086	3.28955	80.3837
-9.46613	3.57957	80.3312
-6.33387	3.91652	81.5968
-47.4523	34.8293	37.5057
-46.8572	34.8693	37.5957
-47.1737	35.4	37.8049
-48.205	34.3946	37.2303
-19.8588	32.3158	43.3698
-20.0818	32.2287	42.4826
-20.4188	32.0278	43.3479
-19.691	32.3241	44.075
-20.7344	11.3109	77.7926
-18.7216	12.5249	78.9373
-21.2697	11.1151	76.9452
-21.0816	10.2448	78.0739
-69.8971	82.2314	-27.4193
-71.9652	80.3191	-36.9492
-70.5578	78.8132	-21.7932
-67.4748	86.1562	-27.2046
-27.9747	-38.4614	68.7158
-26.9994	-37.8116	69.934
-27.952	-41.1287	68.1737
-28.7025	-36.8487	67.5628
-28.9206	-28.1805	66.0811
-29.236	-30.1813	65.8851
-29.7251	-25.789	64.228
-27.4853	-27.9416	67.4444
-11.6828	3.71826	79.9814
-12.6413	4.87033	80.7209
-14.0982	2.47604	78.4268
10.7694	3.73971	80.2266
9.23313	4.20115	81.3656
10.3657	2.9257	79.4808
9.99944	2.35309	79.0219
8.338	2.13063	79.4667
-9.43252	0.128467	77.292
-11.3353	-0.139228	76.6595
-9.03677	-0.735409	77.1345
76.3831	-40.2925	-33.6808
74.8218	-40.0038	-32.8014
77.2122	-37.4903	-36.9658
77.6472	-41.102	-33.283
74.9901	-42.918	-29.5077
64.2987	-43.3566	7.45485
63.1277	-42.921	15.5162
63.2483	-48.1059	7.57057
65.7184	-43.1784	0.184428
65.3745	-38.2672	7.10654
57.6176	-115.402	-7.52535
56.3475	-103.929	-6.58526
54.8185	-116.345	-3.39179
58.9985	-126.337	-8.78415
59.9004	-114.258	-11.84
59.9685	-133.862	-10.0808
60.7208	-139.67	-11.4526
61.8881	-132.079	-14.7011
57.4226	-135.675	-5.52729
49.2422	-95.5252	2.72928
49.4348	-88.3094	3.77295
45.5751	-95.9258	6.67007
49.9465	-105.036	1.73401
52.7702	-95.5564	-1.65785
59.8687	-95.9182	-14.1753
60.5648	-103.284	-14.9454
61.1413	-95.3971	-19.4695
59.527	-90.3164	-13.7607
57.8418	-95.7838	-9.97341
57.8304	-59.623	22.5384
58.9457	-55.7371	23.9216
56.393	-60.3515	30.7448
56.7559	-63.2113	20.3551
58.8897	-59.7895	14.2261
73.3468	38.2191	-5.04453
74.5728	44.939	-11.2273
69.3459	43.7399	3.93471
72.6607	31.6179	-0.130719
76.5002	33.5794	-15.386
78.1867	33.8923	-57.7917
77.0874	28.2397	-66.258
76.6807	39.5389	-64.6404
79.0249	38.5677	-48.073
79.0519	27.8613	-51.1354
5.58299	-107.497	38.6695
2.87255	-107.629	39.7393
6.90519	-118.486	36.5485
8.82289	-106.957	36.9851
5.13667	-98.5142	41.8301
8.6022	-131.06	32.8291
10.1047	-142.065	29.3292
12.2468	-130.111	31.2589
5.24193	-131.271	34.0356
3.57627	-150.456	29.0226
7.26113	-150.081	28.3184
2.96288	-142.725	31.16
-0.0356117	-150.467	29.3457
3.95827	-156.078	27.6155
64.1705	-58.2808	-35.1968
66.3943	-52.3896	-33.9831
64.006	-63.3578	-29.1241
61.9723	-64.1428	-36.6701
64.5821	-51.7295	-40.5513
65.2006	-46.9688	-44.6117
61.8884	-52.7854	-46.6893
66.2097	-42.9334	-48.189
68.1857	-42.2452	-42.7542
62.9245	-125.047	-31.1536
63.1551	-131.874	-32.5984
61.1643	-122.232	-37.9249
63.6287	-128.184	-24.6596
2.09385	-131.627	34.8466
1.09587	-119.121	38.58
-0.989198	-131.638	35.2507
61.9919	-42.6341	24.2275
63.2609	-37.142	22.8487
61.0805	-41.7862	31.9027
60.9863	-47.4366	24.7874
60.0462	-60.2943	6.13677
58.8628	-64.0201	4.81922
61.0557	-61.2913	-2.02277
61.1952	-56.4315	6.90918
14.1897	-58.9259	92.2995
10.3341	-58.6499	93.9385
13.9492	-63.5037	91.0932
18.3366	-59.8783	89.1715
14.112	-54.429	91.7329
22.4683	-60.5886	85.2677
22.0996	-65.5021	84.0252
26.3249	-61.6156	80.8558
22.3325	-55.9875	85.2403
6.9299	-50.3681	91.9596
10.1112	-50.3459	91.1545
6.74336	-46.9899	89.0389
3.86813	-50.5562	92.1964
7.00494	-54.4277	94.0901
13.5366	-67.7777	88.2721
13.0153	-71.2239	83.5235
17.5242	-68.7264	85.2896
9.93838	-67.0261	90.0794
12.7393	-73.9262	77.1601
9.06848	-73.6689	78.6229
11.8227	-77.014	70.6879
17.1267	23.1352	58.9602
18.6203	20.0378	62.0104
19.7176	21.3153	58.4405
16.1167	25.8406	55.8351
14.4158	25.0869	59.5124
52.4878	-7.43828	61.7557
58.3182	-9.97545	55.8481
52.3833	-1.50891	60.4969
46.0394	-4.4221	65.4414
52.2262	-13.0718	62.4345
64.3507	0.860147	47.0392
67.7475	-1.02048	40.3163
63.9365	7.63021	46.6059
58.752	3.17998	53.4598
63.7564	-5.90046	47.963
71.3679	15.107	21.6019
72.6386	12.425	17.2149
70.19	21.8078	18.0375
69.1752	18.1358	25.1448
51.7508	-18.7329	62.7573
51.0372	-23.8866	62.8647
56.4867	-21.4439	57.1428
46.5084	-15.2059	66.7098
3.03704	27.3177	72.0444
2.78421	30.9338	66.8383
0.977913	27.5782	72.0762
3.35316	24.48	76.5736
5.23392	26.6713	71.636
35.1346	91.842	27.1172
29.4984	93.3979	29.0801
34.5678	86.4795	31.8534
40.9288	89.3627	24.6415
35.9421	96.6935	22.013
3.20316	-81.3187	65.3552
1.52924	-86.3132	58.1637
6.37815	-81.3552	64.6632
4.82275	-76.7026	72.5175
0.237977	-81.3163	65.6037
60.0355	-40.4015	38.8228
58.513	-38.4195	45.2998
58.4407	-46.1285	39.9613
61.4783	-34.6379	37.4336
6.64804	-66.8139	90.8553
6.96597	-62.969	93.695
3.94294	-66.7753	91.1444
6.30112	-70.5388	85.7258
5.75484	-73.5169	79.2083
2.87142	-73.4708	79.5117
39.8117	-69.878	60.3595
34.7951	-70.5531	65.9874
38.7697	-73.2241	57.8869
43.9772	-68.4063	55.4219
40.1032	-65.7501	62.9765
43.0456	-78.4565	35.8008
39.9784	-82.0935	30.6269
46.7754	-76.6323	30.1332
45.3178	-75.5172	40.5213
38.1406	-80.4297	41.1531
0.0251836	-91.8636	50.2034
2.90253	-92.1663	49.2434
-2.736	-91.7254	50.5312
-0.349162	-98.4678	43.5614
9.14454	21.2493	78.7137
9.67166	19.5426	81.1718
12.3573	19.989	77.3958
8.44794	23.0028	75.1613
6.29774	22.138	79.6457
33.3584	6.08714	64.2289
35.6572	2.43825	65.6364
31.5718	10.9136	62.5463
30.0556	9.83544	64.608
30.4468	-30.6259	71.6159
29.4657	-29.9764	71.7527
29.5026	-31.3178	71.8577
31.3029	-31.224	71.4739
18.7749	2.09384	76.674
21.059	3.34397	76.9168
17.7752	1.14628	76.2069
21.637	1.5415	75.1606
17.6298	-2.61928	75.1317
18.2886	-4.08176	75.6887
21.0071	-3.17032	73.5708
17.6173	-1.3719	74.9737
14.4341	-1.75945	76.4066
3.41407	1.62636	82.1547
3.55112	2.74054	83.3488
1.60363	1.36774	82.5217
3.37759	0.505713	81.1536
5.25237	2.00665	81.3367
24.0574	-2.78036	71.9217
26.5642	-1.56464	70.2197
23.8657	-1.50787	72.0688
24.1995	-4.34624	72.5584
11.2021	12.0068	85.3189
8.55214	11.8059	86.7658
10.9735	9.90019	85.3282
14.4235	11.843	83.7675
11.2326	13.9228	85.1851
27.6243	-43.9735	76.9658
30.5684	-42.9867	74.3773
26.4064	-40.6175	77.1255
24.0342	-44.5579	79.778
28.651	-47.8503	76.8431
31.5153	-24.2901	73.3687
32.1052	-20.0648	74.1915
29.8437	-22.9765	74.6959
32.9304	-25.5048	72.5032
3.93203	-3.82178	80.2733
4.22897	-5.70757	80.9236
5.95077	-3.55245	80.0164
3.64815	-2.06757	80.1585
1.61396	-4.0242	80.3677
7.55326	25.4951	70.8427
10.3759	24.05	69.9143
7.07854	28.5137	66.3385
26.8368	9.46482	72.0731
25.3198	11.3006	73.6416
25.8093	10.3429	73.8707
27.1774	7.84344	71.6566
27.1829	9.90329	70.4733
7.07368	-0.104397	79.1653
7.22118	-1.70271	79.3348
8.965	-0.448722	78.4454
6.95211	1.02101	79.4352
5.31804	-0.323063	79.8047
6.88423	2.08364	80.2757
7.00023	3.23281	81.4968
24.3615	11.34	75.4448
23.6871	12.1862	75.354
25.3018	9.6011	75.1229
26.9233	4.676	71.4458
26.3304	6.34409	73.4197
25.7858	1.97541	71.8613
4.82932	-12.2288	86.1491
5.09695	-13.8743	87.4403
7.65852	-11.6759	85.9136
4.69361	-10.0506	84.1391
1.53859	-12.7722	86.2384
29.2488	-7.02428	71.6191
27.0415	-6.72455	72.7193
29.6306	-11.138	73.4976
31.0608	-7.58337	70.944
29.0669	-3.02125	69.4885
12.6364	-40.2458	84.3274
12.4168	-38.7801	84.8454
9.15992	-39.9754	84.7441
12.9312	-41.9923	84.3115
16.2778	-40.3884	83.2299
26.7071	-25.3482	76.0136
26.5961	-26.2201	75.3667
27.8077	-27.5074	73.4698
27.2052	-23.9859	76.3814
23.2559	12.725	75.0196
23.346	13.2207	73.5972
20.7795	14.0886	76.8389
19.613	-40.3909	81.6224
19.9961	-42.1197	81.6405
22.6224	-39.5502	79.7255
19.3993	-38.9869	81.8383
5.97672	-40.0682	84.6561
3.03996	-40.0305	84.5647
6.25706	-41.8815	84.7722
5.58487	-38.8835	85.3142
61.3621	43.4829	26.7558
60.3657	43.0451	28.6965
62.7989	36.8276	23.986
62.2245	44.0822	24.5468
44.9316	75.5694	31.7457
39.3329	78.5644	34.5296
44.3658	70.5157	36.1606
50.4739	71.4907	28.5136
45.9497	81.2335	26.1958
55.9788	65.9537	24.1725
55.2483	61.9226	29.0376
60.9737	58.5022	18.2963
57.0547	70.4497	18.3788
44.4146	63.0024	40.6954
44.2097	65.3289	39.725
39.5387	65.5075	43.1276
44.8331	60.4792	41.2691
63.3723	44.2831	20.98
64.1385	46.016	16.9183
59.6588	52.549	26.8841
65.8235	36.6093	16.976
29.2426	57.8979	47.5025
28.4109	54.2084	46.9181
32.7771	57.8455	46.476
29.6251	60.5329	47.9497
24.5848	55.8701	48.453
6.69844	35.45	55.6537
9.22683	33.0437	55.3139
6.57278	37.0893	54.0647
4.28738	37.6188	56.1128
6.87964	33.5903	58.0392
32.8032	16.8478	57.2707
35.9442	13.5999	59.5682
39.7498	15.6348	56.5843
30.1907	19.5493	55.3321
26.5338	18.1456	57.6912
60.8142	24.8863	33.7306
63.6623	22.7696	32.0969
60.6384	28.608	29.9515
57.5691	26.8077	34.8287
59.8834	22.4418	39.0313
7.01975	31.2509	61.6821
9.49759	29.1147	61.2348
4.69557	33.0062	62.1245
44.7509	58.0852	41.6052
49.3039	55.4504	39.2582
40.0579	59.9574	43.8607
44.4121	55.6801	41.8553
53.7555	51.9103	36.2762
53.0328	49.9714	37.1168
57.2196	47.1928	33.2652
56.0028	33.232	32.9047
55.6768	36.2741	33.1822
53.2198	32.7045	35.0668
55.6957	30.4586	33.5632
58.0078	33.0817	30.9554
42.4675	35.6338	42.6707
44.0828	34.8264	41.4017
43.0402	36.4898	42.3131
40.6256	36.6684	43.8975
42.0097	34.9581	42.6677
38.6781	37.5568	44.8046
39.0791	38.671	44.4412
36.7185	38.208	45.3407
38.3562	36.6532	44.8868
39.2845	39.2707	44.2237
37.0394	39.9959	44.7405
41.4377	38.2217	43.2838
34.173	38.5795	45.6581
34.204	39.7008	45.2878
31.6206	38.797	45.5562
34.2124	37.6621	45.7256
34.1783	40.2723	45.0745
31.3353	40.7334	44.7603
34.1425	40.6167	45.0983
29.1982	38.6745	45.2804
28.7791	39.7387	44.8201
26.7726	37.676	45.1185
29.6054	37.7553	45.4485
23.9203	36.4459	44.9402
22.9976	37.2125	44.5499
21.2588	35.2182	44.963
22.3969	37.6733	44.2582
21.9068	37.9341	44.2173
19.7368	36.1645	44.456
25.5219	39.0995	44.3222
19.4764	34.1959	45.1634
18.7641	34.5057	45.0101
21.2611	38.2568	44.5181
24.569	39.8265	44.6074
20.6217	38.7422	44.9184
34.0564	41.1126	45.4134
34.0129	41.7093	45.8057
31.029	41.592	45.0704
47.7328	31.5055	38.9053
48.8761	30.4414	38.3894
47.9964	32.2749	38.8062
46.6441	30.7432	39.8522
45.6868	32.7419	39.1201
45.3539	33.1686	39.3216
46.44	32.9357	38.4254
45.0914	32.0727	39.701
35.7348	56.3753	45.4403
39.2755	54.4549	44.1021
36.147	59.3577	45.476
34.7578	52.5611	45.6394
48.2952	42.6908	40.4055
46.1915	39.768	41.8654
50.389	45.653	38.8939
45.0272	44.5926	42.5167
37.9832	25.4042	47.6248
43.5231	26.0124	45.2383
37.1973	26.538	47.1494
31.6196	25.6215	49.1124
38.825	24.2915	48.2575
26.3752	26.969	49.5834
26.4735	28.0647	48.6378
22.2307	28.1825	48.8938
26.4789	25.6631	50.3187
18.8163	30.3966	47.1004
19.2647	30.6402	46.3938
18.2098	31.1274	46.5488
17.9492	30.3714	47.9106
19.4993	29.7818	47.5116
36.7394	27.5804	46.7597
41.6321	28.4795	44.7193
36.376	28.3619	46.4902
31.3085	27.9899	48.0793
20.8295	30.2846	46.5235
20.7373	29.7262	47.1992
22.5132	29.859	47.2994
20.7722	30.7953	45.9545
19.9696	30.5966	46.2117
19.35	30.8528	46.0147
18.7172	31.3124	45.8148
19.3429	31.1271	45.6124
14.8255	39.5581	46.8385
14.0696	42.5095	47.6649
15.8189	36.6725	46.0247
16.7044	41.8711	46.5412
17.5462	32.075	46.138
17.9529	32.0564	45.7521
16.8722	32.2341	46.5653
27.8187	41.0434	44.8323
27.4798	41.6175	45.2763
28.2132	40.6012	44.4874
16.4762	35.5119	45.5724
16.0592	33.926	46.1531
17.6433	37.3848	45.3562
36.1059	28.776	46.3054
31.2345	29.3487	47.1929
35.9924	28.9126	45.8926
20.7919	31.1501	45.567
21.0027	31.2368	44.8607
20.0367	31.2641	45.3473
22.682	30.8265	46.0499
36.0883	28.7343	45.0128
40.6051	29.6062	43.4857
36.3008	28.3502	43.9637
43.6363	30.9708	41.3427
44.0531	30.8049	40.5237
21.5453	30.9893	43.4911
21.7603	30.716	42.2227
19.4009	31.3436	45.2946
45.1782	34.0594	40.4489
45.7093	34.453	40.264
44.5472	33.735	40.4619
3.49754	52.9256	53.1474
0.315902	52.496	52.8097
2.92012	49.3381	52.6071
6.24182	52.4871	52.7469
4.34198	56.6648	53.2903
19.6476	24.9029	53.4801
19.4929	26.1613	51.8005
17.7927	26.1401	53.3566
20.4893	22.7787	55.5882
22.8607	23.3818	53.6907
15.9733	27.4998	53.5527
13.9027	28.9762	53.8642
16.4802	30.6277	49.1577
14.6995	31.4662	49.9894
16.4618	31.5685	47.8227
10.6001	39.2954	49.4563
11.7253	41.6617	48.7494
9.91687	40.6103	49.8524
20.2939	28.934	48.2044
19.8245	28.1406	49.1701
19.5874	27.2095	50.338
22.0713	26.0551	50.9246
22.3458	-28.9449	75.5322
22.1115	-28.924	75.059
24.8295	-29.5523	73.3976
19.6315	-28.1999	77.6356
26.3523	-29.9187	72.2695
26.0002	-29.8864	72.0431
5.40808	-17.1826	88.7966
8.79688	-17.192	88.3085
5.34697	-15.8051	88.5317
1.5431	-17.4441	89.0637
5.37384	-18.7909	88.7804
11.5868	-20.7301	86.9755
11.6093	-19.1079	87.5559
8.73952	-20.475	87.6223
11.2951	-22.353	86.0245
14.2445	-21.221	85.8962
17.0053	-21.7825	84.3239
17.1017	-20.3229	84.9895
16.9361	-23.5731	83.1673
19.9752	-22.9496	82.0156
11.5112	-17.4893	87.6642
14.2025	-18.0927	86.7182
11.3607	-16.0421	87.5374
15.985	-16.4723	85.6201
16.7606	-17.6312	85.477
15.5084	-15.3401	85.3873
13.1367	-15.5409	86.7059
22.9976	-25.5065	78.4907
23.134	-23.7339	79.7484
10.6919	-24.0703	84.8114
7.70935	-23.6253	85.6705
10.2378	-25.1866	83.7882
13.8885	-24.6032	83.505
17.0926	-25.5101	81.6721
16.9293	-26.6748	80.6342
28.125	-29.0935	72.3402
28.54	-29.5298	72.0176
28.2959	-28.9129	72.3826
27.4893	-28.3654	73.1151
22.7045	-29.0418	76.1561
22.6055	-28.9245	75.855
19.9859	-28.4251	78.5473
22.7465	-29.2959	76.4874
23.2445	-30.707	77.1101
23.0652	-30.1551	77.0246
20.8005	-31.05	79.7619
17.9716	-30.9569	82.0679
17.7915	-30.0336	81.7686
14.7522	-30.483	84.0634
18.3294	-31.9528	82.1007
10.4932	-27.7406	84.7833
10.7688	-29.0014	85.2139
14.1352	-28.2331	83.3642
10.3099	-26.5791	84.4292
7.0887	-27.704	85.436
4.51301	-30.7532	86.6425
4.6611	-31.9918	86.9439
7.52517	-30.2747	86.4121
4.35694	-29.4247	86.2232
1.59907	-31.089	86.5826
26.5723	-31.1761	71.6756
26.3809	-30.3687	72.1136
26.6531	-32.8159	71.4973
24.7032	-30.6578	72.7705
3.84421	-27.1078	81.2568
3.90668	-25.9894	82.7692
6.40569	-27.141	80.7817
3.75465	-29.2101	80.0511
1.48993	-27.2032	81.3966
4.80882	-33.2743	87.1827
1.82156	-33.6318	87.1117
4.96075	-34.4527	87.314
7.94739	-32.6187	87.0137
5.33513	-37.7316	86.169
8.59496	-37.3024	86.1242
5.21891	-36.5622	86.9071
2.24516	-38.1254	86.129
11.0202	-15.0173	87.3337
10.1856	-13.6306	86.8644
8.46868	-14.6177	87.7354
4.23368	-27.989	85.6851
1.55181	-28.0963	85.8599
4.10482	-26.5202	85.4308
3.96996	-25.7088	85.1824
6.88522	-25.6787	84.8071
4.00986	-25.4335	84.6883
1.48432	-25.8992	85.1481
10.2264	-25.8979	84.1372
13.7428	-26.5399	82.6009
10.1133	-25.6514	83.6189
4.04191	-25.452	83.9214
6.73277	-25.4644	83.5346
1.45534	-25.6017	83.9231
17.035	-27.3825	80.8651
16.9101	-27.1298	80.4362
17.2152	-27.99	81.1222
19.0279	-34.959	82.4921
19.2237	-36.1374	82.3611
18.8255	-33.9262	82.4628
15.8521	-34.9391	84.4033
11.9492	-34.6401	86.1451
12.0819	-35.8955	85.8849
11.7685	-33.5176	86.2038
8.32546	-34.8351	87.1102
5.0605	-35.5621	87.2502
1.90117	-35.9994	87.1779
16.6248	-27.1274	79.751
13.3742	-26.2773	81.4863
16.3252	-27.1048	78.9579
28.9128	-29.7298	71.8544
28.5123	-30.027	72.0343
28.8469	-29.3944	72.0033
27.8709	-29.9166	72.0092
27.2834	-29.9876	72.2603
27.8011	-30.1259	72.1603
26.4228	-29.9763	72.8642
24.9522	-29.813	74.2894
9.54654	-27.3195	80.0435
9.72511	-26.2732	81.5047
12.9506	-27.6806	79.0973
9.4751	-29.3615	78.9239
9.91289	-25.7325	82.7467
13.3742	-26.2773	81.4863
12.1083	-37.3846	85.4452
16.0402	-37.6491	83.878
18.5429	-32.914	82.3354
15.3594	-32.6971	84.3491
19.3363	-37.5776	82.1137
21.9926	-36.6103	80.0879
15.9073	-26.7676	78.3264
12.9951	-26.0618	79.495
15.482	-25.2976	77.476
18.6465	-27.5924	76.6941
9.86063	-25.6072	80.4355
7.15253	-25.3152	80.8025
10.3876	-24.3335	78.9013
9.79966	-25.8248	81.6241
15.3845	-22.233	76.4189
12.9715	-21.709	77.1253
15.4809	-18.4664	75.12
17.8253	-22.8811	75.3864
26.6467	-36.3077	71.7211
26.5055	-40.3687	72.1977
24.6664	-35.7108	73.0092
3.79184	-32.5928	79.7882
6.2739	-32.5811	79.4662
4.03516	-36.2347	80.0723
1.64022	-32.6659	79.8962
10.5544	-21.351	77.5745
7.90371	-21.1065	77.8067
10.5715	-17.5331	76.1137
9.39421	-32.7199	78.8401
9.4111	-36.3897	79.3767
12.7621	-33.1154	77.9677
30.0558	-32.9623	66.5846
30.8256	-33.82	64.9456
12.257	32.9136	50.8795
11.6835	32.0151	52.6917
77.1641	-18.2862	-56.9116
76.2969	-22.1191	-54.9792
75.9287	-18.5734	-60.5073
77.8864	-14.0931	-58.1608
78.4386	-18.2669	-54.727
78.2127	8.30189	-27.2184
78.6346	10.0047	-31.9923
77.9982	11.7134	-23.0515
78.7158	10.6994	-37.5845
79.1214	15.6995	-40.3176
78.1749	5.45456	-37.2379
78.5621	8.39745	-44.1723
70.5143	-38.9673	-41.2602
72.7673	-36.3607	-40.176
69.5072	-42.5802	-37.6767
71.7847	-35.5937	-44.0975
72.8848	-32.5233	-47.1139
70.6478	-35.0315	-49.3937
74.1294	-29.193	-49.9765
74.9742	-30.8395	-45.4276
80.2228	-18.0266	-53.5459
82.1816	-17.6804	-53.5225
79.5521	-21.6293	-51.7913
80.6939	-13.6978	-54.7579
82.3322	-34.3563	-40.2944
83.5696	-30.7917	-43.3572
83.3714	-34.4887	-38.7621
80.9741	-37.9916	-36.8195
87.026	-24.5373	-42.637
86.8516	-23.7808	-42.0903
74.2316	-44.2654	-25.9831
75.0771	-44.684	-25.0233
73.8322	-44.1036	-23.501
73.8979	-42.8875	-28.1198
75.4228	-33.7206	-15.8557
74.9938	-34.3477	-15.6682
74.3916	-35.2993	-15.7232
86.7647	-23.3238	-41.8067
86.2029	-23.6328	-40.7277
90.0944	-10.3586	-49.6198
89.7791	-10.0658	-51.2243
90.4128	-11.2606	-47.6682
90.5956	0.00703621	-50.2371
90.9009	1.28586	-50.7434
90.9841	3.56226	-50.3951
90.8057	3.90087	-48.152
91.1297	3.95527	-50.9852
90.8056	6.33753	-48.0404
80.6036	-11.452	-23.1975
82.2348	-6.21502	-25.1879
80.0091	-10.3148	-22.1361
79.2892	-15.2726	-21.6009
73.4047	-25.3101	-12.1493
72.4188	-25.0268	-9.38437
72.5123	-29.0922	-11.4478
74.3285	-20.9473	-12.9955
78.2696	-22.8078	-22.2557
78.4359	-24.7637	-22.0699
78.5996	-21.0484	-23.0238
78.2102	3.65545	-37.1761
78.837	4.12164	-40.8073
78.7622	3.92654	-36.7403
87.3658	13.3519	-39.0665
88.82	14.3089	-42.8238
86.0893	13.4706	-40.4771
85.6448	10.7788	-35.3297
88.5051	12.726	-37.7941
87.4242	13.7439	-48.8237
86.3509	14.2404	-45.3452
88.5958	13.8103	-48.0057
88.0809	11.1971	-52.3327
86.0377	11.7274	-49.7363
88.3592	-6.05163	-58.2406
86.9811	-6.50248	-58.3979
88.6448	0.696606	-57.5877
89.7038	-5.76075	-57.4493
83.4714	-1.78051	-26.8747
83.6128	-3.28255	-27.382
90.8881	-6.03574	-53.8546
91.5794	-0.599286	-53.2097
90.2187	-8.71137	-53.5412
91.228	-6.23153	-53.9774
90.3168	8.24651	-44.5292
89.4321	8.79515	-40.5808
90.3199	6.70093	-44.7739
90.4652	9.43528	-44.2401
84.6303	-1.86437	-30.15
84.0428	-3.45587	-29.0862
85.2272	0.230452	-31.5162
90.1968	-4.68467	-51.6171
90.0101	-7.07121	-52.8284
87.7849	0.738221	-41.506
87.5393	-0.369282	-40.2907
89.1868	-0.801373	-45.2355
81.9121	-8.64172	-29.5708
82.0132	-8.51803	-30.3552
82.8592	-6.92491	-28.9277
86.6756	-11.3554	-43.1045
89.0847	-9.32541	-45.3829
86.3011	-10.747	-42.7098
86.5411	-12.4521	-42.9184
75.2072	-17.0621	-14.1736
76.1512	-12.8164	-16.3416
74.3782	-16.6038	-11.6416
81.026	-8.63366	-55.0661
79.4763	-9.29223	-56.434
81.1131	-4.03034	-54.3511
82.8805	-6.21612	-54.6343
85.0153	-0.533814	-55.0767
84.8143	3.96195	-53.1675
86.9604	4.7802	-55.5667
85.1712	-5.09934	-56.4798
85.6889	-7.43794	-57.5518
84.7173	-12.9503	-56.4013
84.1934	-17.5765	-54.6081
77.0395	-30.0933	-44.6495
75.864	-32.6079	-41.9919
78.0611	-27.5326	-47.2327
78.8589	-24.7483	-49.6574
76.8427	-25.0656	-50.6303
85.3936	-23.3972	-39.9364
74.6577	-35.0638	-39.5607
73.3152	-37.9727	-36.321
76.2297	-34.8503	-39.1785
73.6675	-40.92	-30.9682
72.9323	-40.9612	-31.2712
72.7139	-43.0707	-25.8482
73.6333	-42.8089	-21.0552
73.2425	-42.4342	-21.0861
72.3619	-42.641	-20.6957
86.8527	-13.2814	-43.0378
89.2227	-12.5099	-45.1475
79.2281	-9.3985	-21.4169
78.2164	-8.75322	-20.6023
75.7026	-22.3198	-16.2325
76.0544	-22.6672	-16.7921
78.8408	-28.2392	-20.4278
79.6869	-30.5882	-21.2271
79.3807	-27.219	-21.6181
78.3122	-18.0533	-20.3531
79.0997	-18.8403	-22.4084
84.4356	6.62402	-50.7567
82.7159	1.70697	-51.4797
83.7103	8.02126	-47.6012
81.0409	-0.648248	-52.3962
79.8164	-0.892281	-53.731
80.7328	1.95489	-49.1346
77.8343	-19.3151	-25.1877
78.6439	-19.341	-24.6331
89.8901	-2.32372	-47.1422
89.7897	-3.68884	-46.3393
82.5014	-8.21842	-31.933
81.4911	-10.6286	-32.4043
83.6652	-7.75752	-34.7668
86.279	-9.77598	-42.4687
88.4974	-6.69427	-44.3841
85.663	-9.36165	-41.1777
7.75897	108.211	19.828
7.91886	102.147	27.058
16.6425	107.098	19.4356
7.90677	113.705	10.9069
-1.53326	108.577	20.066
7.85941	95.6867	33.1013
-1.59732	95.6466	33.6632
7.64963	88.6131	38.594
16.4179	95.2301	32.0538
33.8489	80.3878	37.0426
33.697	75.2492	41.1848
28.5991	81.2676	39.0479
3.83963	4.01426	84.6822
4.44883	5.50911	85.8006
1.99749	3.87583	85.1736
5.83953	4.20506	83.7315
5.57195	15.5837	86.9407
8.22184	15.6627	86.1822
5.18631	17.3549	86.0136
2.82182	15.587	87.232
5.78848	13.7247	87.7325
5.87123	11.5864	87.9078
2.88669	11.5723	88.593
5.7317	9.41856	87.4124
3.45924	-0.690978	80.4461
1.52465	-0.919911	80.7543
4.42534	-7.89492	82.4458
6.93165	-7.40647	82.2777
1.76358	-8.22182	82.5644
5.27873	7.37175	86.5221
7.60733	7.59325	85.8171
2.63189	7.34343	87.1927
4.6637	19.0086	84.7337
7.30171	18.7036	84.1358
4.15448	20.7947	82.9063
2.0104	19.0421	84.9851
7.49281	70.0518	50.1198
-0.84773	69.663	50.5795
7.35959	66.3314	51.5021
15.6005	71.0379	48.945
7.61812	74.2197	47.8682
2.36424	38.7214	56.3222
2.45654	36.7476	58.6357
2.33998	40.3951	54.8057
0.629209	39.0234	56.3268
2.40462	42.096	53.6896
4.23318	41.0337	53.4494
2.47064	44.1276	52.9779
0.686776	42.3698	53.7892
4.34906	-25.2108	80.9138
1.4967	-25.3133	81.0682
4.69974	-23.9902	79.2905
4.03223	-25.4911	82.7021
4.0419	-25.452	83.9214
1.45534	-25.6017	83.9231
6.73275	-25.4644	83.5346
4.16688	-24.8765	84.9185
5.3253	-20.3892	88.2367
5.08923	-21.8655	87.3857
1.51858	-20.5705	88.5396
4.68061	-23.5338	86.0935
1.50403	-23.7227	86.2295
5.35823	-14.9001	88.1328
1.55113	-15.328	88.3127
4.82326	-21.0496	77.8404
4.83485	-17.2569	76.2263
1.50386	-21.1444	77.7963
23.9224	105.644	18.7643
23.6943	100.264	25.2064
30.5508	103.59	17.7975
24.3362	110.592	10.4844
22.6308	72.3545	47.2107
23.8267	70.1175	48.1095
28.941	73.041	45.1147
22.4196	75.6285	45.1476
26.1536	67.9228	48.5724
28.6094	65.3662	48.7104
31.7986	68.5295	46.6828
29.3507	62.8967	48.5195
24.0925	60.8117	49.8285
33.4255	63.2023	47.1288
27.0794	42.3992	45.5983
26.8489	44.4826	45.8834
23.5843	41.442	45.2998
30.627	42.9903	45.7628
29.6322	37.9219	44.7981
31.8153	38.0508	45.0132
29.4885	38.865	43.6702
28.4396	40.2874	44.4952
27.0485	48.7592	46.3666
30.7934	49.1629	46.058
23.1795	47.3589	46.5429
49.3795	100.437	-4.32067
50.1538	102.713	-15.2316
43.6008	105.231	-2.72207
49.1548	97.0201	4.07649
36.4908	101.219	16.2219
37.1109	105.341	8.68844
42.5041	97.9273	13.9303
33.9585	72.3835	43.2358
34.5698	70.2172	44.3014
38.9865	70.496	41.0915
36.124	61.9335	45.7086
35.9852	64.5918	45.6175
35.5134	67.6773	45.0478
33.9851	48.3681	45.9222
33.8861	44.2763	46.1614
37.8778	47.0867	45.2098
48.6241	93.5934	10.7861
54.4517	88.5657	6.63684
47.8648	89.8737	16.4673
44.2839	67.4806	38.3824
49.4316	63.8058	35.4585
40.1426	41.1434	44.9982
40.5053	42.5333	45.0087
37.2766	42.0177	45.747
42.7337	40.0679	43.8016
34.1993	37.8839	45.0723
34.3184	38.907	43.9883
36.592	37.576	44.7698
43.7926	53.0397	42.2491
42.7908	49.8529	42.949
48.0745	50.884	40.2698
41.4818	45.9276	44.152
46.8672	85.752	21.5164
52.763	80.871	17.7177
59.6804	83.5152	1.0401
59.0898	79.5734	7.23366
64.2757	78.6318	-5.79868
43.339	36.9297	42.0883
44.9641	35.9499	40.8296
43.5373	37.2081	42.0262
45.0412	38.4727	42.295
44.3383	37.9618	42.2463
46.7666	37.2715	40.702
43.849	37.5573	42.1333
41.8603	35.1823	42.0389
43.3358	34.5346	40.8243
40.1606	36.037	43.2673
41.9637	36.0039	40.9442
52.0064	48.078	37.8605
54.6431	44.0587	35.5983
20.0255	52.473	48.7411
16.3737	48.6049	48.6349
19.9351	49.3023	47.6679
19.7298	55.1275	49.692
18.5858	57.3124	50.6679
14.6939	53.2349	50.6904
19.567	44.676	46.5405
19.7127	41.0412	45.6776
6.31932	61.9312	52.5827
-0.513781	61.4246	53.001
61.9952	-63.6988	-9.64568
63.1129	-58.6603	-8.60616
62.7797	-65.3586	-16.0668
78.2221	13.1082	-60.6455
77.8782	7.93034	-64.9777
77.3607	17.3147	-66.8537
78.6714	17.4498	-53.4604
78.7836	8.91128	-54.0155
74.1316	-19.6175	-66.2593
73.0141	-24.7556	-63.1459
72.2369	-20.9596	-71.5825
75.1362	-14.2458	-67.8807
75.8792	-8.40444	-69.3178
74.1823	-8.23602	-76.0054
76.6046	-2.81471	-69.2075
77.426	-8.90788	-62.732
67.485	-39.0913	-52.3188
64.5177	-42.7312	-55.1567
69.4858	-34.3717	-56.2883
7.6412	81.0081	43.6672
-1.73853	80.9093	44.1667
15.786	81.2223	42.5655
22.3401	81.4257	41.0783
23.0682	88.3132	35.7792
20.3629	-81.6596	58.284
17.8805	-86.2378	51.1257
26.8567	-81.9854	52.4882
14.5339	-81.5311	61.7753
46.8291	-72.4194	44.4048
42.0923	-75.0559	49.5238
50.3795	-69.8741	39.1738
47.6461	-69.2871	47.7194
58.329	74.9505	12.8086
63.2417	68.911	6.88461
23.3714	94.5629	30.6689
68.6607	73.3392	-14.0426
72.2924	68.3976	-22.7935
68.57	68.2405	-6.91431
24.4273	115.503	-0.799606
31.3437	112.742	-0.908479
24.3355	119.377	-13.9753
16.7169	117.494	-0.62212
65.3515	50.0853	11.3408
66.6813	56.4676	5.74377
47.3465	35.9694	40.0727
44.4924	33.9257	39.8868
44.7542	34.3422	39.1776
59.2859	42.2783	30.2935
59.6628	36.9035	28.9356
57.6644	41.2614	32.1273
55.9091	40.2751	33.7224
0.222258	-107.876	40.554
-2.35934	-107.791	40.9791
54.4276	-61.1414	38.8183
55.3081	-56.7961	40.649
51.667	-62.8596	45.4881
53.7074	-65.0089	35.869
9.57956	-11.799	85.859
11.5935	-12.3309	85.5979
9.07967	-9.5616	84.2367
27.5452	-20.8566	77.1237
27.1308	-16.7795	77.4762
24.6711	-18.1774	79.7537
13.3604	-8.68413	82.1674
10.4056	-7.80183	82.5101
13.8722	-10.9	83.6378
16.5209	-9.56857	81.5333
12.6802	-6.46239	80.6725
34.4246	-26.4808	71.9315
33.4238	-29.8396	71.3996
36.3815	-28.4756	71.2023
35.1454	-22.7769	72.5253
64.6386	30.3876	22.9581
62.5097	31.4547	25.966
65.9631	24.9507	24.8269
66.4426	29.7058	19.8048
68.2383	29.2093	16.1245
70.34	27.7164	11.1567
50.7898	32.7155	36.9773
48.8771	32.8661	38.3876
51.0081	30.9373	36.8958
60.4621	32.3024	28.5265
79.2178	-0.179541	-56.3603
78.8868	-4.4665	-58.2225
78.5722	0.866029	-60.9894
79.2664	3.11284	-53.3972
75.1715	-25.8737	-52.7254
73.6057	-27.1742	-55.763
66.3292	-53.7244	-20.256
67.7564	-49.1414	-18.8742
65.3393	-54.3198	-13.7492
64.8377	-59.3885	-21.8044
67.3223	-51.7251	-26.7307
78.4556	-9.25653	-58.7102
71.3945	-25.0374	-6.06272
70.2533	-29.3177	-5.28117
72.5325	-20.6174	-7.07271
70.267	-24.6779	-1.61735
73.8755	8.89619	10.409
73.9647	16.6527	6.61403
73.2197	1.26597	13.7614
74.935	4.89125	2.29185
55.2628	27.7776	35.5935
52.9453	28.4982	36.5417
54.0012	25.8497	39.1598
50.9067	29.2874	37.4576
49.4543	28.0788	39.3525
69.0071	-23.2876	4.52312
67.7249	-21.3701	11.0023
67.6563	-28.2943	5.38362
70.6576	-18.1094	3.08429
28.8166	13.5562	61.5979
32.9112	11.9817	61.3128
25.7035	16.3272	60.1712
24.5527	15.1025	63.013
38.0049	9.2562	62.2669
43.9074	6.87444	61.7762
39.1018	4.52133	64.6188
20.522	17.1102	64.9111
16.4284	19.4011	66.6727
22.2073	15.1178	67.4761
27.9363	10.9541	67.3175
26.1232	12.4706	68.5796
23.6414	9.10093	77.6802
21.5101	10.1927	79.5534
23.5404	7.09864	77.642
24.8609	8.23686	76.318
25.6622	7.38393	74.9768
25.1667	4.94473	74.752
41.0299	-11.9358	68.8273
36.4607	-9.76673	69.7917
41.2453	-17.3779	69.5761
40.4931	-6.69255	67.9078
39.7103	-0.907594	66.4837
7.58431	-3.51143	79.8606
8.10956	-5.40739	80.8312
9.44807	-3.78341	79.5968
56.4446	-35.9758	51.8793
58.4305	-30.0012	51.0694
53.4752	-32.7561	58.0123
54.2467	-41.6253	52.632
31.084	-15.576	74.028
28.6933	-14.3311	75.3328
33.2389	-16.7226	73.0483
40.8114	-22.6293	69.9466
40.021	-27.4377	70.0323
45.1753	-25.5369	67.2083
37.4107	-19.992	71.3767
8.62078	-7.38716	82.3347
51.9982	-47.4314	53.5152
54.2786	-50.5591	47.7893
49.4398	-42.8075	59.3457
49.5322	-52.0725	55.4745
62.4428	-12.2065	49.1402
61.2573	-18.1623	49.9265
65.3978	-14.4056	41.7618
29.4126	-70.6905	72.5439
30.387	-66.8358	74.3882
24.8655	-70.5321	77.7316
39.8393	-60.9728	65.3022
43.5154	-58.7225	61.5593
38.4216	-55.611	68.0093
35.4922	-62.0261	69.954
62.2889	13.4144	45.7876
59.5829	18.2791	44.748
55.7779	14.1743	51.3492
47.4214	27.0822	42.1727
49.0978	25.6369	42.5526
45.9936	28.5326	42.0779
56.8088	21.0453	43.9301
51.3362	20.7078	48.3353
53.7342	22.9667	43.5304
45.0447	29.7081	41.9674
7.05161	-58.8453	94.7117
4.2173	-58.9344	95.0193
46.3349	-38.4872	64.0652
44.4412	-42.2132	65.0723
47.9457	-34.193	63.6614
42.6449	-34.704	67.8827
36.8847	-50.508	69.9065
39.5797	-48.2114	67.9614
34.8529	-45.5609	71.5194
33.5217	-51.9055	72.8108
47.8301	14.6657	54.9599
49.7778	10.131	57.0374
45.5515	18.2003	52.8214
49.7511	-29.1638	63.0795
51.5284	4.77321	58.6952
13.798	-50.6166	89.8165
13.4498	-47.4746	87.1631
17.835	-50.9279	87.4586
21.8265	-51.6279	84.3053
25.6027	-52.0737	80.6975
21.1089	-47.9647	83.1215
43.7463	20.527	51.2863
41.7417	21.9569	50.0153
35.6583	20.5645	52.8535
51.413	24.3906	43.0427
47.0528	23.7485	46.565
40.1508	23.1561	48.928
33.0139	23.2215	50.7253
13.1824	21.8453	68.6091
14.5553	19.7989	72.2098
12.3299	24.3948	64.6812
17.049	15.8311	79.2701
16.7348	16.7925	77.8577
13.5668	17.2097	81.3097
17.6969	15.0311	80.0382
11.6233	30.953	54.7728
11.663	29.297	57.1421
22.5748	19.4713	58.1856
2.6813	33.9973	62.3089
0.75908	34.36	62.2787
66.5011	20.4151	29.4195
11.901	26.8802	60.4974
56.4117	-52.1449	41.3828
58.5897	-51.8057	33.0398
70.3924	-2.24554	31.4881
68.7866	-10.0576	32.6816
71.5945	-4.00497	23.3772
63.1338	-28.7907	35.9862
64.9244	-22.9364	34.75
62.0897	-26.7435	43.1418
63.8795	-30.5439	28.7559
66.9162	-16.7429	33.6075
67.2433	-18.5508	25.8208
21.3811	-69.2893	81.849
13.1962	-44.412	85.293
9.66069	-44.3619	85.9814
16.9588	-44.513	83.9813
20.5948	-44.6753	82.1711
26.7967	30.2499	46.6306
26.7598	29.8083	47.1984
28.6893	21.5325	53.6568
27.6771	23.1286	52.3452
26.9906	24.3934	51.275
6.3915	-44.5785	86.2321
3.53624	-44.3438	86.3362
6.19285	45.279	51.8131
7.72819	43.9954	51.1646
7.12372	48.4051	51.8543
4.45284	46.1244	52.4252
5.93345	42.241	52.2971
18.1595	32.0611	45.586
17.8299	33.238	45.2998
16.1449	32.5352	46.9714
8.98893	42.2394	50.5046
10.1779	45.3227	50.1109
2.63515	46.5827	52.5931
0.673829	46.6881	52.6613
7.87394	4.46485	82.758
8.83551	5.80942	83.7087
10.965	15.5213	84.7435
10.7135	16.9074	83.818
14.24	15.0114	82.9088
23.9983	0.1648	72.5625
23.7666	1.54961	73.6315
20.98	-0.792793	73.9312
10.1098	18.1878	82.8658
6.45821	38.8763	53.022
8.6778	51.8888	52.1235
10.6198	50.9982	51.4194
18.333	34.6039	44.8284
12.2097	49.4791	50.3837
13.0722	47.0199	49.3793
13.6025	44.8834	48.5152
24.6824	-6.62863	73.9977
21.8912	-6.37148	75.3117
24.9051	-9.49338	75.8862
26.1197	-13.0654	76.9916
22.8548	-11.6091	78.8074
25.2857	-29.4061	71.8885
25.3788	-28.3038	71.2186
23.5431	-29.0408	73.2507
26.4297	-26.8631	74.9946
25.2975	-25.0724	77.3765
25.9789	-25.5265	69.9735
23.0274	-24.5928	72.1098
26.517	-22.1005	68.6847
18.9565	-5.96605	76.8244
15.3213	-5.25616	78.3804
19.2855	-8.07999	78.6187
19.9832	-10.6015	80.2711
20.5735	-13.2047	81.4313
21.474	-28.5071	74.8624
20.4628	-26.8056	74.7625
20.3473	-23.6734	73.9531
20.6367	-20.027	72.7476
12.0015	-4.45873	79.243
11.6588	-2.60453	78.1546
14.8658	-13.4653	84.767
18.2241	-14.6005	83.5528
23.1837	14.0042	70.2828
19.5131	15.9734	73.1074
3.70717	22.6007	80.1732
1.33105	22.8182	80.2208
15.6018	18.0601	75.5206
10.0959	7.81053	84.7053
12.9463	7.64576	83.0483
16.7047	7.15319	81.2293
17.7925	9.18188	81.7646
20.6063	6.16505	79.2273
22.6951	5.16177	77.3631
23.5258	3.92157	75.8036
23.7624	2.73085	74.5915
17.9886	14.2168	80.8494
18.1649	12.9946	81.5542
18.2594	11.2453	81.9296
39.2328	-143.354	12.8503
34.6403	-144.723	15.9424
40.7561	-149.511	12.1634
43.4237	-141.851	9.72392
37.4331	-135.302	13.8563
35.3661	-123.54	15.306
39.5495	-121.916	11.8743
33.8292	-111.028	16.7916
30.9392	-125.046	18.7783
36.7444	-86.0804	25.183
40.8679	-83.769	19.8433
32.0942	-87.9176	29.8333
34.4034	-91.9471	20.2767
33.5294	-100.576	18.1686
28.8514	-102.32	22.1889
37.7452	-98.7801	14.3338
42.3521	-45.6805	66.0864
44.7739	-50.5581	62.5345
39.2301	-40.9341	68.9397
46.8676	-55.9409	57.8244
47.8645	-61.0565	54.0685
48.1069	-65.4256	50.7767
36.6297	-37.0572	70.2129
37.9731	-34.3801	69.9771
34.264	-33.8003	70.8306
34.7353	-39.3541	71.0104
32.5889	-32.2406	71.2499
31.404	-33.8992	71.5551
44.4868	-82.3359	15.2704
47.2614	-77.9729	18.9882
42.5558	-88.7156	12.1255
47.4919	-82.0679	10.4437
49.7588	-74.5576	23.6729
51.6245	-73.5604	17.1775
51.4119	-71.5927	28.4618
52.6769	-68.3999	32.7025
54.6511	-67.0761	24.8398
43.5153	-120.1	8.38047
45.4616	-132.22	7.32592
47.3849	-118.738	4.76735
42.0777	-107.524	9.50463
47.216	-140.392	6.4641
48.9443	-146.7	5.76544
50.8074	-138.962	2.92564
41.7292	-97.0863	10.5484
67.4105	-20.0693	18.2712
65.6504	-25.7904	19.6414
69.6413	-13.6671	16.9387
55.7007	-66.5888	17.594
54.4479	-70.0569	14.3122
56.6903	-66.9985	10.3121
73.1091	24.8375	3.38616
75.523	19.7969	-6.00433
59.9847	-51.7567	24.7532
61.0346	-51.9125	15.9578
64.225	-31.4065	21.3174
65.0622	-32.2886	13.5928
71.8397	-6.04603	15.8712
71.8134	-9.34523	8.39642
66.4292	-33.3332	6.48524
67.9004	-33.7321	-0.0972381
54.9422	-83.9812	-4.06468
55.1288	-89.4031	-5.08424
57.1387	-84.7017	-8.65262
55.1157	-79.2935	-2.69216
52.6607	-83.2913	0.566483
55.4939	-95.6035	-5.74026
55.6551	-74.8592	-0.603075
54.2168	-74.2654	4.93959
57.3493	-75.6555	-6.2169
56.5381	-71.0261	1.37956
75.4314	1.30466	-5.81528
76.2982	8.34589	-10.5542
74.1835	-5.9113	-1.31827
77.1528	15.6177	-15.7594
77.842	22.5462	-20.4574
78.514	29.4615	-25.7966
79.4641	25.606	-35.7623
78.9957	36.2216	-31.563
62.2206	-52.4152	7.45715
63.357	-52.9574	-0.715517
72.5151	-12.2274	1.51981
73.0562	-14.7123	-4.35062
51.2353	-117.34	0.800068
52.8553	-129.356	-0.176908
52.8903	-73.7245	11.0626
51.3356	-77.819	7.93319
54.2533	-137.41	-1.08588
55.6531	-143.386	-2.13456
61.6213	-113.391	-16.0889
62.6806	-123.262	-17.7245
59.2905	-85.2061	-13.2196
60.8516	-84.561	-18.4223
59.2465	-80.6056	-12.5549
59.4265	-76.0704	-11.6429
63.1991	-130.392	-19.3532
63.4184	-136.039	-21.0386
64.3645	-54.0891	-7.86389
69.1874	-33.5299	-4.73547
70.5519	-32.5992	-8.35636
68.3381	-37.5306	-4.94993
73.6202	-15.9865	-8.31281
61.0196	-93.2902	-26.5745
59.6162	-90.3042	-33.6193
60.8895	-87.0809	-25.5072
61.2656	-81.3624	-24.8119
60.777	-76.5869	-31.4457
63.5137	-65.4268	-22.7637
68.8237	-46.4092	-18.2899
70.1838	-44.9308	-25.2506
58.1968	-119.512	-45.4195
58.5628	-126.758	-47.3207
54.8286	-117.04	-52.3609
57.7176	-111.905	-43.6881
68.3064	-47.7723	-32.4501
70.178	-43.7524	-31.6869
71.6997	-41.7497	-31.3702
29.8674	-145.859	18.8281
28.2845	-137.906	20.2433
25.0974	-146.988	21.4786
31.2832	-151.994	17.7585
23.4757	-103.856	26.5614
18.1192	-105.306	30.7249
24.2876	-114.114	24.6776
24.07	-95.4259	29.1658
32.766	-81.5757	46.9663
30.036	-84.9792	41.1856
35.1932	-78.842	51.3662
26.7168	-89.2033	34.7331
20.9735	-90.4921	39.4062
26.1454	-126.181	22.4475
21.288	-127.68	25.8759
32.9696	-41.5824	72.3513
31.2035	-37.9228	72.6864
37.1185	-76.1685	55.0344
29.9981	-35.5984	72.6941
28.0365	-36.9436	74.6681
28.9095	-33.7674	72.7166
28.1013	-32.271	72.7807
27.6505	-31.1169	72.7505
26.3667	-33.3132	74.5821
29.6812	-52.6401	76.5429
30.4253	-57.21	76.179
30.8744	-62.3107	75.388
22.7318	-29.6681	76.9755
20.2699	-29.4575	79.3293
22.3458	-28.9449	75.5322
24.8353	-29.563	73.4286
22.269	-29.2956	74.9487
19.6314	-28.1998	77.6355
22.1103	-29.9969	74.4477
22.0236	-31.7554	74.1404
19.2159	-29.2552	76.1504
21.9063	-35.0824	74.4992
21.8496	-38.9457	75.2457
18.9202	-34.4767	75.7939
13.0004	-106.301	34.3444
13.119	-97.6882	37.4511
14.4241	-116.805	32.102
20.2289	-148.146	23.8224
18.7034	-140.297	25.7522
15.4182	-149.052	25.8618
21.2228	-154.048	22.543
16.5369	-128.96	28.9152
5.92273	-92.09	48.4193
9.74978	-91.9207	46.6506
7.67024	-86.6237	56.3045
11.1598	-149.681	27.302
11.9131	-155.423	25.8965
10.1509	-81.211	63.8969
16.6248	-27.1274	79.751
16.3501	-27.4996	78.8326
16.0078	-28.3034	77.8626
16.0227	-30.3088	76.9517
15.9081	-33.7609	76.9309
15.7827	-37.5633	77.6228
75.5759	51.4295	-17.7839
78.1055	46.8506	-27.6661
75.9185	57.7134	-24.7981
71.9987	56.6007	-8.59409
79.3045	21.7113	-44.9845
71.27	-29.7727	-60.1195
68.7853	-32.3619	-64.2689
50.8141	-98.7294	-54.2704
50.8481	-89.786	-53.0785
53.5948	-100.887	-48.8162
51.2502	-107.444	-55.8455
48.0649	-97.307	-59.2933
51.8475	-115.094	-57.5797
52.5172	-122.62	-59.4468
48.7154	-113.71	-62.2962
56.7956	-86.1936	-40.8942
56.77	-95.0206	-41.3261
53.8776	-83.0421	-47.2267
57.7424	-78.2454	-40.0359
23.814	121.758	-28.967
31.2281	118.433	-28.4334
23.331	121.911	-44.9496
15.9208	124.128	-29.255
21.3828	81.9788	-124.276
22.2689	95.181	-110.933
29.0052	80.287	-121.694
20.4412	67.2892	-134.566
13.391	83.0363	-126.091
19.7336	52.4708	-140.462
27.0277	51.24	-137.874
19.2339	37.5458	-143.305
12.2986	52.8588	-142.216
22.5933	105.858	-95.7014
30.3136	103.607	-93.3072
14.528	107.462	-97.3103
22.8112	113.963	-79.0589
6.66416	122.636	-63.6539
-1.91424	123.024	-63.9517
6.93516	125.574	-46.1885
15.0071	121.454	-62.9678
6.41452	116.886	-81.231
18.8805	23.8268	-144.144
25.5393	22.8933	-141.532
18.4932	10.3393	-143.293
12.0856	24.3296	-145.923
18.0142	-3.15346	-141.052
24.4547	-3.64571	-138.407
17.5984	-15.7757	-137.425
11.5243	-2.52341	-142.988
15.781	-46.3656	-116.217
21.6937	-46.6956	-113.869
15.5068	-54.8845	-106.002
10.1432	-46.3436	-117.34
16.5945	-37.1014	-125.493
4.5204	-26.4926	-135.953
-2.03861	-26.4409	-136.498
4.5312	-15.1259	-140.61
10.9023	-26.6906	-134.56
4.38595	-36.7461	-128.87
14.6755	-93.8046	-83.0054
14.7629	-86.2217	-84.0007
19.9597	-94.252	-81.5259
14.6419	-100.924	-82.9377
9.54228	-93.5166	-83.6873
4.74058	-107.261	-83.2575
9.70238	-107.602	-83.2113
4.95057	-114.581	-83.4233
-0.018058	-107.088	-83.2144
4.69678	-100.08	-83.2036
15.7219	-61.8416	-97.6218
21.0293	-62.3624	-96.1034
15.4804	-68.6745	-91.3465
10.0636	-61.2101	-98.456
14.9955	-77.2785	-86.8347
20.5329	-78.0196	-84.823
9.73419	-76.5984	-87.8545
4.52217	-76.0655	-87.715
4.55415	-67.4284	-92.3394
4.49458	-85.3498	-84.609
-0.706092	-76.0017	-87.3074
50.4494	104.17	-28.0442
56.2137	97.8946	-27.7734
50.8235	103.926	-41.9705
44.4274	109.544	-27.9677
46.5684	46.4677	-125.077
52.1298	44.3907	-119.894
45.8767	32.9134	-128.16
40.6201	48.2121	-129.828
47.3004	59.8122	-119.179
47.7694	72.5427	-109.859
41.9285	75.4679	-114.174
48.6593	83.4457	-97.9902
53.4844	68.9766	-105.065
49.7963	91.9592	-84.9531
55.7668	86.5951	-81.6522
43.7356	96.4162	-87.8726
51.0185	97.7967	-71.039
51.0447	101.909	-56.5865
44.7653	107.312	-57.8951
57.0091	95.7988	-55.0535
45.0149	20.0205	-129.401
44.1729	7.39319	-128.928
39.0434	20.9946	-133.948
50.4838	18.8331	-124.436
43.2225	-4.85858	-127.157
48.6695	-5.30408	-122.388
42.319	-16.5912	-123.74
37.4129	-4.57721	-131.26
41.0549	-27.1527	-118.869
39.7763	-37.2614	-111.879
35.6106	-27.4756	-122.579
45.9649	-26.9948	-114.325
38.8649	-46.6171	-102.752
43.6364	-45.6937	-98.8546
38.1609	-54.8311	-93.8481
33.4802	-46.7734	-106.908
37.5258	-62.5298	-86.2876
36.841	-70.6445	-79.8427
32.3106	-62.9128	-90.0288
42.11	-62.0364	-81.9745
35.6398	-94.9292	-73.5244
35.4314	-102.714	-75.2725
30.5351	-94.9021	-76.8299
35.8375	-86.9875	-72.9946
40.2829	-95.3278	-69.5612
24.9005	-108.665	-80.8543
24.8212	-115.354	-81.0822
19.7089	-108.194	-82.1312
25.0673	-101.853	-80.3544
30.2155	-109.274	-78.9176
36.2271	-78.9358	-75.2366
40.7838	-78.6018	-70.7545
31.3799	-78.8463	-78.9476
38.3667	36.9127	44.2091
38.5426	37.7934	43.1346
67.5015	55.7693	-87.2428
68.7345	62.6969	-77.206
71.2807	50.4459	-79.693
66.6096	46.9092	-95.784
63.3193	60.4681	-94.0531
70.216	68.149	-66.9837
73.897	61.5938	-59.859
65.9342	74.5398	-73.0082
71.2033	72.3544	-56.4671
70.5919	76.1287	-46.2432
73.3924	69.8224	-39.6365
66.8571	82.6798	-50.3629
55.328	17.689	-119.342
56.281	29.7021	-117.777
59.7311	16.2389	-113.881
54.4379	5.76668	-119.027
57.0816	42.2544	-114.544
57.9249	54.1283	-108.757
61.6652	39.5858	-108.575
50.4023	-26.4949	-108.791
52.2898	-16.4635	-113.554
54.5198	-25.9965	-102.767
48.6281	-35.8981	-102.412
53.4544	-5.81464	-117.067
57.8187	-5.98373	-111.501
47.6212	-44.3856	-94.5727
51.2997	-43.2731	-89.2536
47.0655	-52.7964	-85.4384
46.0716	-60.7132	-77.7534
49.4823	-58.4768	-73.9323
45.0998	-78.2563	-65.0364
48.8436	-79.5844	-58.4506
44.7493	-87.2674	-63.8084
76.0693	21.8129	-73.4385
75.0684	14.216	-78.9573
74.289	25.6654	-80.4308
61.1194	91.1239	-26.7717
61.6862	91.2467	-40.0886
79.1165	42.7024	-37.778
78.4972	49.0527	-44.8247
64.9712	-23.7356	-87.0348
61.901	-24.7936	-92.0416
66.8436	-15.7999	-91.1718
67.7273	-22.9328	-81.5365
62.7522	-31.4544	-81.5042
67.7883	-7.2623	-94.6107
64.9385	-6.85684	-100.53
68.6599	1.47147	-95.9156
70.39	-7.8097	-88.041
69.6752	10.8739	-95.5045
66.8619	12.8409	-102.078
70.8624	20.2001	-92.6757
72.0926	8.63851	-88.5817
56.3102	-51.1136	-64.1411
54.0347	-53.7409	-67.2228
58.3079	-44.9446	-69.6954
58.752	-48.6157	-60.8969
54.6653	-57.7629	-58.9607
66.0021	-34.4816	-68.2245
63.7737	-40.2566	-63.0692
63.265	-36.4365	-71.711
68.2194	-28.5073	-72.5991
51.5437	-81.081	-52.6737
52.5215	-72.6846	-53.4187
70.8376	-37.8192	-12.4543
71.5202	-33.8798	-11.6247
68.9608	-40.234	-9.4012
71.6504	-31.8534	-10.7376
77.1812	-7.25058	-19.8371
78.3361	-2.80483	-23.3611
90.7943	-5.73673	-56.4051
91.1444	0.607056	-55.8994
91.4654	-5.99562	-55.326
79.1432	-41.5122	-32.413
77.7866	-43.805	-28.1058
90.9797	6.25175	-53.8523
89.8221	6.6245	-54.8284
90.5333	10.5932	-50.6569
91.8667	5.56815	-52.8206
83.8906	7.03991	-31.7762
82.5853	6.85767	-32.7437
89.8542	13.3524	-46.7315
90.8908	12.5258	-45.6689
84.9642	-27.1411	-46.9096
80.7722	-40.2707	-24.0847
79.8012	-39.351	-21.4023
79.1531	-43.0164	-23.9613
79.2847	-0.557432	-25.4324
84.9687	12.9529	-41.7716
83.322	10.2974	-38.3243
83.8642	11.3127	-43.2587
81.334	6.45303	-34.3224
80.37	6.0951	-36.2529
88.5191	6.62047	-55.4515
79.8733	5.59223	-37.3976
81.0456	6.90605	-40.4425
82.5344	7.84442	-44.3747
81.0234	4.67644	-44.4773
84.1552	-33.5497	-37.2235
84.0748	-33.2725	-29.2446
76.9538	-44.3844	-24.2914
78.6168	-37.7615	-19.6143
79.6394	-34.7682	-20.7849
80.9008	-32.62	-22.2787
81.7413	-31.1951	-23.6339
91.52	-6.19018	-54.5073
92.1923	-0.215977	-54.02
89.2867	11.8631	-37.1943
89.5593	10.8274	-36.851
90.731	12.6306	-40.8322
89.2885	10.0108	-36.7798
90.4736	10.8694	-40.1699
88.6459	8.98785	-36.8135
92.1836	4.95706	-52.0391
91.8328	8.89135	-48.9002
92.0611	4.35182	-51.5381
91.4522	11.5895	-44.8665
91.5278	10.6628	-44.4635
91.0332	10.1393	-44.1168
91.3036	7.80211	-48.1978
91.6032	4.12788	-51.2717
89.8215	-10.0135	-52.5173
88.0754	7.63472	-37.0755
85.2595	1.17045	-32.7888
