1903
25.5315	-29.4191	66.1128
5.19658	-25.8736	75.999
0.495151	-25.9611	76.7208
5.42656	-22.7936	78.1122
6.3028	-21.5337	74.4397
11.8009	-26.5498	73.8176
27.305	-20.6975	59.7227
30.4146	-23.981	57.2337
10.1982	-15.9093	69.8568
14.8358	-17.0918	67.7966
29.2687	-38.0818	66.7129
26.0962	-37.1452	69.8357
5.83628	-15.2962	71.029
12.3397	-33.1991	76.0719
5.16968	-32.5659	78.1173
32.039	-38.7105	62.6915
81.404	-22.0099	-57.5237
78.7211	-23.2728	-62.8043
80.3645	-14.659	-66.4954
82.6707	-14.5867	-60.7295
79.1628	0.36172	-29.2148
80.1967	3.6324	-38.026
80.4431	17.3361	-34.7823
77.4076	5.09983	-22.4198
81.1695	11.523	-52.5974
80.7707	4.92761	-46.6678
77.8857	-33.2302	-47.1757
75.815	-38.9531	-41.1083
75.9773	-31.2171	-57.0386
79.8367	-27.9106	-52.674
86.5416	-12.5995	-59.7539
85.4715	-21.7764	-56.3468
83.8587	-36.6205	-42.7372
86.6274	-29.7857	-49.5594
80.7389	-42.8268	-33.2826
78.2747	-42.5065	-29.3014
81.2657	-36.0409	-21.9869
91.5404	-20.0213	-48.837
93.7199	-8.0252	-56.847
85.5146	-26.8225	-36.2472
76.5568	-19.4265	-15.3749
75.7616	-27.5585	-13.554
81.9457	-19.8323	-26.8118
82.2744	-23.6179	-26.0118
82.0129	4.35163	-45.0452
90.2617	-13.3429	-62.4156
92.5828	12.9176	-46.4746
90.087	13.8094	-48.9924
87.7731	11.596	-51.2424
95.6615	-1.24374	-58.5886
88.4553	4.05043	-39.5998
86.9318	-0.326673	-34.0529
92.7815	-11.0654	-50.5118
92.2795	-8.17051	-50.1877
83.0027	-5.25875	-60.5346
86.1689	-2.16473	-58.416
81.6312	-32.4534	-45.9762
86.3598	-14.4653	-44.3377
85.0034	3.22864	-53.1527
82.5636	1.37181	-55.2801
91.7236	4.06446	-46.3332
0.100916	97.3187	36.945
17.4666	96.0421	35.9815
18.1618	106.501	20.0608
0.209772	108.37	20.1748
-0.0431001	84.5162	48.3174
16.3584	84.0677	47.1308
27.64	72.2677	52.1902
3.18414	9.56407	88.2613
-0.991026	9.76707	91.3226
4.41106	22.946	92.5605
-1.4691	23.743	94.4099
-1.27214	19.6365	96.3511
-1.14437	14.7446	95.8156
-1.89985	27.652	89.8529
-0.293414	73.0446	55.8718
-0.232349	66.4903	58.9477
15.2762	64.851	58.7714
15.1033	72.4763	55.6114
-1.13594	44.0404	64.5587
-0.852269	47.0743	61.336
3.52971	49.1124	58.9987
-0.794117	50.3226	59.4892
0.402931	-23.072	78.6509
0.39808	-21.639	74.6972
0.338151	-22.8219	80.8631
0.281585	-21.3781	82.3452
0.113822	-15.3344	71.1519
32.1413	102.55	18.5999
29.0217	66.0969	55.0062
31.6818	59.1918	55.7164
32.0412	43.4532	39.2561
30.5272	47.2985	43.958
22.8314	45.65	44.2029
45.7532	102.83	-8.80967
44.1645	96.5149	14.2057
37.4348	42.2801	39.8288
38.2818	46.784	42.9116
54.6309	81.0077	18.1299
37.8956	45.2706	41.2866
43.5648	42.4844	39.2579
37.6893	43.0652	38.9627
50.4272	47.4014	41.2899
65.3434	71.6036	3.27516
45.7657	37.7718	35.7041
46.3946	38.1446	35.5863
41.5925	40.577	37.0099
55.8559	41.3442	35.2327
16.0388	51.3125	54.4307
69.5034	-58.791	-18.3982
81.9361	4.09682	-62.734
79.9212	9.39891	-76.5082
74.5657	-27.5283	-72.2759
77.2222	-15.8817	-78.5105
78.5659	-3.26331	-80.8308
81.4923	-4.77211	-67.1041
70.4041	-37.8428	-63.802
17.7613	-94.402	61.1186
30.2945	-90.683	51.762
57.5955	-64.6467	40.5317
73.8951	60.8102	-15.8999
33.1208	110.632	-6.93845
18.1891	115.557	-6.52462
58.5253	-55.1986	45.8274
8.91677	-9.1973	78.5627
20.8221	-12.9833	71.8564
6.60942	-3.64723	77.8673
14.3131	-10.5097	76.0368
11.0767	-5.4962	75.0419
36.0257	-28.8147	64.5324
35.8959	-22.0227	64.5362
73.7183	-46.4014	-29.6282
73.7236	-27.421	-5.56064
74.4919	-18.4693	-7.75742
73.6063	12.4565	-6.66977
72.2066	-1.56502	0.737133
49.4462	24.7937	31.3268
71.4585	-14.0787	4.96655
71.1256	-24.8523	7.70563
13.1055	22.0864	68.3961
12.9579	11.6194	77.2466
14.4991	9.17691	72.5902
33.3613	-13.1712	64.212
54.5275	-35.9832	53.2888
44.3905	-28.2911	61.3419
51.6347	-44.7233	57.2687
62.7289	-20.7484	35.9851
45.4039	-50.2605	63.4141
37.1303	-53.2388	71.7186
46.8581	13.4296	41.3196
44.2525	19.1333	39.0856
43.0979	-35.7489	63.7928
39.2568	-40.8112	66.7175
17.7487	-47.4985	86.2044
31.8474	22.6057	45.2372
9.73386	20.5587	85.5045
66.7265	-10.8701	18.8714
67.5519	-22.5872	21.4054
8.76096	50.7859	56.533
16.6341	-6.96341	70.8457
22.4605	-24.9689	66.2873
20.3297	-18.6502	64.2783
34.4897	-138.272	18.4154
36.1133	-150.873	15.208
45.399	-148.149	9.11893
43.1901	-135.067	11.8631
45.2074	-94.5612	21.4456
36.8523	-99.5905	30.2233
33.9818	-117.116	24.6007
42.4473	-112.832	16.5626
33.9536	-33.0921	65.7262
55.0824	-79.2456	16.0065
59.6832	-70.3929	20.9985
50.656	-131.804	4.71403
52.4896	-145.25	2.41194
61.8592	-70.6418	6.69391
62.0891	-80.4176	-8.45756
58.7057	-79.4689	2.724
62.2979	-98.5429	-35.0413
75.0694	-34.3523	-13.5119
63.1901	-83.1888	-34.1042
55.027	-124.027	-55.2976
55.2301	-109.567	-50.8724
24.9183	-140.797	24.6715
26.4532	-153.115	20.309
25.7321	-104.19	39.9542
24.0361	-121.004	33.2257
28.2453	-32.0213	68.4835
18.6092	-25.7623	71.2888
18.7057	-27.9376	70.5053
15.9924	-154.981	24.777
19.0603	-34.7911	73.6619
79.7683	51.3368	-37.0764
50.244	-88.5575	-59.5469
55.4883	-92.2322	-48.6219
49.0647	-106.155	-61.2269
50.0073	-121.212	-63.596
58.4257	-72.8641	-49.7664
32.9407	113.005	-39.939
17.4997	118.477	-40.8883
16.9907	90.9349	-112.812
32.7949	87.7778	-108.744
31.2422	60.7512	-133.763
15.71	62.5933	-137.829
29.6062	31.8776	-143.375
15.2925	33.1968	-147.46
33.0703	105.89	-75.6798
17.2553	110.119	-78.4523
0.385005	111.617	-79.3379
0.387169	120.07	-41.531
28.4127	5.47673	-143.676
14.9835	6.73576	-147.896
27.2299	-19.5203	-137.614
14.0008	-18.8988	-142.126
25.4478	-39.9054	-125.346
23.2163	-56.6742	-106.511
11.7232	-56.2852	-108.6
12.9949	-39.5596	-129.847
0.0899872	-39.3957	-131.585
0.134074	-18.5819	-143.463
10.2718	-86.3452	-85.7036
21.1108	-87.1513	-82.974
20.1657	-101.566	-82.2291
9.9258	-100.804	-83.6647
9.8183	-114.686	-83.1086
0.0828369	-114.476	-83.7379
0.0726483	-100.052	-83.2441
22.538	-70.4853	-91.058
11.3051	-68.8273	-93.8413
0.0158445	-68.3285	-93.4166
0.04634	-85.6945	-84.8434
58.6531	93.4557	-39.3474
46.6218	104.46	-39.4133
56.2807	52.7082	-116.694
55.1061	27.3456	-126.331
43.4917	29.8381	-135.863
44.6888	57.288	-126.049
45.6472	82.2124	-102.584
57.3526	74.5179	-95.2611
59.5103	87.5762	-68.6793
47.1813	98.0099	-72.3105
53.5504	3.11268	-127.658
41.9738	4.25504	-136.559
51.4468	-19.3799	-122.538
40.2249	-19.7641	-130.861
47.8973	-38.762	-110.722
37.7061	-39.7526	-118.533
45.8887	-55.1735	-92.2719
35.1733	-56.5726	-100.248
33.897	-71.4141	-85.2631
40.8371	-103.496	-71.8603
30.7555	-102.55	-78.5129
32.0495	-87.5071	-77.5319
42.0711	-87.3285	-69.9239
30.0887	-115.813	-79.6851
19.5538	-114.895	-82.4794
67.3101	64.6502	-85.8033
75.2749	53.7409	-72.6407
73.4064	39.499	-91.7272
65.9464	46.8102	-105.709
76.7147	62.9473	-51.4558
69.5989	75.3996	-62.8162
64.5408	24.191	-115.678
62.8026	1.85229	-117.427
60.5314	-18.6903	-111.387
56.1001	-36.6326	-99.9653
53.5844	-52.0736	-84.0656
76.8367	14.8452	-89.7599
63.4028	-34.1755	-89.86
67.816	-18.0996	-100.779
73.423	-17.0836	-89.372
69.3266	-30.9531	-80.7857
69.865	0.164197	-106.306
74.9861	-1.88695	-93.4118
71.7418	20.0165	-103.419
59.0515	-47.9316	-76.5584
64.5408	-43.0427	-69.7519
60.3073	-55.3889	-59.0476
95.6373	-0.573722	-59.9478
93.6221	-0.0523908	-61.9215
92.4543	10.2059	-56.5724
94.6043	8.91068	-54.6293
86.5656	10.4026	-41.5354
88.9257	10.0347	-39.1836
84.4925	8.67991	-44.5908
90.6517	-1.65729	-62.5038
89.6753	8.38757	-57.6194
94.042	-12.1144	-58.0641
93.5792	11.0405	-45.3988
94.9494	7.39326	-53.4978
0.323001	117.61	-6.72861
0.3526	92.0073	-113.883
40.4454	-117.658	-74.1366
0.291802	63.0328	-138.757
0.19844	33.5957	-148.252
0.174566	7.37029	-149.151
0.0292043	-56.145	-108.414
-71.6471	-33.5697	10.5005
-73.7079	-34.6189	-4.16074
-71.238	-43.5743	10.5789
-61.8156	-103.791	-11.0823
-57.0737	-105.375	-2.08762
-58.6509	-141.521	-6.68106
-57.305	-128.4	-4.09127
-62.0207	-124.979	-13.1666
-62.4594	-137.818	-16.224
-57.5979	-89.5703	-0.998451
-49.8649	-108.21	7.36637
-51.7545	-90.3931	9.76185
-61.9938	-89.7343	-10.4838
-64.8889	-89.1131	-20.4098
-64.4418	-102.391	-20.8539
-69.8622	-52.4458	9.47699
-66.7432	-61.1654	7.69096
-65.0494	-60.781	21.8774
-67.5156	-51.9705	24.8574
-78.1252	40.6403	-23.7507
-75.3163	27.3824	-13.2312
-68.2795	37.5766	8.89034
-71.3887	50.4319	-2.92158
-80.8737	23.4015	-63.4791
-81.2446	32.7231	-45.1283
-79.9548	44.537	-58.0473
-78.2627	33.0478	-77.012
-4.12858	-107.271	49.7341
-11.7671	-106.396	47.0433
-12.0871	-123.75	39.821
-4.88187	-125.052	42.7847
-14.493	-142.979	29.2357
-6.48895	-144.113	31.836
-7.66816	-155.865	27.016
-71.9433	-44.5022	-42.6936
-66.022	-56.2332	-45.5171
-71.0145	-55.0233	-31.7317
-73.7725	-36.6493	-49.8085
-67.0497	-46.0997	-53.9932
-64.0459	-134.259	-25.853
-61.9329	-129.488	-39.3437
-68.5262	-43.4201	26.1364
-68.8412	-32.1688	24.2609
-70.1194	-53.9898	-5.7768
-6.80969	-56.2662	96.5228
-15.7863	-55.8541	92.1554
-16.5568	-64.9966	93.5723
-6.66056	-64.634	97.5194
-25.4594	-54.9032	82.672
-26.438	-63.0862	84.6059
-6.36924	-47.8275	90.0182
-7.05609	-73.8618	91.4612
-6.4292	-83.0706	79.7084
-15.2788	27.7311	61.6794
-14.2245	32.7769	53.9518
-18.7245	28.0217	50.5895
-20.0845	22.2018	56.7794
-54.8157	-15.6289	50.184
-43.1578	-9.24878	59.3497
-41.1274	1.12056	57.7013
-52.7156	-5.57286	49.7825
-62.5173	-9.37277	34.3746
-50.48	5.38162	46.5788
-63.765	22.4546	17.4202
-68.5707	19.7203	10.3922
-44.4967	-18.5716	59.808
-56.0354	-24.7911	50.4578
-5.96858	37.8262	71.0087
-6.52114	31.6727	80.4525
-30.286	94.2719	32.1135
-41.8578	89.8679	26.5104
-39.5221	80.431	36.7864
-28.6259	83.7237	42.5164
-5.84714	-95.0531	64.8589
-64.4331	-29.5313	37.5003
-63.6157	-40.9579	40.6262
-36.9045	-61.2202	70.5555
-47.9786	-58.9359	58.1415
-47.5043	-67.8177	53.4803
-40.2009	-86.3415	39.0944
-44.769	-75.8605	47.5056
-55.0449	-71.8165	33.3506
-49.4223	-81.9165	26.9673
-7.11276	26.6657	88.534
-11.3443	27.7736	75.9183
-11.9943	23.0247	82.7471
-19.434	14.9804	61.4187
-27.3221	9.29051	59.0674
-30.7494	-31.343	65.5903
-13.7672	4.7627	72.5386
-12.4964	2.33572	71.1344
-9.70572	-1.87275	73.828
-12.1855	-0.164051	69.9023
-13.2981	-2.78131	70.0153
-4.39732	6.54556	83.2457
-4.33596	4.2067	80.0537
-18.2473	-1.94309	65.8159
-7.43087	19.2172	94.3856
-12.3402	17.5819	86.6609
-11.4476	13.3624	85.8974
-6.97871	14.3942	93.1811
-32.3629	-44.4101	71.2458
-23.8459	-46.7663	79.0015
-22.4771	-39.5902	76.7708
-29.1688	-37.5042	70.2244
-31.2968	-19.7185	66.9194
-26.5734	-17.2174	69.074
-4.53144	1.29561	78.8796
-4.87611	-3.64181	78.9711
-10.761	33.5666	67.621
-17.4121	13.4454	68.754
-17.4356	10.4251	69.9452
-17.1517	13.2867	71.0826
-6.87132	0.214477	76.8807
-16.0279	5.61806	69.4186
-5.45265	-9.20233	79.6385
-6.12652	-13.7168	81.0185
-28.2922	-10.9787	65.8315
-23.2172	-9.33057	67.6789
-14.5314	-35.7786	81.6115
-14.8488	-40.4376	81.9366
-6.20033	-40.5076	84.5483
-5.81448	-35.715	84.2368
-23.1218	-23.546	71.8257
-27.7804	-26.987	66.7707
-15.5137	17.8883	73.929
-21.3081	-35.184	76.6496
-60.5122	52.7194	29.4893
-64.4743	37.1609	18.7493
-61.8608	37.2151	23.8492
-51.787	73.7798	27.5002
-50.4223	66.5665	36.2026
-38.3357	71.8369	45.2208
-63.1514	63.5027	14.59
-61.5378	55.5847	24.2713
-39.096	67.6366	48.1134
-50.3207	63.2339	40.174
-23.6215	52.861	50.3311
-23.4757	56.5785	55.0364
-31.8328	57.8416	53.2606
-31.3253	54.0297	49.5591
-10.0791	38.2188	59.3286
-5.28712	42.7444	63.6084
-4.86402	45.7042	60.4431
-25.823	17.719	54.644
-23.7476	24.4567	49.2936
-34.8524	18.9468	47.3279
-38.3245	11.183	52.6542
-52.0049	21.5867	30.5892
-55.1752	27.6209	25.2852
-59.627	24.3639	21.8562
-50.705	55.1053	42.4367
-40.5046	57.3711	48.8671
-40.4958	62.1902	49.616
-57.6397	47.4082	35.0386
-58.5558	37.095	27.7993
-43.2608	43.8921	38.2468
-42.8247	43.2226	38.2086
-38.1081	45.5953	39.772
-38.1678	46.317	39.9518
-31.6486	46.7416	40.4965
-31.8881	46.0701	40.3349
-26.0002	44.3784	40.0536
-25.1381	44.9407	39.9669
-21.1534	41.2913	39.5945
-20.2423	41.7541	39.3987
-17.1888	39.4635	40.2721
-19.0691	42.6529	40.1004
-49.7687	33.0631	30.7004
-48.3439	30.9765	32.0558
-32.4821	44.5532	40.2315
-42.0033	41.7546	38.1477
-45.0023	38.9092	35.2881
-47.5591	34.7293	31.1125
-47.5791	35.2208	31.102
-46.6167	35.8368	32.7598
-39.3441	53.0356	46.2474
-49.1693	41.5143	35.9701
-45.3953	46.0435	40.1565
-30.6777	29.8507	43.7443
-42.2443	29.0861	39.14
-22.1157	32.7864	42.5873
-20.0308	34.4333	41.2642
-18.887	35.9603	40.4722
-19.6107	36.2066	39.6464
-12.7372	45.0235	47.8476
-16.8734	49.5671	48.7487
-18.4428	38.7303	39.5649
-24.0491	45.6811	41.0266
-31.2324	47.6101	41.6509
-17.8442	44.5667	42.0417
-30.7072	32.1421	42.9516
-41.5923	31.8813	39.0578
-41.3086	32.9217	38.6697
-20.672	35.3727	40.0098
-22.668	34.4289	41.1563
-20.9901	35.8502	39.155
-30.7672	33.0021	41.9392
-30.3031	31.7736	40.4042
-20.75	37.578	37.448
-21.1293	35.3943	37.4967
-20.6017	36.3959	37.3727
-44.6874	39.679	33.8748
-8.67658	58.8431	59.0769
-6.259	53.7199	58.4167
-22.3309	28.0882	45.9155
-17.3009	36.2698	41.7538
-11.6416	48.4594	51.9735
-21.6987	30.4634	43.9908
-17.5538	-26.7401	71.7573
-24.4548	-28.5668	66.7502
-6.66732	-18.8755	82.0512
-6.6636	-15.9851	81.8026
-11.9256	-19.1414	80.0051
-11.7265	-21.7934	79.4433
-6.20906	-21.1095	81.4242
-17.7549	-21.544	75.979
-11.6421	-16.3363	80.0938
-17.613	-18.9674	76.3509
-11.3257	-23.8874	78.0574
-4.8122	-22.8575	80.4394
-28.9751	-28.3232	65.6524
-18.4115	-26.8467	74.0782
-18.1265	-26.6554	73.0792
-18.9968	-27.6721	75.3511
-13.279	-28.0522	81.4265
-12.4695	-26.2943	80.7046
-4.9935	-25.0629	83.5698
-4.71043	-23.6881	81.7331
-11.6667	-24.7713	79.2006
-5.27324	-27.0361	84.6981
-24.8773	-28.9826	66.6697
-4.35189	-23.6359	78.3617
-5.6054	-29.3262	85.3198
-5.60396	-31.7736	85.1672
-10.1533	-14.184	80.0501
-4.59856	-23.1569	80.438
-11.2903	-24.2373	78.0131
-14.3671	-32.3343	81.7705
-13.9614	-30.043	81.8589
-10.8555	-24.4898	76.0924
-10.8705	-24.8409	76.0754
-15.8944	-24.9302	70.7417
-10.6572	-23.2069	73.3716
-24.8209	-31.2275	66.4937
-4.22593	-26.4574	76.1183
-4.52557	-23.3043	78.251
-5.51201	-22.124	74.6176
-10.8577	-27.5517	74.0975
-27.5385	-21.9347	60.2169
-30.5186	-24.8534	57.5968
-14.8388	-18.107	68.2747
-10.0805	-16.6677	70.225
-28.1485	-38.8916	66.5637
-24.856	-38.1535	69.6863
-3.56265	-32.9947	78.1743
0.81607	-32.7774	78.2196
-5.63516	-15.7747	71.2362
-10.8091	-34.1229	76.2024
-31.2033	-39.1452	62.6282
-81.7348	-20.0189	-57.1398
-82.948	-12.5212	-60.3453
-80.6026	-12.6088	-66.1703
-79.0198	-21.3207	-62.4775
-77.648	6.35124	-21.4095
-80.5107	18.8578	-34.0669
-81.2583	13.3897	-52.081
-80.9423	6.70897	-46.0463
-78.3611	-31.4231	-46.8192
-76.3624	-37.2305	-40.8157
-80.2468	-26.0087	-52.2955
-76.3537	-29.4109	-56.7188
-86.797	-10.4171	-59.3601
-85.823	-19.6616	-55.9708
-84.4016	-34.6512	-42.4221
-87.0736	-27.6894	-49.1967
-81.4044	-40.9595	-33.0796
-78.9722	-40.7032	-29.1062
-91.9259	-17.7705	-48.3936
-93.9648	-5.63128	-56.4443
-77.1292	-17.9437	-14.4787
-76.4179	-25.9395	-12.8642
-82.4798	-18.0847	-26.0913
-82.8547	-21.8226	-25.357
-82.2062	6.15033	-44.404
-90.5193	-11.0049	-62.0783
-90.1639	15.9143	-48.4859
-92.6748	15.074	-45.9449
-87.8715	13.662	-50.7399
-87.2095	1.49419	-33.2835
-95.8477	1.22753	-58.2077
-93.0981	-8.77646	-50.0364
-92.566	-5.9111	-49.6896
-86.3554	-0.0226455	-57.9781
-83.2123	-3.19141	-60.1156
-82.1175	-30.5349	-45.608
-81.5883	-2.28267	-27.6451
-85.1777	5.24748	-52.6383
-82.7477	3.34436	-54.783
-91.8993	6.21652	-45.764
-86.7263	-12.4516	-43.7674
-17.7417	106.976	19.4495
-17.2708	96.6961	35.2514
-16.5254	84.9349	46.2234
-27.5633	74.1712	50.9726
-5.28136	9.42709	88.4181
-7.35592	22.9653	92.5848
-15.551	73.9073	54.735
-15.2813	66.7988	58.1118
-4.97945	49.3952	58.6204
-31.6802	103.336	17.6228
-28.7007	68.7708	53.7174
-31.4045	62.1629	54.6666
-32.4529	45.4102	39.0885
-30.7929	49.2341	43.42
-23.2598	47.6259	43.0908
-43.6407	97.4785	13.0963
-45.1067	103.715	-9.63372
-38.0578	43.9586	39.6717
-38.4841	48.6543	42.9377
-54.1481	82.106	17.0214
-43.8935	44.5461	38.9902
-38.2189	47.1282	41.0901
-38.1469	44.9465	38.6424
-48.637	50.7092	41.5311
-64.8237	72.6429	2.5935
-46.4779	40.2078	35.159
-46.0517	39.7589	35.1919
-42.1467	42.4946	36.6974
-54.1074	44.3656	36.0282
-16.1478	53.1346	53.7892
-70.304	-57.1891	-18.8475
-82.0551	6.14529	-62.3348
-79.9394	11.5577	-76.2828
-77.3775	-13.8156	-78.3131
-74.814	-25.6383	-72.0572
-81.6505	-2.67547	-66.7616
-78.649	-1.10696	-80.6433
-70.7374	-36.181	-63.5792
-14.783	-94.5717	61.2806
-28.6783	-90.6403	51.5215
-58.3193	-63.1988	38.9508
-73.4867	62.0328	-16.0294
-17.5691	115.918	-6.9499
-32.4716	111.287	-7.63553
-49.2231	36.7323	32.5141
-59.141	-53.6029	44.9616
-8.86442	-9.76933	78.9834
-20.9106	-14.0473	72.5754
-7.70827	-4.53536	77.8898
-11.6977	-6.35	75.2013
-14.4503	-11.2987	76.3153
-36.1231	-22.6683	65.0363
-35.635	-29.86	65.0992
-74.4071	-44.7297	-29.5303
-74.3565	-25.8711	-4.75946
-75.0585	-17.1501	-6.70172
-73.8082	13.164	-5.42349
-72.553	-0.912395	2.20184
-49.9349	26.4549	31.1024
-71.9513	-13.1597	6.36823
-71.7562	-23.4874	8.8081
-15.5374	21.6839	68.3686
-16.2107	8.04729	72.6603
-15.1093	10.7117	77.2467
-34.2623	-13.5154	64.1499
-55.1527	-34.6178	52.7046
-44.7836	-27.7764	61.1373
-51.782	-43.4714	56.9241
-63.8803	-19.453	35.68
-35.3572	-52.7212	71.2995
-44.8914	-49.2053	63.1576
-47.2672	14.9472	41.4835
-44.5994	20.4943	39.3331
-43.1644	-35.4809	63.6099
-38.8121	-40.6905	66.5886
-14.9596	-47.7074	86.0444
-32.6506	23.5013	45.0923
-12.3557	20.3297	85.5229
-67.5375	-10.2203	19.8108
-68.1232	-21.2928	21.9574
-9.85758	51.6763	55.8429
-19.28	38.501	39.3695
-17.1818	-7.75092	71.3432
-21.9783	-26.6074	66.7578
-20.4691	-19.9923	64.8324
-33.9713	-138.238	18.3275
-42.7974	-135.002	11.6946
-45.2333	-148.149	9.11899
-35.9476	-150.873	15.208
-45.1897	-94.1208	19.8601
-36.0842	-99.2528	29.4962
-41.9037	-112.581	15.8698
-32.8804	-116.981	24.2683
-33.2531	-34.2746	66.2064
-55.471	-78.6256	13.7236
-60.803	-69.2176	18.3294
-50.3783	-131.712	4.49389
-52.3239	-145.25	2.41195
-62.7609	-69.2092	4.66721
-59.2544	-78.4526	1.03467
-62.6733	-79.3209	-9.56747
-62.3754	-97.9654	-35.2995
-75.8075	-32.6271	-13.0767
-63.0951	-82.2714	-34.4309
-55.162	-109.323	-50.927
-54.8613	-124.027	-55.2975
-26.2877	-153.115	20.309
-24.2098	-140.771	24.6383
-23.6542	-104.176	40.2175
-22.1309	-120.946	33.2295
-27.3847	-33.6657	68.9876
-17.7649	-27.0726	71.6683
-17.7586	-29.2858	70.7936
-15.8268	-154.981	24.777
-17.5929	-35.8797	73.674
-79.4754	52.9354	-36.9329
-50.3003	-87.994	-59.5907
-48.9837	-105.901	-61.2529
-55.5805	-91.6517	-48.7434
-49.8416	-121.212	-63.5959
-58.6639	-71.8985	-49.8456
-16.7483	118.841	-41.1203
-32.2092	113.696	-40.3419
-16.3055	91.4595	-112.907
-15.1774	63.1294	-137.889
-30.6883	61.8176	-133.897
-32.1449	88.7828	-108.913
-15.1784	33.7436	-147.433
-29.2384	32.9137	-143.474
-32.3558	106.742	-75.91
-16.5072	110.563	-78.5815
-14.6962	7.25799	-147.941
-28.0998	6.45019	-143.781
-13.7547	-18.4437	-142.178
-27.0132	-18.6423	-137.708
-25.3136	-39.1857	-125.411
-12.8262	-39.1876	-129.884
-11.6751	-56.0204	-108.612
-23.1718	-56.1516	-106.53
-10.1775	-86.2427	-85.7007
-9.77863	-100.765	-83.6626
-20.022	-101.49	-82.2271
-21.0272	-86.9432	-82.9667
-9.65262	-114.686	-83.1086
-19.3881	-114.895	-82.4794
-11.2797	-68.6336	-93.8388
-22.5197	-70.1074	-91.0529
-45.9409	105.445	-39.8978
-58.0254	94.6987	-39.8116
-55.8472	54.5111	-116.854
-44.1837	58.7677	-126.216
-43.1092	31.3272	-136.01
-54.7801	29.1755	-126.476
-56.826	76.1862	-95.4478
-45.0536	83.577	-102.784
-58.9422	89.0781	-68.9486
-46.5142	99.2119	-72.5872
-53.3311	4.87148	-127.791
-41.6927	5.67254	-136.695
-40.0495	-18.4924	-130.979
-51.3143	-17.7899	-122.648
-47.8726	-37.4543	-110.782
-37.6264	-38.7055	-118.606
-35.177	-55.7899	-100.259
-45.9473	-54.1563	-92.2597
-33.9126	-70.8541	-85.2497
-40.726	-103.297	-71.8618
-42.0687	-86.8635	-69.9291
-31.9936	-87.1791	-77.5261
-30.6296	-102.439	-78.5151
-29.9229	-115.813	-79.685
-66.8403	66.5296	-85.9283
-65.5896	48.8377	-105.83
-73.1087	41.6281	-91.7457
-74.6769	55.7027	-72.6394
-76.2803	64.6985	-51.5111
-69.1006	77.1132	-63.0066
-62.6446	3.84611	-117.528
-64.2773	26.2567	-115.787
-56.1436	-35.1426	-99.9698
-60.4823	-16.8808	-111.452
-53.7176	-50.8753	-84.0139
-76.7531	17.0589	-89.6768
-63.5255	-32.5232	-89.7968
-69.5092	-29.1694	-80.6468
-73.517	-15.0381	-89.2788
-67.8337	-16.1382	-100.779
-74.9824	0.28755	-93.3477
-69.7715	2.29783	-106.343
-71.5645	22.209	-103.456
-60.6294	-54.1579	-58.9563
-64.8166	-41.5496	-69.5952
-59.2547	-46.5914	-76.4569
-95.8105	1.91306	-59.5825
-93.7773	2.39043	-61.5697
-94.7001	11.2734	-54.1996
-92.5371	12.5193	-56.158
-89.0574	11.9516	-38.5192
-86.6928	12.2749	-40.8895
-84.6383	10.5369	-43.9697
-90.823	0.69035	-62.1428
-89.7724	10.6203	-57.1962
-94.3108	-9.69473	-57.6912
-93.6868	13.2186	-44.8514
-95.0698	9.75324	-53.0526
-40.2796	-117.658	-74.1365
23.4889	-75.0819	82.9395
20.2225	-76.6606	83.5575
25.6008	-76.0058	78.7491
24.8472	-71.6179	85.4953
63.2517	5.69779	24.0619
61.6289	7.03522	26.7786
63.6401	2.27716	24.6071
64.3926	8.94095	19.613
59.9608	8.90511	28.3209
59.7658	12.5137	25.4647
57.7614	8.18296	32.3604
14.6898	59.4036	58.9981
17.0903	56.653	58.1962
19.5414	60.9456	58.6097
11.1436	61.1707	59.4513
11.2643	56.3079	58.8888
23.381	39.6122	39.2743
21.1715	38.3894	39.1415
23.5873	39.9316	38.4277
26.3371	41.0497	39.5773
23.2738	39.6959	39.9954
9.11204	41.1086	53.426
9.74316	39.8668	52.3085
9.50712	42.2572	52.4083
8.62024	41.8358	54.5441
12.2395	40.1334	45.8726
13.9358	38.2832	43.2256
12.9289	41.621	45.2784
10.8883	42.1492	49.3465
11.9152	38.8049	47.0139
43.9021	32.0246	36.2844
43.6446	32.2563	36.2453
40.4707	30.9898	39.4539
44.3026	31.3199	36.157
45.6768	32.8457	33.7977
15.8902	32.6431	45.6597
15.5716	33.5926	45.1362
15.4378	32.1178	47.0754
17.1508	31.3868	44.9314
18.3958	35.5415	39.1583
18.514	35.0132	39.0772
19.0249	35.4388	38.1729
18.6665	36.3254	39.1969
17.8111	35.7327	39.8381
28.1978	-27.2708	64.5457
27.9263	-27.1669	64.6908
28.3196	-27.5533	64.2254
28.0206	-27.2153	64.8092
26.8035	-25.5846	66.6674
27.1783	-26.5462	65.6439
28.129	-26.392	65.4089
26.8403	-24.9798	67.0596
25.1654	-24.9104	68.1543
28.7724	-26.7416	64.9425
28.9106	-26.5448	65.0087
28.8058	-26.9109	64.8643
30.5992	-25.994	64.9981
29.6987	-25.8249	65.1454
31.1943	-26.7907	64.702
30.6484	-24.7302	65.2475
28.7676	-28.0371	63.6896
27.8853	-27.287	63.8718
29.4707	-28.6954	62.6034
28.4837	-28.3066	64.1357
24.0401	-29.3242	72.4468
24.4892	-30.2004	72.4063
26.4059	-28.5001	67.7312
23.856	-28.6795	72.1582
21.4895	-29.6581	76.6809
20.7246	-19.2807	73.672
20.1318	-17.691	73.9003
17.4736	-16.9179	75.9249
20.9523	-20.1928	73.3966
23.2052	-21.1012	71.5122
27.2049	-26.8762	65.6285
27.3002	-26.9642	65.6536
27.2734	-26.8937	65.4373
25.6815	-26.643	66.8124
77.726	-34.9645	-19.9168
77.0551	-35.1825	-18.9682
77.5646	-38.9692	-21.5974
78.3807	-34.0638	-20.2467
86.9706	-29.2492	-33.872
87.5338	-28.2102	-36.9911
85.0949	-27.8384	-33.512
86.3676	-29.805	-31.1935
88.1194	-30.6215	-33.9211
81.3418	-32.6982	-22.337
81.2317	-30.0291	-22.7155
80.7413	-32.7947	-21.4463
82.2382	-34.3751	-23.3066
79.4993	-21.8584	-29.1725
79.3016	-20.9661	-31.1956
80.2634	-19.7847	-29.8642
81.0525	-21.935	-28.2772
80.2094	-24.1382	-29.29
86.7396	-3.72254	-36.5024
86.1283	-5.74302	-36.6773
86.954	-3.0895	-37.2636
86.8004	-2.96874	-35.7723
90.5545	5.28761	-43.32
90.3419	6.16843	-42.6056
90.2107	4.37292	-43.0114
92.0834	5.44942	-46.4995
83.2037	-21.7679	-37.4877
81.97	-19.9193	-36.6982
82.3487	-24.9575	-33.8398
85.9923	-25.359	-38.8706
85.8413	-20.3469	-41.9078
88.9857	-4.20081	-42.9276
89.4048	-3.2346	-43.5682
87.3359	-3.54275	-39.2914
88.9274	-5.71207	-43.5668
93.0162	-17.3481	-51.1349
92.8805	-16.986	-50.5985
91.9799	-20.015	-49.8269
93.366	-16.5255	-52.3858
93.4528	-15.3928	-54.4011
93.7398	-13.1942	-54.0407
93.3962	-16.2892	-55.192
93.5667	-12.9106	-56.4132
87.8592	-27.2919	-39.4382
88.2447	-25.7106	-41.9145
88.8288	-28.3427	-39.7323
89.893	-15.7414	-47.6313
88.451	-17.2774	-46.2091
91.5932	-16.4842	-49.0479
89.9863	-14.4253	-47.6784
79.0302	-26.9562	-20.4336
79.2602	-29.2679	-20.2802
79.7883	-26.7964	-21.3703
78.6371	-25.9765	-20.15
78.4204	-24.2304	-19.9868
78.7688	-22.288	-20.6376
77.9831	-24.1317	-19.0716
79.9451	-15.7971	-23.143
79.5869	-16.1996	-22.5942
80.4261	-16.3672	-23.8709
80.4178	-12.8345	-24.2829
79.2043	-16.8095	-21.9133
78.7433	-16.4338	-21.066
79.0923	-19.1548	-21.428
82.5611	-26.2206	-31.7597
82.977	-26.2236	-29.6039
82.4362	-13.3421	-32.6419
81.2598	-16.7974	-31.1127
81.86	-14.0589	-34.0972
83.8034	-9.94627	-34.0732
83.5637	-12.2909	-31.9763
93.4739	-1.7778	-53.7316
93.5955	-1.16336	-54.1944
93.3523	-2.01731	-53.074
93.7733	-3.33724	-55.0401
93.9156	-6.92541	-54.7663
93.9832	-7.55445	-53.0783
93.951	-8.7021	-55.1455
93.7921	-5.92741	-55.9133
93.7107	-4.75873	-53.4405
89.8285	3.8115	-43.0659
90.7326	3.22527	-45.6381
88.8519	3.43481	-41.8579
91.8502	2.18344	-48.747
91.0896	1.41102	-47.8916
93.2037	0.778221	-52.505
92.8734	3.03039	-49.794
40.7128	43.6573	39.9582
40.4918	43.3386	39.5993
43.0672	42.1485	38.8601
40.989	44.0154	40.3985
37.8463	44.8241	40.7062
28.8513	-77.0239	72.7923
27.6998	-80.4463	69.1755
31.3355	-75.1622	72.0862
47.3983	36.1572	34.1506
47.9602	36.6476	34.4047
46.8735	38.3284	35.7172
46.9926	35.9464	34.1365
47.9716	34.2038	32.8969
52.2981	37.3791	32.9744
55.5346	38.251	32.4191
52.8188	40.0785	35.8075
49.8013	36.9752	34.2723
51.2174	34.6874	31.478
72.4749	-46.2067	-11.2591
73.2686	-45.7405	-16.1543
72.6772	-44.2978	-10.374
71.8419	-48.4522	-11.0179
25.2422	32.2587	40.0667
25.2296	32.6355	41.4168
29.982	31.2082	41.0104
25.6774	31.4696	38.499
21.8747	33.1966	38.9218
17.2424	35.9753	40.2936
17.6667	35.087	40.23
17.3738	36.9483	40.289
16.984	35.98	40.451
19.59	37.3478	39.1771
18.9408	37.6325	39.9815
19.9633	37.174	37.937
16.359	39.231	40.5477
16.8015	38.9844	40.2071
17.5859	40.5869	40.5069
15.8489	39.6173	41.0007
15.9325	37.5911	40.7311
7.94963	43.3158	55.5344
7.29727	43.7216	56.489
8.03856	45.062	55.1179
21.5093	-25.0362	70.9664
22.2938	-25.8689	69.6575
21.8188	-24.4905	70.9352
18.42	-24.1649	73.9187
65.5925	-69.138	-10.9267
64.8069	-67.8636	-5.45768
65.0524	-72.147	-12.3218
66.6549	-66.9237	-11.9722
77.2668	-3.71604	-21.1455
76.4995	-9.74216	-16.3975
78.0721	-5.26064	-23.6309
78.3002	2.53844	-26.6846
76.3356	-1.48401	-17.0849
66.472	-74.6428	-23.8699
66.0628	-77.0666	-25.3183
67.1394	-70.6391	-25.0525
65.9176	-75.9137	-18.686
63.8885	-110.008	-27.6673
63.6012	-118.371	-29.2671
62.0458	-106.959	-35.4962
64.0058	-101.125	-27.435
64.2649	-112.328	-21.277
27.3425	-27.432	65.8823
27.4884	-27.6332	65.8769
27.3829	-27.2346	65.735
26.0349	-27.4891	67.4385
27.5266	-27.8963	65.9844
27.8624	-27.9182	65.816
23.4973	-28.2295	72.2459
23.5446	-27.8249	71.6332
20.872	-28.006	76.2619
33.2987	-73.2859	71.6712
36.9731	-74.0169	64.9315
33.647	-69.6513	74.8904
49.0011	-69.7943	-68.9229
48.2601	-67.0234	-73.7929
51.7538	-68.3129	-65.5716
48.113	-72.7605	-68.1847
60.1393	86.8797	-4.52153
61.7079	86.7803	-12.4745
56.3713	90.8559	-1.95633
60.947	83.6404	-0.679717
90.7232	-26.6225	-49.0973
92.1847	-22.7544	-53.4111
91.1185	-25.5015	-48.2832
89.427	-29.7996	-45.3151
90.0964	-27.1087	-50.4301
83.6222	-0.912547	-31.1511
82.6389	-4.71511	-28.9914
84.8825	-1.17077	-31.5201
84.491	2.88337	-33.5183
82.0741	-0.642875	-30.7859
81.2318	-20.8759	-24.6806
80.6475	-21.252	-23.4397
81.9526	-23.642	-24.9618
81.8386	-21.5322	-26.1619
81.1223	-19.2359	-24.9163
81.0192	-27.0916	-22.959
80.4567	-24.0807	-22.7042
82.0238	-27.1685	-24.3067
93.28	-18.0818	-57.4571
92.4415	-18.3619	-58.4214
94.1057	-12.6789	-60.3406
93.7356	-17.7823	-56.4526
91.2989	-18.5306	-59.3957
90.3568	-23.0955	-55.7285
89.7702	-18.3909	-60.0141
91.833	-13.1127	-62.2309
80.2025	1.8692	-33.6083
81.4091	3.19008	-35.8856
79.5758	3.37466	-33.2607
80.658	1.24184	-31.7213
86.6471	-25.7474	-53.6512
84.8384	-24.9708	-54.0099
87.4166	-22.167	-56.667
87.9006	-26.4463	-53.0718
85.457	-28.7774	-50.5532
89.2346	-29.6776	-40.1651
89.7832	-27.4114	-43.4108
88.9721	-31.0324	-37.4838
89.1304	-30.9884	-41.0526
87.0406	-37.9363	-35.5065
86.3986	-39.0569	-32.0191
85.6549	-39.9463	-36.2715
87.9046	-35.3859	-39.1771
88.171	-34.744	-34.9832
87.1511	-34.2047	-29.4697
86.6216	-36.0761	-29.2049
87.9186	-33.511	-31.4805
86.5229	-33.0895	-28.3955
75.409	-42.7957	-22.4435
74.8104	-43.7684	-22.5749
76.3733	-42.1249	-24.4129
75.3879	-40.8748	-18.6231
80.8917	-40.605	-23.6764
81.5222	-42.422	-25.8073
82.5027	-39.0074	-23.751
80.07	-37.5593	-21.8688
79.3285	-41.1934	-24.1052
88.0233	4.27323	-35.4676
88.0687	5.799	-35.766
86.6374	1.30673	-33.5615
88.3857	4.0376	-35.9851
87.9935	6.85404	-36.1017
89.6969	9.43338	-38.8045
87.2165	6.91153	-36.143
93.6294	-17.3198	-55.7055
92.5694	-20.9475	-52.0142
94.5015	-12.524	-58.5074
94.278	-3.70511	-58.0299
94.0198	-4.5923	-57.4245
94.468	-4.54869	-58.795
94.315	-1.94605	-56.9272
88.6674	4.58399	-38.1145
88.7174	4.44157	-37.5384
88.134	3.05575	-37.9573
89.2278	5.81243	-39.4756
88.4994	3.83053	-36.4697
87.6143	0.902719	-35.5623
89.9873	7.34537	-38.829
92.529	-16.7811	-50.0156
93.6549	-14.2246	-51.0012
90.9393	-19.7416	-48.1255
87.694	1.15541	-39.0588
88.1993	2.5372	-39.9507
87.5614	1.1837	-38.5304
88.2066	-0.188233	-40.4682
88.5254	2.97388	-41.3227
89.1553	1.9889	-43.1023
87.5258	-19.9166	-44.381
88.4511	-21.8389	-44.6946
84.0566	-11.2695	-31.0391
85.0636	-7.1451	-32.2918
83.8625	-10.9025	-29.8413
83.0542	-15.7068	-29.8016
86.9629	-2.78206	-37.6853
87.2376	-0.985899	-37.5627
53.3868	-66.1088	-64.0902
53.9137	-62.245	-67.5968
54.6078	-65.8324	-61.3646
23.0857	3.14971	61.8649
25.1884	-1.51112	62.7618
23.5429	4.93002	61.4737
20.6499	4.23986	62.2047
17.4025	6.80303	64.1741
17.8547	5.55832	63.6
17.8825	9.7889	63.9433
16.4967	6.57447	65.7034
58.0643	54.453	35.3797
58.4384	52.2497	36.2355
61.8209	48.8633	30.2791
57.7537	56.0842	34.2062
52.9987	58.4338	40.4853
6.72718	3.97595	75.1822
6.24478	4.82109	76.4936
6.3466	3.07546	74.9338
7.80086	3.70532	74.1752
8.46429	7.58031	78.2083
7.19909	7.36834	79.1258
9.43859	6.40306	75.8026
9.10606	8.75643	79.0822
46.514	33.2142	32.9197
45.96	33.4453	33.0912
47.1908	32.5767	32.5009
46.3945	33.9689	33.3387
18.8107	34.6508	39.0611
19.381	34.2469	38.9735
19.3371	34.3899	38.1349
18.4043	34.787	39.7609
14.4146	15.4042	75.0957
14.5532	14.3541	75.1444
14.6593	15.232	73.9808
13.4723	16.5249	77.119
84.2535	-31.9604	-47.2506
83.0338	-33.9015	-44.9976
82.8516	-30.2782	-48.583
85.4476	-33.1871	-46.2524
68.9899	78.056	-25.1323
66.5616	81.7897	-24.4899
69.6863	74.9444	-19.5493
71.0006	76.0149	-35.2806
30.2131	-34.9359	64.1153
30.6403	-33.3211	62.6501
30.6762	-38.3634	64.6065
29.1772	-33.9427	65.114
28.9654	-24.2537	60.0864
27.568	-23.6923	61.3294
28.8832	-22.3145	58.4129
29.8463	-26.3841	60.0301
-19.7219	-75.4111	82.9959
-20.7381	-72.2649	85.657
-22.4006	-76.0467	78.8137
-16.1745	-77.2316	83.6164
-64.1744	5.85512	24.7412
-65.1595	9.01707	20.7487
-64.5508	2.52135	25.2481
-62.4598	7.45034	27.5031
-60.4959	9.62526	29.3831
-58.287	9.06557	33.2781
-60.2682	13.3372	26.5862
-14.5933	61.1579	58.4263
-16.746	58.6083	57.7535
-11.381	57.8763	58.4338
-11.3809	62.5993	58.9016
-18.9937	63.4096	57.7885
-24.8194	41.5852	39.19
-24.5937	42.014	38.0683
-22.8412	40.144	38.7232
-24.8824	41.596	40.0492
-27.3557	43.0916	39.656
-9.9801	41.9067	53.1813
-9.54838	42.508	54.185
-10.2754	43.0455	51.9652
-10.6316	40.8356	51.876
-13.147	41.4778	45.4478
-15.2094	39.7573	42.5427
-12.7905	40.1107	46.6743
-11.7137	43.21	48.5642
-13.9208	43.0719	44.8234
-44.9166	33.7204	35.5138
-45.258	33.0204	35.4363
-41.4268	32.6718	38.975
-44.6631	33.9463	35.4677
-46.5813	34.5363	33.0389
-16.5431	33.7066	45.6191
-17.8692	32.327	44.9482
-16.0787	33.1254	47.1666
-16.3541	34.7791	44.9662
-20.4805	36.9318	38.3375
-20.6811	36.9956	37.4155
-20.467	36.405	38.3001
-20.2096	36.9582	38.9679
-20.8073	37.7397	38.4013
-26.0219	33.7607	39.8401
-23.1101	34.675	38.4926
-26.347	33.0051	38.1723
-30.759	32.6337	40.7763
-26.005	34.1666	41.249
-27.7277	-29.1994	65.2113
-27.455	-29.095	65.3442
-27.5462	-29.1484	65.4722
-27.8476	-29.4511	64.8642
-26.3286	-27.4817	67.3428
-27.6803	-28.3272	66.1125
-26.7164	-28.4909	66.2974
-24.5696	-26.7012	68.8161
-26.3729	-26.8414	67.7636
-28.3244	-28.6666	65.6598
-28.3539	-28.8371	65.5798
-28.476	-28.46	65.7283
-30.2212	-27.8402	65.7597
-30.3269	-26.5198	66.0426
-30.7934	-28.6358	65.475
-29.3207	-27.694	65.864
-28.2946	-29.8517	64.2813
-27.9847	-30.1602	64.7316
-28.9888	-30.3375	63.1252
-27.4303	-29.1396	64.4468
-22.9811	-30.8474	72.665
-23.4291	-31.6917	72.5543
-20.2114	-30.856	76.8233
-22.8382	-30.2513	72.4037
-25.7252	-30.4313	68.3623
-20.3593	-20.4625	74.4595
-19.8846	-18.8166	74.6051
-22.7788	-22.64	72.431
-20.5316	-21.3945	74.2009
-17.2586	-17.8723	76.4747
-26.7317	-28.8248	66.2793
-25.0985	-28.5653	67.4237
-26.8023	-28.8372	66.0848
-26.8239	-28.9185	66.3182
-78.4513	-33.1873	-19.5193
-79.3089	-32.3468	-19.8448
-78.3171	-37.1634	-21.3284
-77.7921	-33.4136	-18.5769
-87.5567	-27.2253	-33.4043
-88.0875	-26.1601	-36.5305
-88.7152	-28.5555	-33.4861
-86.9739	-27.8072	-30.7172
-85.6656	-25.8844	-33.0092
-82.9684	-30.8431	-21.8624
-83.9615	-32.4589	-22.9139
-82.5755	-30.9538	-20.9985
-82.1301	-28.2072	-22.1828
-80.0373	-20.1487	-28.4981
-79.8199	-19.2555	-30.5294
-80.7651	-22.3846	-28.6593
-81.5958	-20.1844	-27.6008
-80.7699	-18.0709	-29.1606
-87.0447	-1.84883	-35.7735
-87.104	-1.11122	-35.0297
-87.2522	-1.20168	-36.5433
-86.4473	-3.87487	-35.9519
-90.7331	7.34622	-42.705
-90.5154	8.2063	-41.9826
-92.2485	7.61303	-45.9386
-90.4044	6.4173	-42.388
-83.4686	-12.1441	-36.7441
-86.2103	-9.38897	-40.9038
-82.7828	-14.5537	-36.5841
-82.2912	-12.3027	-33.3778
-84.737	-8.43589	-36.7941
-90.1112	0.213344	-43.5752
-89.6745	-1.17704	-42.9509
-88.4505	1.76853	-39.7915
-90.6833	1.53206	-44.8104
-92.1179	-1.47645	-48.0348
-82.2633	-32.9469	-43.2192
-83.5451	-31.9472	-44.6504
-80.8934	-32.485	-43.3806
-82.0783	-34.9898	-41.2059
-93.3817	-15.0306	-50.7073
-93.7129	-14.1839	-51.9671
-92.3657	-17.7424	-49.3961
-93.2485	-14.6809	-50.1608
-93.776	-13.0286	-53.9996
-94.0429	-10.8261	-53.6233
-93.8567	-10.522	-56.0238
-93.7236	-13.921	-54.8035
-88.3829	-25.2204	-38.9768
-88.732	-23.6149	-41.4528
-89.3535	-26.2388	-39.2935
-86.4923	-23.3596	-38.3646
-90.264	-13.5729	-47.1318
-88.8332	-15.1638	-45.6967
-90.3466	-12.2568	-47.1715
-91.9508	-14.2374	-48.5793
-87.9535	-17.8421	-43.8698
-88.8832	-19.7266	-44.2095
-86.2757	-18.3482	-41.3638
-79.6734	-25.2442	-19.7999
-79.27	-24.2911	-19.4822
-80.4233	-25.0583	-20.74
-80.2052	-27.5259	-19.7154
-79.0315	-22.5778	-19.272
-78.5916	-22.4946	-18.343
-79.3593	-20.6509	-19.8867
-80.4407	-14.1983	-22.2929
-80.8732	-11.2466	-23.4102
-80.9255	-14.7357	-23.0433
-80.0934	-14.6121	-21.7419
-79.7231	-15.2295	-21.0643
-79.6423	-17.5464	-20.6175
-79.2657	-14.8828	-20.1975
-83.128	-24.3633	-31.2018
-82.8881	-23.1045	-33.2761
-83.557	-24.3662	-29.0289
-82.8625	-11.5916	-31.8981
-81.7335	-15.0662	-30.3859
-83.9804	-10.5185	-31.2197
-84.1848	-8.16036	-33.3247
-81.5583	-16.7912	-29.5139
-82.3978	-16.7705	-28.9928
-93.6827	0.553706	-53.2742
-93.9865	-0.973711	-54.6011
-93.5683	0.301669	-52.6067
-93.7936	1.17894	-53.7436
-94.1596	-4.55251	-54.3333
-94.2409	-5.20007	-52.6255
-93.9454	-2.41624	-52.9846
-94.0237	-3.5487	-55.4909
-94.2087	-6.32389	-54.7222
-90.0309	5.84561	-42.4408
-89.0486	5.42165	-41.2082
-90.924	5.33197	-45.0506
-92.037	4.38031	-48.2101
-91.287	3.5704	-47.3363
-93.0587	5.27689	-49.2793
-93.3965	3.08025	-52.0275
-90.9409	2.58833	-46.0248
-92.623	1.07189	-49.8463
-89.3683	4.00813	-42.4702
-41.1649	45.6594	39.8644
-40.9927	45.3226	39.4238
-38.1807	46.691	40.4498
-41.4495	46.0438	40.3812
-43.4969	44.1908	38.5717
-26.2286	-76.9348	72.7035
-28.8828	-75.2428	71.991
-25.1383	-80.692	69.0151
-47.8285	38.0978	33.699
-48.2402	38.5975	34.0541
-48.5296	36.0631	32.3568
-47.4882	37.8694	33.5957
-46.8359	40.4311	35.3319
-52.0379	39.4422	33.1388
-51.6901	42.7405	35.9925
-54.7344	40.3056	32.6106
-51.3546	36.5123	31.17
-49.714	39.004	34.045
-73.3673	-44.3834	-11.374
-72.7562	-46.6378	-11.2393
-73.5615	-42.4692	-10.4086
-74.1107	-43.9678	-16.1789
-19.665	37.1716	39.3278
-19.8789	36.3226	39.4047
-19.1936	37.1914	39.5503
-19.9543	38.1697	39.289
-21.5744	38.886	38.5554
-21.3218	38.8666	39.3989
-21.4591	38.9304	37.2522
-18.3823	40.5472	39.6064
-19.6729	42.1224	39.6416
-18.9406	40.173	39.3349
-17.882	39.0406	39.861
-17.7136	41.0655	40.0108
-8.90317	43.8246	55.1451
-8.88424	45.6193	54.6515
-8.34941	44.1786	56.1351
-20.6785	-26.5182	71.5163
-17.6194	-25.2822	74.3946
-20.968	-26.0376	71.6809
-21.5214	-27.4119	70.1592
-66.3915	-67.6853	-11.896
-67.4856	-65.4156	-12.8542
-65.7766	-70.794	-13.2688
-65.6821	-66.3547	-6.66852
-77.6234	-2.39716	-20.1198
-76.9506	-8.43104	-15.3404
-76.6785	-0.298109	-15.9713
-78.5671	3.9249	-25.7452
-78.4449	-3.85573	-22.6606
-66.7998	-73.4215	-24.4105
-66.4745	-74.6744	-19.4017
-67.4802	-69.3433	-25.5347
-66.2693	-75.9142	-25.8377
-63.9158	-109.66	-27.9031
-63.5285	-118.205	-29.3892
-64.282	-112.006	-21.566
-64.1075	-100.565	-27.7827
-62.0829	-106.572	-35.6795
-26.845	-29.4012	66.5624
-25.3692	-29.4406	68.0557
-26.8963	-29.1988	66.4144
-26.9815	-29.6009	66.5561
-27.9569	-29.6896	66.2199
-28.9725	-29.0434	65.6117
-28.1915	-30.1464	66.3544
-27.3435	-29.8728	66.4776
-28.2866	-29.1662	65.713
-22.4672	-29.7785	72.5201
-19.6608	-29.2726	76.4433
-22.5417	-29.3832	71.9926
-30.9343	-73.3747	71.4062
-31.0971	-69.9832	74.3562
-35.1158	-73.5339	64.9663
-49.1381	-68.9654	-68.8992
-48.2322	-71.9906	-68.1705
-51.9321	-67.4131	-65.5474
-48.3828	-66.1603	-73.7597
-59.5468	87.967	-5.36816
-60.3685	84.716	-1.53382
-55.7682	91.8971	-2.86455
-61.1028	87.9099	-13.1904
-91.1667	-24.3938	-48.7187
-92.5666	-20.4401	-53.0426
-90.5366	-24.8938	-50.0653
-89.9206	-27.64	-44.9378
-91.5555	-23.2675	-47.8859
-83.9138	0.751221	-30.3137
-82.9734	-3.0827	-28.1273
-82.3649	0.961245	-29.9323
-84.7326	4.58723	-32.7202
-85.1701	0.546324	-30.6977
-81.788	-19.1553	-23.9504
-81.2074	-19.5523	-22.6981
-81.6584	-17.5394	-24.156
-82.3975	-19.7725	-25.4641
-82.5431	-21.8662	-24.2961
-81.6503	-25.3095	-22.3529
-81.052	-22.3553	-22.0159
-82.6544	-25.3485	-23.718
-93.6078	-15.6916	-57.1042
-94.0613	-15.3842	-56.0908
-94.3653	-10.2326	-59.9959
-92.7581	-15.9913	-58.0758
-91.6059	-16.1892	-59.0534
-90.7308	-20.8259	-55.3789
-92.0776	-10.7212	-61.8953
-90.0729	-16.0991	-59.6692
-80.448	3.43831	-32.7847
-80.9169	2.80191	-30.8715
-79.8139	4.90746	-32.4313
-81.6418	4.82785	-35.1052
-87.0349	-23.6174	-53.2826
-85.2262	-22.8971	-53.6317
-85.8967	-26.7131	-50.187
-88.3127	-24.2813	-52.7148
-87.7691	-19.9841	-56.3042
-89.7709	-27.5537	-39.7517
-90.2798	-25.2527	-42.9922
-89.6652	-28.8585	-40.666
-89.5399	-28.927	-37.0755
-87.6761	-35.8841	-35.2108
-88.7916	-32.6639	-34.6282
-88.4925	-33.2979	-38.8479
-86.2918	-37.933	-36.0117
-87.0725	-37.0256	-31.7398
-87.8231	-32.1671	-29.0878
-87.1863	-31.0751	-27.9844
-88.5642	-31.4467	-31.0929
-87.3058	-34.044	-28.861
-76.1729	-41.0351	-22.3
-76.1751	-39.0951	-18.433
-77.1121	-40.3562	-24.2321
-75.5796	-42.018	-22.4632
-82.1463	-38.4617	-23.2619
-82.3947	-40.4467	-25.5794
-80.2066	-39.28	-23.8468
-81.7708	-35.6989	-21.5449
-84.1572	-36.9901	-23.4488
-88.232	6.12299	-34.7236
-88.5922	5.91127	-35.2514
-86.8965	3.09677	-32.7803
-88.2587	7.64719	-35.0311
-88.1721	8.70105	-35.3752
-87.4052	8.73205	-35.4134
-89.8477	11.3719	-38.139
-94.4743	-1.28558	-57.6318
-94.5004	0.460068	-56.5154
-94.6677	-2.11146	-58.41
-94.2293	-2.18698	-57.0202
-88.8644	6.49794	-37.413
-89.4107	7.76247	-38.8019
-88.3503	4.95665	-37.2474
-88.9175	6.3507	-36.83
-88.7079	5.71828	-35.745
-90.1614	9.30395	-38.1567
-87.8666	2.75965	-34.8151
-92.8968	-14.4953	-49.5656
-91.3338	-17.5211	-47.6698
-93.9871	-11.8927	-50.5538
-88.7273	4.94088	-40.6612
-88.4132	4.47431	-39.2678
-87.9322	3.06967	-38.3627
-87.8042	3.08389	-37.8255
-84.4737	-9.50297	-30.2644
-85.4165	-5.36217	-31.5045
-83.5161	-13.9432	-29.0531
-84.2788	-9.15931	-29.0445
-87.2567	-0.890748	-36.969
-87.5101	0.902107	-36.8432
-87.6293	-1.61097	-38.6036
-53.5882	-65.1515	-64.059
-54.8407	-64.8475	-61.3406
-54.1174	-61.2162	-67.5428
-24.2864	2.43424	61.7875
-21.8338	3.30422	62.1977
-24.8009	4.07064	61.4079
-26.5431	-2.09817	62.6814
-18.5445	5.82183	64.2177
-17.7306	5.56951	65.7258
-19.1176	8.88344	63.8546
-18.9468	4.60159	63.5412
-55.594	57.8058	36.5535
-55.7657	55.95	37.3589
-50.7923	61.4813	41.2071
-55.841	59.0501	35.163
-60.2111	51.5568	31.2068
-7.64412	4.83423	77.6348
-7.95168	5.50657	78.3368
-8.12324	4.01275	76.3726
-6.60861	4.89708	78.5025
-8.26178	6.46821	79.5396
-9.18908	6.68219	79.1135
-7.33042	7.23583	81.5612
-47.3382	34.966	32.2022
-46.8152	35.151	32.335
-47.2058	35.7322	32.6368
-47.9644	34.3623	31.8465
-20.6774	36.045	38.3306
-20.8688	35.8972	37.4308
-21.143	35.6711	38.2898
-20.512	36.0589	39.0355
-16.5677	14.5171	75.0673
-15.8576	15.8155	77.1765
-16.749	14.281	73.9622
-16.6462	13.4233	75.1176
-68.4414	79.3686	-25.5478
-70.4802	77.4658	-35.581
-69.1564	76.209	-19.9829
-65.9884	83.0619	-24.9818
-29.3272	-36.0143	64.2127
-28.3035	-35.2311	65.2256
-29.6711	-39.0124	64.509
-29.9238	-34.4407	62.8676
-28.8441	-25.5839	60.6278
-29.5861	-27.6881	60.5475
-29.0317	-23.3794	58.8552
-27.445	-25.2125	61.8893
-10.4176	6.76861	78.2405
-11.1423	7.98915	79.1184
-11.0757	5.44295	75.8007
6.24063	7.04177	79.5718
5.35318	7.64013	81.4656
5.96797	6.13604	78.4386
5.68365	5.51361	77.7833
4.63115	5.4123	78.6671
-8.3892	3.07641	75.1159
-9.30472	2.73611	74.1818
-8.03582	2.1882	74.8777
80.8535	-39.5584	-38.1744
79.2655	-39.2511	-37.2531
81.5265	-36.8853	-41.5278
82.1956	-40.34	-37.8041
79.6634	-42.0362	-33.923
71.5469	-41.2062	2.63064
70.62	-40.6077	10.5315
70.8876	-46.0641	2.79402
72.3028	-41.3047	-4.45662
72.0043	-36.1305	2.34433
59.7762	-116.231	-6.88203
59.6049	-104.972	-5.87339
57.1575	-117.419	-2.44168
60.1206	-126.834	-8.36727
61.8815	-114.872	-11.4838
60.3882	-134.064	-9.9096
60.7208	-139.67	-11.4526
62.2393	-132.231	-14.5898
57.9133	-135.923	-5.2974
53.8432	-97.6393	4.89328
54.5086	-90.3227	5.91035
50.5996	-98.799	9.86127
53.7232	-106.94	3.57526
57.038	-97.0638	-0.394763
63.357	-96.4225	-14.4324
63.3669	-103.818	-14.9706
64.3764	-95.7156	-20.0572
63.4818	-90.7385	-14.2865
61.5673	-96.5269	-9.86296
66.3092	-58.6709	18.4219
67.5956	-54.5834	18.9847
64.6103	-59.1329	26.4486
64.7534	-62.6497	17.4011
67.1424	-58.7663	10.5258
73.369	37.7937	-7.59107
75.2072	44.0768	-13.3446
70.0039	43.6183	2.64331
71.7943	31.405	-3.29499
76.7887	32.9908	-18.6994
80.7111	32.1141	-61.6194
79.9602	26.3616	-70.2814
79.3866	37.3561	-68.2394
81.1543	36.9231	-51.6399
81.3615	26.4958	-55.2015
11.0945	-115.157	44.662
8.04897	-115.445	45.741
11.0793	-124.598	41.4933
14.7122	-114.451	42.9754
11.6078	-106.956	48.4604
11.1223	-134.861	36.0136
11.1834	-143.718	30.7172
14.9811	-133.903	34.4565
7.62548	-135.194	37.2856
3.83749	-150.91	29.423
7.53384	-150.517	28.6808
3.91288	-144.469	32.6119
0.216108	-150.946	29.7685
3.95827	-156.078	27.6155
68.4782	-57.8391	-38.4214
70.8271	-51.8145	-37.6117
68.5474	-62.8772	-32.0746
66.0331	-63.8602	-39.479
68.6885	-51.3619	-44.0812
69.164	-46.7034	-48.3304
65.6982	-52.6382	-50.0302
70.0805	-42.7808	-52.0539
72.2216	-41.8918	-46.7682
63.2911	-125.147	-31.1891
63.1551	-131.874	-32.5984
61.5991	-122.342	-38.0106
63.9285	-128.276	-24.6525
4.29969	-135.6	38.0949
4.71266	-125.442	43.5508
1.04455	-135.672	38.4908
69.4846	-40.3795	18.345
69.5107	-34.8593	17.0547
68.0064	-39.5735	25.4792
69.1757	-45.5896	18.8931
67.4832	-59.1914	2.64166
65.886	-63.324	2.07571
67.692	-60.3249	-5.24918
68.8915	-54.9239	2.76278
16.7579	-60.4686	96.1074
12.1343	-60.6574	97.5331
16.9275	-64.8303	95.7541
21.2654	-60.3263	93.3297
15.7764	-56.3539	94.7023
25.3967	-59.579	89.4827
25.9348	-63.68	89.5368
29.5333	-58.7804	84.2459
24.4508	-55.547	87.9749
5.86898	-52.1348	94.7826
10.0678	-52.0744	93.8196
5.1029	-47.7925	91.3423
1.58124	-52.1339	94.8422
6.83974	-56.5647	97.1558
16.724	-69.284	93.6922
16.2358	-73.8039	89.9922
21.5128	-68.8875	91.254
12.1169	-69.312	95.1234
15.543	-78.0278	84.6104
10.8715	-78.3585	85.8983
15.1915	-82.3517	78.4423
15.5893	27.3681	55.4701
15.6712	24.9363	59.1839
18.0215	24.9079	53.9245
15.1711	29.6303	51.8744
13.1795	30.067	57.2918
47.8768	-9.09507	55.845
53.7645	-12.0466	49.836
46.8659	-3.49869	54.7453
41.3148	-4.93275	59.7708
48.5202	-13.986	56.4041
57.0603	-2.9946	40.2512
60.951	-3.7486	33.311
55.8222	2.85171	39.2242
51.7782	-0.502416	47.0734
57.7914	-8.80976	41.5762
65.3672	13.6333	15.8485
67.587	11.7916	12.0285
65.8739	20.8424	13.3891
62.9563	15.8276	18.7302
49.1763	-18.5411	56.5304
49.5723	-23.0381	56.593
54.8584	-21.5688	50.94
43.1181	-14.7061	60.4298
0.208146	35.2384	76.7771
0.308517	38.7822	71.6311
-1.96644	35.538	76.8911
0.265077	32.4045	81.2425
2.60686	34.4498	75.9944
35.1088	86.5926	36.3223
29.5508	88.1812	38.6458
33.9574	81.2012	41.2707
40.9262	84.2358	33.2063
36.3642	91.4013	30.9641
5.5245	-89.1549	73.6108
5.30944	-95.2652	65.76
9.5049	-88.9264	72.8006
6.02138	-83.0927	80.4628
1.6575	-89.2565	73.8981
66.12	-38.2057	32.4165
63.4824	-36.5069	39.3024
65.5062	-44.3526	34.0771
66.1897	-32.3322	31.0327
7.5891	-69.5362	95.8365
7.72104	-65.2965	97.7378
2.7567	-69.5928	96.0727
6.89115	-74.3564	91.8892
6.42815	-78.7357	86.477
2.04767	-78.7842	86.6588
43.843	-65.8371	62.3823
38.9218	-65.9437	69.4214
43.0247	-69.7876	60.597
48.7446	-64.5881	56.2164
43.8048	-61.4478	64.1131
48.1973	-78.7164	38.1067
45.6023	-84.053	34.2591
52.1187	-76.7763	31.9342
50.5187	-74.2862	41.525
43.2505	-80.9348	44.2922
5.76032	-101.172	57.2741
9.10089	-101.15	56.2309
2.38906	-101.304	57.5896
5.34004	-107.447	50.2907
5.90227	27.5112	82.7874
6.3678	25.3229	86.3276
8.68725	25.2388	79.5568
5.58173	29.9745	78.5693
3.11498	29.0741	84.7425
23.2839	7.89729	60.8629
27.4678	4.20363	61.1673
21.6314	12.9104	59.808
19.5078	11.4569	61.8502
31.3291	-27.7539	64.5935
30.3135	-27.101	64.636
30.4548	-28.4259	64.8525
32.1884	-28.361	64.5874
10.3375	4.98219	73.5968
11.754	6.37193	73.6394
9.70196	3.93928	73.1487
11.8022	4.44449	71.6288
9.54083	-0.0344625	71.5682
10.3541	-1.59844	71.8536
11.6085	-0.495919	69.5774
9.31546	1.26696	71.5352
7.96927	0.819279	73.3284
0.668234	5.28473	82.8391
0.738693	6.51862	85.007
-0.978342	5.05532	83.3218
0.674993	4.11168	81.178
2.26009	5.54321	81.4538
13.7885	-0.0282748	67.6203
16.027	1.19658	65.6138
13.3438	1.32416	67.9558
14.695	-1.77611	67.8374
7.46957	16.5605	90.895
4.82195	16.8603	94.0506
7.01922	14.1948	89.8541
9.76439	15.9335	86.5418
7.56745	18.5849	90.9615
28.796	-41.6168	74.6271
31.784	-40.2281	71.0559
27.3865	-37.8701	73.7079
25.0152	-42.3868	77.9453
30.1691	-45.6778	75.4837
29.8551	-21.3754	66.294
28.6221	-17.0183	67.1225
27.3128	-20.0481	67.5665
32.2116	-22.6675	65.383
1.17604	-0.666859	79.4102
1.55672	-3.09327	79.3204
2.95408	-0.523259	78.9571
0.882908	1.40631	79.6961
-0.908722	-0.737792	79.6438
5.1771	32.9316	74.4047
8.0906	30.5408	71.7355
5.25995	35.9559	69.595
16.2159	12.1581	68.407
15.4458	14.3533	70.2558
15.7098	13.3232	70.4023
16.2997	10.423	67.9078
16.5182	12.3428	67.022
3.65553	3.17848	78.2589
3.80949	1.41795	78.1602
4.97446	2.58062	76.8651
3.61233	4.38569	78.8023
2.34476	3.15105	79.4009
3.52453	5.48638	79.9498
3.61649	6.71341	81.6974
15.0882	14.649	72.552
14.7669	15.5688	72.6908
15.4773	12.7864	71.8546
15.9035	7.4536	67.4315
15.5283	9.20247	69.4941
14.8683	4.88613	67.7754
3.37459	-12.2092	80.197
3.76259	-14.1839	81.1724
6.09818	-11.3615	79.9755
2.81174	-9.12846	79.453
0.205463	-12.9064	80.3872
21.9865	-4.89395	65.365
19.2949	-4.53185	66.6428
24.7779	-9.24219	66.4327
24.6223	-5.5954	64.5179
19.4765	-0.476835	64.2237
12.3373	-37.2451	82.9657
12.1648	-34.999	83.1485
8.27538	-37.626	84.0961
12.62	-40.1194	83.4079
16.5268	-36.9157	81.4937
25.7493	-22.6934	68.7849
26.2206	-23.4854	68.1546
28.1785	-24.6464	66.2246
25.3389	-21.4545	69.1494
14.5144	16.1555	72.4456
14.5604	16.6284	70.7934
13.2456	17.7515	75.2394
20.1005	-36.6115	79.4092
20.5153	-39.3202	79.898
23.2689	-36.1376	76.7216
19.7076	-34.442	79.3152
4.51897	-37.6856	84.3655
1.17164	-37.6684	84.3591
4.71474	-40.3271	84.9432
4.28246	-35.4371	84.5377
63.4355	42.7452	25.3324
62.7268	42.0629	27.2283
63.8985	36.054	21.5708
64.0845	43.5996	23.3203
45.0641	71.9638	38.4033
38.9339	74.2258	42.9089
45.2206	67.8055	41.6161
51.3459	68.4787	33.3447
45.7907	76.2915	33.9686
57.4815	63.7358	27.2136
57.2627	60.0513	31.0063
62.6904	57.671	20.575
58.4147	67.9792	22.3281
47.0307	61.1607	45.4628
46.2995	63.4011	44.39
40.937	62.4779	49.6524
48.0229	58.7263	45.7744
64.8838	44.2059	19.9485
65.6174	46.4392	16.6806
61.8051	51.6706	26.7953
66.2283	36.6362	14.8142
28.1169	52.9692	53.9209
27.7414	51.222	51.3168
32.0949	53.1888	52.7373
