1910
9.8183	-114.686	-83.1086
0.0828369	-114.476	-83.7379
0.120653	-99.4949	-83.2276
23.4744	-67.8003	-90.9254
11.8816	-66.173	-93.6348
0.220459	-65.8568	-93.1716
0.156004	-84.3648	-84.7739
58.3945	97.4907	-42.167
46.256	108.276	-43.4493
58.8146	60.9109	-116.755
57.981	35.7987	-125.927
45.8971	38.4773	-135.447
46.8353	65.6938	-126.229
47.2707	89.5229	-103.759
59.2894	81.7128	-96.0779
60.5843	93.381	-70.3504
48.0132	103.765	-74.7129
56.5382	11.1808	-127.082
44.4414	12.4625	-135.91
54.3518	-12.235	-121.993
42.5714	-12.537	-130.222
50.5028	-33.0365	-110.332
39.7989	-33.9708	-118.047
48.1626	-51.1048	-92.1237
36.9117	-52.502	-99.9989
35.2063	-68.7446	-85.2254
41.2431	-102.826	-71.9335
31.0104	-102.003	-78.5417
32.776	-86.0176	-77.5988
43.0673	-85.7272	-70.0764
30.0887	-115.813	-79.6851
19.5538	-114.895	-82.4794
69.5942	71.5409	-86.1678
77.8888	60.0501	-72.51
76.6807	46.7316	-91.3917
68.8583	54.6617	-105.604
78.3138	68.1224	-51.6007
71.0024	81.0838	-63.708
67.8449	32.322	-115.251
66.2521	9.63604	-116.895
63.9248	-11.8358	-110.916
59.2032	-31.1276	-99.653
56.346	-48.0124	-83.9868
80.8923	21.7805	-89.1827
67.0053	-28.858	-89.6034
71.6638	-11.552	-100.354
77.6857	-10.9368	-88.9643
73.3965	-25.7758	-80.5569
73.7172	7.5392	-105.793
79.2021	4.89755	-92.8941
75.4292	27.6363	-102.931
62.2576	-43.8573	-76.5254
68.235	-38.9127	-69.7468
63.3976	-52.1769	-59.2852
101.341	5.28555	-59.2314
99.171	5.82534	-61.2235
97.6379	15.8893	-55.6998
99.9831	14.5836	-53.7372
91.542	15.0065	-40.5161
94.0861	14.6434	-38.1236
89.4093	13.3064	-43.649
96.0631	4.07692	-61.8454
94.767	13.9591	-56.7897
99.9543	-6.60424	-57.5534
98.8829	16.2084	-44.3714
100.421	13.0053	-52.6135
1.57608	118.81	-15.1355
1.23476	98.8161	-115.412
40.4454	-117.658	-74.1366
1.16371	70.8485	-138.911
0.987948	41.5725	-147.606
0.860909	14.961	-148.173
0.322511	-52.5136	-107.922
-77.216	-33.8034	9.58238
-78.9949	-34.7006	-5.00029
-75.8458	-43.0259	10.1306
-61.2334	-103.568	-10.913
-55.4953	-105.17	-1.91085
-58.6509	-141.521	-6.68106
-56.6141	-128.291	-4.1466
-61.6446	-124.877	-13.1661
-62.4594	-137.818	-16.224
-56.1577	-89.2723	-0.453992
-46.9444	-108.106	7.42662
-47.726	-90.5317	10.7273
-61.8436	-89.3975	-10.1685
-65.5396	-88.8114	-20.1961
-64.5564	-102.186	-20.7018
-73.4292	-51.3835	9.54133
-68.9919	-60.1393	8.40425
-68.9006	-59.0912	22.783
-74.1212	-49.0576	24.9825
-80.0022	41.6411	-23.9006
-78.3284	28.0719	-13.3634
-67.2951	38.3047	8.78345
-70.1418	51.2469	-3.42424
-84.6224	25.2562	-63.0258
-84.5106	34.1059	-44.9834
-82.5769	46.5205	-57.9567
-81.3997	35.5947	-76.502
-3.12989	-101.789	44.8329
-8.58461	-102.572	42.3672
-10.5836	-121.514	36.6413
-4.66437	-122.38	39.3691
-14.1205	-142.407	28.402
-6.46304	-143.475	30.8971
-7.66816	-155.865	27.016
-75.885	-43.9254	-42.6613
-69.0472	-55.5832	-45.4482
-74.4485	-54.6091	-31.7402
-78.0052	-35.899	-49.6621
-70.5042	-45.2164	-53.8342
-64.0459	-134.259	-25.853
-61.9329	-129.488	-39.3437
-76.5571	-40.3932	26.5303
-77.7573	-30.3263	25.2734
-73.621	-53.4864	-5.86075
-6.08034	-60.1078	93.5698
-15.1887	-59.7808	88.8897
-15.5066	-69.6301	87.976
-6.25106	-69.2726	92.3811
-24.6396	-59.1349	80.103
-24.507	-68.9082	80.0368
-6.11405	-51.605	89.6514
-6.40235	-77.1332	85.2217
-6.38683	-83.2547	73.5376
-13.7827	23.4702	62.4068
-12.9636	28.6279	55.5461
-17.4394	24.8213	53.4744
-18.9157	19.2006	59.3864
-61.9748	-12.6219	57.8616
-47.6685	-6.88203	65.8314
-44.6842	2.93829	64.5136
-59.0865	-2.61226	58.6952
-71.0524	-6.48916	42.0158
-55.3945	8.37713	55.5558
-67.9322	24.2499	21.0327
-72.7054	20.5449	10.7913
-48.3225	-16.1647	64.6736
-63.0015	-21.4147	56.1269
-4.57646	32.6702	68.3327
-5.09077	25.1374	77.684
-25.1129	93.1949	23.7275
-36.3447	89.5266	19.9354
-33.4887	79.9277	30.3675
-23.1625	82.3925	33.8522
-4.85119	-90.5079	57.2698
-73.7882	-26.2645	41.8987
-72.2024	-36.9873	42.7764
-36.051	-65.83	67.4663
-49.3944	-60.2434	57.3364
-47.5831	-69.2466	52.3415
-34.4624	-86.6226	38.0937
-42.6854	-76.2683	45.9995
-54.4401	-70.8867	34.5327
-44.5156	-81.8157	28.2845
-6.31323	19.9885	85.0661
-10.0187	21.7477	74.0691
-11.1206	16.656	80.6667
-19.636	11.5591	65.1844
-28.9847	7.2538	64.0674
-29.6014	-29.5366	69.1552
-15.1739	1.60609	74.9406
-14.2509	-0.46681	73.8144
-10.2498	-4.78348	76.2589
-14.0294	-2.75526	72.7078
-14.8482	-5.22004	72.9738
-3.89617	2.05812	83.0621
-3.60174	-0.08822	80.6331
-19.8654	-4.20155	69.6773
-7.3891	13.6898	90.5396
-12.0004	11.5877	84.6735
-11.3899	7.66224	84.434
-6.97875	9.12124	89.8354
-31.9065	-45.5916	71.7131
-23.3127	-49.3105	78.8259
-21.5966	-41.7646	78.6744
-28.2798	-37.3053	72.5095
-29.5329	-18.6799	71.556
-24.3944	-16.7799	73.9561
-3.78578	-2.76713	79.8196
-4.19105	-6.72536	80.4627
-9.36924	28.5759	66.1505
-17.73	9.8741	71.2766
-18.1766	7.20131	72.5974
-17.4557	9.5113	73.1346
-6.6704	-3.47065	78.3967
-17.5943	2.89929	72.286
-4.73039	-11.0751	82.0181
-5.40241	-15.0418	83.9036
-27.8356	-10.8224	70.4568
-22.6712	-9.94909	72.1259
-13.01	-39.0535	84.1914
-13.1909	-43.6368	83.7851
-5.51932	-44.6725	86.1009
-5.20219	-40.3914	86.544
-21.327	-23.034	76.0965
-26.3949	-25.4313	70.6481
-15.0377	12.7871	74.3753
-20.2509	-37.6416	79.3149
-56.252	52.8652	29.0464
-63.3325	38.044	20.9303
-60.4148	37.9288	27.7417
-46.269	73.8665	23.7737
-45.0256	66.8587	32.4473
-32.828	72.8111	38.1362
-58.3971	63.9619	13.0755
-56.5381	55.968	23.5612
-33.86	69.9009	40.7062
-45.0457	64.1347	35.954
-20.719	54.4658	45.6442
-19.7597	60.333	47.4404
-27.7513	63.0927	45.3928
-27.9883	57.1636	44.2299
-8.72115	33.8745	58.4506
-3.86332	38.4818	60.6407
-3.40658	41.5423	56.9107
-25.9819	15.6902	58.6929
-23.024	22.5273	52.6037
-36.5743	19.3682	52.8226
-40.9254	12.4807	59.1035
-54.8253	23.924	39.199
-56.7172	29.8321	33.2719
-62.6298	26.8056	28.3866
-46.7858	56.4034	38.9036
-36.1865	61.3065	42.5325
-35.6715	66.0583	42.3451
-54.6467	47.6922	34.5333
-56.8501	37.6821	32.1942
-41.4963	43.0377	40.4837
-41.1201	42.2741	40.6481
-36.4107	44.4803	41.2482
-36.3862	45.344	41.1047
-30.0118	45.7386	41.1452
-30.3767	44.8685	41.3768
-24.8583	42.5063	41.8509
-23.9362	43.0285	41.6082
-20.449	38.3306	42.1685
-19.4354	38.5422	41.8449
-16.499	35.0422	43.6922
-18.1369	38.8862	42.5658
-48.7651	32.8093	37.8151
-47.4902	30.7209	39.1837
-31.1385	43.0465	41.8842
-40.398	40.6198	41.0121
-43.4269	37.9063	39.8011
-46.193	34.1859	37.843
-46.1717	34.6667	37.7648
-45.1441	35.1266	38.9459
-35.859	55.2026	42.3192
-47.3312	41.0077	39.0671
-43.2118	45.6745	41.0574
-31.007	28.9905	47.6888
-41.9058	28.9616	44.7075
-22.0887	30.0396	46.1357
-19.8724	31.2198	44.7294
-18.5883	32.3449	43.9355
-19.3652	32.7793	43.0361
-11.2547	41.224	47.5402
-14.8131	47.6831	46.3667
-17.9042	34.6944	42.9186
-22.7876	43.7993	42.4627
-29.4947	46.8173	41.8822
-16.5438	40.6728	43.6979
-30.8798	31.1095	46.6411
-40.7814	31.4699	44.0869
-40.337	32.342	43.5362
-20.5331	32.223	43.3913
-22.7207	31.9151	44.5618
-20.814	32.7204	42.4907
-30.8115	31.8191	45.5604
-30.4338	30.5783	44.284
-20.3535	34.3361	40.5515
-20.9096	32.3613	40.8993
-20.2707	33.2041	40.6235
-43.0811	38.7217	38.2125
-6.11576	58.9806	50.5607
-4.20248	51.3764	52.2274
-21.8305	25.4278	49.682
-16.8061	32.1957	45.3657
-9.81567	45.1788	49.3792
-21.556	27.678	47.7622
-16.0731	-27.4336	75.3448
-23.0949	-27.4273	70.4415
-6.10918	-20.2634	84.9774
-5.87688	-17.2513	84.7445
-10.6064	-20.2935	83.3313
-10.4656	-23.2807	82.4968
-5.78322	-22.9913	84.1943
-15.8148	-21.4172	80.1842
-10.355	-17.689	83.389
-15.7064	-19.0218	80.5747
-10.0238	-25.9214	81.0072
-4.68853	-25.6914	83.1282
-27.6494	-26.5954	69.4413
-17.0412	-28.3344	77.5508
-16.68	-27.6438	76.628
-17.7582	-29.73	78.6601
-12.1067	-31.443	84.4635
-11.2903	-29.4247	83.6824
-4.9189	-29.9563	86.5322
-4.64197	-27.2026	84.4341
-10.4236	-27.2853	82.1047
-5.16121	-32.2997	87.7132
-23.5185	-27.782	70.3518
-4.14362	-26.5045	81.1719
-5.31168	-34.5664	88.2738
-5.28607	-37.0504	87.9566
-9.02424	-15.6153	83.1034
-4.51406	-26.1853	83.1422
-9.99783	-26.3819	80.9468
-13.1139	-35.8353	84.7331
-12.7887	-33.55	84.8823
-9.51912	-26.3021	79.1256
-9.54067	-26.7001	79.0947
-14.3476	-25.5028	74.4374
-9.34796	-24.6587	76.6098
-23.5192	-30.1174	70.0197
-3.88459	-29.4101	78.9965
-4.28055	-26.0305	81.064
-4.95597	-24.2438	77.6622
-9.61851	-29.5357	77.1036
-26.912	-20.777	64.486
-30.7854	-23.2935	61.5934
-13.67	-18.9127	72.1655
-9.23282	-18.1507	73.6818
-27.3515	-38.6838	68.6977
-23.9264	-38.615	71.8696
-3.4274	-37.1386	80.7078
0.141734	-37.4249	80.9249
-5.30602	-17.6766	74.4437
-9.76474	-37.1044	78.7029
-30.9054	-38.4892	64.5681
-86.591	-19.0304	-56.7331
-87.8144	-11.3553	-59.8442
-85.1808	-11.2027	-65.6002
-83.5775	-20.1284	-62.0111
-82.9682	6.79677	-21.6639
-84.7463	19.746	-34.0103
-85.5994	14.6953	-51.7637
-85.6655	7.73413	-45.8426
-83.0998	-30.7911	-46.6719
-80.9097	-36.7323	-40.7965
-85.0856	-25.2081	-52.0111
-80.7783	-28.4511	-56.4127
-91.8926	-9.32181	-58.7994
-90.966	-18.7748	-55.4946
-89.5274	-34.2379	-42.2076
-92.3773	-27.1092	-48.8157
-86.2788	-40.6914	-33.0536
-83.7668	-40.4536	-29.2044
-97.6553	-17.1722	-47.9023
-99.509	-4.67584	-55.7465
-83.1763	-17.9715	-15.1553
-82.1601	-26.0138	-13.5891
-88.4148	-17.9023	-26.3198
-88.762	-21.6753	-25.5851
-87.086	7.08748	-44.2011
-95.7736	-9.89536	-61.3755
-94.9726	17.0061	-48.0087
-97.7169	16.0453	-45.426
-92.6196	14.8235	-50.291
-92.8979	2.01274	-33.1437
-101.324	2.30541	-57.4264
-98.8265	-8.04322	-49.4719
-98.2309	-5.14006	-49.1462
-91.3097	1.18619	-57.447
-88.0041	-1.90589	-59.6108
-87.1427	-29.9813	-45.4073
-87.3008	-1.88649	-27.7929
-90.0595	6.37973	-52.2259
-87.5005	4.55547	-54.3849
-97.2907	7.06441	-45.2849
-92.2913	-11.8427	-43.5134
-14.2477	106.381	10.1554
-13.0944	94.8508	25.6017
-11.63	82.1687	36.3186
-22.599	74.3684	41.6769
-5.24207	4.508	86.4022
-7.07991	16.9812	88.7021
-11.4586	73.2737	44.244
-11.6326	67.8183	47.6042
-3.29889	45.39	54.553
-27.1711	103.071	9.46977
-24.0094	71.6117	44.2207
-27.0994	67.7189	45.6746
-30.9025	44.1148	40.3548
-28.7796	49.0496	42.6437
-21.6224	46.1318	43.3434
-38.8419	97.6492	6.51045
-41.7028	104.945	-15.412
-36.4767	42.6478	41.5865
-36.1131	48.5062	42.2203
-49.0307	82.3432	12.7523
-42.0643	43.8036	40.9705
-36.3199	46.3644	41.7586
-36.4425	43.7626	40.445
-45.5585	51.3602	39.8189
-61.2921	73.3373	0.275172
-44.8125	39.3453	39.156
-44.4293	38.8303	39.477
-40.4867	41.437	39.4642
-51.6109	44.55	36.907
-13.4549	53.1909	48.2974
-73.5191	-56.7836	-18.885
-86.5106	7.67084	-61.817
-83.8739	13.725	-75.5743
-81.4871	-11.9231	-77.5635
-78.8706	-24.113	-71.4708
-86.1696	-1.12028	-66.1636
-82.6829	1.05537	-79.8403
-74.5599	-35.0004	-63.2161
-11.7663	-90.7226	54.3004
-23.5403	-89.9049	47.2767
-61.7278	-62.291	39.8215
-72.6846	63.1072	-17.0825
-15.0682	117.086	-14.9789
-29.2303	112.461	-14.7482
-47.6847	36.232	38.639
-64.8414	-51.763	46.2088
-7.9684	-11.6177	81.6935
-19.1407	-14.5238	77.0513
-7.31541	-7.34894	79.7547
-11.6576	-8.65049	78.1748
-13.219	-12.8517	79.8862
-36.1315	-21.1702	68.9481
-35.194	-27.9611	68.536
-78.6697	-44.3901	-29.6547
-80.194	-26.1342	-5.79506
-81.2845	-17.335	-7.65566
-78.8789	13.5656	-5.79792
-79.2927	-0.826332	1.41252
-50.6464	27.3759	39.0478
-78.622	-13.5431	4.97888
-78.018	-24.0921	7.3471
-14.3681	16.8216	68.8411
-17.0952	4.58874	74.7571
-15.6096	6.00843	78.1982
-35.1993	-12.4007	68.7627
-60.5252	-31.3766	55.8173
-47.1116	-25.6495	64.4843
-55.2797	-41.7124	58.1877
-73.3755	-16.5238	41.7292
-35.2646	-55.8042	69.6893
-46.021	-49.9704	62.8362
-50.8915	17.7004	49.6619
-47.1316	22.1907	46.9986
-44.4856	-33.4202	65.8318
-39.1494	-39.9568	67.8719
-14.2522	-51.1598	85.6288
-33.7413	23.3144	50.0451
-11.819	14.171	83.3496
-76.5374	-9.15806	22.1718
-77.0906	-20.2666	23.627
-7.61587	49.2441	51.0252
-18.8526	34.8279	42.594
-17.1358	-9.53092	75.0308
-20.5812	-25.8765	70.5289
-19.1709	-19.8549	69.0508
-32.9185	-137.897	17.7777
-41.6268	-134.766	11.3247
-45.2333	-148.149	9.11899
-35.9476	-150.873	15.208
-38.4831	-95.1383	20.7201
-28.9666	-100.254	28.7235
-38.1605	-112.414	15.4359
-29.1333	-116.431	22.9264
-32.4871	-32.7747	69.1396
-52.7449	-78.2121	15.3659
-60.5922	-68.1397	20.3035
-49.3494	-131.551	4.29961
-52.3239	-145.25	2.41195
-63.6733	-68.3875	5.5538
-58.7616	-77.9032	1.7892
-63.2043	-78.8496	-9.20561
-63.0354	-97.7	-35.1999
-81.1556	-32.6265	-13.7085
-64.4729	-81.8843	-34.3206
-55.4894	-109.119	-50.9096
-54.8613	-124.027	-55.2975
-26.2877	-153.115	20.309
-23.4146	-140.279	23.8747
-17.8498	-103.442	36.3851
-19.1608	-119.589	30.7561
-26.2101	-32.9048	72.0597
-16.3183	-27.8024	75.2213
-16.4579	-30.2359	74.1239
-15.8268	-154.981	24.777
-16.4796	-38.0533	76.1663
-80.9599	54.3784	-37.2932
-51.285	-87.405	-59.5392
-49.3678	-105.646	-61.2339
-56.4945	-91.2161	-48.702
-49.8416	-121.212	-63.5959
-60.5604	-71.2322	-49.7683
-15.2847	121.964	-46.8809
-30.4434	116.544	-45.4989
-15.7223	97.7757	-114.329
-14.7637	70.4616	-137.943
-30.7957	68.4954	-133.819
-31.9243	94.4826	-110.142
-14.9837	41.206	-146.681
-29.6365	39.752	-142.622
-31.598	111.118	-78.9099
-15.6607	115.426	-81.8675
-14.669	14.3252	-146.857
-28.694	12.9022	-142.622
-13.8363	-12.2312	-141.08
-27.7334	-13.0316	-136.549
-26.0383	-34.708	-124.472
-12.9707	-34.1895	-128.985
-11.8633	-52.6194	-108.059
-23.8272	-53.062	-105.942
-10.2601	-85.0055	-85.6002
-9.8028	-100.266	-83.6331
-20.1187	-101.071	-82.1975
-21.3247	-85.8802	-82.8678
-9.65262	-114.686	-83.1086
-19.3881	-114.895	-82.4794
-11.4598	-66.3362	-93.5493
-23.0731	-68.1189	-90.7576
-44.2102	108.013	-44.1377
-56.7058	96.9869	-42.9425
-57.1046	59.6005	-116.506
-44.8521	64.6634	-125.992
-44.154	37.3843	-135.084
-56.4469	34.4188	-125.511
-57.5365	80.5447	-96.1221
-45.2507	88.6221	-103.768
-58.943	92.4258	-70.7602
-46.0218	103.073	-75.0683
-55.2549	9.80788	-126.58
-42.9632	11.3763	-135.49
-41.4318	-13.5464	-129.789
-53.3174	-13.5132	-121.467
-49.7827	-34.1135	-109.852
-38.9727	-34.8282	-117.656
-36.3806	-53.1551	-99.679
-47.7083	-51.9565	-91.7097
-34.8659	-69.2143	-84.9742
-41.0421	-102.998	-71.8261
-42.8839	-86.1122	-69.8531
-32.5333	-86.2926	-77.4405
-30.8178	-102.101	-78.4803
-29.9229	-115.813	-79.685
-68.175	70.1338	-86.2678
-67.4562	53.1163	-105.376
-75.6099	45.0147	-91.2404
-76.6633	58.4677	-72.7179
-77.4374	66.7808	-52.1863
-69.7227	79.8829	-64.169
-65.153	8.04474	-116.355
-66.5377	30.7119	-114.821
-58.6074	-32.3702	-99.1229
-63.0927	-13.3135	-110.346
-55.9915	-49.0121	-83.5108
-80.1667	19.9154	-88.8373
-66.558	-30.249	-89.0378
-73.0534	-27.2877	-79.9756
-77.1965	-12.6706	-88.3861
-70.9897	-13.1846	-99.7609
-78.547	3.06732	-92.3849
-72.8151	5.79499	-105.249
-74.4075	25.8621	-102.525
-63.3793	-53.1437	-58.7805
-68.0752	-40.152	-69.198
-61.9965	-44.9732	-76.0111
-101.237	3.03773	-58.7816
-99.0235	3.62286	-60.7933
-99.8757	12.3944	-53.5144
-97.5038	13.7539	-55.5055
-94.1875	12.7315	-38.2059
-91.6161	13.1517	-40.614
-89.4745	11.4942	-43.7046
-95.928	1.96573	-61.4312
-94.6322	11.9019	-56.6002
-99.8877	-8.76839	-56.9654
-98.9015	14.1125	-44.3145
-100.352	10.8121	-52.3701
-40.2796	-117.658	-74.1365
19.3802	-77.778	77.9587
16.4906	-78.8694	78.3402
21.4417	-78.3127	74.2388
20.3603	-75.4936	80.5212
70.3193	11.078	29.7199
68.1246	12.8413	33.2646
71.4616	7.83957	29.9634
71.0512	13.208	24.4686
65.9259	14.9234	35.3392
65.3455	18.1605	32.524
63.6054	14.7987	39.7236
12.5853	61.7094	49.7455
14.4738	59.6819	49.732
15.7152	64.8445	49.0032
9.73075	62.4893	49.6601
10.0556	57.4479	50.5738
24.1745	40.5497	41.705
22.0236	38.6068	41.7241
24.0608	40.9617	40.4734
26.9612	42.4431	41.8512
24.2127	40.5972	42.58
9.64734	38.6007	52.1797
10.2809	37.4385	51.8066
9.97712	39.87	50.9025
9.17437	39.1787	52.7873
12.609	37.8898	47.6467
14.3331	35.9452	46.2897
13.2628	39.5319	46.7187
11.3198	40.0565	48.8521
12.3031	36.4984	48.8877
44.2162	34.4242	41.5187
43.9493	34.6213	41.397
41.3562	33.3165	43.9413
44.6171	33.7781	41.6295
45.4882	35.2001	39.751
16.5654	30.8982	49.1011
16.2199	31.7595	48.5779
16.072	30.3298	50.3005
17.9971	29.9357	48.445
19.4267	34.7345	42.2238
19.5624	34.2799	42.1638
19.917	35.0088	41.0517
19.6836	35.5455	42.2117
18.9628	34.5641	43.125
25.5731	-28.5823	71.8482
25.2966	-28.5191	71.9758
25.7334	-28.8309	71.4671
25.3869	-28.5658	72.101
24.1292	-27.1974	73.9482
24.5122	-28.0662	72.9274
25.4876	-27.7586	72.7574
24.1772	-26.5938	74.3666
22.428	-26.767	75.2533
26.1544	-27.9876	72.3078
26.3016	-27.7763	72.3843
26.1873	-28.1526	72.2239
28.072	-27.0875	72.3944
27.1439	-26.9991	72.5433
28.6701	-27.8219	72.0584
28.1838	-25.8528	72.674
26.273	-29.2104	70.7991
25.3491	-28.5754	71.0281
27.1923	-29.6604	69.4603
25.9306	-29.5578	71.2609
21.1778	-32.4478	78.3953
21.6438	-33.2614	78.2623
23.6881	-30.3	74.7508
20.9902	-31.773	78.2074
18.3791	-34.0723	82.0046
17.6947	-20.9434	80.3906
17.0971	-19.4491	80.559
14.4334	-18.8746	82.0742
17.9222	-21.8334	80.1185
20.387	-22.8856	78.5654
24.5376	-28.3957	72.897
24.6322	-28.4761	72.9314
24.6147	-28.3892	72.7051
22.9726	-28.3972	73.9467
83.3888	-31.9124	-20.6624
82.6783	-32.1868	-19.757
82.9719	-35.8648	-22.4023
84.1419	-30.976	-20.9392
93.0944	-25.3394	-33.9983
93.6095	-24.1644	-37.0436
91.1217	-24.0298	-33.6328
92.5275	-26.0064	-31.3865
94.2871	-26.6603	-34.073
87.3195	-29.4209	-22.8923
87.2902	-26.7587	-23.1702
86.7004	-29.5681	-22.0354
88.1823	-31.0229	-23.8733
85.4016	-18.4764	-29.2114
85.1173	-17.5044	-31.1806
86.2212	-16.3295	-29.8075
87.0975	-18.4982	-28.3155
86.1329	-20.718	-29.4047
92.5497	0.498194	-35.7929
91.9782	-1.56342	-36.0346
92.7302	1.17995	-36.5327
92.6104	1.22485	-35.0306
96.0149	10.132	-42.3943
95.7554	10.9731	-41.6563
95.6985	9.17091	-42.1038
97.573	10.541	-45.5953
89.0734	-17.8621	-37.3857
87.7806	-16.0926	-36.5604
88.2359	-21.2612	-33.897
91.9663	-21.2882	-38.832
91.743	-16.105	-41.7017
94.7695	0.428229	-42.237
95.1579	1.46269	-42.854
93.0937	0.83518	-38.5825
94.7384	-1.06695	-42.919
99.081	-12.2928	-50.7452
98.948	-11.9638	-50.2025
98.0403	-15.1224	-49.5082
99.4174	-11.39	-51.9723
99.4501	-10.14	-53.9593
99.7384	-7.90075	-53.5489
99.38	-11.0229	-54.7687
99.4937	-7.50764	-55.9213
93.9097	-23.1302	-39.4237
94.2639	-21.4131	-41.8318
94.9199	-24.1347	-39.7355
95.844	-10.9937	-47.237
94.3739	-12.6733	-45.8705
97.6296	-11.5848	-48.6534
95.925	-9.65388	-47.2525
85.0943	-23.8942	-20.8535
85.2686	-26.1817	-20.7942
85.8871	-23.6621	-21.7492
84.7252	-22.953	-20.5324
84.5463	-21.2381	-20.3002
84.9277	-19.2613	-20.8504
84.1197	-21.1938	-19.403
86.1599	-12.6116	-22.9909
85.8019	-13.0604	-22.4677
86.6437	-13.1222	-23.7304
86.5889	-9.57258	-23.9837
85.4129	-13.7209	-21.8324
84.9554	-13.4031	-20.9793
85.2935	-16.088	-21.47
88.5147	-22.5951	-31.8843
89.0383	-22.6549	-29.7554
88.3916	-9.62005	-32.3002
87.2301	-13.2121	-30.9167
87.7283	-10.3064	-33.7769
89.7206	-6.0559	-33.5879
89.5955	-8.52179	-31.5842
99.2014	3.65213	-53.0129
99.3025	4.30653	-53.465
99.0935	3.36554	-52.3554
99.5454	2.14796	-54.3498
99.7926	-1.49956	-54.1467
99.9152	-2.21163	-52.4653
99.8627	-3.28554	-54.5601
99.6129	-0.431191	-55.2787
99.5465	0.625563	-52.7766
95.32	8.58285	-42.1752
96.2636	8.16675	-44.7755
94.3379	8.10144	-40.9722
97.4351	7.33658	-47.9238
96.68	6.46422	-47.0812
98.8505	6.16313	-51.7306
98.4584	8.28862	-48.9575
40.1337	45.8001	41.862
39.9516	45.4521	41.612
42.337	44.3591	41.3791
40.3639	46.1865	42.2044
37.4685	46.8256	41.9264
24.7559	-78.8104	68.7983
23.6775	-81.0411	65.0123
27.2532	-77.3738	68.5252
46.7348	38.5632	39.5232
47.2042	39.0507	39.5193
45.943	40.6411	39.6169
46.3763	38.332	39.5305
47.5709	36.7982	39.2678
51.0911	39.9234	38.0772
53.4275	40.6125	36.5437
50.5553	42.4096	38.5128
48.7824	39.4468	39.1307
50.653	37.4253	37.7964
77.1658	-43.3071	-12.6071
77.9941	-42.8218	-17.301
77.5381	-41.414	-11.7348
76.3096	-45.5419	-12.3935
26.8485	33.053	43.4236
26.9164	33.4758	44.7644
31.6507	32.6758	44.5834
27.0627	32.3987	41.9445
23.185	33.3057	42.1518
18.3388	34.6187	43.6297
18.8439	33.9386	43.5493
18.4425	35.594	43.5684
18.0161	34.5432	43.7954
20.536	36.9282	41.9999
20.0335	36.7286	43.0881
20.7032	37.148	40.5046
16.9305	37.398	43.537
17.4639	37.2683	43.2529
18.1891	39.6364	42.9822
16.3524	37.6641	43.9296
16.7205	35.808	44.0283
8.50692	40.4793	53.1821
7.89941	40.711	53.8855
8.45762	42.3514	52.3463
18.588	-27.396	77.4284
19.4459	-28.1973	76.2113
18.9197	-26.6192	77.5553
15.2316	-26.7418	79.8913
67.3739	-66.5661	-12.0362
66.3969	-65.1742	-6.67162
66.5393	-69.6859	-13.3509
68.8085	-64.2913	-13.1176
83.1433	-0.714758	-20.4168
82.7494	-7.03675	-15.9964
83.9384	-2.12041	-22.9896
83.6457	5.90457	-25.7264
82.2367	1.29902	-16.2099
68.3876	-72.3252	-24.6816
67.8085	-74.8379	-26.0824
69.4415	-68.1949	-25.8923
67.477	-73.6135	-19.5602
64.0273	-109.185	-27.9378
63.6242	-117.911	-29.4208
62.4202	-106.052	-35.764
64.408	-99.8977	-27.8407
64.1433	-111.541	-21.5678
24.6641	-28.9637	73.1507
24.8135	-29.1469	73.1355
24.7106	-28.7472	73.0144
23.3146	-29.303	74.5147
24.8523	-29.4158	73.211
25.1981	-29.3823	73.0476
20.6169	-31.3743	78.2889
20.6738	-30.8211	77.801
17.7485	-32.4346	81.6843
29.2022	-75.9456	68.4383
33.6465	-75.2847	62.5815
29.2681	-73.5169	71.668
50.9471	-67.1598	-69.0889
50.2964	-64.1424	-73.8931
53.8728	-65.6336	-65.7788
49.8995	-70.3061	-68.3662
57.9672	88.7599	-8.19514
60.0342	89.1981	-15.6735
54.1058	92.4703	-6.41018
58.5222	85.3245	-4.14365
96.6955	-21.9328	-48.949
98.1688	-17.7296	-53.1374
97.153	-20.7989	-48.109
95.3824	-25.3702	-45.2825
95.99	-22.4032	-50.2883
89.3109	2.91494	-30.3375
88.5277	-1.06748	-28.3104
90.642	2.74906	-30.7086
89.9452	6.90513	-32.5913
87.6798	3.08122	-29.9693
87.4364	-17.5694	-24.7274
86.863	-18.0115	-23.5247
88.1491	-20.2858	-25.112
88.0136	-18.128	-26.2051
87.3273	-15.9262	-24.888
87.1485	-23.8362	-23.2981
86.6413	-20.8741	-22.9278
88.166	-23.8252	-24.6089
99.2184	-12.7446	-57.0667
98.3123	-13.0189	-58.0406
99.983	-7.06666	-59.8412
99.7225	-12.4532	-56.0571
97.0826	-13.2051	-59.0225
96.1615	-18.0707	-55.4673
95.4463	-13.1124	-59.6452
97.5503	-7.51788	-61.753
85.4856	5.65645	-32.737
86.6178	7.16349	-34.9876
84.7393	7.12744	-32.3387
86.0549	4.95983	-30.8532
92.2723	-21.0363	-53.4796
90.3363	-20.3215	-53.8322
93.0272	-17.2234	-56.4025
93.5979	-21.7225	-52.9148
91.0316	-24.3163	-50.4846
95.3193	-25.4432	-40.1888
95.8394	-22.9962	-43.3368
95.0889	-26.9193	-37.5812
95.1546	-26.7413	-41.1024
92.8766	-34.0557	-35.824
92.2497	-35.3079	-32.4331
91.3034	-36.1416	-36.6327
93.7898	-31.3332	-39.3668
94.2086	-30.7887	-35.2196
93.2922	-30.4491	-29.8071
92.6727	-32.362	-29.6041
94.0681	-29.6513	-31.7525
92.6836	-29.3807	-28.7365
80.3976	-39.7485	-23.3225
79.6953	-40.7423	-23.4661
81.4608	-39.0116	-25.2095
80.5745	-37.8975	-19.5853
86.4398	-37.3033	-24.4135
86.9774	-39.0526	-26.5136
88.2507	-35.6292	-24.4264
85.7296	-34.3409	-22.6059
84.7106	-37.9627	-24.863
93.5583	8.59307	-34.4971
93.5089	10.1509	-34.7596
92.3043	5.4325	-32.6727
93.9434	8.40531	-35.0267
93.3537	11.2316	-35.0752
94.9371	14.0556	-37.7463
92.5221	11.2459	-35.1213
99.6234	-12.0291	-55.3025
98.6045	-15.9409	-51.7066
100.437	-6.97224	-58.0018
100.036	1.95321	-57.359
99.7936	1.00456	-56.772
100.24	1.14491	-58.1449
100.045	3.68723	-56.2244
94.161	9.06894	-37.1599
94.233	8.90197	-36.5824
93.6847	7.4881	-37.0448
94.6521	10.4023	-38.5062
94.0615	8.22873	-35.5246
93.3039	5.16831	-34.6927
95.3703	11.9674	-37.8116
98.5918	-11.806	-49.6168
99.732	-9.09669	-50.5376
96.9751	-14.9675	-47.8196
93.2823	5.59292	-38.2147
93.7333	7.06222	-39.0668
93.1544	5.58737	-37.6813
93.8579	4.32794	-39.6589
94.0274	7.59362	-40.4432
94.6982	6.71082	-42.2552
93.4505	-15.4862	-44.1292
94.4319	-17.3736	-44.4828
90.1275	-7.50666	-30.609
91.0502	-3.23331	-31.6901
89.9679	-7.20631	-29.4008
89.1872	-12.0839	-29.5598
92.7171	1.50927	-36.9443
92.9363	3.33117	-36.7682
55.6725	-63.3315	-64.3097
56.3954	-59.1954	-67.7559
56.9459	-63.0841	-61.6201
24.9899	0.0365543	67.5782
27.0371	-3.14795	68.2919
25.3892	1.41688	67.2054
22.4227	0.292242	67.8647
19.1053	2.53713	69.455
19.6033	1.41563	68.9348
19.3598	5.09055	69.3548
18.318	2.50509	70.5954
53.2568	56.0759	33.9641
53.7137	54.1031	35.0801
57.2918	50.5349	30.7488
52.9271	57.498	32.6502
48.0201	60.3855	37.4261
7.56495	-0.558544	77.4689
7.01405	0.195253	78.3805
7.20542	-1.35311	77.3387
8.82772	-0.758754	76.8043
9.40178	2.51837	79.6886
7.94247	2.39573	80.2758
10.5976	1.5982	78.0587
10.0549	3.46279	80.2268
46.2293	35.6935	39.2184
45.7001	35.8356	39.1348
46.9663	35.1949	39.1462
46.0499	36.3739	39.3785
19.8987	33.9972	42.1755
20.5275	33.7618	42.1119
20.3264	34.049	41.1565
19.601	33.8639	43.0118
15.4607	9.72599	76.5232
15.6475	8.73207	76.7807
15.7092	9.67798	75.7473
14.4301	10.6835	77.8571
89.7881	-27.7423	-47.2885
88.4886	-29.8584	-45.118
88.2889	-26.0416	-48.5795
91.0479	-28.9706	-46.3226
68.3552	81.4622	-26.7678
65.7544	85.0852	-26.5737
68.7508	78.0313	-21.0179
71.1019	80.0903	-36.4871
28.1344	-35.6935	69.5357
28.751	-33.881	68.3725
28.7924	-38.9109	68.9116
26.8413	-35.0387	70.8436
27.4195	-24.9263	66.7898
25.6469	-24.7638	68.2759
28.0443	-22.6132	64.7925
28.2707	-26.8948	66.585
-17.9072	-78.5777	77.2889
-18.6977	-76.3745	80.0551
-20.4041	-79.2625	73.3752
-14.8421	-79.5286	77.6787
-71.1405	8.26268	30.4916
-71.9143	10.9926	24.5493
-72.0889	4.76044	30.6712
-68.7307	10.1843	34.3554
-66.2285	12.6076	36.8848
-63.7268	12.1708	41.7515
-65.5558	16.3987	33.7525
-11.2621	63.1439	49.3214
-13.2521	61.2963	49.2574
-8.4808	58.4556	50.3457
-8.40446	63.6489	49.2525
-15.2057	66.6181	48.1082
-23.9656	39.2685	41.549
-23.7149	39.6112	40.3423
-22.2279	37.3398	41.4292
-24.03	39.37	42.3993
-26.3136	41.2024	41.727
-8.58736	37.8041	52.1612
-8.11027	38.4449	52.7892
-8.85065	38.9766	50.8428
-9.31397	36.5821	51.8116
-11.8788	36.7106	47.3653
-14.1412	34.7212	45.8242
-11.5532	35.279	48.7246
-10.335	39.0397	48.6252
-12.6001	38.5651	46.2701
-43.6914	33.0864	41.3566
-44.0931	32.4555	41.4149
-40.4842	32.1379	43.8517
-43.4155	33.2791	41.246
-45.2011	33.8683	39.4064
-15.8629	29.5514	49.2188
-17.3705	28.6055	48.6215
-15.2957	29.072	50.5152
-15.6192	30.4072	48.5903
-20.1543	33.6373	41.5491
-20.3157	33.7597	40.5848
-20.1685	33.1544	41.5735
-19.9231	33.6148	42.2276
-20.4544	34.4642	41.5368
-26.1481	31.8454	43.4293
-23.0443	32.0628	41.976
-26.3972	31.0517	41.9775
-30.8199	31.4248	44.547
-26.1594	32.2916	44.7443
-26.3819	-27.5312	68.9686
-26.1059	-27.4561	69.099
-26.1976	-27.5082	69.2234
-26.5351	-27.7641	68.6049
-24.9229	-26.1297	71.1587
-26.3263	-26.693	69.9006
-25.3392	-26.9407	70.062
-23.167	-25.7468	72.6142
-24.9432	-25.5295	71.6413
-26.9917	-26.9716	69.4356
-27.0233	-27.1352	69.3483
-27.1442	-26.7601	69.5129
-28.9615	-26.0412	69.573
-29.0528	-24.7639	69.957
-29.5987	-26.7674	69.2344
-27.9984	-25.966	69.6899
-27.0675	-28.1204	67.9781
-26.7161	-28.4696	68.4177
-27.9139	-28.5989	66.7346
-26.1467	-27.4798	68.1899
-21.8833	-31.5903	75.8057
-22.3371	-32.391	75.6185
-19.1602	-33.7635	79.9157
-21.7278	-30.8625	75.6001
-24.4076	-29.4011	71.8896
-18.4104	-20.1764	78.82
-17.9462	-18.6569	78.9852
-20.9231	-22.1824	76.7818
-18.5855	-21.058	78.5532
-15.3967	-18.1419	80.6572
-25.3575	-27.2847	70.0232
-23.7301	-27.4011	71.1212
-25.4314	-27.2807	69.8321
-25.4507	-27.3722	70.0576
-83.799	-33.097	-19.9201
-84.7545	-32.2619	-20.2284
-83.4185	-37.0204	-21.6332
-83.1178	-33.3389	-19.0121
-93.3633	-26.9974	-33.296
-93.8541	-25.8738	-36.3531
-94.5493	-28.3465	-33.3316
-92.8008	-27.6195	-30.6775
-91.3893	-25.6333	-32.9791
-88.6864	-30.7729	-22.1017
-89.6464	-32.3737	-23.0845
-88.2887	-30.8946	-21.269
-87.8898	-28.1279	-22.4698
-85.6928	-19.9019	-28.7471
-85.3969	-18.9503	-30.7377
-86.4064	-22.1536	-28.8842
-87.3761	-19.9692	-27.8252
-86.4705	-17.8026	-29.3805
-92.7437	-1.31659	-35.6205
-92.8144	-0.587952	-34.8822
-92.923	-0.64723	-36.3684
-92.15	-3.35479	-35.8265
-96.0931	8.14061	-42.3017
-95.847	8.99329	-41.5929
-97.6066	8.47828	-45.4425
-95.7966	7.19436	-42.0006
-89.0804	-11.6732	-36.7199
-91.8117	-8.80836	-40.7165
-88.3684	-14.1039	-36.5829
-87.9684	-11.903	-33.4501
-90.4026	-7.93897	-36.7192
-95.6752	0.935269	-43.1948
-95.2672	-0.482866	-42.5987
-93.9792	2.43424	-39.5187
-96.2021	2.29807	-44.3911
-97.7063	-0.680895	-47.5278
-87.292	-32.4736	-43.0518
-88.6464	-31.4569	-44.4281
-85.8429	-31.9842	-43.2452
-87.0746	-34.5694	-41.071
-99.1398	-14.3566	-50.1265
-99.452	-13.4769	-51.3577
-98.0995	-17.1304	-48.8727
-99.0175	-14.0205	-49.593
-99.4562	-12.249	-53.3517
-99.7325	-10.0261	-52.9738
-99.4633	-9.64416	-55.3377
-99.3815	-13.1302	-54.1434
-94.1186	-24.8786	-38.7502
-94.4305	-23.2071	-41.1767
-95.1039	-25.9106	-39.0305
-92.1449	-22.9875	-38.219
-95.9449	-12.9385	-46.7089
-94.4669	-14.5584	-45.3458
-96.0259	-11.6078	-46.7446
-97.6765	-13.5945	-48.083
-93.6002	-17.3111	-43.577
-94.5546	-19.2201	-43.8863
-91.8817	-17.8566	-41.1749
-85.4585	-25.19	-20.246
-85.0762	-24.2414	-19.9546
-86.233	-24.9923	-21.1438
-85.9385	-27.4735	-20.1303
-84.8857	-22.531	-19.7658
-84.451	-22.4661	-18.8752
-85.2683	-20.5854	-20.3586
-86.4358	-14.0441	-22.6662
-86.8615	-11.05	-23.7313
-86.9208	-14.5742	-23.3843
-86.0947	-14.471	-22.1379
-85.7247	-15.1076	-21.4888
-85.6204	-17.4508	-21.0619
-85.2821	-14.768	-20.6519
-88.7896	-24.1141	-31.2934
-88.4966	-22.8013	-33.3341
-89.3172	-24.1675	-29.1534
-88.6224	-11.2273	-31.9859
-87.4827	-14.7497	-30.5428
-89.829	-10.1647	-31.2828
-89.9397	-7.73441	-33.3308
-87.3134	-16.5151	-29.7003
-88.2354	-16.5209	-29.1638
-99.1729	1.50711	-52.6323
-99.4975	-0.0103005	-53.9322
-99.0788	1.22952	-51.9788
-99.2613	2.15377	-53.0908
-99.7561	-3.65358	-53.6666
-99.8976	-4.35578	-51.9859
-99.5249	-1.51888	-52.3437
-99.561	-2.59103	-54.8082
-99.8257	-5.43706	-54.0483
-95.4272	6.61788	-42.0643
-94.4295	6.17186	-40.8841
-96.3177	6.15621	-44.6132
-97.4435	5.26862	-47.6935
-96.7002	4.42849	-46.8576
-98.4826	6.18299	-48.7112
-98.8386	4.03121	-51.4114
-96.4017	3.40192	-45.5778
-98.1336	1.94168	-49.2898
-94.79	4.7674	-42.1202
-39.2439	44.8604	41.1843
-39.1272	44.4549	40.9563
-36.347	45.811	41.3797
-39.4577	45.3249	41.4835
-41.7088	43.3813	40.7032
-24.1144	-79.8759	67.6785
-26.7116	-78.5245	67.2491
-22.9825	-82.1665	63.8801
-46.1703	37.3695	38.9456
-46.5395	37.9631	39.003
-47.0431	35.4889	38.7939
-45.8594	37.0925	38.9707
-45.1462	39.6118	39.1213
-50.1692	39.3315	37.5986
-49.4905	42.6941	38.1707
-52.5111	40.5767	36.2079
-49.9351	36.297	37.4342
-47.9351	38.5892	38.7239
-77.8329	-44.1519	-11.7529
-76.9971	-46.3468	-11.558
-78.1795	-42.2783	-10.8571
-78.5741	-43.7392	-16.502
-19.3646	33.7005	42.6269
-19.6328	32.954	42.76
-18.8735	33.5979	42.8921
-19.6064	34.6938	42.5052
-21.1422	35.7652	41.514
-20.9423	35.7807	42.4117
-20.9785	35.8165	40.1478
-17.695	36.5607	42.6337
-18.8325	38.6463	42.1388
-18.3281	36.4777	42.2717
-17.2651	34.77	43.2893
-16.9371	36.7727	43.1095
-7.38473	39.7841	53.1682
-7.27156	41.6734	52.3306
-6.80885	40.1181	53.8782
-19.2268	-26.5914	75.2135
-15.9738	-26.0221	78.1297
-19.4134	-25.9612	75.5233
-20.175	-27.2366	73.7477
-68.3602	-67.1709	-11.687
-69.7443	-64.9141	-12.6992
-67.4531	-70.3029	-13.0379
-67.5615	-65.7384	-6.37632
-83.4281	-2.11515	-20.507
-83.0633	-8.33152	-15.9177
-82.5546	-0.0484856	-16.4225
-83.9179	4.40662	-25.9447
-84.2293	-3.55685	-22.9989
-68.6727	-73.0238	-24.2665
-68.1078	-74.2711	-19.2087
-69.6869	-68.9323	-25.4288
-67.9858	-75.533	-25.6876
-64.0685	-109.491	-27.8245
-63.5469	-118.079	-29.3632
-64.2118	-111.852	-21.4846
-64.5258	-100.342	-27.6552
-62.4476	-106.372	-35.613
-25.4738	-27.8976	70.2656
-24.0257	-28.3747	71.6754
-25.5256	-27.6624	70.1351
-25.6172	-28.0883	70.25
-26.6237	-28.0626	69.9272
-27.6668	-27.2887	69.3666
-26.877	-28.5218	70.0264
-25.9965	-28.3219	70.1626
-26.9549	-27.475	69.4644
-21.3391	-30.5017	75.757
-18.5884	-32.046	79.6033
-21.3897	-29.9734	75.281
-28.8251	-77.1639	66.9244
-28.9951	-74.9331	69.8722
-33.3444	-76.6032	61.108
-50.777	-67.8328	-68.7201
-49.7326	-70.9312	-68.0189
-53.7473	-66.3531	-65.382
-50.0667	-64.8522	-73.5141
-56.1654	88.9262	-9.21046
-56.7784	85.5482	-5.17076
-52.0457	92.7929	-7.3874
-58.3532	89.1337	-16.6871
-96.7892	-23.8551	-48.2362
-98.1895	-19.7566	-52.4466
-96.0792	-24.3124	-49.5743
-95.5191	-27.2011	-44.5509
-97.2366	-22.737	-47.4087
-89.5438	1.22742	-30.3302
-88.7583	-2.69737	-28.236
-87.9159	1.44507	-29.9976
-90.1605	5.1686	-32.65
-90.8605	1.01799	-30.6718
-87.7464	-19.0213	-24.2501
-87.1592	-19.4334	-23.0462
-87.6287	-17.3885	-24.4538
-88.3257	-19.6075	-25.7064
-88.4749	-21.7426	-24.5574
-87.4757	-25.2216	-22.6756
-86.9419	-22.2626	-22.3839
-88.5133	-25.251	-23.9748
-99.1998	-14.8554	-56.407
-99.6996	-14.5747	-55.3995
-99.8872	-9.24457	-59.2305
-98.2659	-15.1101	-57.3859
-97.0169	-15.2654	-58.3792
-96.182	-20.052	-54.7892
-97.413	-9.63794	-61.1606
-95.3814	-15.1296	-59.022
-85.668	4.05167	-32.836
-86.2619	3.35525	-30.9467
-84.9455	5.54386	-32.4895
-86.8027	5.50489	-35.0771
-92.2839	-22.8758	-52.8295
-90.3741	-22.111	-53.2142
-91.1166	-26.0729	-49.8157
-93.6561	-23.5892	-52.2345
-93.0205	-19.1275	-55.7752
-95.5114	-27.226	-39.4599
-96.0071	-24.8392	-42.632
-95.3343	-28.5188	-40.3578
-95.3053	-28.6612	-36.8322
-93.1493	-35.6598	-35.0145
-94.475	-32.4517	-34.4275
-94.0267	-33.0169	-38.5833
-91.5758	-37.6876	-35.8307
-92.5407	-36.8494	-31.6119
-93.6233	-32.0343	-29.0098
-92.9986	-30.9472	-27.9587
-94.3704	-31.2864	-30.9643
-92.9941	-33.9113	-28.7931
-80.8659	-40.8161	-22.5618
-81.0641	-38.9424	-18.8032
-81.882	-40.1353	-24.4567
-80.1886	-41.7855	-22.7139
-87.3965	-38.3315	-23.4073
-87.5131	-40.2846	-25.6486
-85.2766	-39.1175	-24.0238
-87.1698	-35.5962	-21.775
-89.6319	-36.888	-23.5467
-93.7246	6.73031	-34.5098
-94.0943	6.52646	-35.0212
-92.5187	3.6278	-32.6497
-93.6661	8.28391	-34.804
-93.5077	9.36524	-35.1412
-92.7013	9.40476	-35.1998
-95.071	12.1236	-37.8055
-99.9341	-0.239631	-56.9014
-99.9498	1.49581	-55.8024
-100.133	-1.05775	-57.6618
-99.7119	-1.17476	-56.3077
-94.2929	7.16927	-37.1415
-94.7796	8.47684	-38.4884
-93.8248	5.60691	-37.0019
-94.3736	7.00396	-36.5655
-94.2093	6.34278	-35.5051
-95.5104	10.0239	-37.8211
-93.4881	3.32218	-34.6285
-98.6634	-13.8483	-49.0195
-97.0532	-16.9312	-47.2089
-99.7663	-11.1942	-49.9595
-94.1194	5.67805	-40.3572
-93.8528	5.16799	-38.993
-93.431	3.72178	-38.1208
-93.3131	3.72387	-37.5953
-90.3825	-9.16339	-30.3242
-91.2648	-4.95365	-31.4944
-89.4291	-13.6754	-29.187
-90.2286	-8.8491	-29.133
-92.905	-0.321289	-36.7855
-93.1182	1.4885	-36.6468
-93.262	-1.01668	-38.3862
-55.5569	-64.0955	-63.8917
-56.8881	-63.8568	-61.1932
-56.2453	-60.0253	-67.3173
-25.8751	0.212906	66.456
-23.3207	0.679552	66.6571
-26.3399	1.74769	66.1246
-28.1173	-3.19943	67.5286
-19.8676	2.98616	68.1365
-19.2107	2.86276	69.2436
-20.0403	5.74086	67.8431
-20.4341	1.85269	67.591
-51.5252	57.9593	33.7001
-52.082	56.1208	34.7301
-45.7417	62.6142	36.9408
-51.2215	59.0846	32.4281
-56.2153	51.6931	30.6318
-7.53701	0.675063	78.7726
-7.86986	1.21494	79.2842
-8.18444	0.0672992	77.8249
-6.34156	0.649538	79.4181
-8.24217	1.9758	80.1377
-9.33778	2.21761	79.8809
-7.20251	2.58626	81.6057
-45.9219	34.3592	38.8374
-45.386	34.5023	38.8157
-45.7308	35.0728	39.0043
-46.6203	33.8182	38.6603
-20.4153	32.8538	41.6474
-20.5944	32.783	40.761
-20.9348	32.5825	41.6504
-20.2859	32.8316	42.3691
-16.6979	9.73585	76.0063
-15.8236	10.5929	77.4073
-16.8573	9.72442	75.1522
-16.8872	8.77995	76.218
-67.1459	80.8819	-27.7439
-69.9799	79.2531	-37.3461
-67.647	77.5176	-22.0555
-64.4065	84.6114	-27.5395
-28.4814	-34.9442	66.9923
-27.3004	-34.1452	68.1824
-29.0663	-38.5467	66.5782
-29.1726	-33.0648	65.8717
-28.1334	-24.0722	64.5781
-28.9744	-26.0458	64.2885
-28.8088	-22.012	62.9983
-26.4058	-23.7805	65.8899
-10.7719	2.40363	79.2702
-11.5421	3.3769	79.8178
-11.8029	1.60111	77.5362
6.88752	2.18676	80.5118
5.8655	2.8632	81.8911
6.66259	1.41343	79.7199
6.3956	0.866978	79.2519
5.31285	0.855753	79.8136
-8.65171	-0.625062	76.8781
-9.82872	-0.775564	76.2078
-8.26708	-1.41239	76.7135
86.1375	-35.9133	-38.5388
84.4608	-35.7014	-37.6452
86.887	-33.0696	-41.7693
87.5447	-36.6587	-38.1827
84.8304	-38.5911	-34.4374
76.8718	-38.3503	0.771843
76.2655	-37.6448	8.57677
75.7467	-42.9911	0.849794
77.4976	-38.4876	-6.02129
77.6814	-33.5506	0.666554
58.6936	-115.4	-7.27285
58.2426	-103.698	-6.41564
55.6787	-116.563	-2.87242
59.474	-126.399	-8.59072
61.1704	-114.067	-11.8327
60.1341	-133.895	-10.0018
60.7208	-139.67	-11.4526
62.0588	-132.085	-14.6593
57.5873	-135.733	-5.40393
50.3247	-96.1419	4.33203
50.8525	-88.5641	5.39805
45.7007	-97.4092	9.29199
50.8656	-105.683	2.9818
54.7513	-95.4815	-1.00441
63.1736	-94.8796	-15.0259
63.0113	-102.591	-15.448
64.6648	-94.1923	-20.608
63.5459	-88.9649	-14.9671
60.8654	-94.9591	-10.4791
70.1473	-54.523	16.1049
72.867	-49.9611	16.2191
70.5116	-54.1356	23.898
66.7863	-58.9906	15.5977
69.6622	-55.3505	8.63442
73.7925	40.4216	-5.73032
75.4913	47.0079	-12.0102
68.2121	45.7876	4.40521
72.9458	33.8596	-1.00569
78.764	36.1957	-17.0682
84.2294	37.7868	-60.8616
83.7902	32.4394	-69.574
82.7232	43.4143	-67.6354
84.2485	42.0895	-50.812
85.1193	31.767	-54.3034
7.63248	-111.256	40.8321
5.33449	-111.335	41.7658
8.50178	-121.843	38.358
10.3817	-110.889	39.3194
7.56287	-101.588	44.123
9.5468	-133.278	34.014
10.4891	-143.051	29.8612
13.0439	-132.321	32.5483
6.35371	-133.563	35.1618
3.71931	-150.758	29.1494
7.38082	-150.362	28.4501
3.49284	-143.785	31.6345
0.130284	-150.794	29.4687
3.95827	-156.078	27.6155
71.9354	-54.9547	-39.0336
74.8122	-48.7453	-38.1994
71.6416	-60.1767	-32.8213
68.9821	-61.172	-40.0703
72.5214	-48.2102	-44.5365
73.2118	-43.3163	-48.6575
69.256	-49.4437	-50.3863
74.2913	-39.1532	-52.2699
76.6747	-38.3556	-47.0532
63.2846	-124.956	-31.2541
63.1551	-131.874	-32.5984
61.6454	-122.097	-38.0869
63.8767	-128.133	-24.7003
3.34371	-133.967	35.8993
3.19486	-122.576	40.1686
0.394994	-134.043	36.2388
77.1728	-36.1442	16.0174
77.9086	-30.9702	15.3788
77.6574	-34.0515	23.4223
76.3906	-40.7937	16.1352
70.3322	-56.0428	0.942161
67.9079	-60.2938	0.576586
70.5451	-57.4286	-6.70309
72.5438	-51.7278	0.915776
13.0749	-64.7697	91.8947
8.73466	-64.838	93.6055
13.1602	-69.4861	90.6615
17.3966	-64.4605	89.1184
12.502	-59.8647	91.8107
21.3179	-63.6879	85.8011
21.5626	-68.3868	84.9467
25.6015	-63.0322	81.3739
20.7039	-59.0772	85.5301
4.2417	-55.6704	93.0578
7.76235	-55.6325	92.1095
3.83032	-51.7518	90.7538
0.801964	-55.6606	93.2999
4.60882	-60.1153	94.408
12.8216	-73.5353	88.141
12.4591	-76.9539	84.2401
17.167	-73.2075	85.7645
8.67166	-73.4207	89.7441
12.4152	-79.7911	79.1443
8.12727	-80.1686	80.3369
12.4876	-82.5946	72.9183
15.8145	25.3889	57.4599
15.8754	22.1792	61.2287
18.3269	23.6547	56.297
15.5735	27.8313	54.1418
13.572	27.4127	58.5565
53.4104	-1.6134	61.0514
61.058	-3.86055	55.5771
51.9489	3.72263	60.1464
45.3447	0.355385	64.3769
54.2874	-6.77249	61.2194
64.4628	4.80931	47.2611
69.3673	3.28575	39.5876
62.0867	10.4311	46.466
57.9251	7.48394	53.7872
66.0186	-0.837696	48.0524
71.0434	17.2629	20.2369
73.3595	14.6016	14.9881
69.6468	23.9407	17.3399
68.2697	20.0233	24.3833
54.8522	-11.8082	60.8808
54.8795	-16.906	60.556
62.303	-14.177	55.427
47.112	-9.82371	64.8438
1.66625	29.332	73.9094
1.75993	33.6793	68.7052
-0.423343	29.6526	73.9316
1.47664	25.628	78.4945
3.79783	28.5497	73.4271
32.741	85.4947	28.0277
27.6691	86.6948	29.6306
31.6169	80.0567	32.9817
38.1417	83.5191	25.8554
33.9955	90.5279	22.7168
4.17937	-86.6543	66.5091
3.7046	-90.25	58.286
7.54024	-86.5072	65.9317
4.42136	-83.2854	74.6636
0.9201	-86.731	66.6302
76.7405	-31.9613	31.6273
73.91	-29.8335	39.9574
75.8559	-37.5738	32.5173
76.9641	-26.4259	30.9679
4.90294	-73.3367	90.4983
5.01795	-69.572	93.0747
1.23547	-73.2593	90.6701
4.56594	-77.0297	86.3293
4.28837	-80.273	81.0069
0.762331	-80.2468	81.1667
42.7412	-66.1891	61.1781
35.7252	-68.3839	67.6863
41.4481	-69.9501	59.1161
49.6409	-63.2801	55.7123
43.0694	-61.7808	63.2857
44.2105	-76.3943	37.4786
39.0936	-82.2778	33.7037
49.3052	-73.8205	31.4592
49.3904	-71.7291	40.6413
38.5075	-79.1645	43.0744
3.36686	-94.602	51.0686
5.68051	-94.7657	50.531
1.14019	-94.6955	51.1128
3.4195	-101.506	45.5756
6.27803	20.9303	80.4855
6.62564	18.7122	83.6246
8.8446	19.1197	78.1411
6.12745	23.7208	76.5559
3.77273	22.2494	81.9371
24.9215	3.74458	66.631
29.7829	2.63692	66.5432
22.8411	8.34511	65.3696
20.8518	6.64999	67.5048
28.8392	-28.7393	71.8665
27.759	-28.1767	71.9935
27.8946	-29.5014	72.1076
29.7847	-29.2596	71.7579
11.8222	0.630907	76.6207
13.3397	1.99225	76.7561
11.1427	-0.330606	76.2343
13.6975	0.540829	75.2536
11.0343	-3.86017	75.0627
11.7424	-5.27731	75.4694
13.4823	-3.98936	73.5131
10.8941	-2.64173	74.9949
8.98142	-3.32238	76.3171
1.31919	0.848304	82.7604
1.11557	1.90747	84.2313
-0.329521	0.620194	83.1193
1.56322	-0.188202	81.6324
2.95827	1.12188	81.8461
15.8754	-3.33046	71.952
18.0607	-2.18272	70.3936
15.5056	-2.07063	72.2175
16.4848	-4.91373	72.3041
6.88153	10.933	88.5079
4.04978	11.5522	90.8673
6.59973	8.63243	87.8924
9.78145	10.0196	85.2105
7.00522	12.8582	88.4745
25.9837	-43.6776	77.5658
29.3522	-41.2654	74.7935
24.5909	-40.2599	77.9734
22.0625	-45.2336	80.5444
27.3182	-47.5232	77.0452
27.5842	-22.8098	73.817
26.438	-18.9182	74.6489
24.8939	-21.827	75.1681
30.1468	-23.7239	72.7278
2.04655	-4.54479	80.4917
2.05091	-6.5715	80.7643
3.65119	-4.4269	80.196
1.90077	-2.7132	80.5586
0.0997824	-4.66124	80.6155
6.07028	27.1981	72.32
8.59393	25.2138	70.6011
6.35896	31.0007	67.6514
17.6343	7.5015	72.4576
16.6188	9.37655	73.4745
16.9749	8.41879	73.7474
17.8637	5.94765	72.2746
17.9169	7.64713	71.4771
4.41944	-1.17339	79.4942
4.4922	-2.78376	79.5685
5.63259	-1.80015	78.6106
4.37178	-0.0327227	79.8204
3.22408	-1.12995	80.2301
4.19789	0.996051	80.7194
4.16587	2.12302	82.0456
16.1727	9.2989	74.8688
15.7996	10.1269	74.7359
16.6675	7.68167	74.6813
17.7222	3.4137	71.8758
17.2028	4.96502	73.5373
16.8921	1.18402	72.144
1.77151	-13.7276	83.4026
2.07205	-15.498	84.4458
4.15166	-13.1376	83.3152
1.80848	-11.2386	82.2025
-0.502988	-14.2491	83.3833
22.9991	-6.96236	70.9417
20.3274	-6.98079	72.0131
24.408	-10.6416	72.6245
25.6069	-7.01403	70.1298
21.2673	-3.54716	69.6409
9.47005	-41.9568	85.9076
9.51321	-39.9038	86.3418
6.11207	-42.4886	86.4623
9.56021	-44.5611	85.9208
13.0744	-41.5285	84.9626
23.1162	-24.3827	76.1568
23.5901	-25.133	75.4977
25.5696	-26.0736	73.6371
22.7279	-23.2452	76.5506
15.5094	10.6948	74.4014
15.502	11.3751	73.1405
14.0845	12.0007	76.1019
16.7622	-41.0453	83.3279
17.2481	-43.4113	83.0921
20.2687	-39.8254	81.1249
16.3393	-39.1688	83.7543
3.10598	-42.9428	86.537
0.354103	-43.0381	86.4302
3.27812	-45.1788	86.7023
2.92573	-41.1932	87.0793
59.5957	44.6178	28.1159
58.9967	43.9624	30.2189
61.627	38.366	25.4973
60.0758	45.47	25.7658
41.5432	72.263	32.5232
35.8406	73.9677	35.4732
41.1948	68.8341	36.3433
47.4759	68.802	29.1242
42.7533	75.8846	27.8406
52.8277	64.2979	24.8415
52.5587	61.0025	28.9015
57.8212	58.7869	19.5881
53.8963	68.3394	19.6748
42.2031	63.5427	40.6693
41.6098	65.2309	39.6923
36.2579	65.796	43.2111
43.2024	61.5175	41.1907
60.9605	46.1429	22.2066
61.6243	48.3753	18.3398
57.0829	53.3304	27.2111
64.3815	38.9736	17.8839
23.3441	57.94	47.1731
24.0385	55.3359	46.0411
27.3696	58.4714	46.3101
22.7892	60.0346	47.9798
20.1875	56.3707	47.5706
6.67451	38.4315	57.415
9.10412	36.0167	55.9713
6.71561	39.7917	55.9004
4.25879	40.2576	58.5224
6.67433	36.7304	59.7007
30.5712	18.5556	55.7557
32.3604	14.8152	59.0899
38.3989	17.6634	55.1934
28.97	21.8922	52.9372
24.1773	20.3044	55.8106
59.4317	25.3952	34.0893
62.2359	23.5399	32.0589
59.7394	29.1423	31.226
56.4544	27.4447	35.6438
57.7466	23.1105	38.4453
6.59464	34.2916	63.1003
9.14805	31.979	61.7542
4.11286	36.1264	63.9252
43.6366	59.4554	41.4584
48.8777	56.3852	38.9628
37.655	61.4482	43.8719
43.6028	57.2694	41.6193
53.6316	52.2042	36.0189
53.0468	50.3115	36.9449
56.658	47.6217	33.6285
55.5942	34.726	34.2261
55.3807	37.9145	34.4671
53.2151	34.8274	35.7505
55.0556	31.6465	34.8264
57.4208	34.2899	32.5315
42.9772	41.1364	40.6719
44.5339	39.4899	40.0123
43.4915	41.8005	40.4384
41.3195	42.5783	41.5372
42.6211	40.5255	40.6214
39.4796	43.8409	41.9886
39.7088	44.7376	41.7142
37.4321	44.7334	41.9941
39.3097	43.0685	42.0085
39.8325	45.1892	41.5816
37.4722	46.1468	41.5628
41.9024	43.8198	41.1305
34.6826	45.2221	42.0331
34.499	46.1371	41.7287
31.7819	45.1582	42.0879
34.8875	44.4186	42.081
34.3923	46.5978	41.5735
31.1428	46.5516	41.5532
34.3056	46.8894	41.6244
28.9284	44.4215	42.2762
28.3687	45.2239	41.9311
26.2741	43.0322	42.4305
29.4803	43.7104	42.3562
23.4645	41.1764	42.5897
22.5088	41.754	42.2628
20.9314	39.0186	42.9163
21.8877	41.9659	42.0556
21.382	42.0908	42.0697
19.3393	39.4996	42.5709
24.9006	44.097	41.7533
19.1828	37.0408	43.3868
18.349	37.2286	43.3376
20.7216	42.3087	42.4354
23.8834	44.577	42.1592
20.073	42.629	42.9217
34.1362	47.3263	41.9733
34.0051	47.8426	42.4202
30.7147	47.2715	41.9475
47.8839	34.1768	38.952
48.957	32.9503	38.527
48.1639	34.962	38.8669
46.8167	33.5318	39.7833
45.9281	35.8405	38.8551
45.6265	36.4505	38.9298
46.6193	35.7784	38.3382
45.382	35.3587	39.3136
32.2248	58.1428	45.0082
37.6258	56.8232	43.5189
32.0044	60.5012	45.5085
32.3438	55.4132	44.4408
48.6055	45.3507	39.7309
46.597	43.9088	40.5906
50.5978	46.8051	38.6683
45.2377	47.8257	41.394
38.6815	28.3623	46.9726
43.6267	28.5561	45.0408
38.0849	29.7862	46.4732
32.0338	28.8407	48.0744
39.2609	26.965	47.5336
26.2503	29.607	47.8572
26.4571	30.8121	47.3106
22.1271	30.2081	46.9684
26.344	28.2477	48.3394
18.6415	32.4439	45.4092
19.1966	32.807	44.6591
17.9851	33.3043	44.8824
17.6058	32.3756	46.3273
19.3952	31.7671	45.7651
37.732	31.0378	45.9964
42.0777	31.5779	44.4513
37.4744	32.0779	45.576
31.7695	31.37	47.1957
20.8717	32.523	44.7762
20.702	31.8216	45.4165
22.491	32.184	45.6298
20.8405	33.1234	44.2137
19.9781	32.8085	44.4564
19.296	33.0669	44.2719
18.5929	33.5593	44.0958
19.2802	33.388	43.8685
14.4517	42.1126	46.0344
13.7368	44.9783	47.1186
15.1864	39.2196	44.8897
16.2262	44.5109	45.4748
17.0954	34.3518	44.5758
17.6216	34.3651	44.1209
16.3517	34.5546	45.068
27.2073	46.2151	42.1051
26.7857	46.7144	42.5977
27.6732	45.8428	41.7198
15.8119	38.0684	44.2716
15.4021	36.4119	44.8023
17.0716	40.2162	43.8512
37.2867	32.7304	45.2541
31.6772	32.9081	46.2291
37.1784	32.9303	44.8052
20.8569	33.5328	43.8255
21.0631	33.6661	43.1082
20.0291	33.5899	43.592
22.7391	33.4336	44.426
37.1545	32.5894	43.9985
41.2578	33.2329	42.9259
37.2006	32.01	43.0048
44.0258	34.4162	40.9117
44.3798	34.0984	40.1566
21.5083	33.5122	41.7505
21.6755	33.2731	40.4635
19.3355	33.6472	43.5465
45.5139	37.7987	39.7385
46.0221	38.0592	39.6556
44.9136	37.6705	39.6012
3.6572	54.782	51.8011
0.563613	54.5108	52.0998
2.98234	51.2773	52.8331
6.13863	54.2456	51.6983
4.52764	58.4239	50.8118
19.3753	26.8441	50.8512
19.347	27.8352	49.5636
17.5307	27.8628	51.307
19.9363	25.107	52.7257
22.5482	25.8901	50.6703
15.6734	29.3001	52.0085
13.5163	31.2037	52.9085
15.9389	32.6577	47.8073
14.0655	33.7069	49.0333
15.9189	33.7728	46.3958
10.6272	41.8693	49.7122
11.6229	44.1123	48.7597
9.94907	43.1147	50.4607
20.1832	30.8412	46.3821
19.6848	29.9516	47.3263
19.4405	28.8848	48.35
21.9484	28.0381	48.5277
19.462	-28.5205	75.5883
19.1688	-28.496	75.1264
22.8023	-28.451	73.4609
15.7321	-28.3032	77.9859
24.5679	-28.5156	72.3735
24.123	-28.5374	72.1532
2.47293	-18.8293	85.7369
5.24531	-18.703	85.2212
2.34637	-17.4939	85.4592
-0.623555	-19.1029	85.9969
2.46067	-20.3369	85.8363
7.6513	-21.7866	84.3711
7.73278	-20.4239	84.6264
5.24254	-21.6672	84.9662
7.38828	-23.1638	83.953
9.84659	-22.0806	83.7557
12.1212	-22.5241	82.9116
12.2256	-21.1657	83.126
12.1422	-24.1515	82.3515
15.0175	-23.6902	81.1742
7.64505	-18.8951	84.6665
9.88724	-19.2862	84.043
7.56185	-17.5516	84.4902
11.3927	-17.6467	83.1308
12.0218	-18.684	83.1561
10.98	-16.5711	82.8561
9.13593	-17.0053	83.7884
18.8089	-25.6987	78.1632
18.441	-24.2618	79.1283
6.92498	-24.6654	83.3896
4.45298	-24.4477	84.0218
6.52316	-25.6783	82.8172
9.61833	-25.0767	82.6201
12.4275	-25.9546	81.4614
12.3996	-27.0589	80.6685
26.3288	-27.4518	72.5321
26.7948	-27.8212	72.2318
26.4639	-27.2705	72.576
25.5339	-26.8965	73.2543
19.8583	-28.6167	76.2451
19.753	-28.4904	75.9182
16.1333	-28.4979	79.0615
19.9084	-28.8879	76.6212
20.5259	-30.277	77.571
20.2924	-29.7402	77.3619
17.2606	-30.8992	81.056
14.198	-30.8961	83.6219
13.8823	-30.0482	83.1324
11.5119	-30.6767	85.2053
14.6807	-31.8006	83.8641
7.40758	-28.204	84.9921
8.01546	-29.4593	85.8268
10.4303	-28.5044	83.9438
6.86923	-27.0582	84.0358
4.458	-28.4028	85.7271
2.31341	-31.5919	87.7729
2.48587	-32.8415	88.2591
5.28096	-30.913	87.3398
2.1066	-30.2608	87.0902
-0.336693	-31.9766	87.8491
24.8983	-29.6994	71.8101
24.6484	-28.9456	72.224
25.0884	-31.3177	71.6919
22.7541	-29.5357	72.8881
1.54396	-27.5163	80.5587
1.50144	-26.5636	81.7941
