1900
22.1874	-12.9943	75.4621
27.1756	-14.0695	73.2338
12.9647	-41.0873	89.6527
6.36547	-40.8691	92.0575
6.68157	-45.0109	91.1867
13.5095	-45.1062	88.9111
21.4857	-26.4056	81.822
24.7685	-31.5318	78.6851
12.4152	10.1895	76.6348
19.0867	-40.3224	85.4324
0.513618	-41.3009	92.3454
0.680809	-44.7762	91.5971
60.5486	37.9627	29.8818
62.9988	38.4072	23.5827
57.3898	51.7987	30.5017
33.61	72.1151	36.0894
47.1267	66.1662	31.9793
48.9813	74.4683	22.1723
58.2411	55.7017	24.9184
60.3137	64.2829	13.9885
47.1738	61.7119	36.0394
33.8014	68.2046	39.7989
19.1002	54.5873	44.7188
26.8077	56.4734	44.4312
24.1665	61.0447	45.0772
16.4091	59.1702	45.9468
6.76568	33.8144	55.9087
1.07149	42.6913	51.5095
1.64121	38.798	56.5639
24.8925	13.1778	59.6635
40.2986	13.2946	56.3318
36.9222	20.2154	53.88
21.4744	21.3084	54.8129
62.439	27.0552	30.0604
58.2997	29.4154	34.3231
56.3232	25.243	39.1847
47.8125	52.5817	40.413
35.9391	63.1151	42.0741
37.0802	58.3584	42.8593
55.1227	45.8813	36.7283
57.8386	37.7519	34.0778
45.0071	45.6504	42.735
39.7858	48.1097	43.7089
39.8519	47.3836	43.8887
44.723	45.059	42.8793
32.9931	48.3045	43.5176
33.5124	47.6403	43.8473
27.2161	44.8643	43.8878
25.902	45.2707	43.3374
18.1359	40.3936	43.3282
19.6817	40.1451	43.7528
16.7858	36.7958	44.3449
14.4969	37.1875	44.886
16.2344	40.7878	43.8675
52.3625	34.2869	38.2047
50.4269	36.6071	39.3065
51.0274	32.3529	39.6277
34.4576	45.9922	44.6005
44.0893	43.4674	43.2201
47.1412	40.313	41.0977
48.8449	36.9969	39.5895
49.9964	36.3559	38.2773
50.0059	35.8834	38.345
37.7154	54.2857	43.6191
50.3557	42.2765	40.7011
46.1141	47.1532	43.3132
33.1856	30.3771	50.4111
45.6916	30.6758	45.6134
22.2416	31.9444	47.7967
19.6141	33.3333	45.9967
17.8471	34.4964	45.1768
13.6862	48.8363	44.5046
9.67495	43.1799	45.3207
16.0234	36.7767	44.3693
32.3897	49.2005	44.2485
24.4035	45.9784	43.8171
14.9103	42.5178	44.0476
44.2212	33.9892	44.6962
44.6896	33.0673	45.1844
33.4141	32.5694	49.4149
33.4033	33.3297	48.3615
22.9483	33.6874	46.532
19.6689	34.2371	44.959
20.0008	34.738	44.0868
19.6118	36.4923	42.0525
20.5925	34.468	42.4785
19.665	35.3512	42.1221
46.7669	40.983	39.5827
-1.02929	58.1697	46.2174
-1.97011	52.2284	47.5952
2.3207	51.6668	47.4782
5.18997	58.2481	46.4392
20.3429	26.0641	51.5447
15.979	34.4789	46.1875
8.35436	46.7721	45.9775
20.9906	29.2881	49.5249
15.5353	-30.1494	81.2886
21.4009	-32.8309	78.464
5.40827	-18.6561	89.5512
5.26657	-15.4209	89.1528
-0.291118	-15.9696	90.1639
-0.294071	-18.8874	90.7793
10.2878	-20.32	88.0313
5.11335	-21.9615	88.9469
10.1942	-23.7066	87.3669
16.2364	-22.9349	85.1282
9.85751	-17.3061	87.8967
15.9506	-20.5093	85.4804
4.03998	-25.3539	87.9291
9.77579	-26.8931	85.9742
25.9913	-33.0586	77.5542
16.0659	-30.2608	82.5561
16.2886	-30.9014	83.4887
16.7764	-32.3617	84.7066
10.9123	-30.9283	88.8901
11.7039	-33.2132	89.8435
4.68396	-30.2907	91.4114
10.0796	-28.4895	87.1576
4.06899	-27.2559	89.306
0.266138	-33.5741	93.5074
5.20019	-32.7923	92.7232
0.15797	-30.8215	92.1692
21.7857	-33.298	78.427
0.100781	-26.5372	86.4964
3.7661	-26.6957	86.0384
0.347629	-36.1235	94.1538
5.71202	-35.1677	93.4486
6.0776	-37.6526	93.2801
0.426331	-38.5474	93.9023
8.37012	-14.5385	87.3982
0.0211371	-27.4342	89.8373
3.88325	-25.9598	87.9497
-0.00105788	-26.0479	88.279
9.74307	-27.4273	85.9323
12.6764	-37.8832	90.3209
12.2993	-35.5002	90.4535
9.38161	-27.5001	84.1651
9.39898	-27.9453	84.1601
9.23103	-26.0518	81.6411
14.1309	-27.9545	80.0018
21.8282	-35.6477	77.935
3.93532	-30.2469	84.0277
0.299777	-30.0152	84.5609
3.87996	-26.172	85.9194
4.69884	-24.9139	82.4848
9.48069	-31.2314	82.4236
25.7483	-25.7439	69.4732
28.6303	-28.0486	66.1627
8.84099	-19.7098	78.1543
13.4764	-21.3841	76.9205
26.2542	-43.4143	75.0075
22.7486	-42.663	78.382
4.70785	-18.6495	78.6526
9.81951	-38.7715	84.1481
4.00342	-37.8839	85.9764
29.3674	-43.4791	70.1759
77.8513	-20.0677	-53.8685
75.2724	-20.9397	-59.4222
77.0288	-11.7141	-63.1216
79.2621	-12.1052	-57.0716
77.5029	1.16747	-23.9157
78.1257	5.16393	-33.1263
78.7008	19.3519	-29.9641
76.5491	5.76711	-16.8077
78.6493	14.4654	-48.5213
78.347	7.14294	-42.2087
74.0594	-32.4357	-43.5249
71.7065	-38.7117	-37.58
72.4365	-29.5955	-53.6649
76.1808	-26.5384	-49.0027
82.9719	-10.1118	-56.0026
81.7143	-19.905	-52.6286
79.5305	-36.2866	-39.0415
82.5161	-28.7478	-45.7867
75.9762	-43.2924	-29.7339
73.4168	-43.2271	-25.7043
76.4237	-37.1871	-17.8026
87.5543	-18.6547	-44.7239
89.9119	-5.51528	-52.8966
81.5328	-26.6752	-31.9139
73.6122	-20.4511	-10.1758
71.5969	-29.0101	-8.77768
78.6549	-20.1196	-21.9128
78.6175	-24.0953	-21.2513
79.5752	6.41459	-40.487
86.4305	-10.6414	-58.7982
89.6059	15.6087	-42.0867
87.1917	16.6846	-44.7532
84.9221	14.5095	-47.0829
91.8877	1.71145	-54.6898
85.819	5.78659	-34.773
84.4966	0.822384	-28.9775
89.0558	-9.20084	-46.2887
88.692	-6.21073	-45.9078
79.8394	-2.42382	-56.7643
82.933	0.651441	-54.5223
77.6393	-31.7373	-42.2217
82.96	-13.256	-39.913
82.1047	5.8638	-48.9976
79.7107	4.06712	-51.2304
88.6363	6.31226	-41.8328
-1.1414	97.5587	20.2123
14.1744	96.6332	20.1211
15.5364	108.509	5.49164
-0.770658	110.384	5.01459
-1.36111	83.2438	30.4487
12.301	83.3452	30.2945
21.8859	74.0331	38.7045
2.15254	1.36864	89.0887
-2.0544	1.49515	91.5901
2.64877	13.8413	90.8545
-2.80496	14.5427	92.3376
-2.72281	10.3588	94.7943
-2.59968	5.64265	94.6232
-2.73204	19.0964	87.4071
-1.24056	72.2949	39.5758
-0.919954	65.958	43.4739
10.1975	67.2454	44.0639
10.7671	73.0536	39.9153
-2.25847	40.2725	56.5817
-2.68972	44.0759	51.5969
1.13021	46.7817	49.0312
-2.57038	47.6093	49.1162
0.074646	-25.9713	86.2727
0.101341	-24.5144	82.4765
-0.0453109	-25.3763	88.3212
-0.1968	-21.8427	89.9574
-0.256555	-18.4002	78.3561
28.6309	104.736	5.75342
21.1091	70.4274	42.5378
22.2974	65.7578	45.0827
34.0026	46.7789	42.8045
30.9119	50.9093	44.563
22.381	47.982	43.8014
42.4844	106.729	-16.9956
40.3337	98.9945	4.02896
39.9168	45.7013	44.3129
39.2154	50.3648	44.7557
50.9189	83.1941	11.5615
39.6655	48.899	44.3907
45.4771	46.1328	43.2229
39.8691	46.6039	43.019
46.9821	49.3131	41.8112
61.9705	74.1118	1.18433
48.1075	41.0383	40.8961
48.4476	41.4426	40.6354
44.1275	44.2089	41.6316
53.0146	43.4986	38.7385
11.9503	53.0478	45.4612
63.5195	-59.904	-16.3071
78.9971	7.49515	-59.093
76.9323	14.1234	-73.673
71.2481	-24.5875	-69.415
73.9348	-12.0048	-75.7411
75.4066	1.3001	-78.124
78.3047	-1.3944	-63.6752
67.0956	-35.848	-60.9303
13.3662	-82.4922	52.4869
22.5989	-81.9834	44.5792
52.9086	-69.2654	39.1522
71.0572	63.7827	-14.7846
30.306	114.576	-17.3572
16.2442	119.606	-18.4165
55.384	-59.2871	45.9383
7.00207	-11.2268	85.4358
19.3551	-17.1281	81.4947
5.88487	-9.0738	83.0065
12.6239	-13.8574	83.9405
10.6943	-10.3781	81.6011
33.3825	-34.0842	74.851
34.299	-25.9061	73.6719
68.8598	-47.0358	-26.3795
69.2763	-29.2966	-0.699957
71.8523	-19.8614	-2.36825
74.8369	13.0109	-0.430468
74.0188	-2.23122	7.0562
53.3899	28.5175	39.4751
69.9855	-15.7369	10.647
66.4447	-27.0737	12.718
12.0776	14.6023	70.315
12.8339	3.1348	81.1851
15.4981	1.28996	77.8149
33.4621	-15.0556	70.7258
51.8379	-35.619	55.7844
42.3199	-29.2954	67.172
49.3043	-47.6125	59.6486
63.808	-15.6132	39.1223
43.997	-55.0739	66.0575
35.8312	-58.785	73.6832
52.3183	20.6454	47.6838
49.5154	24.8852	46.9733
40.5845	-38.5312	69.6019
36.8902	-44.8527	72.7412
14.7804	-51.8567	88.8555
34.5813	24.3674	52.517
8.11333	11.5617	85.0133
69.598	-9.5706	24.6394
65.7849	-22.3276	26.0881
5.81382	49.7451	46.7317
16.516	-11.726	78.5961
19.4227	-30.5097	77.6913
18.8882	-23.8275	74.2744
32.7949	-135.743	16.6047
36.1133	-150.873	15.208
45.399	-148.149	9.11893
41.0822	-132.927	10.1055
31.8676	-89.5604	13.5927
25.277	-91.3158	22.5091
28.0868	-109.895	19.2279
35.5359	-107.571	11.5992
31.0387	-38.8892	75.9444
42.0866	-78.7769	10.8429
48.6992	-72.4051	17.7379
48.5181	-130.248	3.23931
52.4896	-145.25	2.41194
52.3709	-71.9756	5.15552
55.1727	-80.4139	-9.31734
49.4823	-79.3313	0.239956
59.5163	-98.0671	-34.9527
70.063	-35.9954	-9.18357
59.2761	-82.8487	-33.5058
55.027	-124.027	-55.2976
54.1874	-109.123	-50.7569
23.7128	-137.928	22.7844
26.4532	-153.115	20.309
18.0039	-91.8063	32.1174
19.8359	-111.813	27.4239
24.4663	-38.3217	79.8476
15.6934	-30.6158	81.2543
15.5875	-33.3729	80.4153
15.9924	-154.981	24.777
15.7467	-40.6254	82.0447
77.1348	55.0752	-34.6939
48.4301	-87.5445	-58.902
53.2219	-91.4564	-48.1607
48.1966	-105.628	-61.0256
50.0073	-121.212	-63.596
55.3131	-71.9976	-48.4544
30.9459	119.164	-47.2516
16.2737	124.901	-49.2591
16.9372	101.281	-116.521
32.0475	97.7972	-112.026
30.8122	71.7338	-135.863
15.9994	73.8471	-140.184
29.2433	42.6042	-144.389
15.6681	44.1812	-148.643
31.7975	114.192	-80.5095
16.697	118.729	-83.8839
0.601409	120.301	-84.9353
0.11386	126.614	-50.1696
27.9522	15.2855	-143.973
15.3001	16.8182	-148.312
26.6518	-11.1891	-137.408
14.2322	-10.2686	-142.025
24.8365	-33.4323	-124.758
22.6643	-52.3902	-105.576
11.781	-51.8869	-107.693
13.1194	-32.7957	-129.354
0.981271	-32.5507	-131.091
1.19372	-9.90283	-143.347
10.241	-84.7511	-85.2128
20.7549	-85.662	-82.473
20.0248	-100.966	-82.0675
9.91184	-100.145	-83.5016
9.8183	-114.686	-83.1086
0.0828369	-114.476	-83.7379
0.177308	-99.3643	-83.072
22.0181	-67.7772	-90.1467
11.2926	-65.9199	-92.9365
0.485763	-65.4406	-92.4872
0.306176	-84.1039	-84.3335
55.7871	98.918	-43.0166
44.0912	110.296	-45.0934
54.6063	62.2086	-117.538
53.3562	36.7255	-126.486
42.3835	40.0077	-136.524
43.6023	67.6307	-127.597
44.3216	91.6329	-105.141
55.484	83.1686	-96.845
57.1744	94.7837	-71.0235
45.3036	105.811	-76.0476
51.6355	11.6959	-127.307
40.7235	13.5436	-136.591
49.4204	-12.1196	-121.809
38.8653	-11.891	-130.449
45.9921	-33.2716	-109.649
36.3832	-33.7528	-117.735
44.0985	-51.7035	-90.9092
33.9887	-52.6534	-99.151
32.8417	-69.0146	-84.262
40.2655	-102.968	-71.6427
30.471	-102.036	-78.3379
31.2992	-86.1474	-76.9807
40.8142	-86.0863	-69.2828
30.0887	-115.813	-79.6851
19.5538	-114.895	-82.4794
64.9928	72.2546	-86.1641
72.6494	59.9598	-71.5974
70.851	46.6235	-90.6734
63.7681	55.2932	-105.718
73.8994	68.0686	-50.6079
66.9308	81.7632	-63.5931
62.2638	32.6473	-115.234
60.3632	9.59353	-116.601
58.0161	-12.2648	-110.191
53.7368	-31.8654	-98.4498
51.3215	-49.0318	-82.3604
73.9289	20.8505	-87.732
60.645	-30.0821	-87.8922
64.9169	-12.4903	-99.1018
70.2736	-12.3745	-87.1378
66.2543	-27.4375	-78.3769
67.041	6.96277	-104.932
71.9294	3.76563	-91.3687
69.0741	27.3399	-102.24
56.4229	-45.2567	-74.489
61.5611	-40.7171	-67.2919
57.2777	-53.9647	-56.8807
91.8508	2.50232	-56.1117
89.9205	3.19306	-58.1987
89.1418	13.4886	-52.6505
91.196	12.0114	-50.5834
84.0999	12.5655	-36.8712
86.411	12.0548	-34.3962
82.0129	10.9359	-40.0487
87.0928	1.53764	-58.8114
86.4781	11.631	-53.7285
90.0672	-9.69553	-54.2107
90.5523	13.5603	-40.9135
91.5252	10.3438	-49.3766
-0.359409	121.792	-19.0812
1.00607	102.394	-117.687
40.4454	-117.658	-74.1366
1.26853	74.2477	-141.112
1.32496	44.5468	-149.414
1.3202	17.4712	-149.548
0.673555	-51.7878	-107.476
-64.503	-36.6381	13.7934
-67.174	-37.2749	-0.816842
-62.5341	-47.2092	14.0441
-56.6964	-102.752	-11.3302
-50.7168	-103.423	-2.98364
-58.6509	-141.521	-6.68106
-55.2442	-127.375	-4.53893
-60.3696	-124.365	-13.3874
-62.4594	-137.818	-16.224
-48.6107	-88.1895	-1.61218
-42.2642	-104.697	5.52008
-39.2798	-87.536	7.68132
-55.0424	-89.0971	-10.3416
-59.2901	-88.8736	-19.801
-60.3815	-101.87	-20.6692
-60.0135	-55.9878	12.4283
-56.2048	-63.7965	9.7311
-55.693	-63.5054	23.7399
-60.0109	-54.8885	27.3071
-75.7036	43.6216	-20.4163
-74.4389	29.4828	-9.05583
-66.022	39.9645	12.7481
-68.5698	53.219	-0.344362
-77.1121	27.4496	-60.5225
-78.1431	36.1702	-41.8737
-76.3587	49.2193	-55.7485
-74.2818	38.3862	-74.8456
-0.609851	-91.945	42.0041
-6.97427	-91.7354	40.2222
-9.24579	-113.358	34.5803
-3.33711	-114.421	37.0453
-13.7153	-140.159	27.7563
-6.10254	-141.268	30.2062
-7.66816	-155.865	27.016
-66.8921	-44.4677	-39.9323
-61.2292	-55.9517	-43.3078
-65.1651	-55.7017	-29.2904
-69.0536	-36.0041	-46.874
-62.576	-45.2372	-51.4877
-64.0459	-134.259	-25.853
-61.9329	-129.488	-39.3437
-62.153	-45.8714	28.8897
-64.1434	-33.1181	27.4004
-61.8271	-56.4081	-3.0862
-6.41501	-61.2538	93.1574
-14.7547	-60.5335	90.0797
-14.4845	-70.1306	88.1548
-6.01162	-70.657	90.5711
-24.2587	-59.0935	83.846
-24.3162	-67.4806	82.5461
-6.15228	-51.8518	92.2643
-6.23953	-75.5427	83.5222
-6.10055	-77.7605	72.3682
-13.7801	22.0802	62.4248
-11.9321	28.5762	55.2001
-15.9527	24.0616	54.5329
-19.3675	16.4213	59.5866
-57.135	-8.01564	50.8502
-45.1331	-4.02143	60.8923
-43.6701	4.9806	58.5959
-57.6786	2.67332	50.4121
-67.6765	-1.89113	37.2733
-56.0328	13.0382	49.1947
-66.2152	26.2489	23.4713
-70.3132	22.043	15.1559
-44.0285	-15.1469	63.4376
-55.0892	-20.02	52.3089
-5.9657	32.5462	66.9407
-6.48854	24.3088	78.3075
-27.8818	95.942	18.6632
-38.5929	92.4124	16.294
-35.9883	82.6738	25.717
-26.2457	84.6322	27.8431
-3.7849	-82.4394	56.5764
-61.7641	-27.0662	39.7854
-58.9794	-41.9231	42.4643
-36.0756	-65.4396	71.7023
-46.1693	-62.7535	60.6388
-43.9828	-70.8897	54.5231
-29.8083	-80.6986	36.2418
-38.13	-75.4897	46.7335
-45.4376	-72.1686	33.6687
-35.6687	-78.9478	24.8265
-7.33353	18.1428	86.4743
-10.7316	20.5616	74.772
-11.8263	14.67	82.2316
-21.3447	7.72798	65.3475
-29.3978	4.34042	62.998
-25.7661	-35.125	76.9636
-16.4355	-2.00643	77.3046
-15.5326	-4.26975	76.1633
-10.9953	-7.75378	78.941
-15.2893	-6.56789	75.0767
-15.9222	-8.75352	75.4077
-4.76669	-1.01228	85.9307
-4.45866	-3.2723	83.2836
-20.9961	-7.6007	71.1307
-8.01995	10.1698	92.9783
-12.6872	8.69733	86.8606
-12.0766	4.58244	86.8664
-7.64283	5.54396	92.4412
-29.5552	-47.8395	77.5448
-21.8085	-50.292	83.698
-19.4832	-43.5033	84.7335
-25.2425	-41.0034	79.4676
-28.1564	-22.7945	76.0976
-23.8848	-20.5096	78.4285
-4.5748	-5.9208	82.4205
-4.74312	-9.04024	83.3722
-9.85626	27.7859	65.2165
-19.1679	6.5502	72.6304
-19.6688	3.71802	74.1167
-18.7589	6.313	74.9027
-7.33831	-6.55716	81.1151
-19.114	-0.944241	74.0981
-4.89638	-11.1685	85.5286
-5.33845	-13.3605	88.0326
-26.8077	-13.243	72.0067
-22.1915	-12.5399	74.3885
-11.8493	-40.3925	89.9758
-12.4262	-44.4311	89.0506
-5.49885	-44.7382	91.2696
-4.8416	-40.7721	92.1613
-20.4106	-25.4275	81.8872
-23.0394	-30.5829	78.5942
-15.827	10.2762	76.3164
-18.139	-39.7292	85.72
-56.3497	53.5182	30.9954
-62.6667	39.9447	23.6381
-60.1571	39.195	29.8086
-48.1309	76.6504	22.3022
-45.8787	68.555	31.9222
-34.6714	73.7047	34.9665
-59.3125	66.0332	14.4793
-57.4299	57.4718	25.2486
-34.9233	69.6402	38.5609
-45.1254	64.5508	35.9721
-21.3947	54.3298	44.154
-20.7538	59.1755	44.8237
-28.6837	61.3107	43.6051
-28.8193	56.4215	43.5938
-8.70189	33.8192	56.0038
-5.38465	38.6732	56.5382
-5.68168	42.5716	51.2697
-26.1698	13.0551	58.4522
-21.5654	20.7458	54.2988
-36.1526	19.9332	53.1543
-40.7593	13.6054	55.225
-54.7866	26.1121	39.5515
-56.8559	30.6226	34.6135
-61.9442	28.361	29.831
-45.9689	54.7549	40.4229
-36.1142	59.9242	42.3776
-35.7755	64.705	41.3097
-53.9182	47.5995	36.6401
-56.8845	38.6501	34.0676
-42.1396	45.4807	43.1612
-41.8225	44.8117	43.3412
-37.0053	46.9522	43.9009
-36.9458	47.7542	43.6956
-30.4774	47.8301	43.1727
-30.8464	47.075	43.5472
-24.7065	44.4128	43.2577
-23.7129	44.8701	42.8909
-19.3953	40.0752	43.2072
-18.1431	40.276	42.7247
-14.3226	36.98	44.5681
-16.4389	40.6416	43.2611
-49.6874	34.9805	39.3903
-48.458	32.8913	40.7154
-31.5747	45.2431	44.2543
-41.2086	43.1832	43.7091
-44.3897	40.2665	42.0515
-47.2572	36.4949	39.478
-47.2309	36.9755	39.4177
-46.2313	37.42	40.6883
-36.1186	55.0755	43.3106
-47.8086	42.9565	41.448
-43.4999	47.4308	43.5394
-30.7398	29.6804	49.9602
-42.8942	30.4853	46.4776
-20.9152	31.4732	47.4418
-18.4316	32.9766	45.7809
-16.8746	34.2142	44.8995
-17.7811	34.5984	44.0143
-10.1735	43.2293	45.5285
-14.38	48.7153	44.3505
-15.9492	36.5857	43.8241
-22.5886	45.6001	43.5794
-29.9998	48.7792	43.7874
-14.8098	42.4195	43.8382
-30.7717	31.794	48.8663
-41.8392	32.8252	45.979
-41.4175	33.7309	45.4699
-19.1563	33.9714	44.4248
-21.8192	33.3409	45.8221
-19.4563	34.4455	43.53
-30.7765	32.5416	47.8005
-30.22	31.4142	46.479
-18.9287	36.0559	41.5389
-19.5419	33.9917	42.0363
-18.8227	34.8948	41.6651
-43.9938	41.036	40.4667
-7.45799	58.4923	46.2113
-5.64433	51.9643	47.1778
-19.7704	25.4244	51.6039
-14.8183	34.1044	46.3232
-9.69596	46.7499	45.7745
-19.9122	28.5981	49.4121
-14.6213	-29.629	81.4532
-19.7289	-32.0588	78.6775
-5.88955	-18.6933	89.4585
-5.73284	-15.4178	89.0065
-10.4766	-20.222	87.8535
-10.0668	-23.6299	87.2091
-5.39747	-22.1671	88.8424
-15.7101	-22.5674	85.1141
-10.2433	-17.2041	87.6805
-15.6761	-20.1859	85.3578
-9.28731	-26.8446	85.9002
-4.13765	-25.4926	87.8216
-24.0163	-32.0641	77.4963
-15.4009	-30.5005	83.7142
-15.1493	-29.814	82.7791
-15.9361	-31.9595	84.9647
-10.7096	-32.9034	90.0563
-10.051	-30.6947	88.9957
-4.01393	-30.5498	91.4833
-3.95037	-27.2543	89.1591
-9.48766	-28.3256	87.1275
-4.23278	-32.9934	92.869
-20.0736	-32.5238	78.6278
-3.53874	-26.6958	85.9192
-4.39622	-35.3065	93.6328
-4.51977	-37.6682	93.4516
-8.90034	-14.4808	87.1858
-3.92994	-26.0658	87.8425
-9.21355	-27.3493	85.8605
-11.6976	-37.4378	90.6676
-11.3196	-35.1257	90.7233
-8.79391	-27.337	84.0636
-8.78803	-27.7602	84.0602
-13.3555	-27.454	79.9695
-8.71458	-25.88	81.4997
-20.0261	-34.8827	78.1886
-3.23882	-30.0818	83.8856
-3.69419	-26.1863	85.8001
-4.41166	-24.8589	82.3356
-8.66191	-30.8851	82.3407
-24.543	-24.494	68.9471
-27.4625	-26.6334	65.6196
-13.3261	-21.0533	76.4693
-9.06142	-19.6303	77.7625
-24.2996	-42.3231	75.4311
-21.1955	-41.7543	78.6583
-2.80884	-37.6972	85.9598
0.548328	-37.8602	85.9923
-5.15586	-18.6592	78.4038
-8.67979	-38.276	84.2217
-27.4608	-42.1458	70.5989
-77.1474	-18.3869	-53.8775
-78.4488	-10.3484	-57.0494
-76.1054	-10.0019	-63.061
-74.4716	-19.3173	-59.3945
-76.43	7.25085	-17.1662
-78.1952	21.0559	-30.1328
-77.853	16.2357	-48.5672
-77.7128	8.85229	-42.3175
-73.5571	-30.9319	-43.6285
-71.3015	-37.2945	-37.7306
-75.571	-24.945	-49.0548
-71.7675	-28.1019	-53.6895
-82.1806	-8.24481	-55.9672
-81.0233	-18.1157	-52.6197
-79.1286	-34.635	-39.1479
-81.9908	-26.9774	-45.8273
-75.6971	-41.7538	-29.9222
-73.1851	-41.7445	-25.9479
-87.0032	-16.7054	-44.7491
-89.1338	-3.42849	-52.8343
-73.6605	-19.0917	-10.6874
-71.6304	-27.659	-9.29088
-78.4945	-18.5366	-22.249
-78.4675	-22.507	-21.5899
-78.9688	8.14857	-40.6057
-85.5789	-8.65796	-58.7127
-86.4076	18.7075	-44.7633
-88.8663	17.6988	-42.1004
-84.1196	16.467	-47.0974
-84.1305	2.63729	-29.1746
-91.0181	3.88714	-54.5986
-88.4158	-7.17267	-46.2943
-88.0468	-4.19052	-45.9217
-82.1027	2.54021	-54.5025
-78.9839	-0.625828	-56.7469
-77.1665	-30.1307	-42.32
-79.0448	-1.69131	-23.546
-81.3367	7.71661	-49.0286
-78.9176	5.85359	-51.2598
-87.9859	8.34183	-41.8725
-82.4682	-11.4625	-40.026
-16.8564	109.269	5.22809
-16.1612	97.4912	19.5898
-15.2707	84.3385	29.3833
-25.4715	74.8976	36.9563
-6.05062	1.24977	89.2879
-7.8502	14.0371	90.8686
-14.6016	73.6774	39.0996
-14.1379	67.2998	43.3216
-5.4793	46.6456	48.7766
-29.4769	106.024	5.38631
-25.9564	71.0044	40.8011
-28.0908	65.971	43.2262
-31.2789	46.1778	42.5178
-29.361	50.5636	44.1352
-21.5243	47.6325	43.9092
-40.5618	100.634	3.68667
-42.3506	108.114	-17.213
-37.1094	45.1547	44.3045
-36.5641	50.3197	44.4027
-50.4202	85.1651	11.4546
-42.6351	46.1208	43.6289
-36.8427	48.6165	44.2673
-37.0827	46.1467	43.0973
-45.1264	50.9513	41.8259
-61.1176	75.8867	1.22743
-45.6189	41.7062	41.5029
-45.317	41.1985	41.7823
-41.2483	43.9262	42.115
-51.2528	44.9053	39.0183
-13.8484	53.2138	44.9886
-63.3144	-58.5699	-16.4664
-78.0504	9.30113	-59.0625
-75.6848	15.9342	-73.552
-72.7945	-10.3291	-75.6005
-70.2884	-23.0581	-69.322
-77.3288	0.387092	-63.6094
-74.1441	3.06071	-77.97
-66.3207	-34.5124	-60.905
-10.7836	-81.9876	53.8728
-21.3484	-80.898	46.363
-52.5166	-66.0093	40.6091
-70.2049	65.5961	-14.8022
-16.8374	120.2	-18.5478
-30.5791	115.63	-17.5758
-48.6149	38.456	40.3937
-55.1341	-56.4277	47.2596
-7.95193	-11.4399	85.2192
-18.9211	-16.7246	81.243
-7.70043	-9.43332	82.7048
-12.0694	-10.6766	81.0354
-13.2307	-13.7339	83.6414
-32.8134	-24.4708	73.3002
-31.065	-32.7553	74.8537
-68.6021	-45.6731	-26.6034
-69.4202	-28.0681	-1.29545
-72.0455	-18.6413	-2.97894
-74.9843	14.2973	-0.930471
-74.5189	-1.13653	6.43196
-51.17	29.2528	40.285
-70.4688	-14.7942	9.96589
-66.8134	-26.086	11.9969
-15.0723	14.6801	69.8834
-18.4058	1.15608	76.9197
-16.4254	3.04366	80.7189
-33.0215	-13.7614	69.3497
-51.958	-34.0459	55.8612
-41.8814	-27.4067	66.5072
-48.7568	-45.2374	60.4892
-64.7837	-13.8886	37.9783
-34.2469	-56.8138	74.9404
-42.7805	-52.3598	67.2021
-51.0878	21.0972	47.5249
-47.5264	25.0813	47.2249
-39.4139	-36.5218	69.5173
-35.3433	-43.1382	72.8652
-13.6784	-51.3848	89.0253
-33.1084	23.9378	51.9641
-12.527	11.5867	85.3096
-70.5589	-8.18941	23.5129
-66.6387	-20.7986	25.3337
-8.23855	50.1295	46.5264
-17.14	36.6557	43.512
-17.4905	-12.0088	77.8163
-17.9449	-29.8176	77.9312
-18.0776	-23.0702	73.909
-32.0683	-135.596	17.0885
-40.4376	-132.727	10.6397
-45.2333	-148.149	9.11899
-35.9476	-150.873	15.208
-30.7655	-88.9752	16.4303
-24.4075	-90.5232	25.5309
-34.2776	-107.174	13.1895
-26.5172	-109.514	20.8449
-28.7063	-37.6404	76.1123
-41.7842	-77.6641	12.7026
-48.0488	-70.4506	18.7634
-47.9718	-130.022	3.71665
-52.3239	-145.25	2.41195
-52.2286	-70.5032	5.74931
-49.2201	-78.2045	1.13747
-54.8012	-79.3167	-8.89979
-59.0729	-97.5446	-34.7943
-70.0479	-34.6193	-9.66053
-58.4354	-82.0427	-33.3763
-53.8907	-108.921	-50.6958
-54.8613	-124.027	-55.2975
-26.2877	-153.115	20.309
-22.8336	-137.834	23.1914
-16.4008	-91.0831	34.7203
-17.5447	-111.504	28.8524
-22.7666	-37.3733	79.977
-14.7517	-30.0943	81.4453
-14.5239	-32.8053	80.6113
-15.8268	-154.981	24.777
-14.6055	-39.9661	82.2525
-76.1974	56.9525	-34.7097
-47.9428	-87.1047	-58.8248
-47.8868	-105.446	-60.9747
-52.7693	-90.9806	-48.0601
-49.8416	-121.212	-63.5959
-54.7466	-71.2205	-48.3952
-15.9894	125.342	-49.3284
-30.5063	120.005	-47.366
-14.9303	101.645	-116.501
-13.5166	74.1877	-140.12
-28.35	72.4297	-135.765
-30.0851	98.512	-111.987
-13.2906	44.5259	-148.478
-26.6666	43.2835	-144.237
-30.5526	114.938	-80.5392
-15.4761	119.113	-83.9024
-12.7236	17.1702	-148.21
-25.4149	15.9497	-143.808
-11.8656	-9.94409	-141.935
-24.3728	-10.5599	-137.239
-22.9869	-32.8941	-124.615
-11.189	-32.5188	-129.278
-10.4189	-51.6847	-107.646
-21.3486	-51.9908	-105.485
-9.63307	-84.6771	-85.1962
-9.56749	-100.117	-83.4959
-19.6929	-100.91	-82.0556
-20.1736	-85.5091	-82.4422
-9.65262	-114.686	-83.1086
-19.3881	-114.895	-82.4794
-10.3136	-65.7726	-92.9075
-21.0992	-67.4893	-90.0911
-43.4371	111.477	-45.2128
-54.924	100.389	-43.1061
-52.4411	63.4822	-117.382
-41.2685	68.6294	-127.465
-39.8955	41.0157	-136.334
-51.0604	38.0048	-126.262
-53.7108	84.4579	-96.7705
-42.4397	92.6419	-105.084
-55.8674	96.1662	-71.0259
-44.0259	106.893	-76.0753
-49.4099	12.9551	-127.044
-38.3205	14.5329	-136.365
-36.7143	-10.9669	-130.216
-47.4408	-10.9459	-121.54
-44.3953	-32.2789	-109.432
-34.6525	-32.9648	-117.541
-32.7641	-52.0538	-99.0272
-42.9881	-50.9179	-90.7751
-32.0006	-68.5865	-84.1887
-39.96	-102.823	-71.608
-40.2791	-85.7379	-69.217
-30.7452	-85.9068	-76.9329
-30.1526	-101.936	-78.3208
-29.9229	-115.813	-79.685
-63.3283	73.7921	-86.0797
-61.7992	56.8044	-105.551
-69.1203	48.3175	-90.5189
-70.9805	61.7005	-71.5257
-72.6873	69.8837	-50.5877
-65.6244	83.3951	-63.5694
-58.3486	11.0606	-116.325
-60.1853	34.1515	-114.999
-52.3277	-30.7173	-98.2459
-56.2415	-10.9024	-109.924
-50.3093	-48.0974	-82.24
-72.3988	22.6226	-87.5478
-59.3996	-28.7893	-87.7162
-65.1581	-26.0238	-78.2393
-68.9244	-10.7614	-86.9365
-63.35	-10.9788	-98.8551
-70.4147	5.47544	-91.15
-65.2593	8.5789	-104.67
-67.2473	29.0081	-102.015
-56.6112	-52.9862	-56.8633
-60.7074	-39.53	-67.2326
-55.4927	-44.2034	-74.3968
-90.9517	4.68212	-56.0099
-88.9874	5.32105	-58.0944
-90.3379	14.1721	-50.524
-88.2398	15.595	-52.5906
-85.8615	13.9936	-34.5018
-83.5085	14.4458	-36.9732
-81.3795	12.7571	-40.145
-86.1632	3.57299	-58.7255
-85.5841	13.6529	-53.6848
-89.2949	-7.6072	-54.1374
-89.8544	15.67	-40.9331
-90.6951	12.5085	-49.3267
-40.2796	-117.658	-74.1365
18.5044	-76.245	76.5868
15.4213	-76.7921	76.6037
20.711	-76.4552	72.8514
19.7414	-74.9908	79.7937
68.8628	10.3719	31.0815
67.2304	12.6318	33.7215
69.4065	6.97335	31.2256
69.5342	12.1333	26.9398
65.4564	14.9829	35.4069
64.785	17.9776	33.1861
63.7202	15.3434	38.7832
9.77022	62.0777	45.8448
11.3775	60.0789	46.3321
12.4157	65.4821	45.4924
7.43612	62.7726	45.3587
7.35918	57.7879	46.4552
25.4532	41.3784	43.5622
22.4663	39.3682	43.1222
25.0599	41.8357	42.0627
28.7629	43.4683	43.9985
25.6213	41.4032	44.5472
6.97139	39.4017	48.8138
7.64658	38.1742	48.9935
7.28447	40.8311	47.4784
6.47582	39.9655	49.059
10.1122	39.0592	46.4491
12.2023	37.1115	46.2296
10.7657	40.7627	45.4227
8.68671	41.1406	46.1756
9.82561	37.5639	47.723
47.5679	34.8682	41.9931
47.2928	35.0828	41.9132
44.3862	33.7616	45.0108
47.9686	34.1869	41.9912
48.9076	35.6963	39.9651
14.9679	31.5748	49.4599
14.6275	32.5707	48.8736
14.2209	30.6691	50.5498
16.7115	30.6572	49.1629
18.9784	35.72	43.156
19.176	35.2462	43.1373
19.62	35.9208	42.086
19.2519	36.5153	43.1524
18.3641	35.5982	43.988
24.6629	-33.8495	77.1543
24.3752	-33.7134	77.285
24.8209	-34.0946	76.7154
24.4564	-33.7742	77.4215
23.2251	-31.8544	79.2505
23.5312	-32.9778	78.3032
24.5796	-32.9351	78.0968
23.3516	-31.1906	79.6071
21.6541	-30.7383	80.3705
25.2874	-33.3691	77.6046
25.4542	-33.1668	77.6639
25.3147	-33.5452	77.5218
27.3475	-32.6107	77.512
26.3798	-32.4157	77.7229
27.9201	-33.4403	77.1709
27.584	-31.2448	77.6477
25.3694	-34.4934	75.9087
24.4677	-33.7257	76.1746
26.2536	-34.9197	74.3112
24.9977	-34.8047	76.4501
20.2133	-35.5157	82.9944
20.6264	-36.3987	82.8646
22.4545	-34.8301	80.1378
20.0474	-34.8322	82.8359
17.9311	-36.4159	86.0309
18.8868	-22.0276	83.7952
18.3006	-20.466	83.8992
15.5091	-19.6451	85.5169
19.0922	-22.9463	83.5581
21.3154	-25.1281	82.1565
23.5362	-33.322	78.2779
23.6183	-33.4264	78.3274
23.6263	-33.3492	78.0719
21.9427	-32.8506	79.2744
72.9471	-36.2094	-15.6865
72.2259	-36.5021	-14.7417
72.5516	-40.1732	-17.6571
73.6938	-35.2637	-15.9513
82.7528	-29.3634	-29.555
83.3754	-28.0697	-32.7268
81.0355	-27.9341	-29.1424
82.1005	-30.1219	-26.8331
83.7638	-30.7775	-29.6618
76.7814	-33.7385	-17.9656
76.9354	-30.9641	-18.2024
76.1563	-33.8957	-17.0693
77.5655	-35.3849	-19.0418
76.1259	-22.0671	-24.4415
76.0055	-20.984	-26.5069
77.0212	-19.8787	-25.0631
77.6018	-22.203	-23.5123
76.6021	-24.4249	-24.6543
84.051	-2.58452	-31.5621
83.3708	-4.69271	-31.7678
84.2616	-1.87128	-32.3463
84.1835	-1.84792	-30.7863
87.6809	7.36012	-38.6766
87.5299	8.22905	-37.9335
87.3551	6.377	-38.3468
89.0006	7.7747	-42.0152
79.6432	-21.3675	-33.0132
78.5977	-19.5034	-32.1434
78.6116	-24.9366	-29.3739
82.0748	-24.9778	-34.5628
82.204	-19.5499	-37.5448
85.9176	-2.63097	-38.2734
86.3347	-1.55847	-38.9412
84.5196	-2.20883	-34.4694
85.7855	-4.15411	-38.9611
89.0383	-15.6795	-47.059
88.9296	-15.3588	-46.4851
87.9653	-18.5852	-45.7479
89.3769	-14.74	-48.342
89.4733	-13.3994	-50.4274
89.8215	-11.1241	-50.0158
89.3797	-14.279	-51.2677
89.63	-10.6383	-52.501
83.7614	-26.9349	-35.2074
84.2085	-25.1065	-37.7176
84.6141	-28.009	-35.5495
86.1997	-14.3159	-43.3659
84.7843	-16.0112	-41.9302
87.7416	-14.9642	-44.8594
86.3399	-12.9442	-43.3883
75.065	-27.9429	-15.7255
75.0355	-30.3402	-15.6936
75.8416	-27.7122	-16.6657
74.7987	-26.9508	-15.3793
74.7831	-25.1596	-15.1227
75.3515	-23.094	-15.6975
74.359	-25.1171	-14.1839
77.2075	-16.1603	-17.9788
76.846	-16.617	-17.4264
77.5975	-16.6995	-18.7488
77.9181	-12.9993	-19.0514
76.4207	-17.2984	-16.7552
76.0511	-16.9498	-15.873
76.0463	-19.7732	-16.358
78.7089	-26.393	-27.2798
79.0858	-26.5623	-25.0491
79.5518	-12.9636	-27.7222
78.2199	-16.649	-26.2506
78.9311	-13.6004	-29.2574
81.0405	-9.29408	-29.1253
80.722	-11.8874	-27.0034
89.9208	0.755065	-49.5901
90.0413	1.43727	-50.0755
89.8179	0.446429	-48.8959
90.1358	-0.774705	-50.9616
90.1624	-4.54537	-50.6967
90.2431	-5.32355	-48.9346
90.1388	-6.37241	-51.1079
90.0574	-3.40337	-51.8968
90.0628	-2.38322	-49.2948
86.9788	5.7842	-38.401
87.7124	5.35689	-41.0928
86.0821	5.30622	-37.1403
88.6351	4.51749	-44.3582
87.9257	3.62632	-43.4532
89.7684	3.32654	-48.2959
89.592	5.47607	-45.4522
42.7636	47.4038	43.6542
42.6124	47.0676	43.4229
45.1894	45.8833	42.9611
42.9543	47.7637	43.9702
39.7253	48.4733	44.0016
24.0358	-76.9899	67.3979
22.6243	-78.2867	63.2496
26.6237	-76.4347	67.3165
49.8468	39.1991	40.0156
50.1728	39.6931	40.1145
48.7391	41.6351	40.6548
49.5349	38.9841	40.0188
50.8175	37.172	39.3672
53.3221	40.2525	38.6954
54.6234	40.842	37.5936
51.7401	42.7598	39.7757
51.3874	39.9678	39.7946
53.4959	37.6654	37.9627
66.3047	-48.1014	-7.87915
67.5157	-47.3113	-12.7502
66.5649	-46.2425	-6.81944
65.5214	-50.3422	-7.85844
28.0976	33.4678	45.7759
28.2913	33.8654	47.2258
33.3308	32.9746	47.236
28.0763	32.8193	44.1604
23.6312	34.0051	43.7581
17.5536	35.6826	44.4133
18.2725	34.9786	44.414
17.5978	36.6354	44.3436
17.1296	35.6188	44.5385
20.3743	37.8014	43.0863
19.6069	37.6261	44.083
20.657	38.0056	41.6264
15.3381	38.497	43.9148
16.0318	38.3379	43.7483
17.2351	40.5387	43.5366
14.5711	38.7877	44.1668
15.3715	36.9109	44.5966
5.75607	41.3516	48.9877
5.10088	41.5979	49.469
5.6939	43.4159	48.0321
18.4063	-29.9355	81.7705
18.9045	-31.1932	80.8609
18.8108	-29.2042	81.934
15.8165	-28.1087	83.6027
58.8094	-69.9971	-10.3413
57.3182	-69.0104	-5.13177
58.4507	-72.7579	-11.9896
59.9867	-67.9174	-11.0398
75.9887	-3.60581	-15.5631
74.9277	-10.2291	-10.8167
76.4453	-5.09543	-18.1769
76.9524	3.30725	-21.2678
75.6471	-1.4626	-11.3032
61.2195	-74.8842	-23.0512
61.0229	-77.1738	-24.6236
61.8595	-70.9919	-23.8809
60.1808	-76.2191	-18.2268
61.7428	-109.593	-27.9139
62.4086	-118.047	-29.4436
60.0447	-106.508	-35.528
60.8917	-100.706	-27.6318
61.9248	-111.851	-21.7716
23.6006	-33.9143	78.5771
23.7456	-34.1349	78.5568
23.6685	-33.7171	78.4317
22.1266	-33.7626	79.9101
23.7743	-34.3962	78.6184
24.1435	-34.4542	78.4361
19.7557	-34.3368	82.8494
19.8081	-33.8503	82.4256
17.4024	-34.7064	85.6768
28.9164	-75.8263	67.4531
32.6582	-76.7852	61.2487
29.7245	-73.951	71.1894
46.9594	-68.0516	-67.5966
46.3001	-64.9981	-72.4118
49.4689	-66.6989	-64.1337
46.1524	-71.1216	-66.9751
56.5763	90.1577	-9.36612
58.2879	90.464	-16.5457
52.7505	94.1081	-8.05948
57.3646	86.6643	-5.21067
86.5244	-25.4993	-45.1854
88.0357	-21.1284	-49.5608
86.943	-24.3915	-44.3032
85.159	-29.0754	-41.3782
85.9186	-25.8952	-46.5902
81.5073	-0.0173917	-25.9474
80.4814	-4.15204	-23.7398
82.6538	-0.243357	-26.3392
82.3688	4.13757	-28.409
80.0912	0.221915	-25.5617
77.885	-21.36	-19.7583
77.2917	-21.8176	-18.5053
78.3034	-24.2113	-20.1676
78.4092	-21.9164	-21.3138
77.9471	-19.6392	-19.9306
77.0271	-27.913	-18.295
76.7983	-24.8143	-17.8819
78.0183	-27.9079	-19.6681
89.1924	-15.9572	-53.672
88.3792	-16.1663	-54.6924
90.0808	-10.1028	-56.6025
89.635	-15.7077	-52.6232
87.2872	-16.278	-55.7132
86.2947	-21.3062	-51.9926
85.8472	-16.0966	-56.3574
87.904	-10.406	-58.5984
78.2822	3.02421	-28.5011
79.3624	4.57534	-30.8832
77.7829	4.58757	-28.138
78.7871	2.25794	-26.5324
82.6926	-24.2328	-49.9144
81.0176	-23.4057	-50.2724
83.5353	-20.2841	-52.9605
83.8621	-25.0062	-49.3287
81.4552	-27.6131	-46.8017
84.9495	-29.3396	-36.048
85.6044	-26.7383	-39.3186
84.5967	-30.9433	-33.3414
84.7865	-30.6189	-37.0272
82.3609	-38.1805	-31.6543
81.5852	-39.5873	-28.1451
80.9575	-40.1833	-32.5522
83.3909	-35.308	-35.2832
83.6008	-34.9482	-30.9416
82.5346	-34.7956	-25.2671
81.8907	-36.7352	-25.1018
83.359	-33.9255	-27.2945
81.9664	-33.7135	-24.1255
70.235	-43.9411	-18.8334
69.6132	-44.8993	-19.0448
71.3271	-43.1572	-20.7533
70.1026	-42.2873	-14.8139
75.8009	-41.7256	-19.8207
76.4146	-43.4163	-22.0987
77.4947	-40.1013	-19.7691
75.1134	-38.7424	-17.8078
74.2587	-42.2837	-20.3169
85.6113	5.74578	-30.4459
85.679	7.36906	-30.7678
84.3053	2.49353	-28.4542
85.9114	5.54194	-30.9918
85.6177	8.50622	-31.1313
87.1501	11.408	-33.9896
84.8983	8.56077	-31.1748
89.5567	-15.2976	-51.8289
88.4735	-19.3686	-48.0574
90.4816	-10.0761	-54.6821
90.528	-0.918358	-54.1041
90.2699	-1.90337	-53.4732
90.662	-1.7392	-54.9136
90.6256	0.834619	-52.9476
86.1019	6.2543	-33.2186
86.1689	6.06979	-32.6175
85.5661	4.63395	-33.05
86.5973	7.6348	-34.6519
85.9851	5.36269	-31.5034
85.1122	2.20322	-30.5423
87.3836	9.22739	-33.9928
88.61	-15.2061	-45.8656
89.7433	-12.4442	-46.8549
87.0082	-18.4277	-43.9771
85.0383	2.70393	-34.2042
85.5305	4.22455	-35.1333
84.9409	2.69374	-33.6484
85.4276	1.39396	-35.6733
85.7847	4.78598	-36.5789
86.291	3.8759	-38.4357
83.8139	-18.9154	-40.0925
84.5872	-20.8899	-40.4698
81.2912	-10.8776	-26.0044
82.4716	-6.462	-27.2132
81.1737	-10.5902	-24.7439
80.0207	-15.6247	-24.843
84.2725	-1.52129	-32.7815
84.604	0.351539	-32.6425
50.9436	-64.5262	-62.5338
51.4816	-60.4256	-65.9049
52.0256	-64.3713	-59.7674
24.8934	-2.78768	68.0112
26.7752	-5.78367	68.7887
25.2702	-1.50007	67.4921
22.6205	-2.71259	68.4847
19.4143	-0.617766	70.2566
19.91	-1.71947	69.7861
19.6277	1.93233	69.7542
18.5643	-0.71229	71.8312
52.773	55.2391	34.985
52.9046	52.9321	36.3566
57.1381	50.3219	32.267
52.8294	57.1305	33.4019
47.4327	59.5786	37.4341
6.99869	-3.51347	80.1156
6.34953	-2.76817	80.9424
6.65301	-4.29124	80.0394
8.32266	-3.73593	79.5153
8.4905	-0.416741	82.1845
7.071	-0.567374	82.7007
9.89361	-1.38224	80.649
8.96718	0.526038	82.6624
49.6428	36.1317	39.3118
49.1042	36.3285	39.3353
50.3481	35.5421	39.1241
49.4383	36.8753	39.5829
19.6026	34.9417	43.2045
20.3936	34.6637	43.2454
20.1421	34.9117	42.3013
19.2185	34.8594	43.9699
14.0612	6.8747	78.7579
14.323	5.85559	79.0212
14.4832	6.76245	77.8447
12.8133	7.87138	80.061
80.1654	-31.1581	-43.4952
78.8956	-33.3254	-41.2589
78.9182	-29.3101	-44.8236
81.246	-32.4926	-42.5101
65.8279	82.1467	-26.6777
63.3673	85.9717	-26.7708
66.5052	78.622	-20.7993
67.9737	80.6173	-36.1678
27.1486	-40.5414	73.7262
27.616	-38.8632	72.5469
27.8373	-43.4657	72.5953
25.9203	-39.8176	75.2863
26.6364	-29.6583	70.6443
25.1393	-29.472	72.3643
27.1891	-26.9263	67.865
27.2335	-31.8072	70.6462
-17.131	-75.434	78.1123
-18.0089	-74.3553	81.2051
-19.5052	-75.529	74.7107
-14.1588	-75.7428	77.7867
-69.8646	11.6379	30.0135
-70.32	13.4225	26.0182
-70.4334	8.13962	30.1716
-67.92	13.7532	32.9755
-65.6944	16.1745	35.0347
-63.7583	16.2822	38.5784
-64.7566	19.3376	33.0237
-12.7017	62.342	45.3964
-14.4079	60.4751	45.6335
-9.66429	57.9815	46.1442
-10.1389	62.8941	45.0951
-16.7426	65.6297	44.5
-23.4796	41.0474	42.9341
-23.0732	41.3449	41.604
-21.3188	39.0498	42.6181
-23.6515	41.1712	43.824
-26.1725	43.0833	43.3224
-8.30856	39.2354	48.7493
-8.06717	39.8147	49.027
-8.4442	40.7444	47.5439
-8.62788	37.9173	49.2527
-9.95895	38.8035	46.764
-11.7365	36.7493	46.4085
-9.68978	37.1866	48.1338
-9.21356	41.0901	46.5363
-10.7876	40.6756	45.5021
-44.7992	35.0471	43.0847
-45.1948	34.3879	43.0918
-41.5722	33.4997	45.7774
-44.5253	35.2479	42.9954
-46.3147	36.1192	41.084
-13.8465	30.9479	50.103
-15.4442	29.8674	49.7951
-13.4085	30.0313	51.2739
-13.516	32.0425	49.4248
-18.6859	35.3916	42.5317
-18.8725	35.4743	41.5885
-18.7042	34.8888	42.5874
-18.4176	35.4012	43.1961
-19.0505	36.209	42.5235
-25.5806	32.9138	45.113
-22.019	33.506	43.3127
-25.6882	32.2003	43.7604
-30.7249	32.2312	46.7704
-25.6417	33.3073	46.4002
-22.721	-32.934	77.141
-22.4581	-32.814	77.2836
-22.5454	-32.8727	77.4076
-22.8517	-33.178	76.7159
-21.6174	-30.995	79.2668
-22.7334	-32.024	78.0292
-21.75	-32.1616	78.2997
-20.2758	-29.9389	80.4779
-21.8132	-30.2915	79.5949
-23.3501	-32.3999	77.5341
-23.3681	-32.5792	77.4534
-23.5151	-32.1892	77.5928
-25.3343	-31.557	77.4061
-25.6336	-30.142	77.517
-25.8488	-32.379	77.0316
-24.4299	-31.4032	77.6507
-23.3365	-33.5502	75.9292
-22.993	-33.8872	76.4736
-24.1697	-33.9204	74.3726
-22.4917	-32.8171	76.227
-19.0556	-34.8991	83.3398
-19.4702	-35.7481	83.1496
-17.1041	-35.9573	86.3499
-18.8638	-34.2264	83.2232
-20.88	-34.0369	80.2532
-18.2265	-21.5079	83.7969
-17.7833	-20.0267	83.8626
-20.2716	-24.2924	82.2701
-18.3674	-22.4096	83.5858
-15.3851	-19.3233	85.3478
-21.745	-32.5054	78.281
-20.3405	-32.0491	79.414
-21.8146	-32.5228	78.0781
-21.8274	-32.6077	78.3175
-72.8558	-34.7459	-16.0852
-73.8102	-33.8526	-16.3758
-72.4214	-38.7051	-18.0128
-72.1391	-35.0629	-15.1522
-82.4771	-27.6163	-29.7569
-83.0483	-26.2967	-32.8923
-83.4931	-28.9966	-29.8509
-81.8699	-28.3973	-27.0687
-80.7608	-26.2439	-29.3646
-77.5772	-32.1756	-18.2886
-78.431	-33.7747	-19.3683
-77.1611	-32.3529	-17.4303
-77.0557	-29.4078	-18.5621
-75.9179	-20.552	-24.7665
-75.7563	-19.467	-26.8057
-76.3954	-22.8891	-24.9709
-77.4155	-20.641	-23.838
-76.8102	-18.3306	-25.3797
-83.6566	-0.778095	-31.7438
-83.7994	-0.0381803	-30.9757
-83.8478	-0.0533228	-32.5188
-82.9902	-2.9112	-31.9559
-87.0822	9.3473	-38.7486
-86.9378	10.2082	-38.0104
-88.332	9.82084	-42.0476
-86.7677	8.34906	-38.4269
-79.6412	-11.6066	-32.9121
-82.2409	-8.42653	-37.0759
-78.8243	-14.1462	-32.799
-78.6265	-11.9828	-29.5101
-81.0708	-7.69464	-32.8866
-86.2206	1.86441	-39.6593
-85.7928	0.362833	-39.035
-84.9373	3.27619	-35.8022
-86.755	3.32841	-40.9094
-87.8471	0.368346	-44.209
-77.172	-32.8058	-39.9475
-78.4442	-31.6835	-41.3562
-75.8853	-32.3078	-40.1234
-76.8724	-35.0545	-37.9628
-88.4188	-13.6637	-47.0527
-88.7347	-12.7094	-48.3227
-87.3945	-16.6178	-45.7616
-88.3192	-13.3474	-46.4873
-88.7849	-11.3559	-50.3884
-89.1283	-9.06453	-49.9785
-88.8882	-8.57506	-52.4432
-88.6828	-12.2339	-51.2241
-83.3949	-25.1461	-35.3476
-83.7971	-23.2965	-37.8303
-84.2518	-26.1892	-35.6793
-81.7149	-23.242	-34.7266
-85.6428	-12.4049	-43.4205
-84.2658	-14.1547	-42.0069
-85.7749	-11.0264	-43.4416
-87.1679	-13.0004	-44.8856
-83.3347	-17.1017	-40.1925
-84.1171	-19.0542	-40.5591
-81.7784	-17.7974	-37.6832
-75.0006	-26.4639	-16.1477
-74.7422	-25.4879	-15.8117
-75.7633	-26.2131	-17.0712
-75.2331	-28.8574	-16.1078
-74.7363	-23.7072	-15.5631
-74.3285	-23.6858	-14.6361
-75.2956	-21.6307	-16.1287
-77.1239	-14.653	-18.3745
-77.8136	-11.4687	-19.4265
-77.4992	-15.176	-19.1318
-76.7718	-15.1236	-17.8325
-76.356	-15.8223	-17.1706
-75.984	-18.3043	-16.7797
-75.9989	-15.4911	-16.301
-78.4603	-24.7819	-27.5451
-78.3258	-23.3245	-29.618
-78.8791	-24.9418	-25.3403
-79.2793	-11.3302	-27.9892
-77.9778	-15.0662	-26.5428
-80.46	-10.2229	-27.2677
-80.7288	-7.60746	-29.363
-77.666	-16.96	-25.6966
-78.4764	-16.9823	-25.1507
-89.1604	2.84764	-49.558
-89.3645	1.32355	-50.9162
-89.0724	2.5317	-48.8712
-89.2687	3.53516	-50.0366
-89.4215	-2.45644	-50.6534
-89.5384	-3.23816	-48.9081
-89.3304	-0.294876	-49.2651
-89.2849	-1.30653	-51.8456
-89.4023	-4.2843	-51.0633
-86.3946	7.74205	-38.4847
-85.536	7.22553	-37.2414
-87.0857	7.35098	-41.1497
-87.9518	6.55328	-44.3789
-87.27	5.6314	-43.4898
-88.8728	7.54831	-45.455
-89.0134	5.41127	-48.2744
-86.966	4.52135	-42.1536
-88.3265	3.15726	-46.0474
-85.7269	5.80618	-38.5285
-39.779	47.1959	43.8014
-39.7027	46.8213	43.6009
-36.8884	48.1555	43.9356
-39.9484	47.597	44.0651
-42.3245	45.7841	43.3793
-22.8666	-75.7096	69.4206
-25.4669	-74.7175	69.3009
-21.3278	-76.8818	64.9612
-47.0851	39.6587	40.953
-47.3635	40.1716	41.056
-48.075	37.7996	40.4865
-46.8183	39.421	40.959
-45.8946	41.9675	41.5055
-50.6541	40.9514	39.5575
-49.5695	43.8008	40.3464
-52.7016	41.7264	38.0797
-50.7113	38.3335	39.1383
-48.6102	40.5901	40.7647
-66.2397	-46.6796	-8.27918
-65.4452	-48.9039	-8.23857
-66.509	-44.8348	-7.24368
-67.4044	-45.9032	-13.112
-17.7678	35.5179	43.5763
-18.0908	34.7533	43.7438
-17.1866	35.4436	43.829
-18.0386	36.4932	43.4514
-19.9276	37.4913	42.5491
-19.7534	37.5071	43.4567
-19.6961	37.5249	41.1332
-15.802	38.3968	43.4663
-17.3379	40.3885	42.9493
-16.6272	38.2828	43.1171
-15.1663	36.6955	44.1916
-14.8585	38.645	43.9086
-7.67639	41.2052	48.8649
-7.61469	43.3054	47.9131
-7.34586	41.4438	49.2774
-17.4007	-29.281	81.9188
-14.9935	-27.7104	83.7344
-17.9183	-28.4119	81.912
-17.6997	-30.5876	81.154
-58.5774	-68.7126	-10.2569
-59.7629	-66.6012	-11.0252
-58.1871	-71.5329	-11.8386
-57.1439	-67.6119	-5.02946
-75.9389	-2.16863	-15.9736
-74.9817	-8.86604	-11.3026
-75.6826	-0.0777981	-11.7547
-76.7457	4.83124	-21.5891
-76.3395	-3.62246	-18.5603
-60.6314	-73.7954	-22.9578
-59.7882	-75.1141	-18.0772
-61.2755	-69.8521	-23.8526
-60.3583	-76.15	-24.5045
-61.4015	-109.227	-27.7525
-62.1232	-117.85	-29.3555
-61.5622	-111.478	-21.5521
-60.4694	-100.149	-27.4207
-59.6996	-106.151	-35.3995
-21.8281	-33.0976	78.5632
-20.5768	-32.9654	80.0225
-21.8822	-32.8979	78.4108
-21.9594	-33.3073	78.5375
-22.9367	-33.442	78.1063
-23.9775	-32.8165	77.4228
-23.166	-33.9127	78.1862
-22.3171	-33.6018	78.4104
-23.2848	-32.9187	77.5915
-18.6034	-33.7364	83.2341
-16.5757	-34.2675	86.0078
-18.6513	-33.2488	82.7853
-27.801	-73.9674	69.4291
-28.609	-72.4518	72.8994
-31.7888	-74.3341	63.4723
-46.2589	-67.4054	-67.5267
-45.483	-70.5216	-66.9052
-48.7881	-65.9964	-64.0703
-45.5352	-64.3272	-72.3345
-55.9719	91.8928	-9.50725
-56.7218	88.4402	-5.33424
-52.3021	95.8054	-8.25448
-57.6067	92.158	-16.6772
-85.9917	-23.5973	-45.2059
-87.4091	-19.1519	-49.5341
-85.3622	-24.0063	-46.602
-84.7044	-27.2309	-41.4411
-86.4236	-22.4725	-44.3318
-81.2181	1.68008	-26.2015
-80.2646	-2.51023	-24.0299
-79.8128	1.87078	-25.8292
-82.0014	5.88639	-28.6232
-82.3565	1.49179	-26.5792
-77.7639	-19.808	-20.1268
-77.194	-20.2893	-18.8917
-77.8256	-18.0862	-20.2991
-78.2572	-20.3412	-21.6568
-78.1725	-22.6322	-20.5244
-76.9256	-26.3671	-18.6733
-76.7093	-23.291	-18.2761
-77.8934	-26.332	-20.023
-88.4615	-13.9164	-53.6049
-88.9232	-13.6573	-52.5602
-89.2684	-8.00628	-56.5087
-87.6344	-14.1481	-54.6217
-86.5275	-14.2943	-55.6427
-85.6215	-19.3782	-51.9575
-87.0638	-8.37643	-58.5037
-85.0758	-14.153	-56.2954
-77.9361	4.64145	-28.7438
-78.4825	3.87569	-26.7921
-77.4299	6.19009	-28.3843
-78.9522	6.2458	-31.0936
-82.0776	-22.4336	-49.9201
-80.3828	-21.6571	-50.2872
-80.8989	-25.8691	-46.8395
-83.2529	-23.1732	-49.3298
-82.8436	-18.4383	-52.9362
-84.5793	-27.51	-36.1661
-85.1687	-24.8819	-39.4026
-84.4046	-28.798	-37.1295
-84.2749	-29.1293	-33.486
-82.0722	-36.4441	-31.8095
-83.3211	-33.1687	-31.1077
-83.0447	-33.5403	-35.4033
-80.6548	-38.4972	-32.6999
-81.3477	-37.8691	-28.3379
-82.3315	-33.0482	-25.5038
-81.7758	-31.9903	-24.3786
-83.125	-32.1575	-27.5017
-81.6894	-35.0095	-25.3356
-70.0685	-42.5218	-19.1541
-69.9874	-40.8674	-15.1934
-71.1532	-41.7103	-21.059
-69.4372	-43.4978	-19.3561
-76.1429	-39.9281	-19.9213
-76.36	-41.7806	-22.3122
-74.2201	-40.7043	-20.5724
-75.9314	-37.2123	-18.1263
-78.2429	-38.418	-20.0215
-85.1912	7.61832	-30.6109
-85.4818	7.42716	-31.1486
-83.9423	4.30447	-28.6555
-85.2399	9.25146	-30.9248
-85.1607	10.3921	-31.2814
-84.4353	10.4233	-31.33
-86.6011	13.3674	-34.0954
-89.7028	1.20587	-54.0308
-89.8087	2.95965	-52.8793
-89.8257	0.389968	-54.8327
-89.462	0.206246	-53.4051
-85.623	8.15933	-33.3535
-86.0759	9.56658	-34.766
-85.104	6.51529	-33.1934
-85.7025	7.97158	-32.7559
-85.545	7.25254	-31.6538
-86.8525	11.1877	-34.1038
-84.7127	4.05149	-30.7189
-88.0129	-13.2074	-45.8778
-86.4658	-16.4959	-44.0152
-89.1152	-10.3976	-46.8487
-85.2541	6.69403	-36.6896
-85.0323	6.1125	-35.2591
-84.5637	4.5683	-34.3435
-84.4756	4.55321	-33.795
-81.0391	-9.19696	-26.2756
-82.1888	-4.73763	-27.4584
-79.8115	-13.9915	-25.1399
-80.9482	-8.92306	-25.0303
-83.8493	0.300368	-32.9503
-84.1728	2.18731	-32.8055
-84.0677	-0.371963	-34.6197
-50.27	-63.7714	-62.4764
-51.3665	-63.599	-59.7146
-50.7482	-59.6203	-65.8437
-26.6886	-2.86473	66.4134
-24.6023	-2.74297	66.9169
-27.2012	-1.43862	65.8785
-28.0018	-5.41425	67.079
-21.5337	-0.720103	68.7924
-20.8349	-0.909399	70.3498
-21.8097	1.97152	68.2148
-22.0319	-1.78867	68.2689
-51.1294	57.1494	35.3491
-51.4711	55.1173	36.5503
-45.4289	62.2922	37.4388
-51.221	59.2678	33.8163
-56.0684	52.108	32.6214
-8.33628	-2.50956	81.544
-8.6976	-1.92816	82.0915
-8.96641	-3.16849	80.5647
-7.14823	-2.51273	82.1872
-9.09334	-1.12451	82.9736
-10.169	-0.893819	82.6963
-8.06037	-0.508501	84.4827
-47.0179	36.6892	40.4775
-46.4866	36.8128	40.4878
-46.8102	37.399	40.708
-47.7027	36.1415	40.2663
-18.9863	34.5665	42.6917
-19.187	34.4448	41.8505
-19.5758	34.2583	42.7386
-18.8453	34.5808	43.3885
-17.5665	6.90735	78.3657
-16.5042	7.90252	79.7215
-17.8302	6.83612	77.3821
-17.8036	5.88308	78.5935
-64.9225	83.9002	-26.7453
-66.9752	82.3661	-36.205
-65.6161	80.4043	-20.8538
-62.505	87.6818	-26.8498
-24.9745	-39.4618	74.1247
-23.7887	-38.8171	75.635
-25.8395	-42.2662	73.0446
-25.4642	-37.7545	72.8421
-24.999	-28.4541	70.4091
-25.4592	-30.609	70.497
-25.9851	-25.6036	67.3229
-23.4225	-28.3791	72.246
-11.6017	-0.723747	82.0423
-12.3231	0.294691	82.5602
-12.7364	-1.66435	80.1803
6.03418	-0.801422	82.9251
4.98263	-0.166434	84.2937
5.86805	-1.57887	82.1878
5.63494	-2.13292	81.7482
4.48076	-2.18507	82.2954
-9.43869	-3.91112	79.5918
-10.669	-4.13328	78.878
-9.02643	-4.67996	79.4225
76.4154	-39.609	-34.5369
74.8713	-39.3487	-33.5995
77.2655	-36.6348	-37.8312
77.659	-40.4482	-34.1858
75.0039	-42.4351	-30.349
64.6585	-43.9317	6.59455
63.6656	-43.35	14.5567
63.6039	-48.898	6.31089
65.9439	-43.6323	-0.583566
65.681	-38.6672	6.66915
56.5281	-115.089	-8.31376
54.5759	-103.681	-7.79644
53.569	-115.905	-4.25839
58.4744	-126.113	-9.18405
58.972	-114.04	-12.5538
59.7847	-133.763	-10.2316
60.7208	-139.67	-11.4526
61.7373	-132.005	-14.8255
57.2107	-135.551	-5.70121
45.4433	-95.2858	0.888246
44.7412	-88.4981	1.69254
40.9875	-95.4648	4.65645
47.3714	-104.46	0.273536
49.8529	-95.4174	-3.30711
58.4771	-95.8779	-15.3722
59.3999	-103.16	-15.9229
60.0767	-95.3317	-20.5273
58.0529	-90.3613	-15.086
56.084	-95.7331	-11.3039
58.2189	-61.9184	18.7735
60.2634	-57.5546	20.1969
58.1528	-62.3378	26.1785
55.523	-65.9313	16.759
58.294	-61.8665	11.5649
71.8965	39.5274	-3.17595
73.1887	46.2716	-9.8019
67.7302	45.195	6.22377
71.148	32.8312	1.96664
75.3976	34.9567	-14.1041
78.0673	36.6439	-58.7109
77.2156	31.2836	-67.5506
76.69	42.5884	-65.9151
78.6142	40.9633	-48.5462
78.8256	30.3066	-51.7148
9.19272	-101.879	37.1345
7.09465	-101.965	38.2265
9.56295	-114.228	35.3755
11.6225	-101.43	35.4557
10.0101	-91.9777	39.9953
10.1562	-128.498	32.0941
10.7443	-140.949	28.9955
13.5483	-127.509	30.4979
7.05023	-128.672	33.3061
3.80641	-150.181	28.9404
7.45903	-149.79	28.225
3.81473	-141.608	30.8441
0.223123	-150.191	29.2653
3.95827	-156.078	27.6155
64.092	-57.7804	-36.112
66.3864	-51.862	-34.8539
63.7334	-63.1129	-30.1439
61.8381	-63.6376	-37.5961
64.6721	-50.9529	-41.399
65.3915	-45.9723	-45.447
62.0842	-51.7898	-47.5386
66.4695	-41.7389	-49.0485
68.3663	-41.2464	-43.5649
62.8197	-124.973	-31.2679
63.1551	-131.874	-32.5984
61.0718	-122.129	-38.0555
63.521	-128.134	-24.7565
4.08551	-129.041	34.1298
4.44333	-114.861	37.4459
1.16907	-129.052	34.54
63.5085	-42.4729	21.7727
64.3638	-36.3583	21.2463
63.1068	-40.9665	28.2579
62.7998	-48.0049	21.556
59.3765	-61.6245	4.05358
57.5868	-65.3416	2.63821
60.3652	-62.134	-3.7168
61.0558	-57.6496	5.02845
12.2167	-66.4639	90.6148
8.02353	-66.413	92.0279
12.1897	-70.7412	89.0364
16.5953	-66.0602	88.8631
11.8431	-61.3691	91.7056
21.2143	-65.0443	86.389
21.1845	-69.1004	85.137
26.4256	-64.3789	82.4002
20.9795	-60.5797	86.7583
3.93665	-56.7104	93.7137
7.47997	-56.6096	92.915
3.71236	-52.1637	92.8222
0.475609	-56.6671	94.1231
4.10671	-61.5379	93.8814
11.8345	-74.1159	86.3938
11.3593	-75.9207	82.2236
16.1031	-73.5674	85.0684
7.85931	-73.7913	87.464
11.5141	-76.8289	77.0238
7.4432	-77.0129	77.9461
11.5244	-78.2563	70.7561
14.0343	23.1985	57.9208
14.6355	19.2548	61.5192
16.6756	20.9836	57.5457
13.4705	26.6351	54.5188
11.4746	25.9029	58.3031
51.1005	-1.83605	56.7676
57.4242	-3.96236	51.061
51.0021	3.57512	55.6363
43.8852	-0.365754	61.3868
50.7604	-7.26557	57.7346
63.6409	5.33757	44.1333
67.122	3.1055	38.146
62.5613	11.0945	44.0117
57.8929	7.94751	49.6943
63.3084	-0.502054	44.5543
69.5496	16.0404	23.1296
71.5036	13.0809	18.761
68.1559	22.9244	20.291
67.1026	19.2003	26.5204
50.1967	-13.0028	58.5547
49.3876	-18.9549	59.4404
55.1833	-15.5133	52.6997
44.3148	-11.0246	63.6428
-0.251243	29.0534	73.7986
-0.127871	33.7365	67.0802
-2.32193	29.4512	73.8227
-0.33325	24.9292	79.0649
1.95266	27.9991	73.2577
30.8225	87.7899	23.379
25.3389	88.9931	24.4046
29.4476	82.2289	28.143
36.7495	85.7763	21.9231
32.2476	92.8767	18.3012
4.12147	-79.9528	64.8898
4.51418	-82.423	56.8275
7.30613	-80.0769	64.1495
4.01972	-78.1863	72.4864
1.04137	-79.8193	65.226
61.8714	-38.8467	34.6328
59.7585	-36.1419	41.1773
60.9848	-45.9174	35.4578
62.7306	-32.1878	33.9108
4.0998	-73.4903	88.0686
4.29151	-70.7241	90.9768
