1892
21.1884	-110.061	38.8864
26.7667	-117.731	30.9022
28.6129	-100.39	38.3158
35.2573	-81.3125	51.7268
33.0314	-87.0464	47.6617
37.1928	-76.7094	54.9598
30.8384	-93.3416	43.0588
24.4733	-95.0924	47.9214
27.5882	-128.519	26.442
22.5321	-130.19	29.9188
34.0877	-35.7899	56.0118
32.0337	-31.8774	55.1826
38.5455	-73.0351	57.4033
30.6637	-30.2004	54.7876
30.3268	-32.5946	56.6866
29.9439	-29.6549	54.4005
29.3145	-29.2212	54.2389
28.8242	-28.5636	53.998
28.8431	-31.0943	55.9925
29.9938	-50.9205	69.7494
29.8286	-56.5889	73.0158
30.2815	-61.6673	74.1777
26.4654	-29.9819	58.816
24.1508	-31.2281	63.5196
24.9748	-28.9579	58.1512
26.1959	-27.9172	55.0103
24.4821	-29.3333	57.3667
22.6538	-30.0442	62.3386
24.6419	-30.4564	55.6459
24.8229	-32.2916	55.0364
21.9893	-31.616	60.0168
25.2755	-35.602	56.091
25.9868	-39.491	57.817
22.6199	-36.6101	60.6342
15.4078	-111.295	42.3633
16.0135	-102.967	46.3805
16.1472	-120.916	38.3682
20.3835	-148.54	24.4633
19.1516	-141.53	27.6508
15.5248	-149.372	26.3417
21.2228	-154.048	22.543
17.5437	-131.61	32.8915
6.8543	-97.5776	55.8035
11.3858	-97.3324	54.2885
9.28979	-92.0771	62.2729
11.2282	-149.994	27.7265
11.9131	-155.423	25.8965
11.1966	-86.8475	68.8582
18.743	-31.0639	66.8875
18.5619	-31.7543	65.5222
18.3666	-33.145	64.2646
18.7825	-35.03	63.3383
19.3784	-37.6579	64.115
18.8893	-40.8207	66.7173
76.5015	53.9033	-17.5845
79.5435	49.3949	-27.5322
76.8528	60.0098	-24.354
72.2192	58.7523	-7.50733
82.4548	25.0008	-46.3671
75.7908	-26.582	-62.1513
73.1231	-29.3145	-66.1378
52.3498	-98.2351	-54.4406
52.9729	-89.0192	-53.4226
55.1755	-100.448	-48.941
52.1925	-107.17	-55.913
49.5072	-96.7876	-59.4823
52.2637	-114.984	-57.5957
52.5172	-122.62	-59.4468
49.1182	-113.596	-62.3115
59.7146	-85.2391	-41.4019
59.038	-94.3901	-41.563
56.6798	-82.0018	-47.7953
61.2471	-76.9402	-40.8772
24.017	118.819	-24.6297
31.161	115.833	-24.1684
23.922	120.171	-41.2181
16.4459	120.9	-24.891
23.0156	82.5027	-122.84
23.7568	95.3162	-109.163
30.5991	81.0301	-120.384
22.2067	68.1531	-133.419
15.0774	83.3648	-124.559
21.616	53.6034	-139.546
28.9336	52.5649	-137.083
21.2156	38.8838	-142.571
14.1703	53.8169	-141.197
23.9293	105.548	-93.5478
31.5653	103.529	-91.259
15.9667	106.942	-95.0796
23.9581	113.111	-76.4428
7.93406	120.7	-60.42
-0.439391	120.934	-60.7358
8.02398	122.882	-42.3941
16.0785	119.718	-59.7518
7.84428	115.617	-78.5089
20.9322	25.2982	-143.542
27.6738	24.5351	-141.058
20.5903	11.8853	-142.787
14.0599	25.6375	-145.205
20.118	-1.58587	-140.626
26.6969	-1.92284	-138.113
19.6708	-14.2312	-137.069
13.4953	-1.1141	-142.434
17.51	-45.0439	-116.098
23.6112	-45.2592	-113.875
17.0703	-53.6759	-105.976
11.6879	-45.1327	-117.116
18.4803	-35.6877	-125.277
6.17216	-25.2852	-135.412
-0.570975	-25.3676	-135.846
6.28111	-13.882	-140.001
12.7313	-25.3429	-134.143
5.90732	-35.5891	-128.415
15.1719	-93.4938	-82.9791
15.4967	-85.7409	-83.9848
20.5346	-93.9228	-81.528
14.9288	-100.75	-82.9137
9.96373	-93.2282	-83.6301
4.82856	-107.198	-83.2309
9.80212	-107.541	-83.3645
4.95057	-114.581	-83.4233
0.0564329	-107.028	-83.181
4.90871	-99.9262	-83.1441
17.1461	-60.7557	-97.6513
22.6286	-61.1963	-96.2306
16.7283	-67.7502	-91.3861
11.3029	-60.2031	-98.3923
16.0012	-76.5738	-86.8468
21.6811	-77.2739	-84.9053
10.6072	-75.9349	-87.8018
5.25296	-75.4489	-87.5998
5.47114	-66.6231	-92.2205
5.01524	-84.9356	-84.5027
-0.127099	-75.4367	-87.1335
50.0913	102.91	-24.4175
55.9144	97.1712	-24.4894
51.0066	103.558	-39.0532
44.0784	107.794	-24.0653
48.6379	48.3633	-124.72
54.2878	46.4654	-119.689
48.1495	34.9743	-127.986
42.6154	49.9232	-129.32
49.1558	61.48	-118.586
49.4117	73.9215	-108.982
43.5294	76.6309	-113.141
50.0933	84.5014	-96.782
55.1944	70.5789	-104.359
51.0124	92.6653	-83.3738
57.0485	87.6057	-80.2922
44.9305	96.848	-86.1155
51.9801	98.1245	-69.049
51.6646	101.763	-54.102
45.3729	106.783	-55.1744
57.6863	96.0443	-52.8355
47.4613	22.1844	-129.365
46.7596	9.6061	-129.001
41.381	22.9947	-133.766
53.0494	21.1595	-124.557
45.9073	-2.6479	-127.316
51.5014	-2.94275	-122.704
45.0477	-14.4256	-123.978
39.9517	-2.51946	-131.271
43.7615	-25.0731	-119.17
42.4111	-35.2967	-112.25
38.1475	-25.5418	-122.728
48.8378	-24.7778	-114.781
41.3974	-44.7886	-103.207
46.3764	-43.7247	-99.463
40.5698	-53.159	-94.3588
35.8063	-45.074	-107.209
39.7739	-61.057	-86.7939
38.8581	-69.4274	-80.2807
34.3198	-61.5599	-90.3948
44.5973	-60.4519	-82.6186
36.5932	-94.4847	-73.646
35.9549	-102.468	-75.3412
31.3218	-94.5138	-76.9047
37.1979	-86.3159	-73.202
41.4114	-94.8341	-69.7238
25.0254	-108.601	-80.8541
24.8212	-115.354	-81.0822
19.8253	-108.133	-82.124
25.436	-101.66	-80.3653
30.3535	-109.204	-78.9291
37.9428	-78.0002	-75.5624
42.748	-77.5844	-71.1757
32.8884	-77.9805	-79.1877
38.2209	42.2724	42.7358
38.3279	43.5139	41.2739
69.5633	58.037	-87.1224
70.5815	64.7893	-76.8513
73.496	52.9352	-79.7983
68.8979	49.3541	-95.8875
65.2496	62.5216	-93.7319
71.8293	70.0519	-66.3596
75.634	63.7565	-59.474
67.4266	76.1547	-72.1339
72.5448	74.0248	-55.5229
71.5804	77.4784	-44.8911
74.403	71.4216	-38.4669
67.7453	83.6989	-48.7401
58.0095	20.1616	-119.609
58.7669	32.0908	-117.905
62.5414	18.8586	-114.306
57.2884	8.27997	-119.41
59.3402	44.4993	-114.491
59.9579	56.1875	-108.492
64.0461	42.0058	-108.692
53.4418	-24.1373	-109.418
55.3323	-14.006	-114.12
57.729	-23.5032	-103.567
51.6192	-33.6681	-103.096
56.4302	-3.30906	-117.547
60.9351	-3.33618	-112.145
50.5583	-42.2849	-95.3298
54.4431	-41.0433	-90.1766
49.9383	-50.8607	-86.2547
48.8154	-58.9993	-78.5462
52.4943	-56.6151	-74.88
47.3495	-77.1623	-65.554
51.3407	-78.4693	-59.0279
46.565	-86.4781	-64.1401
78.8059	24.9638	-74.5319
78.3061	17.4144	-80.1291
77.168	28.7054	-81.3058
60.9251	90.9074	-23.8401
62.029	91.6995	-37.8523
80.9124	45.481	-38.0719
80.3696	51.6523	-44.8883
68.6847	-20.8526	-88.3262
65.4534	-22.0375	-93.1746
70.4928	-12.8333	-92.3892
71.6061	-19.9267	-82.9959
66.5034	-28.683	-82.8676
71.3151	-4.26268	-95.7212
68.3306	-3.96638	-101.486
72.0446	4.48608	-96.9321
74.0636	-4.698	-89.3236
72.892	13.8774	-96.416
69.9391	15.7167	-102.812
73.8957	23.1683	-93.4771
75.4588	11.7535	-89.6664
60.0169	-48.8506	-65.5089
57.5038	-51.621	-68.4405
62.0562	-42.4801	-71.1068
62.7094	-46.1998	-62.4307
58.294	-55.7342	-60.2325
70.1467	-31.5789	-69.9322
67.9598	-37.4949	-64.8
67.2221	-33.6698	-73.2686
72.3206	-25.4816	-74.2716
54.2154	-79.9915	-53.2613
55.6526	-71.2529	-54.2787
77.9101	-34.2355	-15.9788
78.5194	-30.2241	-15.1755
76.3505	-36.5373	-13.1224
78.5781	-28.1771	-14.2925
82.0784	-3.59552	-22.6636
82.5424	0.823339	-25.9795
95.409	-1.79304	-58.7294
95.5371	4.53059	-58.098
96.1201	-2.01833	-57.7009
85.1275	-37.9396	-35.4482
83.9823	-40.2858	-31.2151
95.1461	10.1321	-55.9253
93.9306	10.4559	-56.8441
94.494	14.4206	-52.631
96.0887	9.48725	-54.9533
87.6921	10.7289	-33.9613
86.3629	10.5024	-34.8881
93.6512	17.1253	-48.6319
94.7464	16.3473	-47.6413
90.2676	-23.3311	-49.6527
87.2154	-36.4975	-27.4819
86.3769	-35.5706	-24.8665
85.6087	-39.3574	-27.2902
83.3662	3.07543	-27.9411
88.5861	16.5799	-43.6092
86.988	13.9179	-40.2704
87.5501	14.9385	-45.131
85.1212	10.0685	-36.4345
84.1606	9.67824	-38.3236
92.5879	10.4121	-57.4306
83.6823	9.1618	-39.4552
84.8446	10.4999	-42.4407
86.3515	11.4613	-46.3126
84.9529	8.28612	-46.4898
89.9151	-29.7225	-40.2713
90.1561	-29.3484	-32.5545
83.3675	-40.8536	-27.5152
85.2537	-33.9734	-23.1194
86.1276	-30.9318	-24.2572
87.2458	-28.7296	-25.7296
87.9775	-27.2763	-27.053
96.1932	-2.20439	-56.9044
96.6566	3.75435	-56.2955
93.0558	15.6597	-39.2494
93.392	14.6509	-38.9612
94.5383	16.4535	-42.8495
93.1526	13.8354	-38.9126
94.3651	14.7194	-42.266
92.5524	12.8097	-38.9767
96.4403	8.89205	-54.2043
95.9091	12.7859	-50.9851
96.3424	8.29035	-53.7244
95.373	15.45	-46.9046
95.4952	14.5398	-46.5418
95.0067	14.0058	-46.201
95.4101	11.697	-50.3156
95.8827	8.05765	-53.46
94.611	-6.05205	-54.9971
92.0341	11.4512	-39.2667
89.4895	4.99333	-35.24
94.4223	8.96033	-47.139
95.2426	-7.80883	-49.148
95.1491	-5.9009	-49.3693
94.941	-3.98408	-49.3312
94.6029	-2.35572	-48.888
94.1528	-0.900866	-48.0599
93.2142	0.500564	-45.9012
85.4621	-23.3302	-26.3815
86.7158	-25.2624	-27.3837
88.063	-0.840037	-30.8137
84.6762	-15.4017	-26.9029
87.8589	-26.6337	-27.925
31.8347	44.9613	46.104
36.1518	106.192	3.33357
37.2011	109.746	-9.41501
8.42727	114.402	4.2561
8.37958	119.025	-9.56856
-0.218064	114.865	4.03366
37.7186	112.213	-24.1718
38.1777	113.236	-39.9239
8.19214	122.078	-25.1833
-0.353251	122.426	-25.5523
23.8205	117.836	-58.7623
31.4162	114.998	-57.5651
38.493	111.311	-56.4799
38.7664	107.292	-72.854
67.4464	64.108	1.461
76.1995	65.7755	-31.7594
78.2897	61.5691	-41.7158
62.9276	90.1318	-51.4458
63.4182	86.7587	-64.3149
7.74401	107.742	-95.9168
7.5776	97.1327	-111.792
-0.545918	107.957	-96.2073
38.3555	100.755	-88.5824
37.9259	91.0953	-103.71
78.5478	57.6775	-52.1785
77.758	53.3002	-62.4477
62.3432	82.2424	-76.7954
61.1652	75.6071	-88.3883
76.7155	47.8727	-72.3357
75.6534	40.8979	-81.2635
74.7256	32.6825	-88.3837
71.716	36.0555	-95.4325
45.8509	-95.8395	-64.7275
45.2515	-104.249	-66.3418
45.1576	-112.003	-67.6203
45.2263	-119.435	-68.8662
40.5405	-110.612	-72.6511
7.17294	83.8925	-125.291
6.83263	68.8512	-135.812
-0.656846	83.7994	-125.65
6.74988	53.8348	-141.925
6.77161	39.3205	-144.906
-0.736402	53.7433	-142.08
6.82332	25.7926	-146.039
6.71989	12.6576	-145.5
-0.737105	25.8469	-146.26
6.47175	-0.758629	-143.458
-0.668379	-0.845398	-143.741
19.1715	-25.4486	-132.139
25.5528	-25.659	-129.438
5.52201	-45.1029	-117.851
5.50659	-53.5568	-106.547
-0.400753	-45.2356	-117.919
5.53386	-60.0278	-98.2739
-0.237184	-60.0529	-97.9921
4.97122	-92.7776	-83.2984
-0.0215726	-92.5439	-82.8758
35.9203	51.3387	-133.603
36.6649	65.4823	-127.402
35.277	37.211	-136.679
37.2242	78.9557	-117.232
34.6023	23.8344	-137.746
34	10.7439	-137.065
33.3699	-2.15351	-134.985
32.7859	-14.5884	-131.335
31.9758	-25.6749	-126.253
30.9709	-35.8233	-119.475
29.7816	-45.2215	-110.877
28.8388	-53.8429	-101.774
28.5066	-61.4859	-93.7168
28.1571	-69.182	-87.0595
27.3222	-77.6666	-82.3932
26.5654	-86.3479	-79.7247
26.0567	-94.1981	-79.4587
35.6552	-109.787	-76.2558
35.267	-116.736	-76.9108
60.3257	66.9924	-99.3891
68.135	39.5549	-102.203
67.3511	28.3196	-106.516
66.44	17.5877	-108.846
65.6429	6.75356	-108.904
64.804	-3.53528	-107.015
63.7182	-13.5062	-103.176
61.6928	-22.9471	-98.23
59.6141	-31.4994	-92.359
57.896	-39.3153	-85.9037
61.17	-37.7933	-81.2046
56.528	-47.0818	-78.3787
55.1594	-54.1356	-71.7225
57.1439	-63.3624	-56.0321
59.479	-61.3827	-53.1358
77.4609	10.1113	-83.5445
76.7439	2.44899	-84.3441
79.3255	8.06174	-76.7861
74.0672	-18.9237	-78.3535
75.4968	-11.969	-81.3501
64.1884	-35.8214	-77.1969
76.1866	-4.70982	-83.69
65.6364	-43.4647	-59.6244
63.7946	-49.759	-54.8224
17.8852	-96.1773	51.91
64.164	-64.4909	0.419502
54.6063	-83.2982	8.01018
17.508	-14.3138	72.3896
19.8105	-15.3603	70.4504
22.1102	-16.8452	67.2448
12.5924	-34.0899	77.0406
12.6718	-34.7909	77.3329
12.5849	-35.5292	77.6905
29.2031	-36.302	60.5932
28.6852	-35.1382	60.0023
28.1283	-34.0407	59.517
20.9209	-12.8179	67.9764
37.7019	-25.2135	52.7075
30.9745	-5.36891	55.9538
31.5637	-10.0956	54.6018
32.7308	-14.5417	53.3127
60.1703	-14.0286	42.7511
17.4411	41.6243	44.2821
81.0402	6.18409	-69.7284
82.6875	9.5786	-51.2447
82.984	7.67013	-48.4684
75.1072	-38.018	-9.50411
25.5297	35.9598	45.9979
51.415	57.3233	33.2412
47.5547	36.4932	35.6825
9.65496	2.50207	73.7638
45.4138	38.0915	37.983
13.6005	4.52675	70.7882
83.8275	7.10241	-47.1701
58.6902	-103.298	-42.5085
63.688	-68.6616	-40.1268
62.6445	-63.0869	-46.0737
62.3084	-57.8055	-50.5185
24.5685	1.60345	59.9118
28.7486	-25.6147	53.7987
20.0508	-31.8738	69.0529
27.0464	-27.3494	53.64
11.2929	-19.2221	70.1135
-74.0114	-38.1067	2.98101
-74.8584	-33.548	3.3696
-74.5887	-38.866	-3.57319
-72.9859	-42.2234	2.77501
-73.2713	-36.2558	10.7536
-59.5803	-116.206	-6.81893
-59.5797	-104.775	-5.95725
-61.765	-114.822	-11.3877
-59.8561	-126.82	-8.29481
-56.866	-117.452	-2.37916
-60.1723	-134.063	-9.86141
-57.6613	-135.924	-5.25253
-62.039	-132.224	-14.5387
-60.5551	-139.67	-11.4525
-53.4365	-98.0172	4.81076
-56.9183	-96.9932	-0.554933
-53.3153	-107.131	3.56644
-49.8676	-99.4214	9.71805
-54.1379	-90.5981	5.60925
-63.6132	-95.1957	-14.8684
-61.8016	-95.5056	-10.3411
-63.9248	-88.8349	-15.1442
-64.346	-95.2992	-19.587
-63.4111	-103.383	-14.9402
-67.8236	-55.3069	16.3263
-68.4281	-55.8747	9.22365
-65.9511	-59.868	15.0805
-66.2563	-54.9707	23.4001
-69.1819	-50.4686	17.4836
-73.6569	40.1837	-5.70107
-77.7031	35.6045	-16.9833
-72.798	33.8755	-1.42762
-69.3857	45.6245	4.01423
-75.221	46.521	-11.8418
-81.162	35.7177	-59.1658
-82.0748	29.8257	-52.6501
-81.206	40.2639	-49.3077
-79.4284	41.2303	-65.8589
-80.3893	30.1754	-67.7251
-10.9321	-113.333	44.7136
-11.7159	-104.611	48.0327
-14.1039	-112.831	42.9952
-10.8757	-123.285	41.5455
-8.14394	-113.469	45.8268
-10.8634	-134.113	36.0402
-10.9311	-143.397	30.7606
-7.43904	-134.347	37.3112
-14.6123	-133.198	34.502
-3.65561	-150.83	29.4137
-3.79269	-156.078	27.6155
-3.70438	-144.077	32.6458
-7.345	-150.436	28.6956
-69.3146	-56.4027	-36.8249
-69.7505	-49.6952	-42.2573
-66.5805	-62.5378	-38.0457
-69.2199	-61.5955	-30.7243
-71.9934	-50.2282	-35.8571
-70.3064	-44.854	-46.355
-73.5382	-39.9342	-44.6818
-71.2271	-40.7627	-49.96
-66.6721	-50.9107	-48.2017
-63.1651	-125.105	-31.0759
-63.7698	-128.252	-24.5776
-61.4818	-122.263	-37.8715
-62.9894	-131.874	-32.5984
-4.06145	-134.606	38.1397
-4.53443	-123.916	43.5893
-71.5833	-34.3088	18.5289
-70.6395	-39.3508	18.7443
-69.5239	-31.675	25.8088
-72.3131	-29.2759	18.1772
-68.8491	-56.2736	1.78202
-70.5299	-51.7316	2.23845
-69.1221	-57.4746	-5.87182
-66.9796	-60.5627	1.01565
-11.3648	-64.2877	89.0675
-10.9276	-59.4095	88.8879
-15.9879	-64.5639	86.6559
-11.3288	-69.1012	88.1903
-6.8366	-64.1518	90.6595
-20.5897	-64.5583	83.5282
-20.3059	-59.3336	82.8583
-25.3901	-63.9557	79.3736
-20.5648	-69.6553	82.9226
-2.61441	-54.9906	89.7674
-2.90709	-59.4234	91.1204
-2.11841	-51.0126	87.3397
-6.12542	-54.8731	88.8958
-11.1535	-73.217	86.2245
-7.02217	-72.6252	87.6586
-15.7686	-73.6535	84.0088
-11.2468	-76.8525	82.9505
-11.6586	-79.9017	78.8775
-11.9874	-82.9618	73.715
-7.16694	-79.9419	79.8483
-15.1921	27.0868	55.6258
-12.9667	28.2766	57.322
-14.8519	29.9443	52.6034
-17.6749	27.0417	53.9544
-15.7051	24.4028	58.1623
-48.2129	10.4881	54.5213
-48.6345	3.22197	54.8705
-41.5845	11.933	57.0948
-47.4344	16.6308	53.6037
-54.1916	7.67262	50.7877
-58.5285	15.4265	44.2221
-59.4523	10.7972	44.93
-52.7495	18.4004	49.1387
-56.6221	19.7063	43.8405
-63.2803	12.211	38.1364
-68.183	20.2137	20.7156
-64.8155	23.1247	24.7472
-67.9531	25.912	17.7773
-70.9988	17.316	15.64
-49.4059	-3.05334	53.5621
-44.8213	-2.07799	55.634
-55.2064	-5.33228	49.4992
-51.0526	-9.1085	50.9779
-0.94645	32.4343	73.4121
-3.11453	31.7353	72.6737
-0.701545	29.2842	77.9478
-1.44091	36.0801	68.4056
-31.1943	87.0865	30.965
-33.2565	92.6349	25.6844
-36.9425	84.9683	28.3339
-29.0751	80.4006	36.3604
-25.8097	88.5017	32.9563
-3.86154	-87.4336	69.7815
-3.36259	-83.2556	75.6359
-7.58754	-87.3197	68.9964
-4.4586	-92.1311	63.1706
-66.8351	-27.6916	32.6341
-67.698	-22.4236	31.9846
-65.6501	-34.8099	33.0509
-63.8833	-24.1093	38.0022
-3.30874	-72.2153	88.3544
-3.30738	-76.3121	84.7971
-3.08409	-68.1682	90.4903
-3.28288	-79.8458	80.4107
-40.9407	-67.836	59.5194
-41.1051	-62.9239	60.8175
-46.1415	-65.6926	53.5258
-40.1563	-71.5885	57.7954
-35.7389	-69.3003	65.5317
-45.6739	-80.0067	37.7616
-40.6127	-81.7215	43.5967
-48.3338	-75.0046	40.7669
-50.5525	-77.7438	31.5635
-43.2779	-85.6788	34.2072
-6.00359	-97.8093	56.1944
-6.46	-104.79	49.8535
-8.98369	-97.8226	55.0851
-6.05087	24.4026	78.5674
-3.54984	25.6841	81.0659
-5.86756	27.0748	74.9545
-8.58026	22.7737	74.9589
-6.40033	22.2127	81.19
-26.4834	12.368	58.686
-22.6889	13.7798	58.8897
-23.5487	18.4433	58.1829
-29.9984	12.2047	58.6384
-29.649	-25.9492	54.757
-30.8294	-26.7362	54.6695
-29.3787	-26.8708	55.1922
-29.2264	-25.7537	54.8221
-13.4742	8.01579	71.81
-15.9565	7.13848	69.6497
-12.6152	7.15122	71.4004
-15.3121	9.06197	71.681
-12.3637	3.42323	70.1473
-9.81092	4.50882	71.8928
-12.253	4.7253	69.9852
-15.3727	2.2953	68.0524
-12.9026	2.09753	70.6249
-0.802681	5.35204	80.9991
-2.5528	5.82393	79.8231
-0.891022	4.28399	79.7883
-0.8041	6.36617	82.5296
-18.1334	2.4006	65.8533
-18.6427	0.770873	66.1184
-17.8997	3.98925	65.868
-20.6718	3.11898	63.1229
-6.86778	14.7887	86.2529
-7.07882	16.5455	86.1661
-9.47343	14.7142	82.5379
-6.5657	12.7312	85.4539
-4.62566	14.8878	88.7984
-27.7559	-44.2179	66.0544
-27.8444	-48.5418	69.0374
-23.0689	-45.4233	71.9263
-27.7073	-39.828	63.4697
-31.6722	-42.1542	60.9459
-29.9317	-15.79	54.3004
-32.0811	-18.5732	52.1702
-28.0375	-15.0472	57.7358
-29.8815	-11.2455	54.2982
-1.35043	0.472413	78.8855
-1.15299	1.90286	78.7213
-3.51836	1.05511	78.1611
-1.665	-0.983957	79.1688
-5.60269	30.0545	71.2253
-6.11545	32.9014	66.9067
-8.65467	27.5792	68.7454
-19.8749	14.758	63.7849
-19.9674	14.4279	62.1905
-20.8	12.801	63.8539
-19.6222	15.5712	66.1023
-18.24	16.4981	65.0201
-4.3457	4.0096	76.8082
-2.76413	3.53649	78.0754
-4.16574	5.21232	77.2942
-5.99817	4.36281	75.254
-4.70351	2.71978	76.769
-4.15478	6.30275	78.2622
-4.19	7.20746	79.6867
-18.2644	16.7707	68.6696
-19.7204	14.9758	68.0637
-17.0667	17.6628	68.3366
-20.8137	9.89494	64.0594
-19.9623	7.47303	64.8256
-20.6982	11.5773	65.8441
-2.50401	-7.46651	79.5346
-1.99157	-4.71709	79.385
-5.47529	-6.51464	79.4817
-2.51721	-9.93982	79.6206
-25.2009	-0.560854	57.6337
-24.3006	1.76684	58.5128
-28.2958	-0.62129	54.7937
-26.3834	-3.56324	57.2056
-22.1702	-0.606047	62.614
-10.2163	-43.9494	79.3011
-14.8876	-42.729	76.2245
-10.088	-45.5967	80.5136
-6.10235	-44.6759	81.2111
-10.6024	-42.2107	78.2437
-26.2818	-19.0222	59.3243
-26.193	-17.3919	59.8961
-28.0917	-22.0907	56.3369
-26.1867	-19.4127	59.1522
-16.0593	18.1962	67.1709
-13.8358	19.3076	70.1077
-15.8355	18.6002	65.1724
-19.5861	-41.1024	72.1349
-19.5827	-39.4115	71.4113
-23.999	-39.1596	67.1888
-19.1639	-43.3542	73.6815
-2.26481	-44.839	81.9204
-2.21025	-42.953	81.091
-2.14619	-46.6382	83.0613
-59.5245	44.8475	26.3898
-60.5157	45.6504	24.1905
-61.4608	39.3082	23.3381
-58.2869	44.5504	28.7586
-39.1037	69.8161	37.0152
-41.1338	76.3113	30.3564
-46.2179	67.6514	32.0501
-38.6137	64.6095	41.3884
-32.913	71.48	40.381
-52.4089	63.9981	26.8983
-53.9973	68.541	20.6573
-58.5645	58.477	20.1731
-51.5713	60.0375	31.5007
-38.6703	58.4541	43.8442
-38.6861	60.1188	43.5299
-38.5721	56.6168	44.1128
-32.5097	58.1237	47.2584
-61.988	46.1232	20.9978
-65.4865	39.0747	16.5664
-56.4943	53.0952	28.1996
-63.2375	47.9212	17.4728
-21.0061	47.2182	50.01
-17.5258	45.8734	50.4974
-20.1021	48.2583	50.858
-24.954	48.677	48.9444
-22.019	46.2304	48.8556
-6.36746	40.7843	56.777
-6.50384	38.3782	59.2401
-4.18011	43.1212	58.0264
-6.13387	43.0891	55.5117
-8.33937	38.3725	55.1561
-29.4421	28.2761	53.7791
-24.0957	28.4188	53.25
-28.3469	31.3747	51.6789
-35.9032	27.8598	53.1482
-30.6766	24.8205	55.5654
-56.4186	30.4747	32.1806
-54.124	30.0497	36.9864
-53.6868	31.8619	33.0092
-57.1724	32.288	28.755
-58.6357	28.605	31.2702
-6.41569	35.751	62.7097
-3.89428	38.1181	63.461
-8.80278	32.9306	61.4563
-38.7481	54.8175	44.3404
-38.6699	53.0222	44.6048
-33.3004	54.2127	46.7665
-43.9686	54.6479	41.5551
-49.0564	53.0073	38.4333
-53.7572	48.7373	34.8849
-48.4873	51.2234	39.4262
-53.1573	36.1657	30.989
-55.2168	35.854	29.4111
-52.4513	33.8597	31.654
-51.1294	36.0827	32.5932
-53.8217	38.8408	31.6227
-41.9461	39.986	41.0074
-40.3252	41.1068	42.6341
-42.2913	40.5257	41.1774
-43.323	39.0444	39.2105
-41.5392	39.8028	40.6267
-38.3925	42.0924	43.8275
-35.9781	42.784	44.6139
-38.5374	42.6066	43.8782
-38.2051	41.8622	43.4009
-38.6573	43.0617	43.864
-40.8346	42.0598	42.7925
-35.9715	43.7445	44.4533
-32.8828	43.1752	45.0485
-32.7263	43.6266	44.923
-32.9727	42.9664	44.7145
-29.6855	43.1798	44.9695
-32.5187	44.07	44.7317
-32.3845	44.3931	44.7151
-29.1417	43.8677	44.6359
-26.9844	42.4728	44.8312
-26.6473	42.7426	44.6232
-27.449	42.4286	44.5358
-24.6928	41.3814	44.3671
-22.751	40.145	43.4824
-21.3622	39.0388	42.6057
-22.116	40.4382	43.3087
-21.5307	40.6566	43.1183
-23.5486	41.8242	43.8037
-20.1026	39.5714	42.1796
-20.8646	40.8387	42.9803
-20.4201	38.0143	41.7884
-19.7932	38.2551	41.5679
-20.2502	41.1107	43.1436
-22.3622	42.2654	43.9
-19.7483	41.4832	43.5626
-32.1735	44.5699	45.0683
-28.5791	44.3805	44.913
-32.0438	44.6569	45.5744
-46.7446	35.659	35.5536
-46.8322	35.8608	35.4363
-47.4461	34.7099	35.2769
-45.8972	35.6562	36.9189
-44.7648	36.4402	35.8088
-44.1839	36.0618	36.6535
-45.3331	36.2325	35.1495
-44.5076	36.9628	36.0768
-29.22	50.0005	47.9014
-30.0392	48.4252	47.5492
-28.6922	51.4348	48.2333
-33.8965	50.9051	46.6308
-45.6224	44.9841	41.6823
-44.6529	42.2578	42.0999
-42.5621	46.3359	43.556
-46.8932	47.4629	40.8689
-36.0156	34.0146	45.0885
-30.0119	34.6652	45.6931
-35.8095	34.8753	45.0533
-41.2391	33.836	43.5052
-36.3281	33.2374	45.4367
-25.355	35.3664	45.0823
-25.3132	36.1888	44.9923
-25.5752	34.4251	45.6615
-21.8348	35.5896	44.1095
-18.1034	35.5231	43.332
-18.9706	35.5171	42.5338
-18.8427	35.4225	43.5848
-16.7539	35.7544	44.3464
-17.5706	35.878	42.8124
-35.6268	35.4264	45.1407
-29.9993	36.0326	45.6771
-35.4332	35.827	45.1527
-40.4317	35.5127	43.5186
-20.5392	36.4295	42.6234
-20.2576	36.178	43.157
-20.025	35.9713	42.138
-20.6231	36.4515	42.3737
-22.0526	36.7479	43.4804
-19.4279	35.5549	41.9168
-18.8701	35.4759	41.8039
-19.5823	35.5888	41.5871
-14.1008	41.0011	45.3635
-12.4663	42.1079	47.6812
-15.3382	41.8398	46.0405
-15.5819	40.2219	43.5487
-17.2993	36.5475	42.2615
-17.9256	36.2195	41.8827
-16.3541	37.277	42.7634
-25.2953	43.4644	44.5415
-24.8684	43.7084	45.0178
-25.7544	43.2386	44.2408
-16.5151	39.7061	42.6885
-17.6899	40.9089	43.0776
-15.7481	38.635	42.7707
-35.3954	36.2161	44.8952
-35.2472	35.8828	44.2024
-29.9765	36.7891	45.4473
-20.816	36.5515	42.1404
-22.2607	37.0611	42.938
-20.3013	35.997	41.5687
-21.0809	36.3097	41.4708
-35.1287	34.1774	42.7281
-35.2585	31.8939	40.8476
-39.4305	34.7282	41.4986
-42.3714	35.4181	39.3359
-43.1289	34.4249	37.3872
-21.3686	35.3378	40.1466
-21.3116	34.0845	38.7074
-19.7981	35.6492	41.3167
-44.4403	37.9427	37.6108
-44.8515	38.1795	37.6837
-43.8232	37.8774	37.473
-4.12776	53.5767	55.6663
-4.39523	55.4284	55.5511
-7.22252	51.8795	55.4325
-3.70338	51.9078	55.9226
-19.1331	31.8222	48.9318
-22.6542	32.2579	49.1544
-19.5755	30.3236	50.7948
-16.884	31.6557	49.421
-19.371	32.7359	47.3077
-14.7526	32.2811	50.3056
-12.8034	33.5751	51.6352
-15.161	36.2691	45.9989
-15.1671	37.2804	44.5069
-13.3137	37.204	47.4876
-9.44805	42.3921	49.8966
-8.78066	43.9698	51.6381
-10.2941	42.9047	49.3138
-19.6873	35.3918	43.7477
-19.6773	34.6573	44.419
-19.648	33.7222	45.6445
-22.1446	33.716	45.9397
-20.0064	-18.1549	62.9738
-16.37	-17.5687	66.6599
-23.4873	-19.5265	59.0216
-19.8993	-18.6419	61.6911
-25.6278	-21.9983	56.4017
-25.2853	-22.2253	55.4426
-2.69116	-12.4257	79.1891
-2.55654	-13.3014	78.882
-2.7214	-11.7775	79.3336
-6.27597	-11.7691	79.2369
-9.42114	-13.8206	77.2575
-12.2303	-13.6223	75.6029
-9.13096	-15.1259	76.1019
-6.0809	-13.9099	78.1769
-9.28177	-12.5263	78.2321
-14.8146	-13.53	73.6418
-17.6539	-14.3374	70.5617
-15.0256	-14.7475	72.3681
-14.6911	-12.5626	74.4014
-9.17123	-11.6684	78.5983
-9.00611	-11.0164	78.8063
-11.7737	-11.5795	77.1372
-14.0005	-10.7858	74.5753
-14.1608	-11.2182	74.6494
-11.1839	-10.5862	77.3535
-13.7183	-9.51176	74.6324
-21.104	-15.8809	65.5134
-20.3701	-15.0249	66.8994
-8.39914	-16.3011	74.9475
-11.807	-16.0721	73.0805
-7.97078	-17.1195	73.8009
-5.16098	-16.3062	76.3628
-14.5725	-15.6503	71.5027
-14.1219	-16.7216	70.2689
-28.5951	-24.216	55.1078
-27.8843	-22.5456	56.2207
-28.7036	-24.1144	55.1111
-28.7633	-25.2099	54.9129
-21.6448	-27.1365	61.474
-23.5721	-27.2266	60.5534
-19.101	-28.0669	65.485
-21.0515	-27.2787	61.0786
-25.1783	-28.1616	60.426
-22.5145	-29.4263	65.071
-24.8559	-27.7244	60.3886
-19.5187	-30.7232	69.6629
-19.7472	-31.5387	69.7316
-16.2776	-32.0048	73.0913
-19.3049	-29.9413	69.4188
-10.893	-31.4163	75.2804
-5.69983	-32.0226	77.2126
-10.7073	-30.9722	74.9515
-15.7018	-30.4272	72.5453
-11.1556	-32.08	75.5201
-1.61016	-33.6392	79.3878
-1.59519	-32.9985	78.8982
-5.83995	-33.2364	77.9014
-1.70729	-34.3122	79.8342
-26.2942	-29.4452	51.655
-25.7252	-27.0199	52.9957
-25.5933	-29.3297	52.98
-27.1364	-31.8345	50.5351
-1.7097	-34.3807	73.7897
-2.26373	-33.2045	73.8741
-1.26883	-36.2419	74.0349
-5.14113	-34.4893	72.7629
-1.88971	-35.1759	80.3313
-6.06446	-34.8325	78.9211
-1.96138	-36.224	80.6345
-2.24064	-40.8997	80.5435
-2.2146	-39.1469	80.2997
-6.54621	-40.7075	79.3478
-8.75992	-10.4536	79.0819
-6.11528	-10.5779	79.7468
-8.38862	-9.22893	79.116
-1.54596	-32.3916	78.3521
-1.69231	-31.9765	77.763
-1.76081	-31.8419	77.0483
-2.16592	-31.9326	75.9968
-5.7936	-31.5688	76.2625
-10.4222	-30.9284	74.4629
-9.70729	-31.1121	73.7351
-14.3475	-30.0027	71.8145
-2.56003	-32.4187	74.7172
-5.83572	-32.2894	73.9285
-17.3594	-29.0724	68.7237
-18.4174	-29.0497	68.8488
-15.177	-29.1655	69.1878
-19.5394	-34.3999	70.0528
-19.3939	-35.7112	70.0462
-15.9966	-35.8466	73.659
-19.7871	-33.3035	70.1736
-11.5449	-36.7996	76.6315
-11.337	-38.3593	76.5691
-6.49449	-37.1921	79.0682
-11.6652	-35.6264	76.732
-2.06688	-37.5868	80.4673
-13.7094	-17.4604	68.8829
-13.6595	-17.8013	67.3186
-11.141	-17.549	70.4244
-28.9668	-25.6504	54.8469
-28.9267	-25.1225	54.8972
-28.1548	-25.5211	55.0331
-27.8239	-25.6206	55.1583
-27.2787	-25.8856	55.4271
-26.2763	-26.5398	56.8306
-9.2163	-34.2519	71.2536
-9.17536	-32.6278	71.4686
-8.90115	-35.8372	71.6497
-13.117	-33.3797	69.2038
-9.2422	-31.5951	72.6305
-12.2604	-30.6358	70.7723
-11.0829	-40.2217	77.157
-15.3277	-39.2358	74.328
-19.8549	-32.4002	69.9855
-16.419	-33.8256	73.5741
-19.3747	-37.6266	70.7454
-23.7355	-35.2737	65.4784
-14.4956	-17.7463	65.6345
-17.0178	-17.9485	63.5598
-15.7386	-17.6099	64.3054
-11.7249	-17.6557	67.6001
-8.54998	-17.3292	69.2602
-8.03553	-17.5575	70.4629
-9.55867	-16.7778	68.3276
-5.16278	-16.9934	70.405
-17.7403	-17.7941	62.7681
-19.7371	-18.2997	60.6914
-19.6475	-17.6702	61.7014
-14.4973	-16.677	65.466
-28.2055	-34.2371	49.2372
-27.7367	-34.4417	51.2397
-29.4916	-36.7936	47.9747
-1.24832	-38.222	74.2572
-1.49493	-40.0494	74.481
-4.54954	-38.0068	73.1426
-11.0683	-15.8248	67.3579
-11.5486	-14.7298	66.7811
-6.29056	-15.2499	68.9859
-8.74335	-37.728	71.6527
-8.28227	-40.3542	71.8121
-13.1188	-37.7078	69.5802
-28.5996	-29.0764	48.349
-30.467	-28.3895	45.7601
-10.855	38.588	49.4545
-10.4914	37.7704	51.3059
-81.957	-15.8112	-58.9841
-83.2949	-15.7421	-56.8653
-82.5706	-11.6214	-60.227
-80.6536	-16.1512	-62.5104
-81.1919	-19.6382	-57.0606
-81.4412	10.6432	-29.1449
-80.9166	14.0652	-24.9985
-81.9349	12.3252	-33.8823
-82.1406	13.0073	-39.4538
-82.253	10.7323	-46.0678
-81.8719	7.84478	-39.1948
-82.3701	17.9188	-42.0891
-76.0831	-36.5066	-43.3201
-77.4003	-33.1073	-46.1746
-75.1496	-40.1659	-39.73
-78.6754	-33.7968	-42.356
-78.0815	-30.0635	-49.1794
-80.2549	-28.3006	-47.5891
-79.2241	-26.719	-52.0549
-75.8866	-32.6423	-51.3614
-85.1353	-15.4574	-55.752
-85.4753	-11.1444	-56.9425
-84.5832	-19.0495	-54.0119
-87.1442	-15.0737	-55.792
-85.6474	-29.6279	-44.9296
-86.8401	-30.8707	-43.9675
-84.2475	-27.9108	-46.2211
-88.0485	-31.5803	-42.8061
-89.1391	-28.0227	-45.8599
-86.8679	-35.2127	-39.3349
-89.1703	-31.6633	-41.3377
-92.5096	-21.6757	-45.2545
-93.8372	-18.136	-49.5053
-92.3169	-20.9173	-44.7031
-80.6716	-41.5252	-28.4432
-81.2173	-40.2071	-31.9266
-80.1795	-40.1837	-30.5226
-80.4378	-41.3124	-26.012
-81.6079	-41.8971	-27.5434
-83.3018	-30.6845	-18.5636
-82.9302	-31.3581	-18.3863
-82.1119	-32.5275	-18.4997
-92.215	-20.4625	-44.4142
-91.6794	-20.7718	-43.3276
-95.0476	-7.5898	-52.1514
-94.7139	-7.32485	-53.723
-95.4193	-8.45889	-50.2397
-95.1322	2.67337	-52.6523
-95.3989	3.93778	-53.1478
-95.3803	6.18929	-52.7717
-95.0468	8.93471	-50.3775
-95.5205	6.5727	-53.3546
-95.1581	6.53211	-50.5264
-85.4255	-8.63126	-25.6511
-86.6715	-3.46247	-27.5883
-84.4232	-12.4056	-24.0836
-84.705	-7.52069	-24.5585
-79.7571	-22.3051	-14.673
-80.2083	-18.0041	-15.4711
-79.2599	-26.0435	-14.0137
-78.8214	-22.0045	-11.8776
-84.0121	-19.8688	-24.8062
-84.1952	-18.1328	-25.5532
-84.3373	-21.7956	-24.6573
-82.0162	6.07956	-39.1701
-82.5651	6.35981	-38.7502
-82.6995	6.54214	-42.8005
-90.9839	15.7843	-41.1652
-92.5212	16.7448	-44.9531
-92.1521	15.1971	-39.9509
-89.2413	13.2402	-37.4367
-89.6865	15.8741	-42.5297
-91.2425	16.1444	-50.901
-90.0313	16.6238	-47.3847
-89.9119	14.1363	-51.8036
-92.0875	13.6447	-54.4735
-92.4251	16.2379	-50.128
-93.0985	-3.42959	-60.5894
-94.4737	-3.10873	-59.8481
-93.1477	3.26788	-59.8784
-91.7017	-3.9051	-60.7005
-87.617	0.905486	-29.2166
-87.8896	-0.56364	-29.7585
-95.6973	-3.32894	-56.3275
-96.1936	2.06859	-55.6448
-96.0568	-3.51699	-56.4639
-95.1092	-5.99185	-56.0226
-94.4011	10.8179	-46.8286
-93.3869	11.358	-42.8542
-94.4907	11.9892	-46.5226
-94.4814	9.29843	-47.1008
-88.88	0.834267	-32.5123
-89.3786	2.89426	-33.8459
-88.3781	-0.735386	-31.4677
-94.9318	-1.98507	-54.0678
-94.8335	-4.36219	-55.2914
-86.5686	-5.88832	-31.9622
-87.4013	-4.1756	-31.3264
-86.6643	-5.77177	-32.7396
-91.6095	-8.589	-45.5796
-93.9853	-6.54605	-47.9051
-91.5189	-9.67773	-45.4006
-91.1932	-7.99036	-45.1672
-80.6514	-14.177	-16.6044
-79.7139	-13.7131	-14.0404
-81.2119	-10.0196	-18.7088
-85.6386	-6.10569	-57.2177
-87.4589	-3.66756	-56.8267
-85.5575	-1.53211	-56.4635
-84.0685	-6.80374	-58.5263
-89.4387	1.99837	-57.2721
-89.7818	-2.53459	-58.7199
-91.2334	7.27967	-57.7498
-89.0376	6.44781	-55.3058
-90.3944	-4.8496	-59.8276
-89.5839	-10.3415	-58.6966
-89.2037	-14.937	-56.9392
-82.384	-27.4908	-46.8945
-83.2998	-24.9342	-49.4742
-81.3269	-30.0116	-44.2285
-83.996	-22.1568	-51.891
-81.9046	-22.5323	-52.7816
-90.8548	-20.5403	-42.5194
-80.2325	-32.472	-41.7947
-79.5082	-35.3444	-38.5922
-80.3874	-39.9459	-23.6206
-80.133	-39.5478	-23.8873
-79.1914	-39.8134	-23.2362
-79.2713	-40.3642	-28.2495
-91.8754	-10.4937	-45.541
-94.2615	-9.6986	-47.7117
-83.8203	-6.63891	-23.7976
-82.7098	-6.02346	-22.9471
-81.762	-19.362	-18.7435
-82.1783	-19.7103	-19.3208
-85.0515	-25.2036	-23.1018
-85.4756	-24.1981	-24.2822
-86.0158	-27.5311	-23.9507
-83.7005	-15.1526	-22.8589
-84.542	-15.929	-24.9367
-88.5035	9.07908	-52.853
-87.6412	10.4525	-49.6602
-86.9554	4.18672	-53.5863
-85.331	1.82496	-54.4769
-84.874	4.40722	-51.1856
-84.0908	1.55245	-55.7671
-94.4948	0.377834	-49.5831
-94.4553	-0.966635	-48.8018
-87.1452	-5.47959	-34.3137
-88.316	-5.02131	-37.1577
-91.1245	-7.02617	-44.9158
-90.4737	-6.61853	-43.6073
-93.255	-3.94528	-46.8604
-8.23957	103.626	23.8603
-8.65095	108.941	15.3207
-16.1015	102.574	23.4458
-7.78009	97.7899	30.6305
-6.93437	91.2962	36.3444
-14.0523	90.5069	35.607
-6.11052	83.7662	41.6837
-27.563	73.2757	42.354
-22.4906	74.5664	43.7039
-26.4982	66.871	47.1511
-0.74102	7.52425	84.4941
-2.79436	7.73931	82.8665
-1.04919	8.92074	86.316
-1.78694	18.8288	89.6552
-1.89438	16.951	90.3236
-1.69115	20.5831	88.5516
-4.71066	18.5823	88.2419
-1.86503	14.9504	90.322
-1.70376	12.8532	89.6334
-0.994125	3.14007	79.0215
-1.68594	-2.73101	79.3775
-4.57085	-1.62861	78.8088
-1.43982	10.809	88.2052
-3.77329	10.7185	86.4061
-1.46232	22.1252	87.367
-1.26446	23.9144	85.3792
-4.29293	21.6246	85.9765
-5.478	65.1328	52.6671
-5.5644	70.1369	50.0222
-10.5304	64.4511	52.4815
-5.02555	60.9504	54.5362
-2.22897	44.2321	58.5636
-2.49374	46.2261	57.237
-2.10615	41.741	60.8766
-2.86659	47.3961	57.0836
-3.03838	48.4021	57.1092
-4.68754	46.4965	56.7191
-1.4505	-16.812	70.8363
-1.2723	-17.3836	72.015
-1.52562	-16.0295	70.2595
-1.21324	-17.472	73.7658
-1.35635	-17.1716	75.5541
-4.38048	-17.4715	73.4223
-2.43394	-14.4728	78.2543
-2.33125	-15.7397	77.5277
-2.10312	-16.4871	76.6735
-2.65632	-11.194	79.5075
-1.69546	-14.915	69.9654
-2.27848	-13.552	69.6541
-22.7271	101.237	22.7242
-23.6289	106.12	14.5738
-28.8689	99.4007	21.6425
-21.7453	95.8505	29.0151
-15.3463	63.7381	51.9447
-16.2547	69.0561	48.9996
-20.8222	63.0187	50.9513
-15.3464	59.1596	53.4592
-16.4034	55.1779	53.3863
-18.467	51.4836	52.3186
-21.3633	55.5811	51.7849
-19.489	49.3777	51.5579
-23.4008	50.9675	50.2831
-16.1577	48.2488	52.4589
-24.3564	43.9353	45.4878
-28.0172	44.677	45.8902
-21.2659	42.8968	44.8432
-23.8943	44.3681	46.3009
-27.8905	42.8208	43.2086
-28.2465	43.456	41.2948
-30.2547	43.3837	43.3057
-26.1527	42.9856	44.3321
-22.9506	45.1726	47.5051
-19.6381	44.0495	47.3419
-26.9189	46.1433	47.3121
-48.4096	97.6318	-1.49047
-47.6849	94.12	7.03484
-42.646	101.94	0.488657
-49.7727	100.227	-12.6821
-34.5336	97.329	19.897
-40.4753	94.4538	17.3251
-35.6891	101.448	12.3608
-25.7569	62.3279	49.6253
-31.8564	62.2796	47.0105
-26.3736	59.5989	50.0611
-28.1136	52.9266	48.6789
-27.4381	54.5898	49.2999
-26.5576	56.8059	49.9639
-31.1649	46.6838	47.1626
-35.1207	46.9126	46.5581
-31.6856	45.256	46.5856
-46.7348	90.6663	13.8224
-45.2782	86.7912	19.6187
-52.8594	86.3613	9.20281
-38.5782	61.8407	43.1262
-45.2725	60.6098	38.5542
-39.1544	43.7452	45.1347
-41.9119	42.7477	43.8121
-35.8661	44.334	45.8507
-39.1757	44.6226	45.3445
-33.1085	43.3192	43.4823
-35.9306	42.9669	43.0279
-33.3939	44.0456	41.5653
-38.6227	51.4482	44.8879
-43.4497	51.2917	42.5869
-38.7844	49.4584	45.1108
-39.0077	47.0451	45.2574
-43.132	82.1097	24.934
-49.7875	78.1471	20.3945
-58.5419	82.0588	3.03257
-63.6987	77.8227	-4.41653
-57.4964	78.1404	9.22853
-42.526	40.9416	41.2188
-42.797	41.1681	41.2596
-43.9895	39.7534	39.3701
-44.139	41.3095	42.0015
-45.5659	39.9446	40.0702
-43.6242	41.2841	41.7451
-43.1917	41.2506	41.4706
-41.2774	40.2276	39.842
-41.2838	40.9354	38.5221
-39.7484	41.3043	41.1829
-42.6298	39.2094	38.2022
-47.9115	49.4447	40.1023
-51.3458	45.8696	37.3154
-14.8075	44.5827	50.4856
-13.9426	45.834	51.7276
-15.941	43.6164	48.9612
-12.8225	43.8428	50.04
-13.5342	47.2807	52.8448
-11.7081	46.5602	52.8432
-17.1405	42.8115	46.9104
-18.2943	42.3185	44.9236
-4.72972	57.874	55.3649
-69.2665	-60.1639	-13.0611
-68.9652	-63.6005	-17.8206
-70.8308	-54.8496	-12.2536
-82.1733	15.3532	-62.3669
-82.6202	11.2174	-55.8852
-82.542	19.6188	-55.1815
-80.5907	19.4376	-68.5031
-81.903	10.1985	-66.777
-78.7713	-17.2786	-68.1544
-79.6833	-11.8993	-69.7786
-76.7908	-18.6995	-73.3739
-77.7342	-22.4198	-65.0479
-80.3066	-6.0737	-71.1916
-81.924	-6.50007	-64.7107
-80.9058	-0.502867	-71.06
-78.5566	-5.97692	-77.7754
-72.3979	-36.8758	-54.1184
-74.3332	-32.1037	-58.1305
-69.2251	-40.659	-56.8004
-5.84909	76.5503	46.2541
-11.7068	76.109	45.6259
-17.3374	75.4835	44.7905
-18.5929	82.6339	39.5723
-22.8824	-85.7325	61.9557
-16.6917	-86.706	65.7236
-29.5233	-84.5898	55.8499
-21.5673	-91.3069	55.8846
-50.2624	-70.6035	43.0725
-51.2743	-66.7795	45.336
-55.2369	-67.9733	36.434
-44.5125	-73.467	49.6054
-56.0296	73.3309	14.801
-61.5491	68.2969	8.42094
-20.2619	89.6855	34.4277
-68.7093	73.1131	-13.2606
-68.2478	68.2938	-6.06516
-72.916	68.698	-22.5813
-24.2825	111.19	3.2668
-17.0977	112.98	3.67175
-24.7275	115.456	-10.1067
-30.7914	108.694	2.9117
-64.5414	51.6323	12.1825
-65.6106	57.2411	6.6284
-46.1922	39.0039	38.3681
-43.7137	38.057	36.8684
-43.9172	38.2253	36.1953
-57.0754	43.8822	30.5089
-55.4763	43.0402	32.2429
-57.8543	39.1735	28.1937
-53.6196	42.2124	33.8283
-5.10314	-113.701	46.6143
-62.3835	-55.9081	32.1355
-61.3819	-60.9663	29.9483
-57.1273	-58.5263	40.442
-62.9926	-50.5513	33.6031
-7.9348	-6.36516	78.7221
-7.3101	-3.07054	78.2476
-10.2145	-6.44055	77.2207
-25.5442	-13.1096	61.5612
-21.9677	-10.2566	66.0581
-24.0587	-7.90124	63.7556
-10.9943	-0.723875	75.3757
-9.83347	0.901622	75.1014
-13.4975	-0.819425	73.7455
-12.0113	-2.87374	75.3289
-8.64467	-0.865576	76.7479
-35.2489	-20.2913	52.1378
-35.8386	-14.1931	51.1946
-38.7839	-21.1194	52.9572
-34.2684	-25.6132	53.6422
-62.3622	34.0659	22.4881
-64.8561	33.118	19.3625
-62.3602	29.2432	24.5604
-60.0768	34.6435	25.4024
-67.4067	32.1585	15.7092
-70.0981	30.5999	10.5489
-49.216	36.2621	34.0663
-47.5508	36.2914	35.2027
-49.071	34.4801	33.9672
-57.782	35.1188	27.4329
-83.4591	2.23005	-58.3504
-83.3525	5.50402	-55.366
-82.7804	3.23414	-62.9261
-83.2851	-2.03204	-60.2406
-80.1588	-23.3987	-54.8037
-78.822	-24.7452	-57.758
-72.9345	-51.3446	-22.4453
-73.5007	-49.3832	-28.8167
-71.0169	-57.3185	-23.7374
-72.8583	-50.7555	-16.6458
-74.8169	-46.146	-21.1712
-83.0054	-6.80141	-60.7542
-77.9321	-21.9816	-8.51259
-77.0534	-21.2917	-4.15638
-78.4479	-17.6149	-9.47749
-77.3613	-26.2091	-7.80559
-73.6308	12.7141	7.8701
-75.6709	7.9994	-0.584931
-73.4256	6.56559	11.0856
-73.4131	19.6438	4.84522
-51.7985	32.469	33.5674
-50.1246	31.7608	36.6914
-50.0543	32.7711	34.1321
-48.7994	33.4261	34.6912
-47.2887	33.4396	36.8156
-76.1274	-19.032	1.64931
-76.4632	-14.4196	0.644327
-75.736	-23.6183	2.44711
-75.1092	-15.6373	8.78339
-22.2658	21.8426	57.2416
-19.2253	21.5886	57.7558
-21.4109	24.5654	55.6468
-25.9518	22.2467	57.2288
-31.5205	21.9708	56.8582
-32.9073	18.341	57.6637
-38.7843	21.4749	55.4225
-16.2761	22.0844	59.9641
-16.4703	20.5672	61.4874
-13.4669	23.6624	62.9663
-20.8627	14.2036	60.0751
-18.6521	17.3202	61.0544
-17.6742	14.8515	72.0281
-19.1106	13.782	69.9262
-17.4993	12.8194	71.869
-15.5079	15.5811	74.8675
-20.1197	12.7826	67.8488
-19.6282	10.4076	67.876
-39.9591	-1.40206	56.7857
-37.7905	5.2012	58.2344
-41.0708	-6.97936	54.9483
-35.116	-1.11165	56.6658
-34.8799	12.65	58.3135
-5.31676	1.5467	77.1107
-6.96845	1.93836	75.8992
-6.06707	0.301294	77.554
-60.5	-20.3121	42.4313
-59.128	-27.1741	42.8279
-56.3227	-16.5714	46.1931
-60.7964	-14.1075	43.033
-28.4508	-7.44554	55.6207
-31.3409	-8.44083	52.0702
-25.2337	-5.83883	60.8416
-41.9791	-11.0396	53.6144
-38.0764	-10.2774	53.4611
-46.5454	-12.672	52.3481
-42.4535	-15.9736	52.9989
-6.84229	-1.09418	77.8695
-56.864	-36.3864	44.2397
-53.5767	-44.3568	46.7609
-53.1768	-30.5232	47.0466
-59.9749	-41.0089	40.4665
-59.7657	3.88942	45.6089
-65.1363	-0.011796	38.5701
-60.2849	-3.12684	45.2018
-30.4314	-71.0094	71.957
-25.0144	-72.7766	77.6556
-30.8092	-67.1156	73.3197
-40.8109	-56.709	61.1855
-35.6053	-60.098	67.6165
-39.5217	-51.5654	61.3674
-45.4012	-53.7146	55.6455
-54.8324	24.0756	42.7409
-49.5056	25.6076	47.1154
-52.6217	28.119	42.0663
-45.1491	33.7056	40.0133
-46.0246	32.4436	40.3069
-44.4499	35.0082	40.086
-50.8979	30.3361	41.5547
-49.0897	31.3283	41.1528
-46.1763	30.9328	45.7771
-43.981	35.7624	40.1317
-3.00522	-63.9427	91.4275
-48.9152	-26.7468	49.8405
-44.6941	-24.0933	52.1425
-50.7359	-19.6297	49.3083
-46.4772	-33.5838	51.2037
-38.1415	-47.3589	60.5872
-33.5978	-50.9472	65.7342
-36.1582	-43.3406	59.4284
-41.4523	-42.6355	56.4037
-42.7912	26.8933	50.8961
-41.2316	30.1469	49.8448
-44.6284	23.3107	51.8899
-51.7881	-14.2793	49.3109
-46.3197	20.4638	52.6966
-10.1961	-54.7715	87.4302
-14.9271	-54.7683	84.9277
-9.8192	-50.7622	85.0453
-19.557	-54.759	81.3271
-18.5968	-50.3184	79.2789
-23.7407	-54.0579	77.1753
-40.0257	31.6391	48.6553
-33.2218	32.3529	50.2116
-38.6188	32.2613	47.5628
-47.4308	31.8131	40.7954
-43.0394	32.308	44.4292
-37.2863	32.7192	46.3741
-31.0093	33.183	47.1721
-10.9304	25.5708	66.1243
-10.8892	27.7605	63.2316
-11.1208	23.42	68.6013
-11.3633	19.6985	74.379
-11.9404	19.0077	75.9257
-8.91955	20.02	78.879
-10.9172	20.4651	72.7968
-10.4162	35.9574	53.3476
-10.7281	33.1593	55.9568
-20.5277	27.7306	53.24
-1.76383	39.1265	64.1059
-61.2939	25.7382	29.139
-10.8448	30.3794	59.4398
-63.5902	-43.6544	34.6055
-67.5503	-44.3922	26.4264
-67.8155	8.82324	29.3701
-70.8665	5.19475	21.5409
-68.5232	3.07977	30.8996
-68.4716	-17.0973	31.1363
-70.7533	-20.0576	25.0789
-65.108	-12.8333	38.0093
-68.7142	-10.3364	31.5857
-68.7503	-3.03898	31.8529
-71.3669	-7.04541	24.432
-20.2643	-73.5343	81.4395
-10.0596	-47.6304	82.385
-14.2679	-47.1933	79.9059
-5.64053	-48.1994	84.2576
-18.7081	-46.4395	76.3736
-25.4747	37.2521	44.3918
-25.3913	36.9748	44.712
-27.7412	32.5531	49.9953
-26.8847	32.9563	48.3267
-26.0961	33.5728	46.8564
-1.96778	-48.4118	84.8435
-7.0519	47.9454	55.8091
-6.52979	46.4487	55.9743
-5.60244	49.1684	56.4092
-8.03471	48.9873	55.2015
-8.02844	46.6341	54.5377
-18.4066	36.109	41.6391
-18.5196	37.2372	41.4211
-15.2587	37.9213	43.5723
-8.52857	45.4424	53.0846
-9.31843	45.7837	52.6913
-3.27116	50.1864	56.4871
-4.54115	7.91	81.102
-5.22501	8.68749	82.1221
-7.06241	18.1981	85.4506
-9.49315	17.8695	81.5996
-6.92432	19.6164	84.3192
-18.2284	5.74936	66.2512
-15.2838	4.97287	68.4023
-18.2252	7.02095	67.1931
-6.66112	20.8179	82.9736
-6.35704	44.5328	55.3197
-9.07611	50.1287	54.8992
-10.0106	47.8798	54.0113
-19.142	38.4258	41.512
-10.3163	46.1094	52.7274
-10.6532	44.6171	51.1884
-11.369	43.2923	49.5365
-19.6533	-0.833661	66.1653
-20.518	-2.36363	66.0122
-16.7113	-0.40514	68.958
-22.4662	-4.70506	64.9338
-19.2196	-3.26367	68.8645
-25.1487	-22.3508	54.411
-22.8737	-19.9978	57.4123
-25.4325	-21.8152	53.2773
-26.0568	-19.8107	59.0709
-23.3868	-16.679	62.896
-26.0685	-21.152	51.8146
-26.4558	-20.0882	50.7177
-22.8963	-19.3413	56.0614
-13.7939	0.83325	71.218
-14.8909	-0.467167	71.7144
-11.188	1.968	73.0063
-16.4231	-2.00083	71.6313
-17.6095	-4.22271	70.968
-20.177	-18.669	60.5755
-20.2539	-18.3865	59.7965
-20.6041	-18.2831	59.2842
-22.7174	-19.2147	57.1428
-9.00626	2.17022	74.5265
-8.18078	3.36611	74.0037
-13.1874	-6.52223	74.8784
-15.7916	-6.84406	72.421
-16.2188	19.3614	63.1923
-13.4283	20.747	66.7425
-0.912019	26.3492	82.1809
-10.7513	21.6288	71.4515
-5.93646	10.4893	83.8555
-8.42382	10.5386	80.6912
-11.5586	11.229	77.5666
-14.7222	11.5945	74.2713
-12.3427	13.2953	78.1963
-16.7501	10.8436	71.7154
-17.7766	9.42135	69.8104
-18.2681	8.19494	68.2366
-12.3084	18.0917	77.3579
-12.5489	16.8531	78.3162
-12.6393	15.2149	78.4978
-39.5767	-143.919	13.4805
-38.5202	-136.661	15.3096
-43.8143	-142.429	10.3623
-40.5905	-149.511	12.1635
-34.9288	-145.268	16.5442
-37.6323	-126.108	17.911
-33.2518	-127.791	21.5885
-37.3654	-115.069	20.69
-41.7906	-124.284	14.2425
-41.0718	-91.6898	30.2081
-39.3902	-98.3465	25.9411
-36.2464	-93.6196	35.1111
-45.6319	-89.4331	24.8122
-37.9574	-105.892	23.0686
-42.1689	-103.725	18.7943
-33.2988	-107.917	27.4908
-44.4495	-38.6219	53.1078
-40.8735	-35.2599	54.5489
-47.4467	-43.2441	51.8313
-49.8323	-50.1397	50.6212
-51.128	-56.7711	49.3742
-51.7781	-62.0318	47.2369
-38.6617	-33.0211	54.801
-36.8615	-36.11	56.0618
-36.3669	-30.6541	54.4212
-40.243	-28.5426	53.7984
-33.7428	-28.7253	54.4603
-32.4318	-30.104	55.1262
-49.485	-87.1917	19.4243
-52.3913	-85.2734	13.0988
-47.4398	-93.7358	16.4766
-51.8595	-81.3777	22.0057
-54.3209	-75.647	24.7684
-56.9032	-70.3189	26.741
-56.9396	-74.0427	17.2169
-59.6204	-65.5226	28.2903
-62.2839	-64.1993	20.6059
-45.7868	-122.252	10.5075
-46.5312	-133.359	8.52682
-45.5524	-110.841	12.5815
-49.5845	-120.566	6.5422
-47.6221	-140.937	7.06277
-51.1277	-139.381	3.38484
-48.7786	-146.7	5.76546
-46.0951	-101.454	14.4298
-73.2148	-11.2714	16.8318
-73.3987	-5.93932	15.4517
-73.0065	-16.8516	17.3461
-63.6367	-64.0357	13.7454
-64.3953	-64.2601	6.87735
-61.1713	-68.3369	11.93
-72.9137	27.208	1.69241
-75.9379	22.2306	-8.31167
-69.8751	-44.9511	18.7531
-71.2202	-45.851	10.639
-72.715	-22.8592	18.024
-74.4696	-26.0798	10.2379
-73.314	0.344002	13.5429
-75.2838	-5.00586	5.73645
-75.3397	-28.5407	3.38628
-75.9882	-30.1231	-2.85483
-60.0373	-83.4109	-4.73919
-57.8348	-83.6061	0.615947
-60.774	-77.9554	-4.10113
-62.2055	-83.279	-10.0408
-59.7679	-89.3553	-5.29143
-59.6418	-95.9773	-5.57796
-61.8954	-72.9544	-2.62547
-63.3493	-68.6324	-1.21268
-63.4421	-73.4508	-8.43447
-60.3904	-72.8791	3.29335
-77.6382	4.11818	-8.52014
-77.256	-2.8308	-4.09934
-78.0357	10.9048	-12.9117
-78.7661	18.0235	-17.9175
-79.7488	24.8574	-22.6532
-80.3396	31.3039	-27.0977
-80.742	37.9155	-32.7169
-81.8825	27.5968	-37.296
-71.8481	-46.8645	2.82636
-72.1739	-48.3494	-4.92178
-76.802	-8.97165	-1.00531
-78.0166	-11.6837	-6.72583
-53.3904	-118.818	2.19764
-53.8176	-130.153	0.645623
-58.7105	-73.2721	10.1343
-56.729	-78.4475	8.17249
-54.5201	-137.725	-0.73867
-55.4874	-143.386	-2.13456
-63.3483	-113.8	-15.8098
-63.3857	-123.505	-17.4935
-64.2357	-83.3066	-15.0079
-64.6661	-78.4445	-14.619
-65.1183	-84.039	-18.991
-65.3329	-73.6011	-14.0281
-63.3042	-130.48	-19.254
-63.2527	-136.039	-21.0385
-72.3099	-50.3364	-11.4203
-76.7632	-30.365	-7.3536
-76.224	-34.1755	-7.77698
-77.7519	-29.4984	-10.9536
-78.8594	-13.0562	-10.672
-64.0054	-92.9544	-26.8822
-64.3793	-86.5434	-26.0259
-62.4834	-89.8163	-34.0363
-65.2586	-80.5651	-25.596
-64.6478	-75.5253	-32.3976
-69.1156	-63.7058	-24.4162
-75.751	-43.6878	-20.7329
-76.8017	-42.3631	-27.4914
-58.5074	-119.508	-45.4007
-58.6573	-111.842	-43.7028
-55.1225	-117	-52.374
-58.3971	-126.758	-47.3206
-74.181	-45.4074	-34.5029
-76.2087	-41.2308	-33.8812
-77.9124	-39.0921	-33.7129
-79.4427	-38.3878	-33.493
-30.1733	-146.45	19.4866
-31.1176	-151.994	17.7585
-25.3348	-147.516	22.0687
-29.3235	-139.35	21.8023
-28.0774	-109.707	32.2681
-28.9637	-102.153	35.547
-28.0634	-118.666	29.2328
-22.9023	-111.206	36.6098
-35.3148	-83.156	49.7394
-37.3099	-78.4941	53.0199
-33.1711	-88.8417	45.4099
-30.7709	-95.2724	40.4906
-25.29	-96.4442	45.3586
-28.5138	-129.085	25.4476
-23.6902	-130.689	29.0111
-34.52	-39.9976	58.203
-33.0569	-35.3251	56.5238
-38.8574	-74.9564	55.7249
-31.4579	-31.8746	55.8836
-29.8574	-29.7696	55.7723
-29.9905	-34.1958	57.7295
-28.9874	-28.6912	55.6941
-28.2829	-30.2208	56.9638
-28.4954	-52.7693	71.6925
-29.6801	-57.8375	73.3931
-30.5858	-62.7228	73.7613
-24.493	-27.4504	60.367
-21.7926	-28.4277	64.8671
-20.9246	-27.4995	60.0991
-16.6556	-28.2495	65.7614
-21.0434	-28.1415	59.3384
-24.2687	-26.7424	55.8188
-22.3113	-29.7494	57.952
-24.6477	-32.4529	56.0475
-19.2448	-30.967	62.8068
-25.2916	-35.6953	56.549
-21.8119	-36.6222	62.0861
-25.4508	-38.5555	57.4216
-18.0601	-112.217	40.3204
-18.4288	-121.58	37.0068
-18.6225	-104.029	43.7416
-20.3949	-148.585	24.318
-21.0572	-154.048	22.543
-15.5206	-149.404	26.2514
-19.6531	-141.716	27.289
-18.9344	-132.022	32.1223
-11.8977	-97.7375	54.158
-11.4402	-92.0241	61.1964
-15.1959	-97.5984	52.285
-11.2455	-150.021	27.6685
-11.7475	-155.423	25.8965
-11.7649	-86.9058	68.056
-14.0198	-29.4221	69.0649
-14.7282	-30.359	67.8748
-17.0279	-32.5716	65.9278
-17.6709	-34.6378	65.648
-17.8152	-37.2428	66.2352
-16.966	-40.3612	68.038
-76.4933	52.6774	-18.4777
-72.112	57.5424	-8.50142
-76.9727	58.7485	-25.3408
-79.5769	48.1797	-28.3917
-82.5198	23.7937	-46.6901
-76.0531	-27.4671	-61.9933
-73.4268	-30.1605	-66.0167
-52.3994	-98.4351	-54.4335
-49.5534	-96.981	-59.4675
-52.1597	-107.296	-55.9163
-55.2247	-100.65	-48.9478
-53.0952	-89.2872	-53.3877
-52.1604	-115.037	-57.6006
-49.0151	-113.643	-62.3222
-52.3515	-122.62	-59.4467
-59.73	-85.5847	-41.3771
-61.1863	-77.3177	-40.7876
-56.8145	-82.3383	-47.7313
-59.1127	-94.6653	-41.581
-24.7144	118.437	-25.4639
-17.1558	120.635	-25.4776
-24.6926	119.767	-41.9247
-31.8384	115.336	-25.209
-24.2957	82.1903	-123.186
-16.3783	83.1579	-124.791
-23.6043	67.8844	-133.707
-31.8437	80.6137	-120.831
-24.932	94.9781	-109.556
-23.1741	53.4207	-139.751
-15.8141	53.6242	-141.32
-22.8623	38.6023	-142.751
-30.3454	52.2097	-137.42
-24.9892	105.186	-93.9915
-24.9082	112.725	-76.9513
-17.0475	106.699	-95.3836
-32.5924	103.051	-91.8328
-8.81157	120.561	-60.6293
-8.82247	115.486	-78.6852
-16.9476	119.444	-60.1629
-8.81598	122.74	-42.6435
-22.4877	24.9164	-143.727
-15.7058	25.4479	-145.299
-21.9965	11.5839	-142.981
-29.0775	24.1423	-141.336
-21.4189	-1.85329	-140.808
-14.8265	-1.29651	-142.56
-20.881	-14.4876	-137.227
-27.9697	-2.27499	-138.346
-18.2902	-45.2393	-116.17
-19.4426	-35.9098	-125.382
-12.484	-45.2648	-117.166
-17.6784	-53.847	-106.016
-24.3721	-45.5191	-113.965
-7.31728	-25.3683	-135.461
-6.90951	-35.664	-128.454
-13.8557	-25.5064	-134.236
-7.53401	-13.9698	-140.057
-15.2069	-93.5439	-82.9783
-10.0018	-93.261	-83.6301
-14.8812	-100.779	-82.9146
-20.5624	-93.9893	-81.5259
-15.6259	-85.8145	-83.9826
-14.6163	-107.774	-82.8686
-9.68364	-107.549	-83.3649
-14.5204	-114.791	-82.794
-19.7018	-108.144	-82.1237
-17.6176	-60.9097	-97.6698
-11.7881	-60.306	-98.4046
-17.0887	-67.8808	-91.3901
-23.0814	-61.3988	-96.2522
-16.2464	-76.6759	-86.8454
-10.8647	-76.0048	-87.8005
-21.9097	-77.4099	-84.9002
-5.51197	-75.4843	-87.5988
-5.15257	-84.9605	-84.5016
-5.84566	-66.6682	-92.2217
-50.6835	102.114	-25.8437
-44.707	107.093	-25.4018
-51.6464	102.716	-40.3098
-56.4499	96.2789	-25.9654
-49.8417	47.7092	-125.265
-50.3174	60.81	-119.188
