1940
-90.8796	3.97563	-30.8738
-92.1184	8.55892	-32.9418
-91.9995	9.63247	-33.2608
-91.2257	9.68603	-33.3199
-93.5314	12.275	-35.8894
-97.5591	-0.790388	-55.2265
-97.6287	0.980389	-54.1015
-97.7213	-1.63749	-56.0007
-97.3253	-1.70041	-54.6463
-92.6387	7.35943	-35.3067
-93.1206	8.6176	-36.6364
-92.1383	5.80851	-35.1952
-92.7182	7.21009	-34.7319
-92.5541	6.5797	-33.6812
-93.8815	10.1666	-35.9384
-91.7649	3.59314	-32.8606
-96.0264	-14.1766	-47.564
-94.4116	-17.2067	-45.8109
-97.1547	-11.5574	-48.4547
-92.3716	5.76701	-38.5578
-92.1204	5.30744	-37.1991
-91.6719	3.89078	-36.3538
-91.5669	3.91144	-35.8271
-88.323	-8.825	-28.831
-89.3526	-4.61028	-29.9012
-87.208	-13.3533	-27.8039
-88.1945	-8.47006	-27.6374
-91.0388	-0.118977	-35.0934
-91.3114	1.70079	-34.9191
-91.3343	-0.871506	-36.7088
-54.2484	-64.5323	-63.164
-55.5288	-64.2618	-60.4809
-54.8617	-60.5344	-66.5075
-23.5857	-2.1464	66.0158
-21.2383	-1.45455	66.186
-24.1328	-0.762366	65.8392
-25.609	-5.90142	67.0138
-17.9702	1.10035	67.8886
-17.1154	1.20351	69.0762
-18.5589	3.76671	67.7459
-18.4034	-0.0779544	67.1944
-50.9372	53.9721	38.0054
-51.0343	52.0982	39.2763
-46.2468	58.0353	40.0835
-51.4764	55.9138	35.9977
-56.2499	48.859	34.1204
-6.54349	1.80409	78.6506
-6.75774	2.47599	79.3985
-7.12279	1.01122	77.5025
-5.44975	1.82667	79.3776
-6.90625	3.44109	80.658
-7.80692	3.68079	80.4008
-5.84849	4.15323	82.5362
-48.7383	33.7692	37.5875
-48.2109	33.9329	37.6444
-48.5544	34.5	37.9191
-49.3961	33.195	37.3186
-20.8977	34.2607	40.7383
-21.0609	34.1319	39.8917
-21.4493	33.8965	40.8019
-20.7704	34.2678	41.4248
-14.4723	11.4805	77.4037
-13.5782	12.798	79.1191
-14.7469	11.1222	76.4304
-14.6323	10.4139	77.5104
-68.2434	80.6062	-25.989
-70.7046	78.7629	-35.5348
-68.8711	77.4198	-20.2528
-65.6002	84.286	-25.8765
-27.7043	-38.0088	66.427
-26.6142	-37.3572	67.4847
-28.2547	-40.5797	66.3597
-28.2981	-36.5149	65.2887
-27.4206	-28.0326	63.3781
-28.0727	-30.0513	63.3501
-27.8224	-25.8601	61.8443
-25.9564	-27.6935	64.4708
-9.01209	3.7799	79.7438
-9.5107	5.01775	80.6828
-9.87102	2.38805	77.5925
7.37732	3.60577	80.4071
6.5728	4.22745	82.2465
7.04189	2.61615	79.2033
6.7225	1.93913	78.4882
5.71598	1.84248	79.2734
-7.47789	0.076067	76.3807
-8.4505	-0.327567	75.6483
-7.16788	-0.805971	76.0617
83.9193	-36.1112	-35.9231
82.292	-35.8655	-35.0285
84.7003	-33.2965	-39.1736
85.2707	-36.8754	-35.5537
82.5884	-38.7554	-31.7897
73.5257	-38.355	4.37255
72.3566	-37.6373	12.3596
72.6122	-43.2995	4.42992
74.5335	-38.4841	-2.68019
74.2961	-33.2977	4.16257
59.5685	-115.676	-7.35584
59.392	-104.132	-6.49193
56.8193	-116.842	-3.07147
59.98	-126.55	-8.64167
61.7985	-114.328	-11.8104
60.3303	-133.955	-10.0174
60.7208	-139.67	-11.4526
62.2075	-132.136	-14.6627
57.8302	-135.799	-5.43603
53.0486	-96.6827	3.46125
53.7398	-89.374	4.41133
49.3782	-97.7949	7.92941
53.0356	-106.067	2.38966
56.6065	-96.0815	-1.37907
63.5778	-95.3498	-14.6106
63.4795	-102.964	-15.1934
64.7589	-94.595	-20.0414
63.8156	-89.5049	-14.3798
61.621	-95.4845	-10.2455
67.1731	-56.862	19.5908
68.5548	-52.134	20.6639
65.5309	-56.9143	28.0887
65.3781	-61.5691	17.8491
68.0781	-57.0873	11.3413
75.0755	40.662	-4.48117
76.6664	47.0989	-10.838
70.2007	45.9847	5.28071
74.1584	34.2483	0.365132
79.4184	36.3266	-15.5057
83.5208	36.8694	-59.0146
82.8142	31.3238	-67.6452
81.9938	42.2641	-65.8847
83.8624	41.4019	-49.0704
84.4113	31.0812	-52.3554
9.32617	-112.652	41.2446
6.50768	-112.915	42.2594
9.67353	-122.66	38.6658
12.6694	-111.974	39.6525
9.55139	-104.097	44.6175
10.2349	-133.692	34.1658
10.8032	-143.214	29.8986
14.0177	-132.711	32.6444
6.79868	-134.008	35.3728
3.73777	-150.792	29.1571
7.44362	-150.393	28.4405
3.57747	-143.962	31.7368
0.117316	-150.827	29.4854
3.95827	-156.078	27.6155
70.3902	-55.2303	-36.9828
73.0534	-48.978	-35.9365
70.217	-60.4962	-30.8684
67.671	-61.4774	-38.2559
70.8769	-48.4775	-42.378
71.5304	-43.6091	-46.4451
67.7542	-49.7696	-48.3598
72.587	-39.4921	-50.0234
74.8634	-38.6149	-44.7038
63.3306	-124.998	-31.1938
63.1551	-131.874	-32.5984
61.666	-122.142	-37.9951
63.9432	-128.172	-24.6707
3.55205	-134.416	36.1587
3.57893	-123.495	40.6243
0.379714	-134.483	36.5398
70.8474	-36.8007	20.6055
71.3506	-31.2473	19.5784
69.1926	-35.6278	28.1939
70.3406	-42.1645	21.026
68.5845	-57.1687	3.55078
66.7612	-61.5596	2.65373
68.9219	-58.1977	-4.3145
70.2182	-52.6201	3.99593
9.4945	-63.1291	89.8092
5.39541	-63.1398	91.1144
9.35814	-67.5676	89.0101
13.8704	-63.085	87.6439
9.27212	-58.2405	89.5592
18.4792	-62.4342	84.6526
18.6101	-67.0336	84.1433
23.5659	-61.6507	80.5008
18.1756	-57.609	84.0431
1.41021	-53.5903	90.679
4.83892	-53.5236	89.8256
1.27214	-48.9926	88.6974
-1.76182	-53.5687	90.9458
1.60409	-58.4108	91.7651
9.22875	-71.5775	86.8178
9.39508	-75.0661	83.3288
13.7588	-71.6517	84.9258
5.23363	-71.2657	88.0023
9.82713	-78.0412	78.8266
5.54743	-78.1784	79.7545
10.2493	-81.2851	73.3583
14.1997	25.271	57.3519
15.0403	21.8761	60.8083
16.3914	22.6438	56.4246
13.4289	28.5463	53.8501
12.08	28.5396	58.3805
50.622	-5.99075	59.906
57.1063	-8.29066	54.2639
49.8229	-0.706744	58.681
43.2668	-3.13455	63.3899
50.9018	-10.7507	60.6057
62.419	0.975325	45.5857
67.0389	0.220367	38.8781
60.985	6.70694	44.7808
56.1309	2.96008	51.9004
62.6105	-4.65668	46.6044
71.018	16.7008	21.1556
73.864	14.7062	16.4897
69.8575	23.7326	18.3189
67.8421	18.9837	24.7192
51.0155	-15.2769	60.8781
50.7551	-19.9168	61.0349
56.7853	-17.6719	55.2546
44.5128	-12.7249	64.5527
2.52222	35.7634	76.0408
2.15547	40.0166	69.8596
0.397632	36.1963	76.1501
2.65484	31.9169	81.4259
4.72546	34.5495	75.3361
34.8868	87.3838	26.0728
29.5167	88.6455	27.5296
33.9563	82.107	30.8059
40.5244	85.3365	24.1384
36.0173	92.1728	20.9782
2.15935	-86.3775	68.2784
2.52992	-91.7296	60.652
5.81405	-86.2843	67.582
1.99012	-81.6147	74.965
-1.39976	-86.388	68.5262
67.1035	-34.1414	35.5463
64.2918	-32.4101	42.7257
66.1792	-40.4318	36.9728
67.8934	-28.2595	34.3405
1.65855	-71.2405	88.4873
1.78664	-67.5914	90.6703
-1.64521	-71.3005	88.5391
1.74749	-74.97	84.8006
1.95458	-78.2266	80.3319
-1.48425	-78.209	80.4969
41.7411	-66.8913	62.6028
35.3381	-67.4112	67.9163
40.848	-70.7048	60.3767
47.7714	-65.2293	57.4901
41.7004	-62.3918	64.6247
46.9626	-78.6178	36.7239
43.4997	-83.4513	31.7979
51.4964	-76.4281	30.7261
49.9799	-74.5922	41.3679
41.2606	-80.736	42.5635
3.61691	-97.6295	52.6813
6.75051	-97.7663	51.8474
0.704461	-97.6911	52.9025
4.13083	-104.418	46.3062
7.60503	25.8475	83.254
8.21478	23.2705	87.0471
9.8084	23.2329	80.0763
7.21426	28.9347	78.5559
5.24636	27.6846	85.1745
24.6103	3.43757	63.5025
28.8596	1.39481	64.2159
23.0035	8.03563	62.2381
20.8736	6.54517	64.1532
25.7785	-31.2135	68.8171
24.7256	-30.6477	68.8936
24.7936	-31.9401	69.0305
26.7174	-31.703	68.7519
11.3461	1.36333	74.6053
12.7905	2.83726	74.7157
10.6818	0.25453	74.113
12.8926	0.761668	72.6488
10.3107	-3.68186	72.379
10.949	-5.11754	72.5801
12.4141	-4.20046	70.4793
10.1817	-2.454	72.4107
8.69656	-2.7699	74.0432
2.03017	1.82657	83.2405
2.18477	3.14327	85.4988
0.419093	1.63281	83.7107
2.00046	0.578681	81.4978
3.51912	2.03567	81.9031
14.6438	-3.83052	68.6874
16.8902	-2.7292	67.0774
14.3198	-2.51211	69.0345
15.2364	-5.42544	68.8832
8.99924	13.9745	92.2003
6.62311	14.3835	95.3903
8.50033	11.3981	91.0894
11.1797	12.9141	87.5751
9.12047	16.0768	92.2416
23.5554	-43.2555	74.8839
26.689	-41.972	72.2652
21.9461	-39.9087	74.7909
19.729	-44.0541	77.7225
25.1589	-47.0385	75.0792
25.8531	-24.8327	70.0976
25.6651	-20.5691	70.2814
23.7171	-23.5961	70.9339
27.8789	-25.8488	69.4572
2.24192	-4.02885	79.4127
2.22589	-6.13275	79.1872
3.88422	-3.86042	79.0013
2.12707	-2.12032	79.8386
0.260299	-4.11476	79.6591
6.8802	32.5222	73.861
8.9302	29.3218	71.648
6.49057	36.0252	68.5456
17.3028	8.18895	69.879
16.3279	10.6189	71.7151
16.6423	9.62986	71.8189
17.4496	6.36306	69.4034
17.6629	8.07062	68.6639
4.70934	-0.391808	78.6453
4.73002	-2.05552	78.4338
5.85657	-0.975649	77.3284
4.73857	0.810757	79.2587
3.55419	-0.408926	79.7073
4.68081	1.95704	80.4847
4.83683	3.2624	82.317
15.8539	11.2308	73.8991
15.5136	12.1596	74.027
16.317	9.3431	73.1777
17.0368	3.50054	68.836
16.6486	5.43302	70.7947
15.9745	1.00364	69.0591
2.00605	-12.8002	79.2793
2.29792	-14.558	80.173
4.40322	-12.1098	79.1788
2.06404	-10.4632	78.7779
-0.397502	-13.4589	79.3343
21.5986	-7.91807	67.2601
19.0071	-7.76708	68.2127
23.2477	-11.8005	68.4863
24.1098	-8.17153	66.6844
20.0213	-4.20298	66.2272
7.22868	-38.8853	83.3607
7.30793	-36.903	83.5504
4.04053	-38.9298	84.2739
7.19923	-41.4142	83.6566
10.9414	-38.7755	81.9987
21.2146	-25.8926	72.2497
21.3196	-26.7504	71.8415
22.832	-28.1483	70.3208
21.3757	-24.58	72.2478
15.2507	12.7307	73.7776
15.2954	13.0365	72.209
13.9957	14.5879	76.3921
14.6846	-38.5537	79.9311
15.0134	-41.0504	80.0601
17.9494	-38.0977	77.5313
14.3822	-36.5418	80.0582
1.38204	-38.872	84.4928
-1.34271	-38.7577	84.4795
1.4397	-41.3298	84.916
1.18957	-36.9684	84.6333
60.9396	43.7715	28.3764
59.8856	42.9798	30.5613
62.8982	37.4951	25.5679
61.8329	44.7812	25.9732
43.8776	72.8327	31.185
38.1347	75.0967	33.536
42.9998	68.3711	35.3364
49.6733	69.3341	28.4256
45.3459	77.7779	26.4389
55.2558	64.791	24.8318
54.1892	60.8228	29.3018
60.6554	59.1667	19.9553
56.7302	69.3378	19.4613
43.0559	61.8439	40.4481
42.7359	63.9032	39.1935
37.4017	63.7371	42.4151
43.7174	59.5964	41.4132
63.116	45.647	22.3167
64.1353	48.1548	18.6351
58.6024	52.6973	28.0728
66.1932	38.6417	18.3563
24.8748	56.1684	46.0163
25.2633	54.0186	45.0748
28.9647	56.1924	45.4236
24.5082	57.9715	46.7646
21.203	55.2905	46.3009
6.06728	43.6698	56.3304
8.1431	40.0142	55.0274
6.05497	45.3562	54.2205
3.65703	46.1714	57.1645
6.17101	41.819	59.1633
29.0258	16.919	54.7301
31.0048	13.013	57.4211
36.76	15.4397	54.0089
27.0241	20.3057	52.6401
22.4765	18.6422	55.3611
58.9702	23.1433	32.4996
61.4892	21.437	31.0063
59.6431	27.0169	29.7477
56.4689	25.1436	33.771
57.0502	20.7486	36.8904
6.32419	39.2295	63.3716
8.35432	35.6387	61.8771
4.04882	41.7795	64.3624
43.8534	57.4167	42.0499
48.4437	54.9241	40.2667
38.6615	58.9268	43.6423
43.7105	55.256	42.4207
52.4573	51.5445	38.0522
51.7941	49.6333	38.9937
56.1486	47.0232	35.1768
56.267	32.69	32.8111
56.2356	36.4495	33.8231
54.4961	33.4253	34.2963
55.6405	29.4232	33.0402
57.9347	32.2087	31.2843
44.6984	40.8813	41.0065
46.2862	39.1523	39.9337
45.1914	41.5285	40.7806
42.8571	42.3272	42.061
44.2907	40.2685	40.9312
40.7945	43.6465	42.7347
41.031	44.5167	42.5036
38.4802	44.6659	42.9953
40.5853	42.8868	42.7205
41.1606	44.9415	42.3846
38.5435	46.0216	42.6187
43.5035	43.5408	41.6884
35.6104	45.2972	43.106
35.4485	46.2089	42.8027
32.5927	45.2645	42.9829
35.7876	44.4896	43.1502
35.3451	46.6447	42.6314
31.9616	46.5785	42.277
35.2596	46.9229	42.6741
29.5819	44.6916	42.6562
29.0296	45.4673	42.1965
26.789	43.5249	42.4752
30.1222	43.9878	42.8494
23.5283	41.9669	42.2758
22.4	42.6808	41.7903
20.2695	40.3237	42.1137
21.6173	43.0157	41.448
21.0641	43.1798	41.4078
18.3375	41.1849	41.5042
25.368	44.6072	41.6403
17.8608	38.9919	42.1109
16.8392	39.4535	41.9016
20.3271	43.4822	41.6881
24.2405	45.1557	41.8913
19.5679	43.9692	42.0657
35.0922	47.341	43.009
34.9687	47.8158	43.4452
31.5311	47.2534	42.6047
49.7698	33.4391	37.4257
50.7283	32.1094	36.932
50.0583	34.212	37.3519
48.7449	32.904	38.3762
47.886	35.2927	37.6473
47.5593	35.9372	37.8698
48.5977	35.1545	36.9344
47.2914	34.8521	38.2748
33.6449	55.7547	44.7229
38.6598	54.7182	43.8339
33.4576	57.6856	44.9623
33.6604	53.6802	44.5477
48.9729	44.8222	40.7957
47.757	43.5226	41.1907
50.0103	46.1933	40.2654
45.7889	47.1091	42.456
38.5906	27.8948	47.1904
44.647	27.8468	44.4938
38.0765	29.4166	46.8795
31.1791	28.5231	48.4279
39.0252	26.3564	47.5519
24.5067	29.7135	47.9198
25.2229	31.0503	47.2949
20.2421	31.1721	46.5024
24.2914	28.2089	48.432
17.0794	34.2252	44.1761
17.7552	34.5147	43.4686
16.4524	35.2295	43.5481
15.9257	34.3274	44.9957
17.837	33.3609	44.6856
37.81	30.7049	46.4914
43.2396	30.9406	44.2157
37.5928	31.7603	46.1197
31.2528	31.1647	47.6355
19.5522	33.9365	43.821
19.2154	33.2091	44.5146
21.208	33.3437	44.9306
19.6269	34.5526	43.2222
18.6235	34.4002	43.3492
17.8925	34.7773	43.0745
17.1496	35.3894	42.8121
17.9089	35.1055	42.6631
13.1987	45.4782	44.2038
12.9184	48.1893	45.3343
13.5764	42.3008	43.1044
15.2448	47.145	43.8855
15.4706	36.5845	43.072
16.0767	36.4587	42.6974
14.686	36.9103	43.5104
27.8566	46.4774	42.1844
27.4366	46.9645	42.611
28.3242	46.0893	41.8658
14.1505	40.9152	42.5556
13.7082	39.1273	43.1156
15.6381	42.7015	42.3499
37.4577	32.4176	45.8169
31.3014	32.7942	46.6518
37.3886	32.6099	45.3425
19.6948	34.9727	42.8163
19.9328	35.087	42.1036
18.7611	35.2009	42.4595
21.7462	34.5953	43.6739
37.3976	32.2409	44.4348
42.4544	32.6458	42.7867
37.4879	31.6198	43.2935
45.7146	33.8512	40.2559
46.1492	33.5462	39.2999
20.4533	34.6545	40.9418
20.6396	34.2095	39.7751
17.9934	35.3629	42.3429
47.3979	37.3636	39.0509
47.9063	37.5953	38.9187
46.7725	37.2618	39.0216
2.9068	56.8229	50.2838
-0.318956	57.2705	50.6272
2.20598	55.1759	51.166
5.5049	56.2546	50.1143
3.86314	59.2083	49.416
16.5776	26.9099	50.9401
16.6584	28.7213	49.1932
14.937	28.6911	50.9173
17.2643	24.2471	53.0939
19.7075	25.0114	51.0528
13.3467	30.6948	51.2726
11.6266	33.2115	52.0644
14.109	34.826	46.3399
12.2276	36.2708	47.4038
14.203	36.087	44.8469
9.65824	46.5128	47.6918
10.7787	48.2818	46.7695
9.20798	47.9792	48.4589
18.4479	32.2693	45.4817
17.7256	31.382	46.4571
17.1725	30.1852	47.6544
19.3348	28.5357	48.4267
17.0656	-28.7911	71.778
16.8268	-28.7918	71.2939
19.9059	-29.9929	70.1401
14.113	-27.435	73.5045
21.5532	-30.5213	69.1706
21.1658	-30.4404	68.921
2.64081	-17.9422	81.4553
5.32141	-17.6178	80.8417
2.56399	-16.6027	81.1608
-0.513996	-18.4121	81.7706
2.53578	-19.3877	81.5903
7.48817	-20.7532	79.8807
7.70817	-19.3586	80.1231
5.06934	-20.4993	80.667
7.01227	-22.0508	79.5492
9.58655	-21.2044	79.0299
11.6846	-21.851	77.9079
11.9412	-20.5108	78.1127
11.4933	-23.273	77.457
14.3934	-23.1566	76.0368
7.66944	-17.8077	80.1563
9.82495	-18.3358	79.2948
7.6418	-16.438	80.0218
11.296	-16.7324	78.2504
11.8841	-17.885	78.2005
10.8887	-15.6228	78.0213
9.17934	-15.9145	79.2082
17.4915	-25.7325	73.5197
17.5802	-24.1795	74.1442
6.27178	-23.3576	79.1541
3.8211	-22.9364	79.9548
5.6612	-24.215	78.6427
8.91743	-23.8875	78.1308
11.5215	-24.8238	76.6613
11.3684	-25.8254	75.9602
23.3331	-29.7817	69.3758
23.7745	-30.2185	69.1024
23.4928	-29.5947	69.4117
22.6238	-29.0205	70.0196
17.4182	-28.8177	72.4491
17.3259	-28.7519	72.1238
14.4371	-27.4475	74.5938
17.4512	-28.9828	72.8219
17.9622	-29.9186	73.7949
17.7737	-29.541	73.5723
15.3124	-29.0838	76.785
12.4668	-28.4723	79.3694
12.2445	-27.7889	78.8082
9.66984	-28.189	81.3345
12.8506	-29.2129	79.6663
5.79674	-25.9506	81.1714
6.09503	-26.9135	82.156
8.97612	-26.4621	79.8273
5.66387	-25.1966	80.0295
2.83925	-25.5839	82.0858
0.572703	-27.6387	84.4003
0.673712	-28.7017	84.9402
3.1497	-27.6894	83.9035
0.483944	-26.563	83.6435
-1.76768	-27.5889	84.5223
21.8342	-31.7349	68.6637
21.6029	-30.9695	69.0399
22.0012	-33.2004	68.6037
19.825	-31.0389	69.5969
0.461093	-25.6716	76.7264
0.551738	-24.7437	77.9153
2.4088	-25.7477	76.3374
0.364368	-27.5143	76.083
-1.31136	-25.6947	76.8448
0.820158	-29.8332	85.3778
-1.74368	-29.8093	85.4584
0.965879	-30.9777	85.6184
3.5694	-29.843	84.9217
1.08316	-35.1434	85.0892
4.04648	-35.07	84.7278
1.08966	-33.5201	85.5667
-1.63499	-35.1756	85.0686
7.36184	-15.4365	79.8579
6.63996	-14.0602	79.5492
5.11054	-15.1168	80.3215
0.445149	-25.5185	82.6267
-1.68326	-25.653	82.6879
0.529189	-24.8176	81.3456
0.635078	-24.4794	80.4711
2.81051	-24.3861	80.169
0.720038	-24.3285	79.7688
-1.3193	-24.5539	80.5644
5.64058	-24.7626	79.2895
8.51989	-25.3273	78.1611
5.50345	-24.5577	78.6859
0.727587	-24.3568	78.9319
2.69123	-24.3115	78.6259
-1.21376	-24.4496	78.9903
11.47	-26.3112	76.4867
11.3577	-26.1953	75.911
11.6502	-26.6248	77.0935
13.6691	-31.9975	80.4122
13.9302	-33.2133	80.3446
13.4247	-30.9894	80.3061
10.6806	-32.04	82.4933
7.29608	-32.0723	84.1584
7.40901	-33.3607	83.975
7.1628	-30.9746	84.1143
3.91025	-32.1313	85.2206
1.05384	-32.174	85.6707
-1.64563	-32.1725	85.7321
11.1178	-26.2451	75.2129
8.21969	-25.2727	76.6898
10.8686	-26.2957	74.3984
24.1573	-30.4153	68.9686
23.7549	-30.7187	69.1257
24.0833	-30.0777	69.1025
23.1084	-30.6144	69.0598
22.5141	-30.6569	69.2555
23.0445	-30.821	69.2065
21.6385	-30.6031	69.7595
20.0587	-30.2371	71.0305
4.92439	-26.0306	75.6529
5.04674	-25.0455	76.8543
7.84807	-26.5983	74.6936
4.9346	-27.9001	75.0403
5.25531	-24.5991	77.8817
8.21969	-25.2727	76.6898
7.36265	-35.004	83.7146
10.913	-34.9198	82.1918
13.1054	-30.0532	80.0593
10.248	-29.9845	82.1779
14.1475	-34.7841	80.2031
16.9336	-34.473	77.8066
10.5	-26.0627	73.6717
7.8593	-25.1797	74.6515
10.0944	-24.8416	72.5105
13.164	-27.0377	72.3472
5.16776	-24.5465	75.58
3.00651	-24.2183	75.8578
5.62296	-23.5418	73.7978
5.12342	-24.6823	76.8231
9.95211	-22.1502	71.0458
7.83874	-21.4744	71.6385
9.92145	-18.7134	69.6266
12.1909	-22.9564	70.2342
22.2221	-36.1836	69.1283
22.4295	-39.7532	69.9595
20.0516	-35.5232	70.3082
0.285424	-30.5725	76.7963
2.31567	-30.6811	76.4712
0.261842	-34.2353	78.1365
-1.43994	-30.5842	76.8607
5.81493	-20.964	72.0822
3.72496	-20.6142	72.3243
5.90964	-17.5683	70.6343
4.93364	-30.9676	75.8211
4.91244	-34.6291	77.311
7.89283	-31.4592	74.9746
26.2456	-32.6235	64.0512
27.5243	-33.0556	62.5874
10.384	39.0087	48.7956
9.96278	37.9371	51.0707
84.1323	-14.3414	-58.82
83.2643	-18.1733	-56.9129
82.8085	-14.7242	-62.3784
84.8277	-10.1474	-60.0447
85.4966	-14.2394	-56.6717
83.6626	12.1123	-28.6004
84.1739	13.7867	-33.3684
82.9986	15.3972	-24.2724
84.4028	14.4577	-38.9948
84.6511	19.3249	-41.6353
84.1135	9.32888	-38.773
84.5482	12.1826	-45.6891
77.4204	-35.1608	-43.2805
79.8641	-32.3942	-42.2595
76.444	-38.8091	-39.7263
78.7125	-31.7276	-46.1094
79.8186	-28.6296	-49.1051
77.382	-31.294	-51.3216
81.0783	-25.272	-51.9531
82.0731	-26.8211	-47.4722
87.406	-13.9184	-55.5273
89.4887	-13.505	-55.5354
86.7649	-17.5131	-53.8031
87.807	-9.61104	-56.6989
90.0454	-29.9874	-42.545
91.2681	-26.4116	-45.5751
91.1776	-30.0588	-41.0446
88.6956	-33.6571	-39.0936
94.8709	-19.9921	-44.8755
94.6731	-19.2349	-44.3207
81.9298	-40.0866	-28.3083
82.8648	-40.4546	-27.3824
81.6288	-39.8765	-25.873
81.4919	-38.7387	-30.4064
83.5071	-29.1125	-18.3476
83.0806	-29.7561	-18.1627
82.475	-30.7349	-18.2185
94.5718	-18.7807	-44.0304
93.9889	-19.0968	-42.9519
97.7405	-5.89649	-51.7038
97.4056	-5.64229	-53.2955
98.1066	-6.74926	-49.7751
97.9098	4.33344	-52.1673
98.1985	5.59463	-52.6608
98.188	7.83493	-52.2727
97.9438	8.18047	-50.0062
98.3388	8.21621	-52.8604
97.8348	10.5669	-49.8486
87.6042	-7.00847	-25.2305
88.9834	-1.8398	-27.0889
86.8848	-5.90965	-24.1354
86.4664	-10.7925	-23.7214
81.0749	-20.7717	-14.5307
80.0834	-20.4961	-11.7794
80.3949	-24.5282	-13.9039
81.7239	-16.4593	-15.2827
85.8246	-18.267	-24.5213
86.1059	-20.1935	-24.3774
86.072	-16.525	-25.2545
84.2582	7.57806	-38.7596
84.9799	8.03805	-42.4072
84.8307	7.86736	-38.3256
93.5657	17.3303	-40.5692
95.1967	18.3008	-44.3779
92.2337	17.4008	-41.9702
91.7425	14.7893	-36.8291
94.7805	16.7675	-39.318
93.8945	17.6675	-50.4263
92.6259	18.1374	-46.8813
95.1292	17.7835	-49.6242
94.7999	15.187	-54.0312
92.528	15.6523	-51.3621
95.8177	-1.81101	-60.2322
94.3516	-2.31162	-60.3658
95.9042	4.86438	-59.4965
97.233	-1.46962	-59.4602
90.0262	2.52433	-28.6603
90.2869	1.06357	-29.2158
98.482	-1.65317	-55.8917
99.0214	3.73354	-55.1768
97.8483	-4.31472	-55.603
98.8498	-1.83682	-56.0233
97.1418	12.4377	-46.2611
96.0698	12.9719	-42.2526
97.2226	10.9282	-46.5396
97.2376	13.6024	-45.9474
91.3125	2.46282	-31.9573
90.7821	0.895904	-30.9318
91.8519	4.519	-33.2766
97.6791	-0.314332	-53.6192
97.5661	-2.69053	-54.8624
94.7431	5.03667	-43.3362
94.5041	3.95201	-42.1334
96.3622	3.54253	-47.1347
88.8353	-4.26473	-31.522
88.9397	-4.14675	-32.3015
89.7403	-2.54103	-30.8477
94.0972	-6.9207	-45.1509
96.603	-4.85451	-47.4372
93.6727	-6.32743	-44.7392
93.991	-8.00888	-44.9781
82.3174	-12.6405	-16.3558
82.96	-8.47532	-18.3985
81.4231	-12.208	-13.8274
88.0233	-4.58065	-56.9512
86.3968	-5.30859	-58.2949
87.9693	-0.0174712	-56.1763
89.9338	-2.11634	-56.5232
92.0221	3.55404	-56.9231
91.6095	7.98506	-54.9309
93.9106	8.83304	-57.3661
92.3648	-0.963415	-58.3947
92.9947	-3.26741	-59.5073
92.0941	-8.75492	-58.401
91.6291	-13.3455	-56.6533
84.2852	-25.9739	-46.7367
83.0996	-28.5161	-44.0929
85.3045	-23.4076	-49.2962
86.0844	-20.6269	-51.6957
83.9277	-21.035	-52.6261
93.1338	-18.8729	-42.1538
81.8961	-30.9927	-41.6844
80.5615	-33.9412	-38.4621
83.5749	-30.7117	-41.3306
81.132	-36.8103	-33.2017
80.3347	-36.8921	-33.485
80.33	-38.9313	-28.1502
81.5414	-38.4999	-23.472
81.1247	-38.1364	-23.4946
80.2104	-38.3779	-23.0957
94.3569	-8.81771	-45.1181
96.8601	-7.99722	-47.2524
85.9788	-5.04339	-23.3822
84.8549	-4.43998	-22.5479
83.2013	-17.8043	-18.5203
83.5867	-18.1355	-19.0889
86.7357	-23.6021	-22.8189
87.691	-25.9301	-23.6503
87.2301	-22.5878	-23.9839
85.6231	-13.5477	-22.5402
86.4895	-14.3131	-24.6104
91.0537	10.6047	-52.4552
89.4347	5.71338	-53.2367
90.156	11.9716	-49.2387
87.7481	3.3336	-54.1659
86.4611	3.03582	-55.484
87.2681	5.91102	-50.8445
85.1358	-14.8694	-27.3528
86	-14.8581	-26.8144
97.2074	2.04896	-49.0871
97.1506	0.712065	-48.3073
89.4565	-3.84919	-33.8737
88.5076	-6.26314	-34.3824
90.6857	-3.38306	-36.7065
93.6104	-5.36547	-44.4813
95.8731	-2.26594	-46.3834
92.9393	-4.96109	-43.1763
9.92836	102.52	17.6671
9.84095	96.6096	24.5317
18.1352	101.577	17.455
10.2201	108.006	9.07672
1.39072	102.848	17.9101
9.51897	90.3609	30.1569
1.29807	90.2633	30.6402
9.16676	83.441	35.1077
17.2828	90.0583	29.5013
32.6937	76.6064	35.5461
31.7887	72.0067	39.484
27.8046	77.253	37.1185
2.3303	4.72993	88.4869
2.80268	6.59325	91.3185
0.602779	4.65688	89.0948
4.10299	4.64535	86.3428
3.75663	19.1099	96.4918
6.52337	18.753	94.8807
3.60704	21.246	94.9665
0.920432	19.1891	96.8951
3.87448	16.9476	97.1214
3.90078	14.4799	97.0948
0.907882	14.5127	97.4818
3.79832	11.9155	96.3659
2.06625	-0.661564	80.4784
0.330305	-0.818651	80.8197
2.11761	-8.358	78.7582
4.1255	-7.92031	78.8292
-0.1099	-8.6594	78.6136
3.43191	9.2468	94.4609
5.57895	9.00295	92.0999
0.82826	9.24282	95.1569
3.40031	23.3062	93.0937
6.04505	22.6463	91.8627
3.14396	25.7343	90.1732
0.675876	23.5907	93.3098
7.32676	68.5697	45.6799
0.289271	68.3667	45.7363
6.83466	65.9203	47.0088
14.0267	69.0373	45.5142
7.80114	71.7542	43.6358
1.60091	47.3052	57.5431
1.68083	45.4923	60.356
1.6131	48.8716	55.4958
-0.234603	47.5986	57.5431
1.69465	50.4148	53.9995
3.69092	49.3858	53.6578
1.78008	51.9412	52.8449
-0.230412	50.5776	54.0581
0.907485	-24.1084	75.8646
-1.20825	-24.1559	75.9581
1.20956	-23.0452	74.0845
0.677575	-24.3595	77.6833
0.727572	-24.3568	78.9319
-1.21377	-24.4496	78.9903
2.6913	-24.3115	78.6259
0.909581	-23.9191	79.782
2.33493	-20.6085	81.3999
2.01634	-21.7974	80.9813
-0.694333	-20.9187	81.7339
1.32981	-22.8091	80.5816
-1.06687	-23.0609	80.6749
2.49524	-15.6223	80.7836
-0.480264	-16.2708	81.01
1.41804	-20.4776	72.3634
1.60118	-17.1063	70.941
-1.03139	-20.4775	72.31
24.9336	100.368	17.0563
24.3992	95.1019	23.3253
31.1881	98.6436	16.4287
25.6301	105.336	8.98583
20.3021	69.6076	44.6682
20.6492	67.4641	45.797
26.1063	70.0646	43.1882
20.9675	72.5657	42.5283
21.6729	65.0805	46.7571
23.1286	62.254	47.4074
26.9072	65.5644	45.5866
23.9723	59.984	47.3247
19.9321	58.7819	47.8476
28.2191	60.3073	46.3523
26.9275	47.5397	42.9349
26.3864	48.7822	43.3776
22.9927	46.2956	42.5741
30.9274	48.2633	43.3603
30.1502	44.0421	42.213
32.9194	44.5857	42.4589
29.8861	44.4102	41.1828
28.5966	45.8316	41.8835
25.6117	51.1986	44.0977
29.7718	51.5605	44.2512
21.7729	50.4224	43.9637
50.3435	97.3737	-4.71386
51.6082	100.043	-15.6777
44.5961	101.539	-3.35072
49.7061	93.7989	3.76673
36.8796	96.6549	15.2038
37.8273	100.857	7.73468
42.7335	93.8901	13.3044
31.3617	69.4499	41.6352
31.4984	67.4691	42.8848
36.7753	68.0632	39.7977
33.1403	59.812	45.2216
32.6308	62.2301	45.0399
31.8853	65.1002	44.1141
33.7872	51.4219	44.3644
34.4436	49.3503	44.1169
38.3414	50.4785	44.0618
48.8268	90.2741	10.5577
54.7867	86.1297	6.74102
47.7549	86.5057	16.3545
42.7894	65.7287	37.6314
48.4163	62.51	35.1558
41.7933	46.3533	43.4367
41.9342	47.2886	43.6706
38.469	47.6169	43.8164
44.5366	44.7369	42.5908
35.7537	44.5903	42.531
35.6962	45.0616	41.6211
38.4156	44.0378	42.4093
43.3776	53.1795	42.773
42.8597	51.0499	43.1275
47.4315	50.7462	41.5666
42.2691	49.1125	43.5285
46.4856	82.3753	21.6019
52.5198	78.3989	18.2118
60.3286	82.0055	1.34609
59.3584	78.1723	7.79437
65.3806	77.9649	-5.45906
45.4512	41.8661	40.6154
47.0676	39.883	39.5996
45.6221	42.0753	40.6005
46.9594	42.8488	41.2299
46.3309	42.5621	41.0151
48.5768	40.7246	39.9245
45.8948	42.3251	40.7815
44.114	40.4308	40.3215
45.5466	38.9832	39.2974
42.4255	41.7755	41.3547
44.1026	40.9391	39.3602
51.0011	47.9287	39.689
53.939	44.146	37.4374
17.8764	53.7687	46.2435
14.9825	51.9575	46.2148
18.1937	51.7269	45.1373
17.2665	55.355	47.1298
16.1688	57.0535	47.9727
13.3093	55.0389	47.9207
18.3162	48.81	43.8604
18.504	46.0466	42.8417
5.74214	62.996	48.1466
-0.0148287	62.4576	48.367
69.1856	-60.8234	-11.6505
70.7954	-55.2849	-10.8787
69.4848	-62.5973	-17.9032
84.3791	16.6567	-62.1905
84.2774	11.5261	-66.6106
83.4691	20.6791	-68.374
84.5082	20.9583	-54.8837
84.9947	12.6275	-55.5954
80.9013	-15.9216	-68.0705
79.7533	-21.0568	-64.9807
78.9005	-17.4134	-73.3359
81.9187	-10.5407	-69.6781
82.6256	-4.72855	-71.0826
80.8657	-4.71525	-77.7219
83.2765	0.834826	-70.936
84.2349	-5.07846	-64.5424
73.923	-35.579	-54.1522
70.6363	-39.4472	-56.8834
76.0347	-30.7795	-58.124
8.58999	76.9462	39.9168
0.813125	76.6617	40.1211
15.7598	77.1807	39.5327
22.0299	77.4153	38.5642
23.2435	83.5342	33.5049
21.5326	-84.1934	60.5299
20.1271	-89.8324	53.2529
28.6882	-83.0487	54.4836
14.9937	-85.3908	64.4097
52.155	-70.6201	45.3686
45.9804	-73.1892	51.4685
56.7531	-68.0011	39.008
53.1081	-66.8848	48.9465
58.2452	73.7599	13.6923
63.5359	68.857	7.96608
23.7621	89.5706	28.6139
70.3785	73.4759	-13.8261
74.6918	69.2017	-22.8047
69.8713	68.6285	-6.36612
26.0509	110.455	-2.07579
32.6693	108.057	-1.99607
26.2849	114.747	-15.0581
18.711	112.163	-2.04641
65.6006	52.1573	13.2837
67.1728	57.8262	7.19698
49.3252	38.9115	39.0788
46.7054	37.3547	38.4532
46.9169	37.5059	37.78
58.8062	42.1353	32.2025
59.6454	36.7779	30.4014
57.3461	41.1855	33.9239
55.9027	40.3865	35.2273
3.67504	-113.27	43.0049
0.890855	-113.285	43.3531
62.8325	-57.3046	37.1753
63.8265	-52.3804	38.6001
58.8406	-59.1822	45.4671
61.6406	-62.1389	34.4918
6.15827	-12.2265	79.0059
7.86428	-12.7685	78.4957
5.7641	-10.0171	78.5691
21.3311	-21.4874	72.288
20.7846	-17.399	72.2368
18.748	-18.8122	73.7957
9.02562	-9.30839	77.0334
6.92329	-8.37369	77.7363
9.65792	-11.4254	77.4
11.3849	-10.2805	75.7632
8.31216	-7.19978	76.5465
29.8887	-26.4526	69.0011
29.0969	-30.0044	68.7569
32.7165	-27.6109	68.4607
30.1674	-22.4424	69.1455
64.2741	31.3792	23.9641
62.1572	31.488	26.8255
64.646	25.3387	24.9722
66.2441	31.3817	20.8385
68.3042	31.339	17.0537
70.8566	30.1914	11.8304
52.6076	34.1837	35.7769
50.9158	34.7249	36.9974
52.4556	31.9852	35.663
60.1192	31.5357	29.0865
85.833	3.68698	-58.0951
85.6408	-0.571627	-60.0127
85.1784	4.64995	-62.7124
85.7189	6.95949	-55.0753
82.1353	-21.9386	-54.682
80.4391	-23.3551	-57.6681
73.6567	-50.1085	-22.4499
75.3761	-45.2324	-21.1954
73.0007	-50.6372	-16.065
71.7189	-56.1808	-23.7935
74.4094	-48.1124	-28.8401
85.3218	-5.33405	-60.5506
79.0959	-20.5069	-8.4833
78.247	-24.7259	-7.80211
79.8867	-16.1615	-9.38757
77.974	-20.1641	-4.04882
76.8615	11.8004	9.3009
75.9109	19.3325	6.12843
77.0462	4.62	12.1294
79.0431	8.30093	0.887321
54.8877	26.7056	34.6124
53.3956	28.4974	35.4082
53.1549	25.2257	37.5296
52.0928	30.1251	36.1752
50.7163	29.2849	37.9102
76.6655	-18.8425	2.12209
75.3888	-17.0644	8.72737
75.7936	-23.6857	2.83694
77.7324	-13.8048	0.80775
21.8303	12.5255	60.5427
26.0988	10.666	60.1048
20.5717	16.6406	58.3519
18.5473	15.0345	61.6759
32.8409	8.67304	60.3959
40.4308	6.81004	59.479
34.0474	4.17394	62.8522
15.5735	18.2029	63.9322
13.0964	22.0737	66.4479
15.8218	15.1996	66.4204
18.5975	7.974	66.4746
17.4474	10.6585	67.4597
15.2959	9.27239	76.2132
14.2738	10.5263	78.8785
14.9324	7.13624	75.7743
15.8906	8.16914	74.2112
16.3243	7.03285	72.5111
15.727	4.47288	72.0792
37.617	-10.5352	66.1885
31.5307	-9.26025	66.4459
38.1092	-15.6003	66.604
36.6882	-5.721	65.6376
35.2246	-0.556094	64.6196
4.986	-3.95059	78.4563
5.30901	-5.94876	78.5456
6.1429	-4.3783	77.6619
60.4624	-30.2963	49.7473
61.2081	-24.7645	49.0028
55.6512	-27.7239	56.1616
59.3424	-35.9751	50.9014
24.5964	-16.0892	69.6118
22.2135	-15.0139	70.3677
26.9677	-17.0053	68.935
37.9912	-20.4961	66.8392
37.4012	-25.2777	67.1868
43.7522	-22.7048	64.8519
32.9073	-18.9861	67.7209
5.54006	-7.92242	78.5376
57.8388	-42.1927	52.4892
61.6081	-45.3939	46.1386
53.0098	-37.9808	58.4284
55.0897	-47.387	55.4396
62.2659	-9.83838	47.5921
61.9662	-14.804	48.1041
66.7981	-11.014	40.0993
28.9041	-68.2077	73.801
29.4025	-64.4461	75.0146
23.239	-69.7969	78.8286
40.9446	-57.4887	66.1215
46.0655	-55.0072	62.504
38.8268	-52.357	67.967
35.126	-58.9765	70.3922
58.6768	11.9531	43.6098
55.9589	16.4973	42.2642
52.2768	12.841	48.9063
48.5632	28.56	40.9159
49.4501	26.4975	41.0686
47.6503	30.4747	40.9401
53.9339	19.7006	41.4954
48.7625	19.8491	45.9413
51.9497	22.3107	41.3885
46.9635	32.0163	40.8665
1.79269	-63.3391	91.6992
-1.52655	-63.4293	91.829
47.6618	-34.5791	62.7132
45.8007	-38.4966	64.1478
48.9058	-30.1385	61.952
41.8555	-31.688	65.839
36.1549	-47.8844	69.1296
39.8108	-45.1633	67.3528
32.3967	-43.7259	69.9957
31.4464	-49.9022	71.7494
44.7664	14.1007	52.3598
46.6374	9.7454	54.7061
43.0019	17.8907	50.2811
50.1073	-25.0851	61.3136
48.5075	4.84732	56.8092
8.66887	-53.514	88.3241
7.93924	-48.8623	86.392
12.862	-53.3014	85.9061
17.3894	-53.0531	82.7718
22.0358	-52.3506	79.1664
16.4566	-48.5694	81.3401
41.8187	20.6717	49.0539
40.7657	22.886	48.4242
33.8441	21.5801	50.7617
50.6418	24.4462	41.2101
46.4315	24.2494	44.9642
39.9365	24.7382	47.8963
31.8933	25.4191	49.3904
10.8724	25.7786	69.238
11.2914	22.6747	72.98
10.4919	28.9295	64.9221
12.5973	16.9332	80.7561
12.2431	18.0871	79.117
10.8203	19.289	85.3011
12.8694	15.893	81.3034
9.81433	36.2478	53.4513
9.92786	34.5323	56.2219
18.8683	20.3067	56.0126
1.92054	43.0515	64.6892
-0.0571984	43.4281	64.7316
64.4181	19.9612	28.5953
10.2351	32.0518	60.1933
64.7587	-46.9645	38.9088
67.7302	-46.9798	29.804
71.0189	0.195615	30.4362
70.8133	-6.30833	31.2257
73.9795	-0.47529	21.997
68.6774	-22.7197	33.3422
69.4381	-17.4175	32.4781
65.8386	-21.2887	41.08
70.4431	-24.3621	25.9136
70.2684	-11.9445	31.7203
72.301	-13.484	23.625
18.3614	-70.8492	82.4295
7.41462	-44.8478	84.8258
4.22463	-44.8236	85.971
11.2747	-44.7002	82.9943
15.6296	-44.6051	80.5729
26.1879	33.6975	45.4727
26.0164	33.1084	46.0381
25.8385	22.9349	51.1749
25.0087	24.9872	50.0473
24.4917	26.6207	49.1755
1.43036	-44.8025	86.4849
-1.40071	-44.7666	86.6443
5.70032	52.1938	50.9575
7.19246	50.956	50.153
6.46237	53.561	50.1712
3.90229	52.8375	51.5801
5.4866	50.0889	51.854
16.3721	36.4208	42.5351
15.9273	37.8707	42.2074
13.835	37.4062	43.9384
8.38353	49.4534	49.3129
9.45962	51.3563	48.5199
1.92829	53.5609	51.9357
-0.317468	53.6674	52.0745
5.52037	4.6847	84.393
6.36921	6.29688	86.4926
9.00477	17.9037	91.8329
8.89561	19.5592	90.7484
11.3419	16.5873	87.1682
14.4518	-0.730325	69.7185
14.3203	0.76834	70.9063
12.2866	-1.78146	71.24
8.52228	21.3016	89.499
5.99082	47.1424	52.8817
7.80195	55.4395	49.6462
9.64888	54.1995	48.8943
16.3417	39.5888	41.7401
11.1711	52.9676	48.0074
12.0696	51.6711	47.22
12.5913	50.1584	46.3359
16.6639	-7.69947	69.3998
14.1165	-7.39122	71.1742
18.1275	-10.4837	70.3502
19.7804	-13.8573	71.4358
16.7795	-12.4302	72.7016
20.3561	-29.8836	68.6745
20.3482	-28.7742	67.9182
18.4601	-29.305	69.8028
21.294	-27.3822	71.5803
19.7131	-25.4975	73.0668
20.5665	-25.9887	66.4017
17.3759	-25.0058	67.9615
20.6881	-22.5182	64.8427
11.9447	-6.9542	73.1046
9.77492	-6.1848	74.8174
12.8852	-8.9926	73.6474
14.1255	-11.3947	74.1852
14.926	-13.764	74.8097
16.1288	-28.317	70.9847
14.9887	-26.7367	70.4653
14.6425	-23.9168	69.215
14.5988	-20.4931	67.7855
7.81828	-5.23024	76.302
7.37732	-3.40873	76.0642
10.408	-13.8318	77.6777
12.9773	-14.9271	76.475
15.6891	13.6957	69.057
13.5638	16.7851	72.5786
2.78503	28.6787	86.1005
0.402259	28.9875	86.2603
11.6949	20.2205	76.5605
7.56829	8.83313	89.3352
9.42453	8.2442	85.5359
11.2599	7.48109	81.5763
12.3391	9.60029	82.3572
12.978	6.22409	77.8223
14.1132	4.88919	75.185
14.4687	3.44613	73.2811
14.4283	2.04886	71.9165
13.0159	14.9233	82.0487
13.0418	13.5786	82.6291
12.8217	11.722	82.6635
39.7039	-143.752	13.1058
35.0384	-145.113	16.1762
40.7561	-149.511	12.1634
43.9451	-142.235	9.97852
38.5426	-136.255	14.4599
37.402	-125.313	16.4286
41.6092	-123.468	12.8679
36.8585	-113.687	18.5175
32.9603	-127.026	20.0033
40.7192	-88.8116	27.0399
45.1941	-86.6184	21.9616
35.6814	-90.9974	31.9245
38.8054	-95.4897	22.7957
37.286	-103.857	20.3849
32.6241	-105.972	24.6253
41.4967	-101.698	16.3282
43.4928	-42.159	65.6068
47.7379	-46.4888	62.6631
38.23	-38.509	67.5554
51.56	-51.6375	58.6434
53.2263	-57.0238	55.2747
53.6976	-62.178	52.0702
33.931	-35.7101	68.2803
35.3818	-32.8237	67.8687
30.2336	-33.6283	68.3857
31.6958	-38.0385	69.0588
28.2568	-32.4202	68.6586
26.9766	-34.0716	68.9563
48.7665	-84.8041	17.0354
51.3892	-79.604	20.2089
46.7884	-91.4232	14.0576
51.9288	-83.7446	11.5367
54.4954	-74.9799	24.2108
56.8652	-74.1417	17.2042
57.55	-70.68	27.9824
59.9099	-66.4012	31.6256
62.0315	-65.8722	23.3545
45.6249	-121.45	9.26089
46.6013	-132.952	7.8064
49.4665	-119.809	5.46835
45.1371	-109.492	10.8037
47.7646	-140.739	6.70312
48.9443	-146.7	5.76544
51.2876	-139.213	3.10151
45.4981	-99.5469	12.2387
73.8091	-15.27	16.0467
72.775	-20.706	17.1163
75.0468	-9.30958	14.9562
63.346	-65.6652	15.8285
61.0842	-69.6019	13.2538
64.2022	-65.5514	8.55051
74.5602	27.4966	3.51507
78.4928	22.8512	-6.51856
69.5504	-47.2537	21.2532
70.8094	-47.6356	12.5196
71.9697	-25.9579	18.3676
73.5741	-27.4009	10.8537
76.2458	-2.24057	14.0187
77.7842	-5.3	6.27242
74.9768	-28.5307	3.74185
76.2996	-29.0241	-2.78282
59.8789	-83.5986	-4.49564
59.5349	-89.2571	-5.30284
62.0333	-83.9331	-9.30507
60.5515	-78.6171	-3.37745
57.5485	-83.426	0.470413
59.3243	-95.6559	-5.78542
61.6726	-73.8442	-1.59757
60.2057	-73.7238	4.17764
63.2658	-74.2647	-7.36864
63.148	-69.6003	0.0253889
80.471	5.07589	-7.39525
80.8225	11.9362	-11.7886
79.8958	-1.92739	-3.22544
81.3581	19.0565	-16.6963
81.8775	25.8182	-21.1888
82.5167	32.5393	-26.4293
84.2968	28.9134	-36.7567
83.0572	39.0701	-32.1881
71.5371	-48.0173	4.34863
71.9955	-48.866	-3.46415
78.8968	-8.07069	-0.60507
79.8271	-10.416	-6.52313
53.3053	-118.131	1.31649
53.9207	-129.804	0.128037
58.6664	-73.7751	10.6385
56.4893	-78.3094	8.00245
54.6916	-137.586	-0.957893
55.6531	-143.386	-2.13456
63.4756	-113.302	-16.1657
63.5545	-123.275	-17.7235
64.1047	-84.1327	-14.0332
65.6222	-83.2071	-19.3765
64.5446	-79.2467	-13.5751
65.2254	-74.381	-12.9001
63.4833	-130.403	-19.3451
63.4184	-136.039	-21.0386
72.4102	-50.2869	-10.3352
77.4269	-28.8984	-7.34951
78.6457	-28.0122	-10.8999
76.7283	-32.9088	-7.6194
80.5761	-11.626	-10.5038
64.6042	-92.2666	-27.2703
63.197	-89.1146	-34.4001
65.133	-85.7534	-26.404
66.1059	-79.6947	-25.923
65.7389	-74.6193	-32.6952
69.8916	-62.6583	-24.5248
76.5856	-42.3382	-20.6707
77.6619	-40.9325	-27.514
58.7146	-119.385	-45.5092
58.5628	-126.758	-47.3207
55.3423	-116.882	-52.4648
58.9216	-111.575	-43.9138
75.2849	-44.0914	-34.5235
77.3705	-39.8705	-33.8346
79.0254	-37.7439	-33.5628
30.2784	-146.308	19.0973
29.2852	-139.013	20.9051
25.4493	-147.412	21.7208
31.2832	-151.994	17.7585
27.3332	-107.972	29.2546
22.0096	-109.773	33.5046
27.387	-117.444	26.7471
28.2978	-99.9033	32.2842
35.2381	-81.8633	48.6576
32.4913	-86.8964	42.8792
37.8012	-77.8329	53.5285
30.0692	-92.8156	37.1707
24.3073	-94.5554	42.1386
28.1464	-128.369	23.7644
23.246	-130.042	27.2506
29.4902	-40.3408	70.3329
27.0145	-37.4373	70.2608
39.5517	-74.2236	57.5296
25.5153	-35.5863	70.0732
23.4352	-36.7079	72.0144
24.2437	-34.1663	69.9153
23.3814	-32.8399	69.8658
22.9144	-31.7623	69.7782
21.6104	-33.6675	71.5814
26.9878	-51.5172	75.2896
28.2968	-55.8781	75.4299
29.3575	-60.3859	75.3303
17.4184	-29.166	73.3902
14.746	-28.098	75.8078
17.0656	-28.7911	71.778
19.913	-30.0034	70.1716
17.0224	-29.1664	71.2677
14.113	-27.4349	73.5044
16.913	-29.8047	70.8934
16.9526	-31.4096	70.8722
13.8079	-28.4954	72.2567
17.062	-34.437	71.7044
17.242	-38.0481	72.9299
13.8763	-33.1486	73.0243
16.9134	-111.082	37.0886
17.4118	-102.824	40.4388
17.459	-120.688	34.3007
20.5182	-148.522	24.0262
19.5602	-141.465	26.4023
15.6451	-149.355	25.9947
21.2228	-154.048	22.543
18.4108	-131.456	30.3035
9.71136	-97.5612	51.0035
13.4139	-97.2254	49.1217
9.56697	-91.6628	58.8088
11.3574	-149.974	27.419
11.9131	-155.423	25.8965
9.9981	-85.8572	66.8242
11.1178	-26.2451	75.2129
10.9062	-26.6158	74.3987
10.6555	-27.3597	73.6437
10.7922	-29.1529	73.2543
10.8599	-32.1763	74.0839
10.8698	-35.8855	75.5135
78.0493	53.3004	-17.6299
81.5099	49.1558	-27.9753
78.7606	59.3311	-24.8899
73.605	57.982	-7.98996
84.7252	25.1563	-46.2356
77.9077	-26.1266	-61.9533
75.2166	-28.8952	-66.0205
52.7774	-98.027	-54.7063
53.5625	-88.738	-53.7139
55.5788	-100.23	-49.2384
52.456	-107.038	-56.1017
49.9432	-96.5972	-59.7187
52.3799	-114.921	-57.6896
52.5172	-122.62	-59.4468
49.2377	-113.538	-62.4049
60.3993	-84.8554	-41.7385
59.569	-94.0875	-41.9314
57.4007	-81.6333	-48.0832
62.0689	-76.483	-41.1225
26.1017	117.73	-29.9017
33.3609	114.765	-29.2942
25.9671	118.552	-45.7883
18.3973	119.812	-30.2311
25.5893	81.0716	-124.916
26.2272	93.917	-111.629
33.3553	79.7118	-122.479
24.8353	66.7309	-135.128
17.4364	81.8366	-126.571
24.2379	52.239	-140.943
31.7463	51.3141	-138.52
23.7942	37.6139	-143.707
16.5698	52.355	-142.525
26.2585	104.21	-96.4264
34.0485	102.277	-94.1326
18.1109	105.533	-97.9193
26.1472	111.844	-79.805
9.69861	119.458	-64.3129
1.13298	119.698	-64.5117
9.77523	121.74	-46.9815
18.018	118.489	-63.7016
9.67515	114.263	-81.7871
23.441	24.1347	-144.479
30.3641	23.4777	-142.037
23.0062	10.8419	-143.568
16.3701	24.3809	-146.09
22.3974	-2.4952	-141.277
29.1399	-2.73915	-138.796
21.783	-15.0029	-137.619
15.5875	-2.11424	-143.043
18.9087	-45.3835	-116.447
25.1189	-45.5361	-114.23
18.1978	-53.869	-106.279
12.9577	-45.5186	-117.45
20.1577	-36.1834	-125.686
7.75695	-26.0689	-135.821
0.8238	-26.2069	-136.216
8.02183	-14.8117	-140.471
14.4886	-26.0568	-134.587
7.29429	-36.2112	-128.775
15.4429	-93.4819	-83.1205
15.8953	-85.7204	-84.1806
20.8211	-93.8936	-81.6715
15.0885	-100.748	-82.998
10.2093	-93.2269	-83.774
4.88582	-107.202	-83.2686
9.85908	-107.539	-83.2278
4.95057	-114.581	-83.4233
0.109558	-107.033	-83.2216
5.04444	-99.933	-83.2365
18.0692	-60.8431	-97.9297
23.6278	-61.2457	-96.5053
17.468	-67.7703	-91.6487
12.1314	-60.3231	-98.6737
16.5639	-76.5597	-87.0863
22.2822	-77.2293	-85.1383
11.127	-75.9443	-88.0484
5.71186	-75.4691	-87.8569
6.0646	-66.6905	-92.4992
5.33831	-84.936	-84.7116
0.265409	-75.4657	-87.3997
52.4407	101.981	-28.5828
58.2635	96.3083	-28.1954
53.3827	102.297	-42.626
46.4061	106.809	-28.6182
51.8289	47.4856	-126.148
57.5454	45.7076	-121.071
51.3282	34.1777	-129.192
45.7198	48.9241	-130.776
52.3123	60.5438	-120.273
52.4635	72.9536	-110.951
46.5106	75.5463	-115.181
53.0152	83.5273	-99.0549
58.309	69.7332	-106.235
53.791	91.6987	-85.9571
59.8815	86.7444	-82.6907
47.6281	95.7828	-88.8316
54.6098	97.1722	-71.9496
54.148	100.82	-57.3745
47.7846	105.765	-58.6969
60.2166	95.1843	-55.821
50.5708	21.4743	-130.384
49.757	8.99206	-129.861
44.3781	22.1711	-134.784
56.237	20.5627	-125.551
48.7581	-3.1607	-128.045
54.4333	-3.35574	-123.419
47.6936	-14.8298	-124.589
42.6869	-3.13052	-131.995
46.1597	-25.373	-119.682
44.5097	-35.4807	-112.669
40.4511	-25.9206	-123.245
51.3003	-24.9938	-115.275
43.1662	-44.8482	-103.538
48.215	-43.7204	-99.7717
42.0329	-53.118	-94.6264
37.5041	-45.2061	-107.558
40.9647	-60.9475	-87.0285
39.8002	-69.2771	-80.5058
35.4491	-61.5069	-90.6472
45.835	-60.2857	-82.8295
36.9673	-94.3832	-73.8111
36.165	-102.412	-75.4292
31.6542	-94.4399	-77.0568
37.7384	-86.1747	-73.417
41.8219	-94.7014	-69.9063
25.0817	-108.591	-80.8841
24.8212	-115.354	-81.0822
19.8821	-108.126	-82.1563
25.6092	-101.636	-80.4496
30.4094	-109.189	-78.955
38.6665	-77.8405	-75.7887
43.5082	-77.3772	-71.401
33.5734	-77.8623	-79.4151
40.5296	43.0062	42.1012
40.5501	43.5566	41.1727
72.6513	57.549	-88.5255
73.5161	64.283	-78.374
76.5062	52.5683	-80.9755
72.1132	48.8966	-97.148
68.3815	61.9147	-95.3193
74.6286	69.5256	-68.0111
78.3302	63.3355	-60.8249
70.2792	75.5166	-74.0648
75.1923	73.4713	-57.3136
74.068	76.8825	-46.8771
76.7578	70.9002	-40.1303
70.2855	83.0169	-51.0645
61.2483	19.6675	-120.569
62.0615	31.5209	-119.031
65.7982	18.4672	-115.206
60.4157	7.87216	-120.22
62.6382	43.855	-115.812
63.2115	55.4912	-110.023
67.3579	41.4787	-109.921
55.9381	-24.2648	-109.878
58.0943	-14.2249	-114.683
60.2341	-23.5431	-103.977
53.8131	-33.7003	-103.461
59.4072	-3.62204	-118.229
63.9375	-3.55693	-112.781
52.4442	-42.2191	-95.6087
56.3459	-40.9087	-90.4095
51.5057	-50.6997	-86.4626
50.1025	-58.7781	-78.7275
53.8329	-56.3436	-75.0259
48.1347	-76.9	-65.7805
52.1171	-78.1576	-59.2659
47.172	-86.2558	-64.3818
82.1245	24.978	-74.9416
81.3869	17.4463	-80.5383
80.3013	28.6159	-81.9211
63.2348	90.1147	-27.0822
64.4347	90.6783	-40.6227
83.31	45.3212	-38.471
82.8181	51.4144	-45.6103
71.2258	-20.6864	-88.5601
67.985	-21.9326	-93.4716
73.2611	-12.7372	-92.7154
74.1343	-19.6983	-83.1508
68.764	-28.4445	-83.0093
74.2759	-4.24103	-96.1567
71.3213	-4.02324	-101.998
75.123	4.44189	-97.4605
76.9624	-4.59838	-89.6572
76.0457	13.7715	-97.0424
73.1611	15.5171	-103.553
77.0798	23.0155	-94.1958
78.5269	11.7375	-90.1657
61.4836	-48.4584	-65.5349
58.9252	-51.2674	-68.5137
63.7705	-42.1285	-71.1395
64.2198	-45.7661	-62.3977
59.5446	-55.3144	-60.2845
72.1981	-31.1991	-69.8861
69.7691	-37.0655	-64.7127
69.2368	-33.3261	-73.2842
74.61	-25.1484	-74.2795
54.9671	-79.6461	-53.5202
56.5617	-70.858	-54.4684
78.9712	-33.3173	-14.9976
79.5923	-29.3211	-14.1484
77.2242	-35.7456	-12.0089
79.6647	-27.2848	-13.2411
83.6025	-3.02817	-21.716
84.5452	1.34408	-25.1116
98.3984	-1.39558	-58.4376
98.5569	4.87813	-57.8523
99.1028	-1.61306	-57.3738
86.8921	-37.2081	-34.7271
85.5979	-39.5137	-30.4579
98.1397	10.4353	-55.7038
96.8915	10.7484	-56.6535
97.4078	14.6926	-52.3996
99.0861	9.80349	-54.6914
89.9997	11.1057	-33.3236
88.6238	10.8726	-34.2779
96.4633	17.3813	-48.3687
97.5773	16.6171	-47.3296
92.671	-22.7509	-49.1015
88.9192	-35.6952	-26.5565
87.9979	-34.7427	-23.9005
87.2245	-38.5484	-26.4135
85.4212	3.56116	-27.1213
91.1032	16.8493	-43.2693
89.3741	14.2277	-39.8244
90.0545	15.2208	-44.7971
87.3688	10.4354	-35.8665
86.4009	10.0403	-37.8008
95.5172	10.7004	-57.2583
85.9235	9.52397	-38.9554
87.1842	10.8361	-42.0076
88.82	11.7727	-45.9664
87.3685	8.62908	-46.1164
92.0435	-29.0479	-39.5358
92.1534	-28.6138	-31.6511
84.8872	-40.0435	-26.7018
86.8108	-33.1316	-22.1227
87.7755	-30.1125	-23.2586
88.9976	-27.936	-24.7275
89.8069	-26.5009	-26.0628
99.1605	-1.79294	-56.5582
99.673	4.11958	-55.9957
95.6587	15.9647	-38.7542
95.9987	14.9697	-38.4401
97.2641	16.7381	-42.4353
95.7509	14.1637	-38.3813
97.0639	15.0266	-41.8075
95.1258	13.1507	-38.4344
99.4343	9.21805	-53.9195
98.8382	13.0849	-50.6857
99.322	8.62514	-53.4242
98.2097	15.7344	-46.5556
98.3262	14.8364	-46.1704
97.8125	14.309	-45.8201
98.3047	12.0104	-49.9873
98.8402	8.39568	-53.153
97.4523	-5.60207	-54.5882
94.5867	11.8055	-38.716
91.8531	5.43637	-34.5326
97.1973	9.31452	-46.7062
97.9838	-7.30836	-48.5952
97.9057	-5.41771	-48.8349
97.706	-3.51657	-48.8122
97.3552	-1.89912	-48.3767
96.8762	-0.454352	-47.5423
95.8764	0.945651	-45.357
87.2293	-22.5732	-25.4142
88.5112	-24.5021	-26.4206
90.2905	-0.312405	-29.9677
86.5412	-14.7111	-25.9591
89.7067	-25.8692	-26.9508
34.8032	48.3203	43.8026
38.6377	105.232	-2.56346
39.5584	108.743	-14.8494
10.2835	113.435	-2.16844
10.2091	118.021	-15.496
1.37939	113.963	-2.19804
39.992	111.18	-29.0424
40.4303	111.765	-44.1386
9.97396	121.018	-30.4731
1.24019	121.416	-30.6923
25.9095	116.637	-62.7089
33.6371	113.848	-61.4384
40.8219	110.22	-60.2043
41.22	106.168	-76.0959
68.8232	63.2362	0.447822
78.3573	65.0401	-32.6176
80.6587	61.1901	-42.8515
65.4826	89.3573	-54.1112
66.1358	86.0015	-66.7127
9.67474	106.276	-98.6846
9.62305	95.5691	-114.131
1.16053	106.45	-98.8717
40.9581	99.5913	-91.4116
40.6839	89.9049	-106.152
81.1128	57.355	-53.2174
80.4997	53.0148	-63.4341
65.2028	81.4887	-78.9776
64.1684	74.864	-90.3584
79.6239	47.6166	-73.2755
78.6923	40.6681	-82.1439
77.8658	32.485	-89.1935
74.944	35.7539	-96.4033
46.2852	-95.6763	-64.9368
45.522	-104.146	-66.4842
45.2841	-111.954	-67.6937
45.2263	-119.435	-68.8662
40.6481	-110.578	-72.6959
9.29606	82.2792	-127.227
8.99798	67.2426	-137.373
1.22271	82.119	-127.482
8.9115	52.288	-143.174
8.90122	37.871	-145.909
1.17497	52.1221	-143.24
8.89942	24.4529	-146.856
8.71606	11.4394	-146.173
1.08548	24.4302	-147.001
8.3553	-1.83753	-144.015
0.986871	-1.99088	-144.24
21.0863	-26.0863	-132.613
27.6093	-26.2121	-129.933
6.65692	-45.5345	-118.17
6.39721	-53.8123	-106.84
0.59398	-45.7023	-118.22
6.25982	-60.1694	-98.5578
0.386171	-60.2143	-98.2784
5.19157	-92.7796	-83.4508
0.173281	-92.5476	-83.036
38.8927	50.2126	-135.058
39.6328	64.2956	-129.157
38.2106	36.1735	-137.884
40.1117	77.7493	-119.312
37.4636	22.8912	-138.756
36.7433	9.90866	-137.908
35.9669	-2.87033	-135.695
35.1953	-15.1768	-131.934
34.1569	-26.14	-126.762
32.8878	-36.1614	-119.905
31.3924	-45.4297	-111.235
30.1488	-53.9325	-102.073
29.5762	-61.4864	-93.9824
29.0092	-69.1249	-87.3056
27.9668	-77.5882	-82.6225
27.0268	-86.2747	-79.9251
26.3657	-94.1487	-79.606
35.7253	-109.765	-76.2818
35.267	-116.736	-76.9108
63.4643	66.2624	-101.141
71.4179	39.1395	-103.32
70.641	27.9626	-107.479
69.7017	17.2915	-109.681
68.8035	6.53208	-109.608
67.8064	-3.67553	-107.595
66.5152	-13.5528	-103.641
64.2165	-22.9092	-98.5869
61.8308	-31.3818	-92.62
59.8291	-39.1238	-86.091
63.1235	-37.5438	-81.3353
58.1745	-46.8173	-78.51
56.5416	-53.8226	-71.8338
58.211	-62.9387	-56.1432
60.5811	-60.9203	-53.2042
80.4512	10.1725	-83.9266
79.6746	2.55978	-84.6549
82.204	8.20073	-77.0212
76.5797	-18.6468	-78.4372
78.1856	-11.7482	-81.5061
66.1663	-35.5241	-77.2705
79.0257	-4.54897	-83.9333
67.2039	-42.9955	-59.527
65.1603	-49.2599	-54.746
18.6151	-95.8036	46.3883
64.9586	-65.4656	1.56386
54.8288	-83.3079	6.04746
11.9905	-19.1258	78.2247
14.575	-20.5426	76.6342
17.5587	-22.9287	74.523
6.37333	-27.8752	82.8876
6.67318	-28.8449	83.3994
6.91696	-29.8911	83.8475
20.8513	-37.4996	74.7496
20.0413	-35.7599	74.6976
19.383	-34.0853	74.6613
15.9495	-16.6436	75.1202
36.551	-29.3782	67.4255
27.2257	-8.48851	66.4286
28.752	-13.0987	67.7406
29.5686	-17.8006	68.4346
61.7953	-19.6424	48.3129
18.9611	44.6259	42.3545
83.7988	6.39635	-69.8096
85.1229	9.87868	-51.0011
85.3657	8.00562	-48.1443
75.7139	-37.6863	-7.96762
25.6351	32.2042	46.7227
53.6432	58.3761	32.0344
50.179	34.8748	37.4485
7.13984	-1.8892	75.7232
48.0902	37.7821	38.8445
10.2179	-0.934629	73.367
86.2025	7.45234	-46.8026
59.0699	-103.081	-42.8317
64.6465	-68.1315	-40.2317
63.7041	-62.5688	-46.1135
63.4804	-57.2986	-50.5106
19.6071	-0.561181	65.2762
23.7318	-29.3897	69.4362
11.8375	-27.0959	78.0447
21.5803	-30.5654	69.2942
5.2553	-24.5991	77.8817
-73.459	-39.5053	2.49427
-74.334	-34.3986	2.34853
-74.4831	-39.5502	-4.43917
-72.4972	-44.3818	2.48863
-72.1913	-38.9853	10.5209
-59.1207	-115.754	-7.29173
-58.8276	-104.284	-6.46895
-61.3897	-114.433	-11.8063
-59.6588	-126.573	-8.58846
-56.3335	-116.911	-2.93347
-60.1078	-133.964	-9.99377
-57.5951	-135.809	-5.39351
-61.9825	-132.148	-14.6553
-60.5551	-139.67	-11.4525
-52.1756	-96.8621	3.8459
-55.8691	-96.2495	-1.27547
-52.3154	-106.189	2.70272
-48.4019	-97.9736	8.6301
-52.756	-89.5743	4.7563
-63.0774	-95.6107	-14.8548
-61.0651	-95.708	-10.4266
-63.3018	-89.8077	-14.7393
-64.2473	-94.9134	-20.3303
-63.0229	-103.17	-15.3278
-67.0615	-56.8157	17.3874
-67.7766	-57.4708	9.52802
-65.0452	-61.5029	16.0626
-65.741	-56.3713	25.5428
-68.4298	-52.4487	18.2252
-74.9572	40.4673	-4.68678
-79.2708	35.7678	-15.8263
-74.2509	34.1044	0.0209434
-69.9812	46.1004	5.302
-76.3294	46.7584	-10.9341
-82.8249	35.3211	-59.0603
-83.8531	29.6124	-52.5277
