1925
-42.1944	8.05022	-134.159
-40.4365	-16.5356	-128.381
-52.0625	-16.1228	-119.882
-48.5085	-36.326	-108.189
-37.9519	-37.3253	-116.164
-35.4764	-55.0549	-98.142
-46.5361	-53.6596	-89.9849
-34.1377	-70.5251	-83.6398
-40.7691	-103.258	-71.466
-42.2344	-86.8043	-68.8859
-32.0835	-87.0136	-76.6091
-30.649	-102.363	-78.189
-29.9229	-115.813	-79.685
-68.744	68.5044	-84.5058
-67.2988	50.9167	-103.683
-75.3223	43.2776	-89.1389
-77.1114	57.273	-70.5095
-78.7248	66.2142	-49.9797
-71.0704	78.9551	-62.3728
-63.9471	5.5816	-114.594
-65.7774	28.2427	-113.106
-57.1454	-34.3411	-97.1866
-61.6386	-15.5638	-108.498
-54.6022	-50.6157	-81.5323
-79.148	18.2315	-86.4256
-64.9241	-32.0216	-86.8159
-71.2952	-28.92	-77.475
-75.5019	-14.3818	-85.9631
-69.3893	-15.1425	-97.6482
-77.1091	1.28368	-90.0201
-71.4706	3.68903	-103.218
-73.4985	23.8089	-100.489
-61.7269	-54.5656	-56.3968
-66.3473	-41.6978	-66.6576
-60.4378	-46.5426	-73.7568
-99.4673	2.11655	-55.6204
-97.3296	2.64533	-57.6649
-98.5897	11.6123	-50.276
-96.3143	12.9166	-52.3025
-93.3945	12.0693	-34.5982
-90.8865	12.4196	-37.0306
-88.6775	10.6531	-40.1413
-94.2747	0.909498	-58.2866
-93.454	10.9757	-53.3769
-97.7744	-9.80745	-53.7485
-97.8762	13.4662	-40.8932
-98.9975	10.034	-49.097
-40.2796	-117.658	-74.1365
17.8554	-76.0407	74.5958
15.0145	-77.0243	74.7502
20.0505	-76.4264	71.3883
18.7694	-73.9592	77.2255
70.6213	7.45515	29.835
68.7382	9.54818	32.5113
71.071	3.99456	30.3411
71.7454	9.69744	25.222
66.8772	11.8861	34.0917
66.5	15.2164	31.3437
64.6062	11.8201	37.7996
14.3755	60.5239	49.3492
16.6994	58.1415	49.2283
18.3125	63.1234	48.1095
10.9821	61.833	49.4787
11.5284	56.7501	50.3256
26.9607	38.4992	43.8739
24.5834	36.9622	43.2659
26.7193	38.9242	42.2906
29.8632	40.0225	44.5512
27.058	38.54	44.9302
10.9444	40.1072	52.8374
11.7052	38.5725	52.5221
11.2538	41.3029	51.5406
10.3932	40.9789	53.3955
14.5037	37.8251	48.2754
16.6141	35.2394	46.9463
15.1136	39.5142	47.3744
12.7805	40.9033	49.5065
14.2277	36.404	49.5142
47.7493	31.6417	39.8646
47.4598	31.8125	39.8455
44.2899	30.4651	43.2377
48.2025	31.0523	39.6991
49.3654	32.4861	37.2462
19.1658	30.2213	49.3643
18.8022	31.0697	48.9125
18.5967	29.7095	50.5341
20.6595	29.2111	48.6811
21.8307	33.7061	43.0572
21.9689	33.2435	42.9641
22.298	33.7943	41.8714
22.086	34.4767	43.1171
21.3928	33.6811	43.968
25.5103	-29.0716	73.6905
25.2433	-28.9808	73.8058
25.6572	-29.3403	73.2894
25.3242	-29.0294	73.9416
24.2516	-27.4557	75.6211
24.4824	-28.4037	74.7313
25.4574	-28.2056	74.5854
24.3893	-26.8417	75.9653
22.8136	-26.7763	76.6651
26.1077	-28.521	74.1553
26.2703	-28.3186	74.2186
26.1323	-28.6895	74.0771
28.1157	-27.7223	74.1512
27.1821	-27.5804	74.3098
28.658	-28.4929	73.856
28.3809	-26.4768	74.2936
26.1695	-29.7806	72.5762
25.3161	-29.0758	72.7744
26.9907	-30.3257	71.1661
25.8245	-30.0881	73.0669
21.9092	-32.7377	79.3939
22.2887	-33.5822	79.2747
23.6264	-30.5485	76.5314
21.7467	-32.0187	79.2268
19.8201	-34.6829	82.4627
19.6537	-18.7362	80.6027
19.0751	-17.1587	80.7658
16.3474	-16.4885	82.4688
19.8638	-19.6756	80.3377
22.2567	-21.6418	78.7979
24.489	-28.7388	74.7138
24.5671	-28.825	74.7645
24.5666	-28.749	74.5215
23.0423	-28.5865	75.627
81.2683	-36.1346	-15.9652
80.5612	-36.3816	-15.0148
80.853	-40.0734	-17.7871
82.0124	-35.2256	-16.2656
90.9771	-29.9995	-29.93
91.5401	-28.8728	-33.0904
89.1183	-28.6218	-29.5588
90.3729	-30.6259	-27.2169
92.0847	-31.3545	-29.9956
85.1295	-33.7905	-18.3192
85.1795	-31.1277	-18.6453
84.5123	-33.9129	-17.4236
85.9508	-35.4227	-19.3373
83.7501	-22.8303	-25.0936
83.5353	-21.8747	-27.1526
84.6088	-20.7262	-25.7641
85.3573	-22.9076	-24.1682
84.3733	-25.1026	-25.2356
91.373	-4.23164	-32.5059
90.7358	-6.28004	-32.6688
91.574	-3.56774	-33.2872
91.4682	-3.48968	-31.765
95.0208	5.15394	-39.5938
94.8133	6.02295	-38.8828
94.6893	4.21136	-39.2621
96.4852	5.43632	-42.8406
87.3644	-22.4556	-33.5405
86.1795	-20.6345	-32.7295
86.4339	-25.7667	-29.8702
90.0516	-25.981	-34.9754
89.9996	-20.8595	-38.0247
93.4606	-4.50324	-39.0532
93.8721	-3.49495	-39.7204
91.8941	-3.96474	-35.3523
93.3733	-6.00895	-39.6977
97.1671	-17.4588	-47.4034
97.0489	-17.1184	-46.8499
96.0875	-20.2091	-46.0764
97.5101	-16.5931	-48.6742
97.5717	-15.3845	-50.7333
97.9103	-13.1699	-50.3643
97.4785	-16.2678	-51.5426
97.6759	-12.8075	-52.7945
91.8783	-27.8816	-35.5666
92.2766	-26.2166	-38.0731
92.8168	-28.9166	-35.8759
94.1013	-15.9996	-43.8239
92.6363	-17.6011	-42.3872
95.7871	-16.6769	-45.267
94.2183	-14.6713	-43.8689
83.1246	-28.1512	-16.2943
83.2178	-30.4529	-16.1804
83.9081	-27.958	-17.2333
82.7965	-27.1895	-15.9888
82.6798	-25.4571	-15.7947
83.1339	-23.4919	-16.4277
82.2534	-25.3872	-14.8677
84.6267	-16.8973	-18.8923
84.2622	-17.3225	-18.3391
85.077	-17.4412	-19.634
85.1852	-13.881	-20.0342
83.854	-17.959	-17.657
83.4264	-17.6061	-16.8
83.6304	-20.3262	-17.1884
86.6356	-27.0854	-27.7662
87.0994	-27.1448	-25.5599
86.9672	-14.1352	-28.5436
85.7113	-17.6628	-27.0118
86.3185	-14.819	-30.0383
88.3956	-10.6417	-29.999
88.1665	-13.0698	-27.8599
97.739	-1.64988	-50.1155
97.853	-1.00991	-50.5964
97.6331	-1.91857	-49.4378
98.0136	-3.18515	-51.4334
98.1386	-6.82126	-51.1219
98.2468	-7.50623	-49.3943
98.1529	-8.6057	-51.4998
97.9924	-5.77225	-52.3063
97.977	-4.67342	-49.7849
94.3022	3.63551	-39.307
95.1565	3.12858	-41.9189
93.3467	3.20913	-38.0717
96.2156	2.18899	-45.08
95.4692	1.36273	-44.1915
97.4959	0.893573	-48.8917
97.2217	3.08748	-46.156
43.0677	42.588	43.5519
42.8951	42.2238	43.3084
45.5008	41.2507	42.2811
43.2813	42.9975	43.8557
40.1409	43.6043	44.5793
23.4438	-76.8448	66.6427
22.5756	-79.1782	63.324
25.7474	-75.4498	66.3434
50.5096	35.9085	37.221
50.8631	36.4338	37.3473
49.3766	37.9093	38.6306
50.1718	35.6481	37.2789
51.4978	34.224	36.0177
54.334	37.7763	34.89
56.0993	39.0859	32.8884
52.9763	40.6788	36.583
52.2101	37.0325	36.7357
54.3481	35.0088	34.1187
74.9645	-47.408	-7.65647
75.9147	-46.8894	-12.5784
75.288	-45.5264	-6.6822
74.1516	-49.6289	-7.52141
29.2122	31.3486	44.2569
29.2674	31.7775	45.6247
33.8503	30.3943	45.2433
29.4454	30.529	42.579
25.599	31.9799	42.912
20.783	33.7581	44.4484
21.2841	33.0814	44.342
20.8627	34.6768	44.4481
20.4686	33.6803	44.5891
22.9776	35.6254	43.151
22.4755	35.6081	44.2153
23.1087	35.6947	41.5496
19.2781	36.4876	44.4053
19.8342	36.3113	44.1544
20.5517	38.4184	44.2202
18.657	36.8062	44.7736
19.1485	34.9034	44.8415
9.62535	42.6194	53.6675
8.94493	43.0926	54.2854
9.56712	44.403	52.7495
19.7093	-26.8642	78.1921
20.2577	-27.9431	77.2126
20.0225	-25.9701	78.3454
16.9576	-25.5329	80.238
66.437	-70.1047	-8.80206
65.4814	-68.9582	-3.35594
65.7794	-73.0507	-10.3786
67.6792	-67.8948	-9.67157
82.3628	-4.77089	-16.8844
81.6016	-11.0199	-12.0404
83.0382	-6.2699	-19.4001
83.1803	1.74482	-22.6097
81.6447	-2.60493	-12.775
67.5132	-75.3139	-21.9159
67.0203	-77.6767	-23.4903
68.3948	-71.3484	-22.8738
66.7366	-76.6499	-16.8487
64.0073	-110.14	-27.1944
63.6496	-118.423	-29.0147
62.3002	-107.068	-34.9095
64.2644	-101.365	-26.6686
64.2295	-112.454	-20.9256
24.565	-29.3063	75.0112
24.7028	-29.5052	75.0048
24.6198	-29.0986	74.8699
23.2821	-29.5108	76.2709
24.7427	-29.7782	75.0737
25.0813	-29.7809	74.92
21.4606	-31.5925	79.2466
21.4629	-30.9757	78.8059
19.3097	-32.9795	82.1559
27.6531	-74.0668	66.1132
31.4042	-74.0715	60.4738
27.9265	-71.5644	69.1397
50.2038	-69.6213	-67.1025
49.5103	-66.7544	-71.8992
53.0683	-68.2117	-63.6468
49.2142	-72.6018	-66.4842
58.8686	88.1029	-8.81532
60.9069	87.9883	-16.1449
54.7763	92.2458	-7.05581
59.5868	84.7705	-4.84378
94.635	-26.8902	-45.4038
96.1495	-22.8426	-49.7653
95.0938	-25.7802	-44.5562
93.2825	-30.2043	-41.5951
93.9542	-27.3439	-46.7767
88.4093	-1.57685	-27.0847
87.474	-5.50325	-24.8432
89.6715	-1.80483	-27.4544
89.1938	2.35745	-29.5636
86.8582	-1.33987	-26.7218
85.6624	-21.9422	-20.4899
85.0773	-22.3516	-19.24
86.2524	-24.6936	-20.807
86.2231	-22.5427	-22.0052
85.626	-20.2936	-20.7121
85.136	-28.197	-18.8377
84.7431	-25.2067	-18.5313
86.1404	-28.2314	-20.1974
97.2754	-17.9998	-53.8669
96.3919	-18.2559	-54.86
98.1339	-12.4479	-56.8041
97.7663	-17.7173	-52.841
95.1999	-18.4109	-55.8588
94.2191	-23.1344	-52.148
93.6264	-18.2705	-56.4948
95.7673	-12.8455	-58.7473
84.8454	1.26039	-29.6505
85.9826	2.68479	-31.996
84.2111	2.77735	-29.3295
85.3807	0.582377	-27.7135
90.4076	-25.9089	-50.0696
88.5662	-25.1367	-50.4372
91.2153	-22.2041	-53.1128
91.6748	-26.6191	-49.4809
89.1515	-29.0613	-46.9578
93.1786	-30.231	-36.3374
93.7653	-27.8558	-39.6147
92.8927	-31.6651	-33.6279
93.0005	-31.5168	-37.2706
90.6245	-38.6355	-31.7857
89.9419	-39.8475	-28.266
89.1052	-40.6408	-32.6291
91.5921	-35.992	-35.4517
91.9424	-35.4508	-31.1619
90.9738	-35.0584	-25.5416
90.337	-36.9366	-25.3218
91.7709	-34.3026	-27.5717
90.3898	-33.9715	-24.4338
78.3879	-43.8548	-18.8111
77.719	-44.8199	-18.9861
79.4449	-43.1532	-20.7634
78.4646	-42.0329	-14.8635
84.1927	-41.6234	-19.9025
84.7416	-43.3738	-22.1193
85.9462	-40.0174	-19.9101
83.5111	-38.6441	-17.9911
82.5501	-42.2182	-20.3754
92.6968	3.86997	-31.5614
92.7134	5.42945	-31.8995
91.3733	0.785231	-29.5659
93.0476	3.65288	-32.0858
92.609	6.51298	-32.2702
94.2104	9.23197	-35.0889
91.8186	6.5604	-32.3172
97.6835	-17.2818	-52.0728
96.6131	-21.0675	-48.3211
98.5823	-12.3428	-54.93
98.4479	-3.45181	-54.4869
98.1917	-4.37564	-53.8592
98.6127	-4.2775	-55.2619
98.5157	-1.70616	-53.3789
93.2643	4.26747	-34.2697
93.3327	4.10911	-33.6794
92.7434	2.70302	-34.0818
93.7733	5.55867	-35.6833
93.1464	3.45975	-32.5787
92.3017	0.441426	-31.5973
94.5408	7.11818	-35.0622
96.7102	-16.9405	-46.2494
97.8759	-14.3095	-47.2539
95.0686	-19.9949	-44.3441
92.267	0.795319	-35.1744
92.7536	2.2332	-36.1077
92.1502	0.806199	-34.6343
92.7575	-0.520522	-36.5895
93.0363	2.72276	-37.5187
93.6319	1.78031	-39.3157
91.6714	-20.3336	-40.5365
92.5559	-22.2475	-40.8654
88.7176	-12.0559	-26.9013
89.7875	-7.83441	-28.1836
88.5693	-11.7274	-25.6743
87.6087	-16.5873	-25.6495
91.5747	-3.24448	-33.7205
91.858	-1.42552	-33.6148
54.8108	-66.0437	-62.0536
55.4617	-62.1134	-65.4312
56.0713	-65.8248	-59.2897
28.44	-0.445686	65.2651
28.9885	-3.99006	66.6094
29.3709	0.914393	64.5039
26.741	0.163665	65.5172
23.9882	2.65899	67.1596
24.2834	1.47666	66.7328
24.8846	5.28833	66.4341
22.9497	2.70222	68.8344
54.1824	54.9193	32.1999
54.4597	53.1441	33.2764
59.0833	49.6831	28.353
54.1022	56.2484	30.9909
48.7315	58.1906	35.8797
9.1323	2.0997	77.8653
8.48234	3.00423	78.9095
8.74132	1.20174	77.7323
10.7035	1.69615	77.0401
11.7438	5.76276	80.2797
9.82111	5.64917	80.9499
13.187	4.34381	78.3423
12.6519	6.94405	80.9391
50.2018	33.0471	36.2511
49.6091	33.1385	36.4934
50.9717	32.5993	35.7908
49.979	33.6933	36.6785
22.3086	32.9526	42.9622
22.937	32.6765	42.8871
22.7192	32.833	41.9069
22.0238	32.9552	43.8167
19.9695	13.083	77.1968
20.2233	11.9922	77.3334
20.3961	12.7025	76.1675
18.4886	14.4536	78.8512
87.8792	-32.3694	-43.6444
86.5849	-34.3913	-41.3966
86.4774	-30.6524	-44.9871
89.0668	-33.6124	-42.6455
69.3262	79.0721	-26.9113
66.6463	82.9077	-26.7736
69.922	75.8191	-21.244
71.8812	77.1046	-36.3991
27.5914	-36.4649	70.8407
28.113	-34.7038	69.7575
27.9259	-39.7227	69.8382
26.5262	-35.6957	72.208
27.495	-25.7293	67.9199
26.0576	-25.3899	69.3724
28.128	-23.5866	65.5288
27.9958	-27.7401	67.9403
-16.784	-76.3754	74.703
-17.6089	-74.6721	77.1346
-18.9746	-76.5559	71.6777
-14.0294	-77.1948	74.8791
-71.3406	8.80344	30.193
-72.515	11.0048	25.6733
-71.9017	5.27204	30.5199
-69.1289	11.0132	33.2901
-66.7499	13.5749	35.3783
-64.2227	13.459	39.2543
-66.3029	17.0543	32.7722
-12.6408	60.6866	49.9788
-14.4503	58.3187	49.9592
-10.0001	57.0136	50.7373
-9.92548	62.0349	49.928
-16.1931	63.3249	49.0829
-25.9113	38.8442	44.5231
-25.4673	39.2564	43.0401
-23.8205	37.2688	43.8307
-26.0931	38.8962	45.5348
-28.5289	40.4344	45.2393
-9.42922	40.4485	53.0985
-8.9233	41.2466	53.6283
-9.67178	41.6093	51.818
-10.2114	38.7687	52.9321
-12.5656	38.016	48.9331
-14.7435	35.3791	47.5846
-12.2842	36.5657	50.2613
-11.1629	41.0648	49.8776
-13.3154	39.8612	47.8389
-46.36	32.2422	41.1158
-46.7749	31.6395	41.0462
-42.739	31.0371	44.4433
-46.0748	32.4214	41.0682
-48.0108	33.1468	38.6825
-17.3637	29.98	50.3101
-19.1921	28.8481	49.4892
-17.0526	29.4091	51.4817
-16.8484	30.9231	49.8678
-21.3525	33.9474	43.21
-21.5302	34.0102	42.2681
-21.3834	33.4545	43.1722
-21.0902	33.9727	43.8473
-21.6826	34.7472	43.3118
-27.8652	31.5684	44.7167
-24.5445	32.1267	43.4085
-28.0511	30.7011	43.2308
-32.4572	30.5895	45.8386
-27.9166	32.0302	46.0223
-26.4969	-28.7282	72.8866
-26.226	-28.6342	73.011
-26.3185	-28.6895	73.1363
-26.6301	-28.9786	72.5099
-25.2677	-27.1518	74.8182
-26.4932	-27.877	73.7525
-25.4886	-28.0554	73.9523
-23.7786	-26.5296	75.9105
-25.4099	-26.5413	75.1564
-27.1328	-28.1985	73.3082
-27.156	-28.3664	73.2324
-27.2943	-27.992	73.372
-29.1253	-27.3621	73.3325
-29.3525	-26.0874	73.5095
-29.6888	-28.1367	73.0355
-28.1886	-27.2271	73.4782
-27.122	-29.3803	71.8411
-26.785	-29.7021	72.3191
-27.9019	-29.8887	70.4879
-26.2436	-28.6802	72.0457
-22.6467	-32.445	78.7584
-23.0384	-33.2525	78.5762
-20.4611	-34.7405	81.9066
-22.4815	-31.7043	78.6227
-24.625	-30.3372	75.687
-20.7014	-19.0799	79.9887
-20.2456	-17.526	80.1181
-22.9853	-21.7307	78.2987
-20.8604	-20.0051	79.7479
-17.6961	-16.8172	81.7913
-25.4943	-28.396	73.932
-24.0108	-28.3169	74.8385
-25.5646	-28.402	73.7423
-25.5831	-28.4887	73.9738
-81.1163	-34.9476	-15.9156
-82.0824	-34.0772	-16.2129
-80.6429	-38.9082	-17.7936
-80.421	-35.2206	-14.9823
-90.7956	-28.3973	-29.5738
-91.3407	-27.2201	-32.6936
-91.8923	-29.7446	-29.6504
-90.2001	-29.0697	-26.8973
-88.9411	-27.0507	-29.2031
-85.9591	-32.4652	-18.1304
-86.8487	-34.0674	-19.1867
-85.5531	-32.6098	-17.2734
-85.3143	-29.7721	-18.4387
-83.6474	-21.3405	-24.7259
-83.4176	-20.3615	-26.7595
-84.2393	-23.6288	-24.8969
-85.2623	-21.3896	-23.7978
-84.502	-19.1841	-25.3595
-91.3309	-2.25451	-31.7956
-91.4447	-1.50275	-31.0466
-91.5316	-1.5726	-32.564
-90.6646	-4.34721	-31.9897
-94.9342	7.37206	-38.7345
-94.7453	8.24453	-38.016
-96.3559	7.70414	-41.9641
-94.6095	6.40896	-38.4146
-87.3149	-12.879	-32.8684
-90.0648	-9.92933	-36.9872
-86.5188	-15.362	-32.7349
-86.2292	-13.1251	-29.5109
-88.7548	-9.05124	-32.8733
-94.1883	0.0290796	-39.5855
-93.7415	-1.41492	-38.964
-92.6736	1.55749	-35.8143
-94.7482	1.41186	-40.8213
-96.0378	-1.612	-44.0384
-84.9067	-33.9158	-39.653
-86.2486	-32.8596	-41.0529
-83.5201	-33.4444	-39.8334
-84.6277	-36.0454	-37.6688
-96.8861	-15.4338	-46.755
-97.2145	-14.5435	-48.0107
-95.795	-18.2549	-45.4722
-96.7781	-15.0957	-46.2014
-97.2559	-13.3089	-50.0502
-97.6029	-11.0607	-49.6561
-97.3442	-10.6889	-52.0794
-97.1522	-14.201	-50.8683
-91.6575	-26.1897	-35.136
-92.0339	-24.4783	-37.6057
-92.5757	-27.2153	-35.4533
-89.8216	-24.3153	-34.5421
-93.8626	-14.0547	-43.1964
-92.3878	-15.7189	-41.794
-93.9873	-12.7067	-43.2254
-95.5101	-14.6915	-44.6307
-91.4443	-18.5191	-39.9885
-92.3021	-20.4357	-40.3344
-89.77	-19.1095	-37.5107
-83.0781	-26.8253	-16.0812
-82.7568	-25.8603	-15.7628
-83.8481	-26.6045	-17.0023
-83.4298	-29.1627	-16.0067
-82.6582	-24.1079	-15.5435
-82.235	-24.0553	-14.6241
-83.1313	-22.0979	-16.1365
-84.6384	-15.351	-18.4714
-85.2116	-12.2671	-19.5586
-85.0785	-15.8864	-19.2117
-84.2849	-15.7947	-17.9295
-83.8862	-16.455	-17.2637
-83.6499	-18.8673	-16.8357
-83.4784	-16.1115	-16.4085
-86.4772	-25.5654	-27.4198
-86.2659	-24.2179	-29.4924
-86.9604	-25.6342	-25.2295
-86.8937	-12.4273	-28.0129
-85.6292	-16.0418	-26.5443
-88.1144	-11.3217	-27.3068
-88.3349	-8.84091	-29.4026
-85.3734	-17.8523	-25.6858
-86.2546	-17.8446	-25.1421
-97.4848	0.58936	-49.2935
-97.733	-0.951634	-50.6217
-97.3889	0.312916	-48.6197
-97.5937	1.24097	-49.7658
-97.8456	-4.62872	-50.3483
-97.9708	-5.32528	-48.6287
-97.711	-2.46457	-48.9934
-97.69	-3.56599	-51.5211
-97.8477	-6.43212	-50.7427
-94.2221	5.81579	-38.4689
-93.2618	5.3561	-37.2483
-95.0256	5.33133	-41.0774
-96.0352	4.41751	-44.2364
-95.2935	3.55876	-43.3633
-97.0512	5.35552	-45.2937
-97.2741	3.15152	-48.047
-94.9723	2.52436	-42.0455
-96.5364	1.04193	-45.8559
-93.5293	3.92058	-38.503
-41.3477	43.2488	44.5512
-41.2175	42.8396	44.3007
-38.5415	44.1354	45.5254
-41.5526	43.7152	44.8297
-43.927	41.9038	43.3465
-22.5139	-76.61	66.9849
-24.9526	-75.1883	66.7955
-21.7288	-78.6286	63.4351
-48.8286	36.5558	38.9505
-49.1139	37.1607	39.0876
-49.876	34.833	37.8264
-48.5555	36.2646	38.9595
-47.6128	38.5237	40.3767
-52.3787	38.9416	37.0104
-51.1849	42.2501	38.6355
-54.4006	40.6609	35.2052
-52.5362	35.8085	36.1602
-50.3691	37.9047	38.629
-74.6967	-46.4902	-8.00122
-73.8267	-48.7152	-7.94103
-75.0558	-44.6204	-6.98529
-75.6127	-45.8958	-12.8381
-20.468	34.0853	44.2386
-20.7896	33.3397	44.2931
-19.9221	34.0039	44.4956
-20.7177	35.0478	44.2171
-22.4975	35.937	43.537
-22.3146	35.9662	44.4021
-22.2685	35.9724	42.0839
-18.5815	36.887	44.5254
-19.9649	38.7799	44.3256
-19.3325	36.7607	44.1795
-18.0674	35.1941	45.013
-17.7068	37.1572	45.0014
-8.12752	42.8558	53.8389
-8.03085	44.7518	52.944
-7.48553	43.3291	54.4482
-20.5357	-26.828	77.5544
-17.8057	-25.8387	79.7258
-20.9156	-25.9889	77.6321
-21.0809	-27.7846	76.6089
-65.619	-68.9837	-9.6886
-66.9314	-66.8098	-10.5025
-64.9038	-71.9249	-11.245
-64.5846	-67.7668	-4.42885
-82.4875	-3.09589	-16.3079
-81.7555	-9.49429	-11.5891
-81.8464	-0.932849	-12.1884
-83.2785	3.56781	-21.9105
-83.1297	-4.5902	-18.8297
-66.5217	-74.3384	-22.4469
-65.8676	-75.6132	-17.52
-67.4259	-70.3702	-23.3713
-65.9645	-76.7355	-23.9935
-63.4741	-109.716	-27.4394
-63.2565	-118.19	-29.1575
-63.6511	-111.994	-21.2215
-63.5625	-100.751	-27.0093
-61.8093	-106.664	-35.1014
-25.5978	-28.997	74.1999
-24.2749	-29.2764	75.4269
-25.6495	-28.7771	74.0651
-25.7383	-29.1988	74.1858
-26.7453	-29.2581	73.843
-27.787	-28.5638	73.2529
-26.9917	-29.7299	73.9444
-26.1138	-29.4658	74.095
-27.0811	-28.7018	73.3632
-22.1761	-31.3084	78.6623
-19.9329	-32.9905	81.6503
-22.215	-30.7518	78.2034
-26.9329	-73.8405	66.6561
-27.1035	-72.0302	69.3707
-31.1126	-73.2308	61.0349
-49.6477	-69.0031	-67.0526
-48.6705	-72.0249	-66.4533
-52.5111	-67.5416	-63.6019
-48.9319	-66.1145	-71.8185
-60.0284	89.763	-8.34581
-60.756	86.471	-4.34886
-56.0771	93.7879	-6.70682
-61.8805	89.6945	-15.5999
-94.3232	-25.0572	-44.8879
-95.806	-20.8973	-49.1759
-93.6321	-25.5239	-46.2645
-92.9861	-28.4673	-41.1479
-94.7878	-23.9273	-44.0288
-88.4451	0.339552	-26.3802
-87.5003	-3.67783	-24.2069
-86.8943	0.541292	-26.0262
-89.2265	4.36059	-28.7947
-89.6987	0.140732	-26.7423
-85.6304	-20.4351	-20.1257
-85.0427	-20.8736	-18.8948
-85.605	-18.7607	-20.3225
-86.1744	-21.0165	-21.6337
-86.1993	-23.2083	-20.4786
-85.0545	-26.8042	-18.5911
-84.6845	-23.7847	-18.2414
-86.0635	-26.8033	-19.931
-96.9187	-15.9477	-53.2048
-97.4141	-15.6548	-52.175
-97.7486	-10.2992	-56.0767
-96.0119	-16.2248	-54.2057
-94.8013	-16.4085	-55.2134
-93.8606	-21.2281	-51.5668
-95.343	-10.7537	-58.0388
-93.2241	-16.3024	-55.8591
-84.8328	3.14132	-28.9304
-85.3974	2.46094	-27.002
-84.2231	4.66407	-28.5928
-85.967	4.62315	-31.2431
-90.0269	-24.1392	-49.5562
-88.1981	-23.4007	-49.9267
-88.8017	-27.3769	-46.502
-91.3228	-24.8298	-48.9672
-90.8348	-20.3551	-52.543
-92.9326	-28.5323	-35.9238
-93.5102	-26.0901	-39.1447
-92.7334	-29.8314	-36.8692
-92.6595	-30.0112	-33.2544
-90.3607	-37.1261	-31.5372
-91.7124	-33.8811	-30.8636
-91.3246	-34.4032	-35.1287
-88.8125	-39.1799	-32.4117
-89.6809	-38.3941	-28.0767
-90.8022	-33.5534	-25.295
-90.2204	-32.4801	-24.1871
-91.5836	-32.754	-27.2889
-90.1351	-35.4702	-25.1123
-78.0987	-42.7497	-18.9
-78.2297	-40.9564	-14.9624
-79.1514	-42.0068	-20.8067
-77.422	-43.7284	-19.0914
-84.4853	-40.1411	-19.6802
-84.6078	-42.0553	-22.0478
-82.4348	-40.9502	-20.3245
-84.314	-37.4104	-17.9162
-86.6864	-38.6422	-19.7912
-92.707	5.98731	-30.7446
-93.0444	5.77785	-31.2689
-91.4021	2.82001	-28.8011
-92.7267	7.56996	-31.0635
-92.6245	8.66786	-31.4208
-91.8451	8.69725	-31.4723
-94.2155	11.471	-34.1923
-98.12	-1.20199	-53.6729
-98.2065	0.561219	-52.549
-98.2718	-2.0308	-54.4554
-97.8718	-2.14483	-53.058
-93.2384	6.41399	-33.4396
-93.7428	7.73932	-34.8324
-92.7121	4.81432	-33.2741
-93.3155	6.2533	-32.8512
-93.1365	5.58652	-31.7623
-94.5373	9.33862	-34.1862
-92.2981	2.50191	-30.825
-96.4433	-14.9281	-45.6043
-94.7935	-18.0733	-43.7534
-97.5998	-12.2302	-46.5691
-92.9516	4.85347	-36.7037
-92.6916	4.34597	-35.3011
-92.2154	2.87384	-34.3906
-92.1083	2.87977	-33.8528
-88.6955	-10.286	-26.3344
-89.7663	-5.97053	-27.5466
-87.5497	-14.9185	-25.1627
-88.5637	-9.96498	-25.1108
-91.5291	-1.24315	-32.9919
-91.8225	0.60683	-32.8632
-91.8196	-1.95925	-34.6267
-54.2438	-65.3293	-62.005
-55.5166	-65.0916	-59.2517
-54.8837	-61.3486	-65.3395
-29.2734	0.0117336	64.7623
-27.3084	0.679105	65.0125
-30.0887	1.49418	64.0301
-30.0255	-3.6045	66.2463
-24.3419	3.18612	66.7327
-23.3453	3.11654	68.3986
-25.1568	5.93087	65.8161
-24.611	1.99299	66.2981
-52.4324	57.4933	34.6548
-52.733	55.908	35.692
-46.9924	60.8184	37.782
-52.8231	58.7144	33.3174
-57.9311	52.0138	31.1263
-7.93257	3.8127	79.7142
-8.2484	4.4897	80.2492
-8.7943	3.102	78.6471
-6.57959	3.73563	80.449
-8.63982	5.4615	81.1551
-9.97207	5.7728	80.8316
-7.35891	6.08354	82.7878
-48.7925	33.6967	37.8096
-48.2305	33.8092	37.9455
-48.5706	34.3725	38.1959
-49.4942	33.1837	37.4808
-21.659	33.1424	43.2141
-21.858	33.0062	42.3204
-22.2245	32.8462	43.191
-21.5121	33.1724	43.9085
-20.1557	13.5174	76.9477
-18.6425	14.8534	78.6354
-20.5725	13.1236	75.9476
-20.4106	12.431	77.074
-69.9277	81.0228	-26.1236
-72.2797	79.1125	-35.5479
-70.5966	77.8051	-20.424
-67.3107	84.7729	-26.0522
-28.347	-36.0166	70.4311
-27.3118	-35.2324	71.7353
-28.6475	-39.3131	69.5733
-28.9262	-34.2497	69.287
-28.3683	-25.2516	67.2967
-28.9126	-27.2824	67.3003
-29.0634	-23.0681	64.9255
-26.8612	-24.9268	68.7722
-11.8378	5.90969	80.1092
-12.8035	7.13486	80.7815
-13.5324	4.4909	78.0731
8.4411	5.34637	81.2625
7.13311	5.96716	82.7932
8.02714	4.38809	80.4243
7.64204	3.72564	79.9318
6.24803	3.61572	80.6418
-9.50132	2.24296	77.5666
-10.9976	1.88148	76.7322
-9.11448	1.36579	77.4117
84.1857	-40.2468	-34.6053
82.571	-39.9772	-33.6776
84.9705	-37.4849	-37.9394
85.5242	-41.0253	-34.2381
82.8553	-42.8331	-30.3684
74.0882	-42.5469	6.61877
73.0836	-41.8094	14.6427
72.9678	-47.2998	6.57557
75.0077	-42.6321	-0.566702
75.0175	-37.5927	6.48563
59.2262	-116.244	-6.90178
58.9956	-105.218	-5.70692
56.4072	-117.352	-2.61785
59.7648	-126.77	-8.44031
61.5268	-114.948	-11.3568
60.2455	-134.025	-9.94767
60.7208	-139.67	-11.4526
62.1443	-132.213	-14.5951
57.7155	-135.858	-5.37323
52.5631	-98.303	4.68726
53.3564	-91.4606	5.895
48.7931	-99.4336	9.23997
52.4865	-107.073	3.23918
56.1749	-97.6343	-0.257892
63.3115	-96.8476	-13.6855
63.22	-104.088	-14.4751
64.5654	-96.1039	-19.1616
63.5659	-91.2822	-13.3064
61.3009	-96.9886	-9.26477
66.1813	-59.4029	20.8854
67.7754	-54.9213	21.962
63.9464	-58.8642	28.5629
64.4437	-63.9311	19.2034
67.5473	-60.0611	13.1621
76.0257	37.4621	-5.31
77.4189	43.9871	-11.6736
71.2918	43.2382	3.99537
75.2314	30.9232	-0.318716
80.1732	32.7258	-15.9701
84.0119	32.8719	-59.1682
83.2756	27.2851	-67.7224
82.4555	38.3988	-66.1143
84.3808	37.4899	-49.3247
84.9273	26.9597	-52.4131
7.44804	-108.587	38.9583
4.76351	-108.592	39.7034
8.41262	-119.57	36.7952
10.7032	-108.267	37.6959
6.93202	-99.1434	41.8397
9.52337	-131.824	32.9881
10.5064	-142.42	29.4163
13.2097	-130.955	31.6093
6.17585	-131.999	34.0419
3.67127	-150.534	28.9713
7.3632	-150.163	28.3018
3.37091	-143.051	31.1014
0.0646028	-150.547	29.2718
3.95827	-156.078	27.6155
70.5657	-58.4316	-35.671
73.2788	-52.4784	-34.5704
70.3354	-63.5466	-29.5076
67.8021	-64.3648	-37.0305
71.1016	-51.8724	-41.128
71.7779	-47.125	-45.2647
67.9635	-52.9778	-47.2297
72.844	-43.1064	-48.9162
75.1356	-42.3727	-43.4994
63.3101	-125.157	-31.0869
63.1551	-131.874	-32.5984
61.654	-122.351	-37.8608
63.9131	-128.282	-24.5931
3.03688	-132.324	34.7171
2.63205	-120.083	38.3723
-0.021138	-132.318	35.0061
71.6062	-40.5799	22.6736
72.6365	-35.1718	21.823
69.7644	-38.8978	29.8568
70.4785	-45.624	22.764
68.4193	-60.4072	5.40401
66.518	-64.5658	4.41559
68.8936	-61.4602	-2.51483
70.1946	-56.1233	5.94687
12.6211	-64.722	86.6406
8.45004	-64.8362	88.0236
12.5706	-68.9863	85.4666
16.4936	-64.1414	84.7202
12.0769	-60.2998	87.0354
20.2872	-63.0995	82.2923
20.1955	-67.2947	81.4849
24.4948	-62.0467	78.7743
19.9857	-58.7941	82.3925
4.08701	-56.3695	88.3656
7.64933	-56.1837	87.6102
3.87641	-52.3384	86.8751
0.59357	-56.5128	88.7087
4.25831	-60.5838	89.1033
12.0338	-72.7699	83.1659
11.3297	-75.5839	79.7133
15.846	-72.0636	81.7057
8.20159	-72.7361	84.2746
11.2095	-77.74	75.2638
7.30063	-78.1428	76.0354
11.1219	-80.2613	69.9833
18.5411	24.2938	57.6194
19.0571	21.1935	60.9749
21.1572	21.6781	56.4593
18.0829	27.1008	54.3989
15.8932	27.4259	59.0879
51.0396	-4.86741	58.3555
57.6442	-7.15044	52.9636
50.776	0.297914	56.9795
43.9241	-2.55855	62.0126
50.9641	-9.89575	59.3584
63.4351	1.40358	44.2281
67.7592	-0.395009	38.1553
62.4197	7.12658	43.5695
57.2331	4.10585	50.3131
63.4623	-4.24396	45.4273
72.1256	13.9284	20.9759
74.3881	11.409	16.7778
71.2227	20.8749	17.6705
69.413	16.7866	24.0909
50.7766	-14.9315	60.049
50.2845	-19.9904	60.6886
56.7628	-17.7577	54.7836
44.4646	-12.4115	64.0292
2.75514	34.4751	75.2207
2.85266	38.3615	69.6756
0.56489	34.83	75.2769
2.68282	31.1056	80.0479
5.11156	33.5458	74.6736
31.9097	89.1956	27.5401
26.4006	90.8252	29.2651
30.803	84.0965	32.5551
37.7895	86.6657	25.2268
33.2102	93.7997	22.1782
3.46379	-84.0324	64.9313
2.92965	-87.961	57.6816
6.81692	-83.9767	64.3638
3.51575	-80.729	71.2655
0.329756	-84.0247	65.095
67.3759	-36.9962	36.7034
64.1663	-34.6856	43.3305
65.6959	-42.8897	37.4458
68.5873	-31.2782	35.8227
4.40854	-72.7368	84.8098
4.62925	-69.2528	87.3198
0.771112	-72.853	84.9158
3.99915	-75.8953	80.9585
3.76944	-78.2542	76.5253
0.398094	-78.2869	76.6766
38.6304	-66.2521	59.4306
33.4971	-67.352	65.369
37.6113	-69.8844	57.2546
44.0658	-64.463	54.2026
39.0268	-62.2011	61.8127
44.5168	-79.2043	36.9906
41.8764	-84.7917	33.0367
49.6036	-77.7799	31.282
46.649	-74.2928	40.2461
38.7377	-80.6905	42.3428
1.93582	-92.491	49.6509
4.64513	-92.7729	48.96
-0.618388	-92.3842	49.6946
1.61141	-98.9292	42.8058
8.36055	25.8027	81.8887
8.59549	23.3259	84.9698
11.5585	23.589	79.4658
8.06136	28.6596	77.868
5.40335	27.3228	83.4039
29.7364	3.36615	63.4681
32.4051	1.18584	63.7846
28.5332	7.92838	61.8488
26.6156	6.68501	64.0692
28.7691	-29.4304	73.6803
27.7281	-28.8209	73.8146
27.8194	-30.1501	73.9513
29.6862	-29.9918	73.5301
14.5408	2.58556	76.5788
16.7214	3.74687	76.5684
13.5253	1.60253	76.22
16.7349	1.63759	74.8807
13.0369	-2.3302	75.0666
13.6869	-3.78467	75.4935
15.877	-3.15803	73.2552
12.9662	-1.11137	74.9692
10.7075	-1.13148	76.5314
1.75878	3.45622	84.0453
1.75263	4.75171	85.6219
0.0164094	3.2485	84.4575
1.82091	2.1816	82.8139
3.50617	3.7102	82.9818
18.7711	-3.02047	71.3364
21.5406	-2.11347	69.3265
18.5692	-1.75248	71.53
19.1045	-4.51426	71.8088
9.20877	14.4159	89.2744
6.22261	14.4233	91.6797
8.87992	12.1638	88.7159
12.4354	14.0033	86.1225
9.33671	16.4134	89.2575
25.7984	-44.0277	77.3604
28.9636	-41.9224	75.4285
24.7625	-40.5458	78.3412
22.0531	-45.4723	79.807
26.768	-47.8874	76.4128
28.7509	-23.3916	74.582
28.5665	-19.2773	74.5347
26.6861	-22.148	75.4709
30.6762	-24.4081	73.8952
2.24213	-2.29609	81.6263
2.37296	-4.16451	81.9069
4.06611	-2.06253	81.2717
2.05739	-0.506432	81.6805
0.098207	-2.44703	81.7729
7.631	31.8555	73.5092
10.5877	29.096	71.7268
7.7262	34.9116	68.6881
23.0429	8.30056	71.0617
21.9439	10.9272	72.7906
22.2561	9.91264	72.9795
23.1173	6.48535	70.6548
23.4487	8.20249	69.5735
5.0766	1.33435	80.3977
5.15642	-0.292923	80.4706
6.6148	0.821748	79.3257
5.03094	2.52913	80.7589
3.60034	1.23989	81.294
4.96248	3.68529	81.6888
5.07428	4.98043	83.0728
21.1354	11.7989	74.8894
20.6285	12.8047	74.9229
21.7828	9.73249	74.3549
22.3532	3.76593	70.494
22.0496	5.63975	72.403
20.8796	1.46891	71.058
2.58587	-9.61537	84.8883
2.89224	-11.2179	86.0726
5.19513	-9.10897	84.5884
2.47362	-7.70523	83.4583
-0.346905	-10.1373	85.0502
25.11	-7.14358	70.057
22.6532	-6.85485	71.2894
26.0142	-10.7511	72.0407
27.2241	-7.51816	69.2247
24.4735	-3.72994	68.2725
10.5756	-42.1611	85.1272
10.6163	-40.2215	86.1048
6.88877	-42.5303	85.2928
10.5825	-44.57	84.4552
14.3455	-41.8329	84.1632
24.1597	-24.4308	77.0819
24.2781	-25.2983	76.705
25.8006	-26.4841	75.2547
24.3128	-23.0751	77.0193
20.2986	13.3831	74.632
20.4871	13.549	73.0562
18.2921	15.5054	76.9711
17.8712	-41.3932	82.8463
18.0221	-43.5899	82.1256
21.049	-40.1284	81.1647
17.7295	-39.6921	83.6253
3.62334	-42.8837	85.3761
0.551336	-42.9798	85.3583
3.71923	-45.2014	84.9278
3.47533	-41.1326	86.6573
62.4778	43.3205	24.4811
61.6838	43.0122	26.0049
64.1706	36.4782	21.9027
63.1614	43.8544	22.7847
41.86	73.2923	31.591
35.6248	76.3409	34.7003
41.6863	68.2591	35.1059
48.3298	69.0504	27.9941
42.9098	78.541	27.1026
54.9038	63.9684	23.3736
54.1938	60.0892	27.4591
60.8944	57.8335	18.1089
56.0953	68.5318	18.1872
42.9207	60.9221	39.0952
42.3015	63.128	38.1012
37.3288	63.1838	41.5086
43.8711	58.59	39.769
64.3093	44.0717	19.9527
65.2863	46.0522	16.873
59.6803	51.9195	25.2158
67.4221	36.2398	16.5254
26.992	55.5118	46.2437
27.2258	52.9134	45.8673
30.6501	55.5084	45.3517
26.7489	57.5201	46.6426
23.2972	54.4095	47.0762
7.65813	41.3826	58.0609
10.6029	37.7984	56.9494
7.58657	42.7066	56.2497
4.74983	43.9251	58.719
7.74853	39.803	60.5255
32.8433	16.0044	54.5712
34.787	12.4139	56.9614
39.6428	14.6389	53.4933
31.1523	19.1053	52.4362
27.0435	17.7936	55.3927
61.2097	22.8959	30.9508
63.6789	20.8391	29.728
61.3765	26.7181	27.4012
58.5701	24.9643	31.8032
59.6901	20.5353	35.9472
7.87694	37.6574	64.0652
10.705	34.2955	62.8788
5.17818	40.0342	64.8317
44.2586	56.3814	40.2334
49.5424	54.3165	37.4229
38.8937	58.0153	42.5225
44.3022	54.1665	40.6116
54.3086	51.3903	34.199
53.7261	49.5131	35.1394
58.1223	47.0925	30.8975
57.9359	32.3197	29.7779
57.9656	36.0882	30.0986
56.389	32.3646	31.5802
57.4536	29.0854	30.4172
59.4466	31.9853	28.0492
46.4156	37.9635	41.2543
48.0806	36.5046	39.4789
46.9178	38.7219	40.8695
44.4768	39.277	42.7008
45.9843	37.2876	41.2531
42.3774	40.466	43.8468
42.6485	41.4486	43.5288
40.0723	41.3808	44.7808
42.1203	39.6261	43.9001
42.7787	41.9411	43.3177
40.171	42.9032	44.217
45.1779	40.6701	42.0854
37.2858	41.9403	45.3516
37.178	42.9397	44.9982
34.4167	42.0303	45.4097
37.4211	41.0785	45.3962
37.0783	43.4239	44.7835
33.8248	43.5805	44.5948
36.9945	43.7265	44.8154
31.7417	41.714	45.2572
31.2106	42.5974	44.7777
29.2229	40.6669	45.1786
32.2439	40.9179	45.4277
26.2744	39.1486	44.8701
25.2489	39.8032	44.4244
23.4954	37.4356	44.57
24.544	40.1126	44.0589
23.9932	40.2866	43.9941
21.7768	38.138	43.9431
27.8152	41.8345	44.2994
21.6102	35.9591	44.4578
20.7444	36.2089	44.3152
23.2851	40.573	44.3049
26.7379	42.4163	44.5516
22.5697	41.021	44.7024
36.8325	44.1762	45.1593
36.6948	44.6921	45.5737
33.3991	44.3269	44.9313
51.8462	31.6074	35.2983
52.8107	30.398	34.753
52.1307	32.3941	35.1799
50.7911	30.9483	36.4374
49.8972	33.1872	35.896
49.5393	33.7561	36.2782
50.6478	33.194	34.9086
49.263	32.6448	36.7745
34.5509	54.7358	44.3865
39.2151	53.3288	43.0832
34.2794	57.0972	44.2713
34.6691	52.0279	44.7841
50.7165	43.4163	38.8497
49.4695	41.3339	40.3816
51.8766	45.5675	37.2122
47.2796	45.3129	41.3484
40.6856	25.6461	46.3574
46.497	25.9072	43.3163
40.1833	27.154	46.287
34.0061	26.3494	48.1063
41.1374	24.153	46.5436
28.6959	27.7192	48.0692
28.815	29.0556	47.7247
24.7897	29.0984	47.2606
28.8002	26.2512	48.4433
21.1989	31.6925	45.9975
21.6854	32.0137	45.3478
20.4929	32.5169	45.5686
20.2061	31.6411	46.8402
21.987	31.0099	46.2918
39.8916	28.4216	46.0709
45.0846	28.8554	43.2814
39.6247	29.4115	45.8616
33.8732	29.034	47.5939
23.3565	31.6518	45.4616
23.2741	30.9673	45.9723
25.0334	31.1793	46.2591
23.2807	32.2334	44.9774
22.4457	31.9898	45.172
21.761	32.2558	44.9986
21.0504	32.7426	44.8477
21.7288	32.5523	44.6254
16.2658	42.0358	46.8082
15.3778	45.1168	47.8028
17.3117	38.6449	45.6757
18.1114	44.0602	46.4043
19.5873	33.4991	45.2894
20.0911	33.5082	44.8765
18.8263	33.7001	45.7832
30.097	43.7278	44.8119
29.6895	44.2479	45.2697
30.538	43.3101	44.4393
18.0638	37.2902	45.0798
17.7396	35.5785	45.5747
19.3263	39.2631	44.892
39.423	29.9925	45.6906
33.843	30.6409	46.904
39.3323	30.1598	45.241
23.2803	32.624	44.6297
23.4707	32.7153	43.9326
22.4606	32.7194	44.3833
25.18	32.3684	45.2771
39.3915	29.8399	44.2314
44.2706	30.373	42.1165
39.5441	29.2746	42.975
47.5937	31.6279	39.1941
48.0729	31.3631	38.0263
23.9221	32.2927	42.4994
24.0687	31.8503	41.1242
21.7728	32.7897	44.3289
49.3026	35.0173	37.8116
49.8202	35.3352	37.5192
48.6575	34.8239	37.9997
4.10851	55.5716	51.7901
0.512906	55.9089	52.1242
3.29029	53.3133	52.7087
6.97169	54.7153	51.5884
4.97764	58.4806	50.939
22.1219	25.3077	50.9574
22.0469	26.7849	49.6077
20.1394	26.921	51.3927
22.6841	22.9703	52.9516
25.223	23.5371	50.8217
18.1133	28.7422	52.2249
15.667	31.1417	53.538
18.5012	31.9372	48.2404
16.392	33.133	49.5209
18.4273	32.9754	47.0059
11.9607	43.0463	50.3261
13.0575	44.9689	49.3307
11.1744	44.6298	50.9741
22.8316	30.0296	46.7847
22.3542	29.1379	47.6203
22.1605	28.0637	48.5074
24.6576	26.6002	48.6084
20.1946	-28.3189	76.6548
19.935	-28.2849	76.1653
22.9157	-28.648	75.0953
17.2003	-27.6903	78.4813
24.5335	-28.8904	74.1707
24.1499	-28.888	73.8816
3.26283	-14.6973	87.516
6.31124	-14.6061	86.7864
3.18427	-13.2319	87.1917
-0.302725	-15.0288	87.9183
3.20703	-16.4508	87.6105
8.85292	-18.7794	85.7122
8.94201	-16.8675	86.0489
6.20471	-18.39	86.4874
8.54476	-20.7885	85.1842
11.3044	-19.6168	84.7823
13.8656	-20.3617	83.5039
13.9378	-18.7576	83.8375
13.8816	-22.448	82.8661
16.8777	-21.5899	81.5038
8.86349	-15.1323	86.0899
11.3117	-16.1766	85.1989
8.76292	-13.5505	85.9233
12.9413	-14.7586	84.0805
13.6512	-15.9689	84.0271
12.4904	-13.5967	83.8165
10.4261	-13.311	85.0854
20.3133	-24.4581	78.6656
20.2249	-22.4691	79.4453
7.98718	-22.9624	84.5292
5.23648	-22.3836	85.3847
7.57957	-24.3828	83.864
11.0526	-23.689	83.4358
14.1736	-24.7007	81.8963
14.1162	-26.0266	81.0999
26.3231	-27.9874	74.3459
26.7694	-28.4029	74.0551
26.479	-27.8084	74.3706
25.6009	-27.3146	75.0089
20.5806	-28.4444	77.3177
20.4685	-28.3031	76.9984
17.6145	-28.022	79.5534
20.6443	-28.743	77.6793
21.3019	-30.3628	78.5907
21.0597	-29.7377	78.392
18.7843	-31.1732	81.5652
15.9107	-31.2531	84.0889
15.6025	-30.2232	83.5909
12.8779	-30.8007	85.9676
16.3872	-32.3508	84.3201
8.31231	-27.7502	85.9995
8.83674	-29.2894	86.8443
11.8438	-28.197	84.6719
7.84775	-26.1795	85.0573
5.02465	-27.9204	86.8537
2.72308	-31.5465	88.8521
2.90174	-32.9001	89.2924
5.77065	-30.9295	88.4443
2.51782	-30.047	88.2029
-0.139569	-31.8935	88.908
24.8186	-30.1387	73.6108
24.587	-29.3368	74.038
24.9725	-31.7945	73.4061
22.8449	-29.7819	74.5018
1.79995	-26.525	81.7447
1.82637	-25.2276	83.0794
4.15884	-26.6703	81.3223
1.79481	-28.9505	80.8189
-0.351386	-26.5254	81.8649
3.06333	-34.2818	89.6252
0.022462	-34.6546	89.644
3.21683	-35.5322	89.7749
6.39172	-33.5102	89.2914
3.38716	-39.5289	88.0002
6.85399	-38.8769	87.8294
3.36397	-38.0367	89.049
0.254627	-39.8784	88.1176
8.44187	-12.4536	85.7176
7.6405	-11.0113	85.298
6.0202	-11.9152	86.1964
2.32607	-28.3611	87.3159
-0.223715	-28.3466	87.3923
2.06459	-26.2808	86.3138
1.90874	-25.0627	85.6183
4.55282	-25.1315	85.2765
1.93339	-24.6427	84.9776
-0.332365	-25.2599	85.6755
7.63238	-25.2592	84.429
11.0687	-26.0823	83.2203
7.50008	-24.9656	83.8514
1.94785	-24.6121	84.1554
4.35709	-24.7476	83.8045
-0.368503	-24.7124	84.1985
14.3115	-26.8864	81.5612
14.149	-26.5549	81.0117
14.6208	-27.6635	82.0979
17.2503	-35.4512	84.8654
17.4854	-36.6463	84.6826
17.0081	-34.4006	84.8307
14.2132	-35.4702	86.7365
10.6072	-35.38	88.3197
10.7149	-36.7012	87.9741
10.4072	-34.2402	88.4078
6.82729	-35.8945	89.3285
3.28773	-36.7641	89.6383
0.0545368	-37.177	89.6769
13.8849	-26.5429	80.3007
10.6146	-25.6513	81.8292
13.6079	-26.5092	79.468
27.1551	-28.5896	73.9045
26.7601	-28.8994	74.0924
27.0745	-28.2613	74.0364
26.1083	-28.8051	74.0557
25.5084	-28.9058	74.2658
26.0478	-29.0187	74.2127
24.6195	-28.9432	74.8003
23.082	-28.9125	76.0262
7.09577	-26.9167	80.6133
7.1804	-25.7348	81.937
10.3486	-27.2419	79.6649
7.19752	-29.2167	79.7571
7.3124	-25.0836	83.0308
10.6146	-25.6513	81.8292
10.6464	-38.3602	87.2828
14.3965	-38.3121	85.9536
16.6726	-33.3577	84.65
13.7097	-33.194	86.6019
17.638	-38.1448	84.2691
20.3691	-37.0078	82.0882
13.1821	-26.1366	78.7361
10.2451	-25.4112	79.7667
12.6526	-24.5321	77.6146
16.1093	-26.9803	77.3359
7.25739	-24.9581	80.6949
4.74292	-24.5633	81.0043
7.68859	-23.5445	78.9299
7.21379	-25.2057	81.9478
12.3589	-21.3195	76.1337
10.0127	-20.7531	76.7618
12.2363	-17.5562	74.4796
14.8193	-21.9957	75.2666
25.0812	-35.3871	73.4548
24.9719	-39.6695	73.497
23.0403	-35.0829	74.6801
1.91923	-32.961	80.9563
4.33234	-32.9798	80.6476
2.11456	-37.4126	81.3151
-0.161392	-32.9473	81.0195
7.73958	-20.3299	77.2077
5.31702	-19.9713	77.4398
7.6562	-16.3947	75.4575
7.37628	-33.0831	80.0363
7.50292	-37.4399	80.5809
10.6844	-33.4063	79.2103
28.5727	-31.4599	67.995
29.4919	-32.1042	66.0541
13.7352	35.735	51.2447
13.2205	35.1684	53.2974
84.4482	-18.5971	-58.1118
83.5728	-22.386	-56.1211
83.1175	-18.9056	-61.7104
85.1586	-14.4476	-59.4097
85.8162	-18.555	-55.9387
84.1121	7.72799	-28.1368
84.6443	9.40675	-32.9753
83.4731	11.0949	-23.9065
84.8803	10.0832	-38.6406
85.155	15.0101	-41.4184
84.5607	4.90661	-38.2783
85.0093	7.79881	-45.3116
77.7042	-39.0764	-42.0703
80.1563	-36.4504	-41.0507
76.7226	-42.6591	-38.4275
79.0031	-35.7276	-44.9776
80.1119	-32.687	-48.0592
77.6648	-35.21	-50.2868
81.3743	-29.385	-50.9897
82.3686	-30.9832	-46.4204
87.7219	-18.2957	-54.7956
89.7993	-17.9341	-54.8255
87.0683	-21.854	-52.9925
88.1402	-14.0186	-56.0435
90.296	-34.3326	-41.4416
91.5259	-30.8154	-44.5683
91.4231	-34.4375	-39.9256
88.9404	-37.926	-37.8931
95.1387	-24.5812	-43.9605
94.9455	-23.8328	-43.4045
82.1955	-44.144	-26.8136
83.1252	-44.531	-25.8738
81.9044	-43.9552	-24.3211
81.7676	-42.8062	-28.9489
83.8525	-33.5319	-16.696
83.4306	-34.1553	-16.4961
82.8282	-35.1051	-16.54
94.8476	-23.383	-43.1166
94.2655	-23.6879	-42.0093
98.0637	-10.6023	-51.1252
97.728	-10.327	-52.7376
98.4229	-11.4757	-49.1619
98.2856	-0.379293	-51.7781
98.5775	0.881995	-52.3024
98.5791	3.12805	-51.9545
98.3378	3.4698	-49.6781
98.7303	3.5119	-52.557
98.2416	5.87118	-49.5671
87.9137	-11.6536	-24.1823
89.3113	-6.49021	-26.2228
87.1934	-10.5428	-23.0962
86.773	-15.4198	-22.5415
81.4477	-25.2819	-12.8741
80.4764	-24.9991	-10.0539
80.7963	-28.9835	-12.1588
82.057	-21.0109	-13.7461
86.1451	-22.8382	-23.1795
86.425	-24.7541	-23.0006
86.3894	-21.1097	-23.9614
84.6934	3.1348	-38.2178
85.4199	3.59404	-41.9091
85.2641	3.40929	-37.7919
94.0248	12.7777	-40.3681
95.6548	13.7206	-44.2235
92.6994	12.8785	-41.7627
92.1948	10.2429	-36.5337
95.2325	12.1777	-39.1131
94.347	13.1298	-50.2659
93.0903	13.6226	-46.7098
95.5803	13.2097	-49.473
95.2348	10.616	-53.8432
92.9756	11.1294	-51.1535
96.1588	-6.41583	-59.8024
94.6933	-6.87295	-59.9171
96.2798	0.249083	-59.1653
97.5734	-6.11314	-59.0384
90.379	-2.11989	-27.9529
90.6341	-3.59538	-28.471
98.8203	-6.35412	-55.4382
99.3884	-0.984124	-54.8135
98.1749	-8.99746	-55.0963
99.1858	-6.54397	-55.5708
97.562	7.76074	-45.9947
96.497	8.31054	-41.968
97.6357	6.23845	-46.2418
97.6633	8.93261	-45.707
91.6767	-2.19878	-31.2873
91.1339	-3.76764	-30.2023
92.2288	-0.136352	-32.6815
98.0281	-5.016	-53.1566
97.9035	-7.37794	-54.3713
95.1303	0.352656	-42.8586
94.8886	-0.735645	-41.6195
96.7404	-1.16578	-46.6718
89.1758	-8.90206	-30.6368
89.2831	-8.78312	-31.431
90.0803	-7.19871	-30.0156
94.4282	-11.5859	-44.4359
96.936	-9.56793	-46.812
94.0088	-10.9891	-44.0273
94.3188	-12.6691	-44.2425
82.6214	-17.2094	-14.9535
83.25	-13.0462	-17.1584
81.7162	-16.7672	-12.3807
88.3798	-9.01542	-56.3765
86.7491	-9.68621	-57.7171
88.3477	-4.46611	-55.6669
90.297	-6.61032	-55.9983
92.4079	-0.98606	-56.5147
92.0193	3.45384	-54.5831
94.3162	4.26735	-57.0745
92.7219	-5.49781	-57.9316
93.3375	-7.80485	-59.0252
92.413	-13.2529	-57.8193
91.9325	-17.816	-55.9771
84.5781	-30.2144	-45.6943
83.3913	-32.7059	-42.972
85.5983	-27.6852	-48.3347
86.383	-24.9339	-50.8085
84.2306	-25.2758	-51.7367
93.4174	-23.4584	-41.1911
82.1875	-35.1356	-40.4879
80.8521	-38.0176	-37.1789
83.8596	-34.9004	-40.1436
81.4145	-40.8874	-31.8032
80.6207	-40.9436	-32.0852
80.6166	-42.9829	-26.6373
81.8358	-42.6362	-21.8723
81.4257	-42.2724	-21.8914
80.5178	-42.4887	-21.4754
94.6792	-13.483	-44.3731
97.177	-12.7076	-46.5748
86.2879	-9.65511	-22.348
85.1628	-9.03266	-21.5052
83.5336	-22.3575	-17.0427
83.9183	-22.6937	-17.6183
87.0481	-28.1442	-21.3704
87.9919	-30.45	-22.2022
87.5386	-27.1465	-22.5802
85.9334	-18.1562	-21.2607
86.8009	-18.9258	-23.3543
91.4809	6.0845	-52.1353
89.84	1.21534	-52.8147
90.5948	7.46387	-48.9212
88.1473	-1.12529	-53.6941
86.8606	-1.38039	-55.0106
87.6843	1.44974	-50.3891
85.4632	-19.4349	-26.1185
86.3217	-19.4431	-25.5802
97.5729	-2.67005	-48.6216
97.5076	-4.01112	-47.8062
89.803	-8.49016	-33.0382
88.8518	-10.8794	-33.4842
91.0384	-8.03494	-35.9302
93.9509	-10.0306	-43.7837
96.2209	-6.97622	-45.7898
93.2818	-9.62166	-42.4645
7.0248	105.29	19.312
6.83497	99.6781	26.5535
15.2024	104.077	19.0326
7.45162	110.409	10.3414
-1.42356	105.775	19.4825
6.44235	93.6822	32.5389
-1.48283	93.8458	32.972
6.17179	87.0163	37.7708
14.0878	92.9866	31.6952
30.1586	78.0551	36.8999
30.2507	72.8121	40.0991
25.1783	78.9318	38.654
1.75949	6.17359	87.6006
2.11479	7.75224	89.4278
-0.103797	6.09727	88.1678
3.87064	6.22957	86.0787
2.95845	18.7854	92.3962
6.13117	18.6156	91.1964
2.89005	20.9329	91.2334
0.0404019	18.851	92.7117
3.11741	16.7241	93.1215
3.1285	14.3985	93.2164
0.0671928	14.512	93.7859
2.99986	12.0414	92.5903
1.91949	0.931526	82.0464
0.0844375	0.751411	82.3804
2.36762	-5.94359	82.5268
4.61762	-5.60374	82.3991
-0.0879975	-6.17247	82.5312
2.63987	9.79971	91.2264
5.30978	9.83151	89.6163
-0.0840615	9.84379	91.9049
2.72223	22.9744	89.7268
5.71951	22.4496	88.8359
2.68843	25.359	87.4597
-0.128558	23.2185	89.9114
6.73619	69.4963	47.2939
-0.158114	69.5351	47.5079
6.88538	66.2837	48.5571
13.7733	69.5024	46.518
6.61705	73.3544	45.3305
2.48151	45.1583	58.9853
2.57913	43.4859	61.4975
2.48565	46.5897	57.1186
0.535601	45.4856	58.9765
2.56381	48.067	55.6995
4.75326	46.8421	55.4834
2.7	49.61	54.5535
0.514619	48.3531	55.7166
2.1921	-24.3075	81.0433
-0.391618	-24.2648	81.1499
2.48193	-22.9574	79.2505
1.9228	-24.6255	82.8976
1.94783	-24.6121	84.1554
-0.36851	-24.7124	84.1985
4.35713	-24.7476	83.8045
2.06631	-23.944	85.0583
3.12918	-18.3046	87.3011
2.90691	-20.083	86.7219
-0.359234	-18.4536	87.6753
2.48206	-22.359	85.9862
-0.357488	-22.4209	86.1252
3.14466	-12.272	86.7514
-0.310292	-12.7877	87.0804
2.54395	-19.7581	77.4615
2.52362	-15.8247	75.6428
-0.42994	-19.6827	77.3833
22.0371	102.559	18.4835
21.3642	97.4942	25.0257
28.3901	100.474	17.646
22.9298	107.214	10.0877
20.0092	70.106	45.1687
21.1649	67.6255	46.0274
25.8562	70.419	43.3681
19.7641	73.5463	43.3821
23.1554	64.9667	46.639
25.2718	61.9652	47.0648
28.3414	65.3776	45.0338
26.1995	59.6242	47.0294
22.0537	58.2912	48.0738
30.2418	59.9739	45.8091
29.172	44.8827	45.5755
28.4875	46.3459	45.7103
25.4632	43.6704	45.1619
32.759	45.4613	45.6237
32.2559	40.9988	44.7241
34.7139	41.3064	44.8126
31.9641	41.5416	43.4162
30.7969	43.029	44.4419
27.5635	49.2983	45.8028
31.2717	49.5744	45.4781
24.0105	48.3453	46.0039
48.7479	97.3165	-4.7215
50.3124	99.5893	-15.8374
42.7117	101.923	-3.12608
47.9089	93.9895	3.8686
34.2381	98.1009	16.1723
35.4088	102.032	8.44848
40.3545	94.8613	13.9478
30.6178	69.8408	41.7031
31.3037	67.6068	42.6011
35.862	68.1122	39.5874
33.8921	59.4341	44.3721
33.4	61.9545	44.1561
32.4583	64.9584	43.4139
35.008	49.1748	45.3129
36.0133	46.5322	45.8488
39.5306	48.1456	44.6271
46.8541	90.6636	10.7755
53.3354	85.8868	6.50377
45.6155	87.0545	16.7116
42.0081	65.2261	36.9139
48.099	61.7474	33.6599
43.3847	43.5268	44.1643
43.4743	44.6163	44.224
40.057	44.6445	45.3486
46.1389	42.1104	42.6534
37.3909	41.2173	44.7001
37.351	41.8837	43.4823
39.9928	40.7367	44.1632
44.2106	51.9381	41.1401
43.8796	49.4682	42.0174
48.9383	50.1788	38.6633
43.6063	46.938	43.3772
44.1972	83.0068	22.0859
50.9121	78.3229	17.9505
59.411	81.1387	0.756911
58.472	77.3806	7.05664
64.9128	76.5177	-6.22256
47.1815	39.1126	40.626
48.8706	37.4482	38.7764
47.3511	39.3561	40.5626
48.6677	40.3652	40.8194
48.0453	39.9693	40.7842
50.3518	38.6001	38.7411
47.6175	39.6528	40.6782
45.8117	37.4788	40.5982
47.3401	36.273	38.9627
44.0451	38.6761	42.0434
45.8253	38.1276	39.4238
52.9659	47.7198	35.9988
55.9829	44.0825	33.4067
19.8852	52.3838	47.5628
17.0089	49.8873	48.0487
20.2769	49.9324	46.8491
19.294	54.3059	48.1229
18.1804	56.1563	48.8046
15.1813	53.5941	49.2515
20.8009	46.3197	46.1926
21.4198	43.1467	45.4486
6.49164	62.795	49.659
0.309082	62.6319	49.9959
69.1889	-63.9657	-9.97979
70.8907	-58.6941	-9.11486
69.5154	-65.6376	-16.3553
84.8254	12.3991	-62.0086
84.689	7.27566	-66.3767
83.9047	16.5213	-68.2943
84.9894	16.6996	-54.7432
85.4404	8.28371	-55.2952
81.1882	-19.9766	-67.4717
80.0316	-25.0588	-64.2759
79.1625	-21.3417	-72.7988
82.2244	-14.6592	-69.1621
82.9515	-8.88518	-70.6617
81.1687	-8.75587	-77.3834
83.6279	-3.35749	-70.5892
84.5783	-9.34473	-64.0344
74.1838	-39.2832	-53.1375
70.8769	-42.9431	-55.9002
76.2994	-34.5946	-57.214
6.51769	79.7418	41.9457
-1.12997	79.7705	42.3364
13.2904	79.5878	41.2667
19.3942	79.3771	40.1772
19.8411	86.1313	35.6751
20.9581	-82.9418	58.7102
19.0358	-87.8821	52.0019
27.3303	-82.2854	53.2239
15.0774	-83.5619	61.8109
48.3777	-70.0898	43.2637
42.1175	-72.1444	48.9142
53.7115	-68.254	37.7166
49.1895	-66.3012	46.2447
57.4834	72.9644	12.6977
63.3702	67.4623	6.72707
20.5747	92.1099	30.5736
70.2847	71.4397	-14.6361
74.8446	66.6541	-23.5733
69.9091	66.6283	-7.33484
23.633	111.904	-1.34135
30.3752	109.2	-1.3914
24.2226	115.694	-14.6791
16.2058	113.884	-1.22022
66.5211	50.0433	11.6143
67.7166	55.8151	5.75214
51.1976	36.871	37.4813
48.6014	34.9618	37.3479
48.8392	35.2341	36.4559
60.7033	42.3207	27.5255
61.2463	36.6285	26.1228
59.2827	41.3386	29.3701
57.812	40.3488	31.0026
2.16056	-108.764	40.2194
-0.349922	-108.637	40.3845
60.2832	-58.5743	36.5249
61.5971	-53.8642	38.017
55.381	-59.7211	43.4477
59.1189	-63.306	34.0099
7.04518	-9.28207	84.4547
8.93913	-9.9908	84.0729
6.52541	-7.3451	83.3048
24.222	-19.8501	77.0356
23.5756	-15.8293	76.8507
21.3356	-16.9205	78.9291
10.3467	-7.18925	81.2877
7.75835	-5.95085	81.9137
10.9372	-9.15284	82.3355
13.1588	-8.43226	80.2921
9.64102	-5.19036	80.2243
32.4695	-25.1758	73.1962
31.8524	-28.5112	73.2221
34.7785	-26.6991	72.1066
32.5025	-21.4641	72.9374
65.5056	29.5786	21.5896
63.4244	30.4347	23.8702
66.3104	23.6114	23.3638
67.4888	29.0635	19.038
69.6283	28.6214	15.8372
72.2584	27.0549	11.0842
54.6314	32.6664	33.3241
52.9761	32.9698	34.7408
54.5201	30.6283	33.2725
61.5168	31.0962	25.9455
86.2313	-0.691993	-57.6591
86.0153	-4.93109	-59.5246
85.5716	0.323474	-62.334
86.1391	2.56732	-54.6667
82.4347	-26.1021	-53.8059
80.7297	-27.4201	-56.8234
73.8693	-53.7087	-20.8262
75.645	-49.0452	-19.5182
73.2009	-54.2504	-14.3262
71.8633	-59.4953	-22.2562
74.6429	-51.7426	-27.3324
85.6726	-9.66655	-59.9946
79.5178	-25.0005	-6.66937
78.7304	-29.1612	-5.87526
80.2328	-20.6918	-7.71243
78.4481	-24.6372	-2.11552
76.916	7.95033	9.76354
76.5848	15.7469	6.19213
76.6149	0.569288	13.1264
79.0625	4.16468	1.60023
56.9221	26.3075	32.3971
55.477	27.6092	33.1274
55.4502	24.5293	35.8774
54.1722	28.8235	33.8995
52.7943	27.7677	35.9105
77.1984	-23.2958	4.19768
75.9101	-21.5604	10.8814
76.4874	-28.0995	5.07471
78.0478	-18.2811	2.64646
26.9231	11.977	60.2217
30.8541	10.0915	59.6669
25.1031	15.9069	58.3621
23.3308	14.4224	61.5524
36.1731	8.25466	59.5219
42.4968	6.79257	58.4201
36.8282	3.92954	61.7769
19.8645	17.7348	63.9577
16.5337	21.7492	66.6651
20.6589	15.0157	66.5147
24.4435	8.16359	66.6787
23.1308	10.786	67.8033
20.3309	10.0403	77.2382
18.5636	11.6419	79.6151
19.8715	7.80727	77.045
21.2433	8.62258	75.5109
21.7579	7.27339	73.9909
20.7598	4.79815	73.8818
38.2591	-10.3003	66.4932
33.2302	-8.99746	67.8196
38.6767	-15.3119	67.7248
37.7448	-5.55799	65.1539
37.065	-0.558579	63.6194
5.44717	-2.09237	80.8448
5.83485	-3.90105	81.4501
6.96124	-2.48769	80.2196
60.0194	-31.7299	49.9116
61.2699	-25.9685	49.102
54.8993	-28.4389	56.213
58.1858	-37.4579	50.6913
27.4097	-14.8671	73.6868
25.0257	-13.6537	74.5947
29.646	-15.9085	72.8681
38.7462	-20.1635	68.8602
38.4504	-24.8444	69.8174
