1932
4.08238	-3.2891	86.7677
14.3424	6.35096	77.2659
14.0585	7.26112	77.3334
14.7004	4.60231	76.6559
15.3027	-0.191726	72.2989
14.8945	1.46803	74.3603
14.3334	-2.73634	72.6631
1.61209	-19.1188	81.0315
1.97333	-20.87	81.6038
4.00384	-18.4398	81.1189
1.45368	-16.7806	81.4023
-0.588378	-19.5907	81.001
21.8087	-10.7773	68.3472
18.9087	-10.9196	69.8944
24.7573	-13.9466	67.5262
24.7665	-10.7501	67.1153
19.041	-7.44006	68.614
9.1262	-37.0686	82.7329
9.08325	-35.4442	82.7561
5.60369	-36.7341	84.2251
9.3	-39.1185	83.3244
12.9898	-37.2479	80.9837
24.0009	-26.6596	68.0256
24.3012	-27.2641	67.2977
26.0277	-28.2698	65.1856
23.8744	-25.7574	68.5087
13.8168	7.87414	77.0407
13.7941	8.5409	75.3617
12.7882	9.47548	79.5768
16.6926	-37.5472	78.4727
17.175	-39.6741	78.975
20.0945	-37.6756	75.3313
16.3312	-35.7917	78.4291
2.51032	-36.7382	84.7502
-0.419409	-36.7262	84.8413
2.62259	-38.7119	85.4742
2.32054	-35.2948	84.6346
63.1859	43.8921	27.594
62.2147	43.2444	29.7601
64.6913	37.1392	24.5827
63.9918	44.7573	25.2961
44.4126	73.5127	33.1776
38.7495	76.0646	35.9347
43.8605	69.3034	37.2704
50.4759	69.9576	29.8076
45.7878	78.3022	28.2767
56.6978	65.3364	25.6364
55.9755	61.7544	29.7053
62.4414	59.3329	20.2908
58.0443	69.6766	20.3856
44.8286	63.1561	42.4876
44.2096	65.1488	41.1354
39.0333	64.7031	45.1145
45.7979	60.972	43.3354
65.0951	45.3288	21.8167
65.9857	47.6554	18.3916
60.983	53.3897	27.5267
67.5939	37.8575	17.7062
26.3629	56.4136	49.1408
26.0735	54.0932	47.8137
30.2336	56.5275	48.462
26.326	58.2904	50.0006
22.498	55.4106	49.4595
6.95051	41.9467	59.199
8.67507	38.3157	57.2938
7.05966	43.5982	57.5273
4.83999	44.482	60.6136
6.97337	40.1017	61.7237
28.3133	15.2284	55.7394
30.2626	11.2951	58.493
36.3246	13.8183	54.1703
26.3422	18.5829	53.5343
21.8672	17.1813	56.7674
59.0599	21.8631	30.7633
61.8096	19.8376	29.2186
60.0705	26.1175	28.2361
56.2922	24.172	32.1543
56.8255	18.9997	35.0695
6.99892	37.2956	65.5523
8.7424	33.8456	63.8387
4.91174	39.8111	66.695
46.1376	58.8395	43.8154
51.442	56.4148	40.8112
40.4188	59.7395	46.3515
45.979	56.6633	43.9894
56.2796	52.5699	37.2199
55.5872	50.6359	38.1231
59.4382	47.7553	34.1281
56.2792	32.0664	31.6441
56.8786	36.1232	32.8888
53.583	32.5136	33.2392
55.3582	28.7131	31.6878
58.4131	31.6289	30.1204
42.4873	39.8815	40.1504
44.2421	38.1005	39.0549
43.1183	40.6111	39.9297
40.646	41.2942	41.2102
42.0391	39.1983	40.0671
38.6302	42.6003	41.8493
38.9681	43.5629	41.6499
36.411	43.5594	42.0458
38.3903	41.7758	41.8213
39.1789	44.0505	41.5648
36.6324	45.0599	41.7631
41.4372	42.6734	40.8724
33.464	44.0479	42.1134
33.3279	45.0098	41.8641
30.4637	43.9398	42.1753
33.6389	43.2071	42.1295
33.2687	45.4881	41.736
29.9896	45.3685	41.7843
33.2062	45.7906	41.8044
27.3577	43.1319	42.3038
26.8865	43.9816	41.9957
24.4367	41.7501	42.3855
27.8629	42.3822	42.3615
21.5252	40.0264	42.5494
20.7118	40.7877	42.2618
19.1743	38.2345	42.824
20.2392	41.1621	42.113
19.8167	41.3714	42.1496
17.873	39.1228	42.4293
23.2499	42.963	41.8045
17.6823	36.7544	43.0741
17.0549	37.2202	42.8932
19.2247	41.7064	42.5369
22.3249	43.5638	42.292
18.6751	42.2056	43.0601
33.0646	46.2426	42.1818
32.9954	46.7731	42.6857
29.6139	46.0984	42.2211
47.8589	32.0309	36.4975
48.9207	30.7361	35.9457
48.1794	32.8286	36.431
46.7204	31.4415	37.4819
45.8291	33.884	36.7847
45.5034	34.5695	37.0098
46.6203	33.7504	36.0563
45.1763	33.4259	37.4199
34.644	56.0534	47.4649
39.8387	55.4146	45.856
34.8784	58.0517	48.1184
33.944	53.8624	46.4463
49.7484	44.9766	40.0014
46.8677	43.1007	40.3687
52.5536	46.9214	39.4541
46.1549	47.4018	42.0815
36.5748	25.721	46.8283
42.5749	25.8722	43.8181
35.9262	27.2029	46.5034
29.3967	26.2483	48.4991
37.1724	24.2409	47.2145
23.2755	27.5927	48.5192
23.7315	28.7316	47.7997
19.3936	29.13	47.4355
23.2515	26.217	49.0788
16.7856	32.0546	45.2601
17.3246	32.2788	44.5414
16.3208	33.0106	44.6166
15.8884	32.2153	46.0641
17.3247	31.212	45.7725
35.5781	28.4963	46.0784
40.9834	28.8618	43.6516
35.3445	29.5964	45.659
29.2718	28.8187	47.5925
18.7475	31.667	44.8408
18.4661	31.021	45.5559
20.1467	31.0604	45.8528
18.8051	32.2484	44.2355
18.0211	32.137	44.4078
17.4558	32.5262	44.1429
16.8778	33.138	43.8815
17.4851	32.8523	43.7232
13.9479	43.6404	46.1071
13.5684	46.7852	47.8359
14.4705	40.167	44.3599
15.6617	45.5976	45.8838
15.7884	34.3764	44.0806
16.1812	34.2317	43.7234
15.1434	34.7012	44.5055
25.7966	45.0498	42.2285
25.4143	45.5781	42.752
26.2529	44.6464	41.8251
14.9911	38.742	43.6391
14.5057	36.9251	44.1287
16.0674	40.6256	43.4969
35.2171	30.3177	45.2928
29.2741	30.4306	46.565
35.1623	30.543	44.7918
18.8759	32.6615	43.8244
19.1191	32.7894	43.0927
18.1787	32.9271	43.501
20.5562	32.2111	44.5407
35.1992	30.1731	43.9114
40.1901	30.7177	42.1357
35.3441	29.5831	42.7862
43.5052	32.1787	39.4927
43.9863	31.9607	38.4908
19.6061	32.5384	41.7724
19.8133	32.2295	40.4861
17.5652	33.1071	43.3945
45.3764	36.1429	38.1745
45.9661	36.4063	38.0378
44.691	36.0273	38.1488
3.70628	56.3524	54.472
0.290867	56.6697	54.7491
3.20664	54.2783	55.4185
6.48806	55.9111	54.2537
4.47008	58.8744	53.6058
16.2236	25.3913	52.1131
16.2793	27.0467	50.3033
14.6798	27.1813	52.1795
16.9251	22.8437	54.2586
19.3102	23.4764	52.0182
13.2678	29.1617	52.5795
11.8094	31.6356	53.5457
14.4404	32.7996	47.3902
12.9542	34.2898	48.5187
14.6434	33.9376	45.8621
10.6123	44.7791	50.2879
11.6574	46.7218	49.4306
10.1723	46.3952	51.435
17.8591	30.2007	46.5454
17.2552	29.409	47.5089
16.703	28.3294	48.7414
18.7428	26.7272	49.395
19.871	-29.667	68.3926
19.589	-29.6871	67.952
23.1568	-30.1908	65.3372
16.2374	-28.8893	71.7467
24.8588	-30.5514	64.0049
24.4215	-30.5209	63.8858
2.3864	-24.0019	82.6419
5.04334	-23.8506	82.1393
2.26442	-22.8261	82.4101
-0.584786	-24.2395	82.9035
2.35879	-25.1467	82.7561
7.70905	-25.7276	80.9568
7.69535	-24.9731	81.2512
5.07995	-25.7109	81.878
7.51827	-26.1639	80.5926
10.2608	-25.408	79.6669
12.8805	-25.4787	77.7595
12.9032	-24.5061	78.12
12.9492	-26.2139	77.2681
15.8303	-26.571	75.1615
7.58892	-23.6385	81.3218
10.1381	-23.2892	80.084
7.46349	-22.5392	81.2968
11.7722	-21.2722	78.7554
12.5231	-22.236	78.4771
11.2994	-20.2629	78.6519
9.17152	-21.566	80.3423
19.4971	-28.0741	71.3322
19.2113	-27.235	72.4708
7.06391	-26.4537	80.1807
4.31928	-26.3336	81.085
6.69059	-26.6013	79.5284
10.1638	-26.4728	78.6532
13.2285	-27.0466	76.2582
13.1553	-27.7288	75.438
26.5802	-29.7572	64.0136
27.0035	-30.1805	63.7115
26.7274	-29.583	64.0624
25.8933	-29.0617	64.7785
20.2367	-29.6484	69.0565
20.1484	-29.6017	68.7053
16.6104	-28.7103	72.8145
20.2603	-29.7802	69.4828
20.7133	-30.3814	70.5197
20.5452	-30.137	70.2904
17.5241	-29.3965	74.8334
14.5007	-28.5164	77.9652
14.2822	-28.0344	77.5651
11.531	-28.0093	80.5185
14.8865	-29.0532	78.0778
7.26319	-26.5387	81.3742
7.69268	-26.9056	82.0164
10.7473	-26.9814	79.5658
6.89512	-26.6906	80.648
4.05937	-25.9766	82.444
1.73506	-27.0283	84.357
1.85163	-27.8972	84.7609
4.63981	-27.171	83.6792
1.60182	-26.2532	83.7905
-0.842473	-26.9496	84.5834
25.111	-31.7382	63.5108
24.9136	-30.9811	63.8579
25.2078	-33.1986	63.6022
23.0385	-31.1914	64.8562
1.30187	-27.2126	77.4526
1.28747	-26.7561	78.8365
3.47415	-27.1824	76.8937
1.31096	-28.4041	76.5311
-0.629372	-27.2275	77.6637
1.98188	-28.8932	85.1057
-0.840443	-28.9099	85.31
2.11902	-29.9716	85.3064
5.13296	-28.9433	84.3766
2.22225	-33.7363	84.9352
5.50681	-33.6739	84.3031
2.23631	-32.2832	85.3498
-0.683397	-33.8952	84.9825
7.14052	-21.6597	81.2101
6.36493	-20.3842	81.0638
4.77619	-21.5444	81.7448
1.48903	-25.6945	83.0314
-0.812885	-26.0089	83.2563
1.35325	-26.1547	82.1831
1.2944	-26.5933	81.5154
3.68354	-26.3291	81.0562
1.34209	-26.6671	80.8453
-0.724242	-26.5218	81.6228
6.72842	-26.8014	80.1248
10.1483	-26.7948	78.2986
6.60584	-26.6617	79.491
1.37205	-26.6955	79.9789
3.55234	-26.4701	79.5424
-0.676127	-26.7348	80.0822
13.3249	-27.895	75.9168
13.1767	-27.9576	75.337
13.56	-27.855	76.3772
15.6694	-31.5996	78.6296
15.9144	-32.7632	78.5533
15.4342	-30.6475	78.5638
12.5597	-31.4698	80.9477
9.00587	-31.2311	83.1091
9.09148	-32.4559	82.929
8.88791	-30.16	83.1742
5.47608	-31.0709	84.5752
2.18688	-31.1014	85.3712
-0.789783	-31.1972	85.565
12.9129	-28.026	74.5889
9.72215	-27.1263	76.9391
12.6412	-28.0975	73.7135
27.3667	-30.3763	63.5647
26.9969	-30.6667	63.7291
27.2938	-30.0475	63.7083
26.3842	-30.5585	63.6785
25.8173	-30.6214	63.9377
26.3349	-30.7591	63.828
24.9985	-30.6027	64.5197
23.401	-30.3929	66.1117
6.26496	-27.3994	75.9441
6.31821	-26.705	77.3765
9.43432	-28.0837	74.541
6.35534	-28.7643	75.0159
6.43163	-26.5573	78.5837
9.72215	-27.1263	76.9391
9.00933	-33.9397	82.7384
12.7559	-34.1265	80.7395
15.1242	-29.7898	78.3868
12.1335	-29.5047	80.8467
16.1027	-34.2184	78.4629
19.1048	-34.2103	75.5245
12.2318	-27.9314	72.9937
9.34334	-27.0858	74.7032
11.6971	-26.9916	71.925
15.18	-28.6921	70.7427
6.41464	-26.4284	76.064
4.01412	-26.2318	76.5541
6.82189	-25.7296	74.1967
6.3524	-26.5302	77.41
11.287	-24.7486	70.6655
8.9674	-24.2062	71.7855
10.8669	-21.7407	69.7694
13.7795	-25.3368	69.1612
25.207	-36.1484	64.7127
25.193	-39.5985	66.3902
22.9999	-35.4872	66.1762
1.33747	-30.576	76.9008
3.56636	-30.6916	76.4012
1.38132	-33.384	78.0676
-0.537506	-30.6111	77.0751
6.76155	-23.7691	72.6154
4.48013	-23.5029	73.1417
6.42386	-21.0813	71.6868
6.43932	-31.028	75.4463
6.47219	-33.8394	76.8072
9.64874	-31.6008	74.1485
29.1144	-33.0583	59.1941
30.2604	-33.6921	57.9008
11.2675	37.0592	50.4685
10.6113	36.1483	52.851
85.4732	-15.1777	-60.7871
84.576	-19.0248	-58.8393
84.1417	-15.4955	-64.3472
86.1885	-10.9779	-62.0433
86.8594	-15.1326	-58.6468
84.5083	11.0266	-30.3083
85.126	12.7554	-35.1084
83.7587	14.288	-25.908
85.4478	13.4929	-40.779
85.7555	18.4261	-43.4116
85.137	8.33552	-40.5826
85.6838	11.2822	-47.5463
78.6009	-36.0204	-44.9526
81.0876	-33.3266	-43.9984
77.6332	-39.673	-41.3492
79.9121	-32.6009	-47.8433
81.0392	-29.4993	-50.8898
78.5627	-32.0902	-53.0544
82.3301	-26.1427	-53.7881
83.3385	-27.7568	-49.2995
88.8186	-14.8614	-57.526
90.9625	-14.4869	-57.5647
88.1572	-18.4695	-55.7718
89.2235	-10.5377	-58.7188
91.5599	-31.1558	-44.4916
92.8009	-27.5687	-47.5606
92.7184	-31.2659	-43.0106
90.1861	-34.8208	-40.9923
96.4751	-21.2355	-46.9536
96.2593	-20.4776	-46.3961
83.3227	-41.162	-30.0433
84.2927	-41.561	-29.1402
83.0289	-40.9636	-27.6149
82.8422	-39.7911	-32.1392
84.7388	-30.291	-20.2114
84.3128	-30.9206	-20.0154
83.716	-31.8824	-20.0564
96.1474	-20.0207	-46.1041
95.5359	-20.3331	-45.011
99.4212	-7.06866	-53.8581
99.0869	-6.78133	-55.4479
99.7861	-7.95826	-51.9311
99.5674	3.21799	-54.3098
99.869	4.48932	-54.8066
99.8494	6.73905	-54.4088
99.5722	7.06302	-52.1249
100.01	7.13156	-54.9995
99.4541	9.46695	-51.9541
88.6108	-8.26604	-27.1313
90.0184	-3.10536	-28.9982
87.8339	-7.16084	-26.0121
87.4554	-12.034	-25.6082
81.9652	-21.9082	-16.3296
80.897	-21.6097	-13.5526
81.3716	-25.6388	-15.7003
82.5343	-17.6234	-17.0763
86.92	-19.4819	-26.4159
87.2479	-21.4165	-26.2829
87.1566	-17.7426	-27.1507
85.2871	6.57211	-40.5828
86.0849	7.061	-44.2667
85.8747	6.84588	-40.1557
94.9363	16.2495	-42.4999
96.6701	17.2429	-46.3583
93.5774	16.3577	-43.8882
92.9989	13.6665	-38.7237
96.1786	15.6425	-41.2672
95.3794	16.7105	-52.4319
94.0394	17.156	-48.838
96.652	16.7902	-51.6448
96.3533	14.2382	-56.0925
93.9828	14.7112	-53.3677
97.4996	-2.80934	-62.3918
95.9819	-3.27856	-62.5021
97.5644	3.89108	-61.6474
98.9499	-2.5014	-61.6349
91.108	1.26644	-30.5732
91.3921	-0.199893	-31.1448
100.213	-2.75983	-58.0692
100.744	2.63914	-57.3497
99.5641	-5.42843	-57.7714
100.593	-2.94918	-58.2064
98.6949	11.3193	-48.323
97.5431	11.8217	-44.273
98.7829	9.7993	-48.6132
98.791	12.4888	-48.0021
92.4854	1.21733	-33.904
91.9319	-0.357206	-32.8752
93.0628	3.28947	-35.2265
99.3559	-1.42964	-55.7739
99.2573	-3.80024	-57.0228
96.1901	3.87409	-45.3815
95.928	2.77154	-44.173
97.9103	2.38571	-49.2308
89.9517	-5.48464	-33.4498
90.0703	-5.36004	-34.2332
90.8728	-3.78204	-32.7864
95.5841	-8.10236	-47.2218
98.193	-6.05519	-49.5588
95.1385	-7.5035	-46.8011
95.4771	-9.19207	-47.0468
83.0729	-13.8242	-18.1412
83.6957	-9.67095	-20.1789
82.0932	-13.3802	-15.5826
89.4283	-5.49021	-58.9812
87.7648	-6.1688	-60.3094
89.3512	-0.915479	-58.1997
91.3892	-3.05706	-58.5783
93.5295	2.61072	-59.0028
93.0721	7.05165	-56.9801
95.4707	7.89814	-59.4608
93.9118	-1.91267	-60.4931
94.5802	-4.22685	-61.6213
93.657	-9.7315	-60.4906
93.1786	-14.356	-58.7189
85.6067	-26.9674	-48.6058
84.3839	-29.4994	-45.9167
86.6518	-24.3914	-51.2011
87.4538	-21.5997	-53.6325
85.243	-21.9529	-54.5312
94.6474	-20.1028	-44.1996
83.1649	-31.977	-43.4719
81.808	-34.9124	-40.1966
84.8858	-31.7349	-43.1477
82.4343	-37.8332	-34.9319
81.6118	-37.8917	-35.1958
81.6555	-39.9649	-29.8584
82.9256	-39.5972	-25.2352
82.4872	-39.2214	-25.2499
81.5529	-39.4388	-24.8287
95.8645	-10.0118	-47.1954
98.4711	-9.21654	-49.3797
86.8686	-6.27796	-25.2292
85.6885	-5.66317	-24.3683
84.1293	-18.9828	-20.3508
84.5455	-19.3243	-20.9327
87.9605	-24.8498	-24.7458
88.9991	-27.1959	-25.5973
88.4581	-23.8412	-25.9197
86.6071	-14.777	-24.4174
87.5468	-15.5502	-26.5132
92.4704	9.66436	-54.4702
90.8159	4.78483	-55.2503
91.5119	11.0156	-51.2127
89.0921	2.43215	-56.1681
87.7767	2.17338	-57.4774
88.5556	4.99004	-52.8096
86.1889	-16.0538	-29.228
87.0726	-16.0655	-28.7069
98.8101	0.89673	-51.2093
98.7487	-0.457625	-50.4291
90.6284	-5.05516	-35.8199
89.6654	-7.44638	-36.3172
91.9352	-4.58253	-38.6833
95.0666	-6.54065	-46.5407
97.419	-3.45394	-48.4857
94.3607	-6.13657	-45.2202
9.1269	104.282	19.785
9.31942	98.3477	27.0298
17.7261	103.267	19.7321
9.23436	109.794	10.8284
0.107282	104.627	19.7382
9.3056	92.0851	33.0233
0.44379	92.0686	33.2367
9.21788	85.2237	38.2741
17.3765	91.6502	32.3785
33.3383	77.6679	38.2762
32.6975	73.0553	42.296
28.3855	78.4033	40.0303
1.69253	-1.4601	92.9565
2.35474	0.718167	95.69
-0.0672661	-1.49158	93.5654
3.42594	-1.67772	90.7472
3.49132	14.1126	100.395
6.42881	13.6473	98.4853
3.45189	16.1842	98.7185
0.609688	14.2509	100.851
3.61552	11.9517	101.006
3.6451	9.45443	101.018
0.616422	9.5646	101.366
3.54957	6.79141	100.419
0.806443	-7.61082	85.0527
-1.01956	-7.76408	85.3694
1.25208	-14.754	82.0933
3.31881	-14.2968	82.2642
-0.909928	-14.9902	81.8442
3.15611	3.88238	98.6684
5.36784	3.44482	95.9891
0.473764	3.95026	99.4308
3.32867	18.2296	96.6793
5.99807	17.5865	95.1747
3.2497	20.768	93.3307
0.625889	18.5406	96.9375
7.26668	69.2217	49.5568
-0.0770649	68.9319	49.4682
6.99287	66.1884	51.1021
14.6241	69.732	49.3161
7.65523	72.7591	47.2244
2.8662	45.6677	61.2191
2.78363	43.8644	63.4745
3.01853	47.1638	59.5973
1.02248	45.9931	61.3158
3.12957	48.6941	58.2894
5.01747	47.6375	57.7577
3.13003	50.3484	57.1846
1.15332	48.9557	58.4163
1.67742	-26.2498	76.7077
-0.631584	-26.3123	76.9114
1.96309	-25.3625	74.898
1.38277	-26.5756	78.6374
1.37203	-26.6956	79.9789
-0.676135	-26.7348	80.0822
3.55238	-26.4701	79.5424
1.46969	-26.5469	80.9094
2.31221	-25.7498	82.5471
2.13672	-26.3257	82.1358
-0.62306	-25.9361	82.9154
1.77042	-25.9977	81.736
-0.688922	-26.3149	81.8553
2.17697	-21.9151	82.1201
-0.590263	-22.3002	82.2688
1.96967	-23.4182	73.3817
1.7961	-20.8123	72.4794
-0.660684	-23.3683	73.4546
24.7899	101.957	19.3629
24.4333	96.6303	25.8714
31.2572	100.099	18.6739
25.337	106.976	10.9752
21.131	70.6098	48.0617
21.8607	68.2749	49.204
27.2461	71.1561	46.2587
21.4357	73.7927	45.791
23.3545	65.6762	50.0697
25.1373	62.6248	50.6634
28.7496	66.2206	48.7086
25.9499	60.31	50.6014
21.7398	59.0608	51.2026
30.0868	60.6682	49.6382
25.0275	46.2477	43.2258
24.9913	47.8304	44.1166
21.5527	44.919	43.4415
29.1692	47.2456	43.2265
27.9386	42.4726	41.7401
30.7986	43.2394	41.5845
27.9012	42.9611	40.9239
26.5093	44.3779	41.7889
25.1877	50.7675	45.8274
29.3313	51.3746	45.6281
21.527	49.7261	45.9911
50.8136	98.4455	-3.62196
52.0302	101.142	-14.9803
44.8659	102.798	-2.0398
50.2428	94.8003	5.12546
37.1083	97.9636	17.3187
37.976	102.233	9.58598
43.118	95.0179	15.1911
32.6038	70.49	44.4537
32.987	68.4672	45.729
37.9737	69.1038	42.3339
34.7652	60.2685	48.4438
34.3744	62.7998	48.2131
33.6095	65.8679	47.1321
33.2087	51.2534	45.2667
32.9537	48.6421	43.895
37.842	50.4239	44.4274
49.3969	91.198	12.1213
55.5648	86.8515	7.90274
48.3106	87.3087	18.0663
43.9892	66.848	39.5945
50.098	63.7723	36.0348
40.1089	45.6823	42.702
40.5921	46.8286	43.0463
36.8155	46.8577	43.1271
43.0216	44.1095	41.8577
33.6361	43.3283	41.5381
33.7314	43.8935	40.8178
36.3399	42.8953	41.4652
45.3344	54.4548	43.9128
44.0328	51.9487	43.7734
50.3263	52.0206	41.5551
42.0744	49.2996	43.3621
46.9964	83.0055	23.41
53.2842	78.878	19.6021
61.287	82.5354	2.05806
60.4221	78.624	8.61933
66.4429	78.3056	-5.20091
43.4523	40.9912	39.7651
45.2825	38.9472	38.7295
43.6784	41.2291	39.751
45.419	42.1557	40.3949
44.6049	41.7991	40.1736
47.3853	40.0515	39.0364
44.0343	41.5155	39.9349
41.9044	39.3804	39.4597
43.4491	37.9133	38.4188
40.1757	40.7112	40.4979
42.0529	39.9567	38.518
54.4745	48.8637	38.807
56.7929	44.7782	36.4103
18.7762	53.5959	49.4289
15.6035	51.3771	49.2809
18.6829	51.2743	47.9961
18.5152	55.3744	50.5065
17.5761	57.1178	51.4924
14.3689	54.9187	51.5691
18.1879	47.746	45.9126
18.0359	44.4694	44.2427
6.16031	62.8276	52.3592
-0.0644668	62.2493	52.4047
70.9068	-61.6751	-12.8609
72.5091	-56.1799	-12.2536
71.0162	-63.3772	-19.0569
85.6828	16.0113	-64.1796
85.6225	10.9086	-68.6572
84.7875	20.182	-70.4038
85.7496	20.2501	-56.7783
86.2591	11.8492	-57.546
82.2262	-16.5845	-70.0491
81.044	-21.7524	-66.8972
80.2157	-17.9733	-75.3252
83.2758	-11.1897	-71.7069
83.9985	-5.34482	-73.1477
82.2351	-5.20424	-79.8272
84.649	0.234971	-73.0163
85.598	-5.81869	-66.5734
75.0487	-36.2778	-55.8079
71.6977	-40.0495	-58.466
77.2112	-31.4824	-59.8751
8.51127	78.3686	43.1008
0.0766806	78.1517	43.1257
16.0024	78.6174	42.6846
22.3619	78.7384	41.624
23.664	84.8863	36.4492
24.0397	-81.9397	61.3526
22.165	-86.4792	55.5726
31.4857	-81.9303	54.8
17.1887	-82.2863	65.6355
56.4872	-72.6865	43.1493
50.2063	-74.789	49.6232
61.1769	-70.0916	37.0359
57.6393	-68.983	46.4553
59.4506	74.1178	14.5716
64.9186	69.0098	8.34081
24.0077	91.0296	31.3765
71.4955	73.6212	-14.0295
75.84	69.1844	-23.4005
71.0845	68.6467	-6.50233
25.6108	112.147	-0.519225
32.4966	109.628	-0.441688
25.7477	116.493	-14.0041
17.962	113.943	-0.558228
67.3647	51.7559	13.0947
68.7108	57.5962	7.06603
47.851	37.9704	38.1827
44.6513	36.1232	37.5825
44.9557	36.2861	36.9171
61.0989	42.4638	31.4198
61.2182	36.5895	29.444
59.4379	41.4991	33.1313
57.6154	40.5888	34.3978
2.5927	-107.141	48.7084
-0.382449	-107.059	49.0171
67.2002	-59.2672	34.6162
67.9045	-54.2514	35.7094
63.3331	-61.2458	42.6362
66.1319	-64.1966	32.5105
5.82603	-18.4877	80.8637
7.69979	-18.7243	80.0801
5.32419	-16.1768	81.0526
23.4442	-23.2469	69.2832
22.7104	-19.2983	69.8932
20.2753	-21.7022	72.0549
8.81373	-14.7647	79.6367
6.47449	-14.3607	80.6174
9.65559	-16.7607	79.3116
11.5539	-14.9751	77.7026
7.96602	-12.7683	79.6748
32.6228	-27.0798	63.8276
32.0346	-30.3102	63.3624
35.2633	-28.639	63.3693
32.6794	-23.4964	64.6594
65.3376	30.3612	22.7685
63.221	30.6698	25.6004
65.2435	23.932	23.5416
67.236	30.2645	19.732
69.1297	30.2159	16.0617
71.3519	29.0454	10.8656
51.1065	32.9872	34.8009
49.1322	33.3902	36.0747
51.03	30.8395	34.5549
60.9347	30.8405	27.8572
87.1565	2.87546	-60.099
86.9894	-1.37876	-62.0325
86.531	3.91202	-64.7465
87.0001	6.12653	-57.0469
83.4203	-22.7996	-56.5649
81.7005	-24.148	-59.5327
75.0648	-51.0004	-23.916
76.7589	-46.1768	-22.7665
74.5298	-51.548	-17.5433
73.1185	-56.9919	-25.1123
75.7102	-48.9819	-30.3267
86.6833	-6.14887	-62.567
79.8378	-21.5928	-10.2346
79.1139	-25.7817	-9.56598
80.522	-17.2841	-11.1238
78.5869	-21.2051	-5.76676
76.3434	10.4486	7.96156
75.704	18.0037	4.85133
76.6008	3.16329	10.6856
78.8794	6.99615	-0.548244
54.397	25.8264	33.1109
52.3884	27.5279	34.0393
52.318	23.9627	35.9163
50.6857	28.9732	34.9925
49.0618	27.9059	36.7813
77.0693	-19.8225	0.448611
75.5621	-17.9539	7.10996
76.3966	-24.6348	1.10596
77.9944	-14.8553	-0.811939
20.334	10.3213	63.2259
24.7822	8.57907	62.2038
19.6658	14.9389	60.5361
17.3188	12.9965	64.2615
32.3454	6.91806	61.1777
40.7933	5.10429	59.2356
33.8216	2.30481	63.365
14.6362	16.005	66.2592
12.6239	19.6073	68.5363
14.4456	12.4677	69.0295
16.5702	4.93035	69.5422
15.5783	7.37071	70.4954
13.8382	4.02233	79.7372
12.973	5.11686	82.3865
13.4196	2.04532	79.4481
14.2949	3.27492	77.7899
14.6279	2.5288	76.139
14.0569	0.186533	75.8315
39.019	-12.4911	64.5057
32.7826	-11.2682	65.5511
39.9237	-17.5373	63.9575
37.6369	-7.74255	64.8332
35.5739	-2.58305	64.5712
4.07231	-10.6074	82.704
4.4406	-12.4305	82.4632
5.43592	-10.7282	81.7696
62.5606	-32.4685	45.3785
63.0702	-26.9897	44.7173
57.5983	-29.8482	51.6653
61.8155	-38.2132	46.6608
26.9885	-17.3529	66.5824
24.2531	-16.6824	68.1192
29.4756	-18.1528	65.5263
40.0855	-22.3548	63.0753
39.6676	-26.9212	62.6219
45.8067	-24.573	60.8468
35.1548	-20.5205	64.0506
4.85928	-14.1918	81.8403
60.8073	-44.4725	48.4128
65.0148	-47.4467	42.4542
55.3567	-40.2993	53.8594
58.295	-49.6194	51.5899
63.4838	-12.0283	44.4558
63.3761	-17.0059	44.5888
67.706	-13.5061	36.7066
31.644	-67.0337	73.6237
32.2006	-63.4156	74.7127
26.2486	-67.0308	79.4846
44.2735	-58.5942	63.5136
49.4235	-56.4292	59.4169
41.7122	-53.5233	65.032
38.2093	-59.4624	68.6764
58.9847	9.70287	41.7853
55.8694	14.4807	40.5548
52.5079	10.9731	47.5348
46.6899	26.8635	39.9602
47.8396	24.8522	39.9156
45.6009	28.7351	40.1073
53.4719	17.8392	39.8438
48.123	18.0025	44.6524
51.0548	20.6306	39.8168
44.8223	30.2838	40.0902
2.89342	-57.88	96.0172
-0.515044	-58.1366	96.1108
49.7888	-36.6431	58.0407
48.0354	-40.5269	59.5282
50.9355	-32.1744	57.3592
44.0515	-33.4567	61.1963
38.8314	-48.958	65.7869
42.3628	-46.7058	63.3718
35.1353	-44.3019	66.233
34.1988	-50.1726	69.2551
44.8877	12.4643	51.6351
47.0641	8.04985	53.8843
42.5373	16.2288	49.6635
52.0008	-27.1275	57.0122
49.1768	3.08464	55.6485
10.5695	-49.575	90.9325
10.043	-45.6042	87.7921
15.2901	-49.7549	87.9962
20.2968	-50.3336	83.9743
25.0384	-50.5051	79.3125
19.1617	-46.4898	81.6551
40.9125	18.9331	48.5597
39.3784	21.004	48.0326
32.8099	19.6405	51.049
49.4007	22.8051	39.8079
44.9592	22.4087	43.9846
38.2317	22.7222	47.521
30.4935	23.272	49.6241
10.7402	22.936	71.272
10.7976	18.9231	75.2132
10.5655	26.8573	66.8142
11.7871	11.7116	83.8286
11.4516	12.9761	82.0705
10.4645	14.1167	88.1833
11.9663	10.6172	84.4836
10.1426	34.6216	55.1733
10.1142	32.9733	58.0142
18.4295	18.9775	57.4135
2.8817	41.1673	67.1208
0.90314	41.5154	67.1885
64.7708	18.0154	26.8071
10.3729	30.4293	62.0663
68.332	-48.7382	35.6735
71.1291	-48.2636	27.0993
71.1752	-2.50226	27.9046
71.0697	-8.84648	28.3242
73.8855	-2.8019	19.8256
69.7063	-24.7944	29.8077
70.0241	-19.6132	29.0555
67.1743	-23.5095	37.0664
71.3865	-26.191	22.8246
70.5783	-14.3399	28.5588
72.4675	-15.3625	20.8561
21.4618	-66.8619	84.3429
9.58623	-41.9668	85.3379
5.87638	-41.7041	86.9122
13.7701	-42.2424	83.0504
18.0918	-42.7892	80.2403
24.3798	31.1995	45.8228
24.2809	30.6382	46.4324
25.1141	21.1672	51.9315
24.2206	23.182	50.7431
23.6118	24.7544	49.8608
2.59036	-41.6879	87.5906
-0.417477	-41.5016	87.9439
6.82992	50.8753	54.9279
8.24294	49.6336	53.8269
7.54738	52.8744	54.157
5.07592	51.5919	55.7823
6.62415	48.4661	55.7328
16.3821	34.1826	43.5692
16.107	35.6259	43.219
14.4738	35.2056	44.9256
9.36721	48.0047	52.5948
10.4353	50.2915	51.9396
3.11346	52.2627	56.2557
0.753265	52.4808	56.3784
4.86451	-1.61549	88.6345
5.84295	0.27139	90.488
8.94283	12.7035	95.035
8.82499	14.377	93.8883
10.9691	11.3458	90.1409
12.9147	-4.64103	73.5182
12.7384	-3.2683	74.7417
10.9714	-6.04567	75.1184
8.44717	16.1846	92.5332
7.06775	45.3972	56.4634
8.88221	55.1881	53.6524
10.7098	53.9984	52.746
16.6615	37.3748	42.7402
12.1386	52.6254	51.6297
12.8593	50.8858	50.4352
13.2824	49.0571	49.2162
16.4235	-11.1592	71.5329
13.5975	-11.3953	74.0199
19.0389	-13.3603	70.6323
21.3798	-16.1305	70.1625
17.8074	-15.6121	72.7298
23.5169	-30.0908	63.9089
23.3882	-29.1076	63.3316
21.4762	-29.7887	65.5977
24.388	-27.7694	66.8775
22.1968	-26.8961	69.6441
23.2958	-26.6913	62.3233
19.7434	-26.3032	64.8853
22.9954	-23.6834	61.6192
11.3577	-11.5014	76.3853
9.33356	-11.3362	78.2223
12.8772	-13.2735	75.9455
14.7015	-15.2712	75.2293
15.9358	-17.26	74.6483
18.6978	-29.3815	67.9918
17.2258	-28.2877	68.069
16.5477	-25.8927	67.2743
16.1735	-22.7143	66.4258
7.2995	-11.0614	80.0095
6.72161	-9.33052	80.1387
10.671	-18.7376	78.7261
13.7611	-18.858	76.6031
14.1685	10.0442	71.8988
12.4343	12.6398	75.1725
3.21073	24.0405	88.5724
0.894828	24.3542	88.7529
11.0537	15.7093	79.1309
7.23312	3.21232	92.9542
8.80061	2.60619	89.055
10.2128	1.9559	85.183
11.2686	4.17557	85.8515
11.6219	0.906565	81.5196
12.6302	0.0488342	78.9663
12.9173	-0.999346	77.1178
12.8536	-2.12172	75.7452
12.0695	9.61935	85.3128
12.0453	8.2491	85.9681
11.7481	6.35521	86.095
39.8386	-143.44	13.4183
35.1348	-144.787	16.4895
40.7561	-149.511	12.1634
44.1118	-141.947	10.2799
38.8701	-135.495	15.2305
38.0056	-123.926	17.8224
42.2631	-122.361	14.0061
37.8305	-111.808	20.3547
33.4963	-125.345	21.6677
42.8521	-88.0554	27.5758
46.8947	-86.4209	22.1076
38.0743	-89.4324	33.1009
40.59	-94.1363	23.8652
38.6366	-101.979	22.1143
34.0263	-103.386	27.0704
42.7844	-100.384	17.5145
45.896	-44.0492	61.1811
50.2798	-48.5617	58.4924
40.7296	-39.8789	62.9811
54.9364	-53.666	55.0407
57.3865	-59.0717	52.0976
58.2491	-64.273	49.2149
36.5984	-36.5768	63.4147
37.9299	-33.9621	62.8892
33.1647	-33.9859	63.1562
34.4613	-38.6221	64.524
31.2732	-32.6097	63.3309
30.0336	-34.169	63.7336
50.414	-85.1139	16.9574
53.4262	-80.7035	19.8259
48.2666	-91.0371	14.404
53.7164	-84.3063	11.3712
57.3958	-76.6796	23.5701
59.623	-75.8688	16.5901
61.4678	-72.744	26.8097
64.3089	-68.4621	30.0603
65.9537	-67.967	22.2976
46.3214	-120.571	10.1864
46.9826	-132.44	8.35975
50.1686	-119.176	6.16063
46.1495	-108.477	11.8232
47.9548	-140.489	6.97677
48.9443	-146.7	5.76544
51.4602	-139.043	3.29845
46.7644	-98.7167	13.0034
73.9846	-16.5645	13.8929
73.2435	-21.9715	14.9172
74.9988	-10.7502	12.9742
66.7975	-67.5034	14.9345
64.0861	-71.2785	12.4899
67.0123	-66.9383	7.57765
74.8376	26.2926	2.39356
78.8484	21.6685	-7.84401
72.6292	-48.2225	18.884
73.3444	-48.5062	10.725
72.8748	-27.3378	16.0872
74.3542	-28.3738	9.02436
76.0079	-3.78719	12.3441
77.688	-6.44631	4.83078
75.8487	-29.4939	1.95737
77.2814	-30.0263	-4.56082
61.4391	-84.0703	-4.86536
60.9197	-89.5634	-5.52932
63.4799	-84.3882	-9.74936
62.2784	-79.253	-3.89934
59.2227	-83.9387	0.173171
60.5315	-95.8027	-5.86814
63.6128	-74.6605	-2.27505
62.4094	-74.752	3.53585
64.9887	-74.9669	-8.09619
65.2784	-70.5677	-0.814961
80.6661	3.82305	-8.95261
81.1821	10.7165	-13.3221
80.023	-3.15538	-4.79137
81.9569	17.9168	-18.1991
82.6874	24.7883	-22.6552
83.5044	31.6503	-27.8687
85.3915	28.0637	-38.3862
84.1731	38.3408	-33.6142
73.6541	-48.9987	2.61303
73.8335	-49.8223	-5.07312
79.0575	-9.21859	-2.18267
80.2329	-11.5689	-8.19009
54.0067	-117.71	1.80814
54.2889	-129.528	0.448357
61.2054	-75.1605	10.0197
58.605	-79.2954	7.56265
54.8502	-137.475	-0.820849
55.6531	-143.386	-2.13456
64.0247	-113.334	-16.1896
63.8078	-123.255	-17.7048
65.4533	-84.5998	-14.5562
66.8801	-83.6907	-19.9863
65.9995	-79.8039	-14.2236
66.7836	-75.0303	-13.6858
63.5655	-130.392	-19.335
63.4184	-136.039	-21.0386
74.07	-51.2143	-11.8472
78.445	-29.9318	-9.12308
79.6754	-29.0784	-12.6805
77.9046	-33.9286	-9.39346
81.1318	-12.7861	-12.2208
65.4993	-92.5718	-27.7126
64.0074	-89.3979	-34.904
66.1781	-86.1514	-26.9805
67.271	-80.1867	-26.6453
66.8203	-75.1103	-33.5359
71.2685	-63.3934	-25.6799
77.9462	-43.3185	-22.3032
78.9529	-41.901	-29.1514
58.8117	-119.384	-45.5574
58.5628	-126.758	-47.3207
55.4359	-116.886	-52.5257
59.1628	-111.601	-44.045
76.5113	-44.9534	-36.0667
78.6064	-40.792	-35.4585
80.2838	-38.7149	-35.2443
30.3701	-145.906	19.484
29.5038	-138.015	21.8793
25.5159	-147.012	22.1052
31.2832	-151.994	17.7585
28.7401	-104.477	32.6494
23.1768	-105.452	37.7752
28.2143	-114.446	29.6817
30.3645	-96.5258	35.4754
38.2136	-81.7732	48.4658
35.092	-85.631	43.88
41.2351	-78.5348	52.4968
32.5168	-90.2709	39.3627
26.5214	-90.664	45.675
28.5902	-126.365	25.7289
23.5646	-127.741	29.4849
32.2713	-40.6198	66.2281
29.9276	-37.5684	65.6451
43.4203	-75.3957	55.8829
28.5595	-35.6232	65.1693
26.3796	-36.6875	67.66
27.4334	-34.1397	64.726
26.6718	-32.7834	64.578
26.2479	-31.6973	64.443
24.9226	-33.6673	66.534
29.8297	-50.8456	74.0258
31.1504	-54.9359	74.6343
32.2115	-59.5007	74.7607
20.1702	-29.9074	70.1961
16.9906	-28.9234	73.9021
19.871	-29.667	68.3926
23.1674	-30.1993	65.3635
19.8486	-29.9627	67.794
16.2374	-28.8893	71.7467
19.7311	-30.4736	67.3918
19.775	-31.8111	67.3172
15.9926	-29.6874	70.2941
19.761	-34.4787	68.3661
19.6832	-37.6998	70.3028
16.1556	-33.2245	70.7684
17.5773	-106.06	42.0805
18.5492	-97.3945	45.9486
17.7854	-116.653	38.2221
20.5579	-148.155	24.3753
19.6478	-140.302	27.5041
15.6517	-149.045	26.2778
21.2228	-154.048	22.543
18.5779	-128.905	32.7495
9.18256	-91.2434	56.778
13.6854	-91.4045	54.5811
10.8393	-86.8692	61.7141
11.3468	-149.659	27.7062
11.9131	-155.423	25.8965
11.9082	-82.1718	68.308
12.9129	-28.026	74.5889
12.7064	-28.2956	73.6491
12.4917	-28.809	72.7331
12.7192	-30.1036	72.0432
12.8537	-32.296	72.6335
12.8454	-35.26	74.1454
79.2247	52.822	-18.5102
82.6876	48.5987	-29.1659
79.9609	59.0201	-25.801
74.8473	57.6508	-8.51556
85.9049	24.3695	-48.0142
79.1375	-26.8254	-63.7889
76.4074	-29.4968	-67.8268
53.1324	-98.0657	-55.01
54.0499	-88.8254	-54.1826
55.9557	-100.282	-49.5093
52.6717	-107.051	-56.2713
50.2675	-96.6198	-60.043
52.4693	-114.918	-57.7573
52.5172	-122.62	-59.4468
49.3222	-113.529	-62.4787
61.1357	-85.0968	-42.3094
60.1498	-94.238	-42.3199
58.0629	-81.8299	-48.7013
62.9374	-76.8322	-41.8797
25.5161	119.544	-29.4274
33.041	116.439	-28.7966
25.3728	120.46	-45.9165
17.5333	121.738	-29.8234
25.1441	83.3895	-127.481
25.7433	96.205	-113.839
33.1326	81.8141	-124.972
24.4466	69.0096	-137.96
16.7735	84.3399	-129.207
23.9139	54.4132	-143.927
31.6341	53.2903	-141.438
23.5451	39.6402	-146.752
16.0384	54.7007	-145.565
25.7417	106.423	-98.2118
33.7571	104.286	-95.8452
17.3716	107.921	-99.7818
25.6012	113.957	-81.095
8.652	121.729	-65.1997
-0.142844	122.062	-65.5083
8.66857	123.872	-47.2804
17.2067	120.641	-64.4986
8.67693	116.679	-83.2314
23.2651	26.0011	-147.512
30.3917	25.1662	-145.012
22.8981	12.5393	-146.531
15.9985	26.4046	-149.17
22.3508	-0.980536	-144.106
29.2809	-1.37492	-141.575
21.7848	-13.6691	-140.265
15.3423	-0.447558	-145.915
18.9676	-44.6213	-118.321
25.3111	-44.8724	-116.074
18.2637	-53.2997	-107.84
12.8828	-44.6786	-119.333
20.2058	-35.213	-127.858
7.43482	-24.6757	-138.308
0.327794	-24.7199	-138.713
7.64311	-13.2191	-143.18
14.3455	-24.7766	-137.049
7.02296	-35.0348	-130.997
15.4687	-93.3318	-83.4754
15.9329	-85.5133	-84.7146
20.8802	-93.7655	-82.0108
15.1031	-100.654	-83.2068
10.2034	-93.0605	-84.1304
4.87723	-107.152	-83.3597
9.85817	-107.496	-83.3135
4.95057	-114.581	-83.4233
0.0935126	-106.979	-83.3137
5.02271	-99.8178	-83.4507
18.1418	-60.4076	-99.2227
23.7977	-60.8767	-97.7836
17.5339	-67.4278	-92.6928
12.1018	-59.8302	-99.9739
16.6138	-76.2872	-87.8673
22.3995	-77.0036	-85.8918
11.1111	-75.6308	-88.8477
5.63387	-75.1268	-88.6518
5.96414	-66.2575	-93.5586
5.28383	-84.6827	-85.2474
0.127114	-75.1027	-88.1806
52.8073	103.115	-28.3359
58.8418	97.2197	-28.1084
53.7284	103.468	-42.8752
46.5612	108.138	-28.244
52.3102	48.8098	-128.825
58.1946	46.8168	-123.666
51.8797	35.3975	-131.944
46.0207	50.4655	-133.533
52.7246	61.9469	-122.794
52.816	74.3891	-113.226
46.6811	77.2094	-117.524
53.3392	84.9444	-101.01
58.8465	70.9317	-108.442
54.1126	93.0616	-87.5472
60.3974	87.8672	-84.2711
47.7519	97.3669	-90.4463
54.9446	98.4578	-73.1392
54.484	102.042	-58.1129
47.9101	107.199	-59.3845
60.7508	96.1841	-56.623
51.1793	22.5784	-133.144
50.4084	9.97518	-132.571
44.807	23.4662	-137.618
57.01	21.4713	-128.236
49.4447	-2.30086	-130.652
55.2691	-2.66328	-125.964
48.3908	-14.1008	-127.041
43.2092	-2.10939	-134.659
46.836	-24.7684	-121.944
45.1451	-35.0165	-114.693
40.9876	-25.1797	-125.544
52.1012	-24.5303	-117.492
43.7489	-44.5344	-105.289
48.9051	-43.518	-101.512
42.5598	-52.9256	-96.1124
37.9698	-44.7755	-109.339
41.4279	-60.8274	-88.2597
40.1977	-69.194	-81.4746
35.8163	-61.2981	-91.882
46.382	-60.2505	-84.0559
37.1519	-94.3277	-74.1503
36.2741	-102.386	-75.6203
31.7877	-94.3582	-77.3827
37.9955	-86.1053	-73.9268
42.0579	-94.6753	-70.252
25.1006	-108.568	-80.9482
24.8212	-115.354	-81.0822
19.8939	-108.094	-82.2248
25.6623	-101.571	-80.637
30.4359	-109.176	-79.015
38.9962	-77.77	-76.5104
43.9109	-77.3654	-72.1257
33.8327	-77.7385	-80.1405
38.3549	41.911	41.2284
38.4692	42.5358	40.3558
73.6494	58.0127	-90.546
74.5105	64.6921	-80.1628
77.6237	52.7716	-82.9315
73.1472	49.3737	-99.3679
69.2428	62.628	-97.4071
75.6437	69.8747	-69.5541
79.4549	63.4275	-62.3391
71.1427	76.1349	-75.6311
76.2216	73.7747	-58.5951
75.0844	77.1855	-47.8674
77.8728	70.9823	-41.1022
71.1643	83.5513	-52.0107
62.1595	20.3962	-123.181
62.9257	32.3374	-121.627
66.8345	19.0092	-117.745
61.3615	8.49834	-122.789
63.4408	44.7545	-118.33
63.9624	56.4423	-112.395
68.3064	42.1604	-112.363
56.8467	-23.9522	-112.045
59.0501	-13.8139	-117.024
61.2282	-23.3799	-106.094
54.6523	-33.4893	-105.421
60.3736	-3.1017	-120.707
65.0174	-3.20419	-115.197
53.2198	-42.1218	-97.3425
57.1921	-40.9246	-92.1256
52.2106	-50.703	-87.9469
50.7341	-58.8291	-79.9687
54.5379	-56.4767	-76.3025
48.6131	-76.952	-66.5047
52.6701	-78.2734	-59.9616
47.5615	-86.2764	-64.8996
83.4466	24.6371	-77.0198
82.7347	17.1373	-82.6971
81.5991	28.4514	-84.0599
63.9921	90.8062	-27.1488
65.1613	91.4087	-41.1012
84.507	44.761	-39.9061
84.0473	51.045	-47.064
72.4349	-20.9118	-90.5946
69.1326	-22.037	-95.524
74.5315	-12.9056	-94.8694
75.3906	-20.0477	-85.1651
69.8872	-28.7283	-84.8963
75.5777	-4.3324	-98.4078
72.5657	-3.97174	-104.302
76.4265	4.40812	-99.7656
78.3038	-4.83812	-91.8522
77.337	13.7858	-99.3658
74.3856	15.713	-105.951
78.3568	23.0523	-96.4884
79.8614	11.5853	-92.4173
62.35	-48.7966	-66.9353
59.7372	-51.5341	-69.8666
64.7141	-42.4699	-72.7084
65.1451	-46.1874	-63.8468
60.356	-55.6374	-61.5103
73.3361	-31.7026	-71.6628
70.8276	-37.5803	-66.3613
70.3215	-33.7398	-75.0344
75.831	-25.639	-76.1753
55.5744	-79.8032	-54.1788
57.2628	-71.0878	-55.3244
80.198	-34.3883	-16.7736
80.7068	-30.4105	-15.9413
78.5024	-36.7771	-13.7589
80.7067	-28.3746	-15.0326
84.3516	-4.22373	-23.4911
85.369	0.156888	-26.8999
100.148	-2.46141	-60.6247
100.289	3.83468	-60.0308
100.864	-2.71115	-59.5661
88.3719	-38.3703	-36.5752
87.0753	-40.6728	-32.2699
99.8298	9.40912	-57.8481
98.5405	9.7623	-58.781
99.0326	13.669	-54.4916
100.793	8.74216	-56.8445
91.145	9.94603	-35.1955
89.7253	9.75141	-36.127
98.0149	16.3497	-50.4026
99.1576	15.5424	-49.3787
94.2498	-23.8963	-51.1338
90.4562	-36.9789	-28.4927
89.4953	-36.0166	-25.8301
88.7598	-39.7873	-28.2942
86.2997	2.38139	-28.9214
92.4196	15.8436	-45.1804
90.5883	13.1835	-41.6997
91.3586	14.2293	-46.7189
88.4603	9.34932	-37.7095
87.4827	8.99548	-39.6396
97.1339	9.74211	-59.3732
87.0046	8.50101	-40.7952
88.3536	9.83105	-43.8852
90.087	10.8012	-47.8912
88.5984	7.66046	-48.0377
93.6011	-30.2932	-41.5284
93.6865	-29.9395	-33.6685
86.3765	-41.2168	-28.5159
88.2445	-34.3871	-24.0465
89.1715	-31.3823	-25.2016
90.3918	-29.2315	-26.7015
91.2122	-27.8127	-28.0526
100.916	-2.90423	-58.748
101.424	3.02794	-58.181
97.0827	14.8062	-40.7261
97.4279	13.7923	-40.4241
98.7828	15.6073	-44.448
97.1699	12.9851	-40.3648
98.5667	13.8706	-43.8283
96.5234	11.9731	-40.4164
101.144	8.13915	-56.0744
100.496	12.0018	-52.7971
101.026	7.53815	-55.5772
99.8072	14.6266	-48.6184
99.9235	13.7138	-48.2388
99.388	13.1884	-47.8798
99.9393	10.9173	-52.0924
100.528	7.30976	-55.2993
99.1474	-6.72873	-56.7474
95.9628	10.6361	-40.6951
93.0792	4.2209	-36.4838
98.7598	8.17584	-48.7886
99.6504	-8.53093	-50.7455
99.563	-6.6275	-50.9837
99.3458	-4.71061	-50.9541
98.9711	-3.08462	-50.5082
98.4587	-1.63615	-49.6593
97.399	-0.238722	-47.4466
88.4668	-23.8171	-27.3464
89.8301	-25.7714	-28.3783
91.4151	-1.57042	-31.9052
87.6238	-15.9378	-27.8629
91.0999	-27.1732	-28.9378
32.9646	47.3769	43.191
38.6925	106.666	-1.09336
39.5353	110.21	-13.8522
9.1685	115.269	-0.852158
9.04533	119.921	-14.6741
-0.128779	115.81	-1.14364
39.9128	112.692	-28.5884
40.3296	113.337	-44.2435
8.8205	123.02	-30.1938
-0.203459	123.463	-30.5938
25.3317	118.649	-63.4374
33.3004	115.685	-62.119
40.7184	111.868	-60.8805
41.1277	107.893	-77.2863
70.1666	63.1264	0.330896
79.5311	64.9161	-33.5587
81.8567	61.0209	-44.0881
66.1971	90.1309	-54.9939
66.8569	86.8111	-67.9629
8.71605	108.819	-100.619
8.69724	98.2139	-116.485
-0.0109886	109.125	-100.882
40.8734	101.398	-93.062
40.6264	91.7678	-108.217
82.315	57.2024	-54.7013
81.698	52.9168	-65.1331
65.8948	82.3692	-80.5537
64.8562	75.7964	-92.23
80.8292	47.5779	-75.1739
79.9065	40.6828	-84.2144
79.1082	32.5269	-91.4
76.1149	36.0012	-98.6859
46.5717	-95.6784	-65.2789
45.7039	-104.144	-66.6867
45.3681	-111.953	-67.7841
45.2263	-119.435	-68.8662
40.7155	-110.58	-72.7838
8.41828	84.9526	-129.921
8.18445	69.867	-140.32
0.142109	84.9353	-130.232
8.17669	54.79	-146.258
8.24764	40.2125	-149.043
0.2399	54.7647	-146.363
8.32582	26.621	-149.972
8.21219	13.429	-149.213
0.303531	26.7369	-150.144
7.91372	-0.0385159	-146.917
0.348775	-0.0769942	-147.158
21.1167	-24.9279	-135.042
27.8138	-25.189	-132.319
6.44232	-44.6149	-120.063
6.23876	-53.1344	-108.396
0.251905	-44.7233	-120.111
6.13463	-59.6346	-99.8507
0.168958	-59.6401	-99.5627
5.15529	-92.5979	-83.8046
0.107619	-92.3551	-83.3854
38.9899	51.9748	-137.899
39.6633	66.1559	-131.841
38.3822	37.8028	-140.794
40.0891	79.6411	-121.735
37.6938	24.392	-141.666
37.0281	11.2611	-140.752
36.2991	-1.67195	-138.419
35.5652	-14.1425	-134.483
34.5314	-25.2606	-129.103
33.2502	-35.4422	-122
31.7251	-44.8782	-113.048
30.4452	-53.5313	-103.596
29.8446	-61.1928	-95.2383
29.2453	-68.905	-88.3019
28.1539	-77.4113	-83.361
27.1633	-86.1303	-80.4327
26.4606	-94.0421	-79.9367
35.7666	-109.762	-76.3474
35.267	-116.736	-76.9108
64.1675	67.2265	-103.287
72.4852	39.6056	-105.678
71.7491	28.381	-109.921
70.8447	17.6615	-112.152
69.9672	6.82629	-112.047
68.9714	-3.47102	-109.954
67.6618	-13.4465	-105.877
65.294	-22.8854	-100.667
62.8233	-31.434	-94.5211
60.7408	-39.2411	-87.8079
64.0975	-37.7678	-83.0536
59.0117	-46.995	-80.0242
57.3025	-54.0228	-73.1497
58.9804	-63.2312	-57.1862
61.4156	-61.2786	-54.2948
81.8142	9.87517	-86.1207
81.0438	2.23176	-86.8408
83.5794	7.74859	-79.1546
77.8694	-19.099	-80.4378
79.5225	-12.1639	-83.5905
67.1962	-35.8448	-79.0013
80.3865	-4.90944	-86.084
68.1896	-43.4976	-61.0306
66.1059	-49.746	-56.1085
20.1243	-91.0019	50.8835
67.246	-66.5236	0.56732
56.6088	-83.892	5.81264
12.7717	-23.3338	78.3649
15.7994	-24.4056	75.8543
19.0016	-26.388	73.0885
8.04752	-27.5065	82.4936
8.39304	-28.2861	82.7715
8.65363	-29.1722	83.0342
23.4186	-37.3575	71.5255
22.7379	-35.7452	71.1627
22.1345	-34.1424	71.0937
17.1506	-20.1387	74.264
38.9686	-30.7525	62.5001
28.3492	-10.6893	66.029
30.5612	-14.8814	65.9279
31.9758	-19.0722	64.9427
63.415	-21.8678	44.3662
18.2447	42.9104	43.5065
85.1622	5.80211	-71.8866
86.3422	9.01858	-52.9244
86.5564	7.09607	-50.0537
77.0736	-38.6872	-9.71566
24.0102	29.7885	47.1912
55.9782	59.462	31.9973
48.3231	33.5132	36.5387
6.44581	-7.73002	79.8614
46.1912	36.6173	37.9603
9.2155	-5.86357	77.3343
87.3992	6.50583	-48.7147
59.4774	-103.157	-43.0768
65.6377	-68.6019	-41.1954
64.6392	-63.021	-47.1874
64.3976	-57.7484	-51.6963
18.071	-3.82902	68.0779
26.9503	-29.3904	64.0953
13.8305	-27.7323	77.048
24.8987	-30.5869	64.1093
6.43162	-26.5573	78.5837
-75.1832	-40.5972	1.21642
-75.678	-35.2243	1.15861
-76.0669	-40.4757	-5.70565
-74.4986	-45.6694	1.13789
-74.0385	-40.2215	9.27669
-59.6231	-115.667	-7.37066
-59.6184	-104.344	-6.75241
-61.8753	-114.43	-11.9386
-59.9122	-126.472	-8.58039
-56.8513	-116.695	-2.93774
-60.2017	-133.909	-9.98256
-57.706	-135.734	-5.36245
-62.0569	-132.111	-14.6556
-60.5551	-139.67	-11.4525
-53.1422	-96.7639	3.34382
-56.8811	-96.3975	-1.76095
-53.085	-105.862	2.54308
-49.2893	-97.5522	8.10756
-53.9269	-89.8601	3.98703
-64.0406	-95.9626	-15.3487
-62.0562	-96.0335	-10.9103
-64.4167	-90.2917	-15.3436
-65.1619	-95.2373	-20.8269
-63.7738	-103.37	-15.6741
-70.3301	-59.7103	15.8219
-70.5654	-59.6046	8.00469
-68.1942	-64.3747	14.5513
-69.0186	-59.9451	24.2938
-71.5831	-54.9822	16.774
-75.9462	41.0767	-6.32371
-80.2496	36.4976	-17.5408
-74.8132	34.5312	-1.45832
-71.2836	46.7283	3.67566
-77.7	47.5808	-12.7438
-84.6448	36.967	-61.3027
-85.4884	31.0129	-54.6538
-84.9893	41.5388	-51.3166
-83.0536	42.5317	-68.1596
-83.9008	31.3862	-69.9605
-9.28935	-106.567	46.7283
-9.63762	-97.0618	50.9808
-12.8534	-106.053	44.9327
-9.54683	-117.918	42.9286
-6.30468	-106.721	47.8739
-10.056	-130.78	36.8005
-10.6246	-141.963	31.0189
-6.57573	-130.992	38.1009
-13.899	-129.846	35.2191
-3.55771	-150.413	29.5092
-3.79269	-156.078	27.6155
-3.35659	-142.622	32.9456
-7.26166	-150.042	28.7572
-71.1866	-56.4595	-38.8677
-71.7731	-49.6094	-44.3316
-68.2502	-62.5558	-39.9456
-70.9888	-61.7927	-32.7587
-74.0577	-50.2837	-38.0221
-72.4655	-44.6688	-48.4397
-75.8709	-39.7538	-46.8314
-73.5314	-40.496	-52.0479
-68.6003	-50.7192	-50.1747
-63.1925	-125.011	-31.259
-63.7909	-128.18	-24.7074
-61.5342	-122.17	-38.0803
-62.9894	-131.874	-32.5984
-3.25435	-131.37	38.9133
-3.22335	-118.618	45.0271
-72.5511	-40.4115	18.0725
-72.4716	-45.882	18.3304
-70.7798	-39.777	25.9393
-72.6698	-34.4907	17.0527
-70.6125	-59.4105	0.526587
-72.3056	-54.9566	0.750702
-70.6208	-60.1518	-6.99556
-68.6275	-63.6644	-0.0652163
-12.3601	-57.6027	94.0083
-12.0677	-53.3699	93.2333
-17.1735	-58.0482	91.2555
-12.4275	-62.0358	93.2112
-7.84184	-57.7268	95.3499
-22.1579	-58.2372	87.1921
-21.8491	-53.9524	86.2377
-27.0604	-58.6132	82.1196
-22.2159	-62.7379	86.8834
-4.0257	-49.1801	93.7576
-4.06883	-53.5092	95.4524
-3.90955	-45.0821	90.9075
-7.58872	-49.2307	92.7651
-12.3011	-66.1846	90.8543
-8.0226	-65.7891	92.1495
-17.1438	-66.7954	88.3032
-12.2516	-70.2503	86.5386
-12.4261	-73.8849	80.8501
-12.6445	-77.3529	74.9149
-7.88975	-73.8917	81.9096
-14.4043	24.516	58.7737
-12.0633	27.444	59.8343
-14.0311	27.6427	54.8557
-16.8943	22.1863	57.5419
-14.5582	21.0009	62.6811
-48.864	-6.16919	61.183
-49.9444	-11.2216	61.0456
-42.6162	-3.6964	64.3394
-47.8704	-1.04466	60.4741
-54.8928	-8.32306	56.1079
-59.7216	0.864359	48.2107
-60.4416	-4.88217	48.7827
-53.3297	2.50163	54.6693
-58.5438	6.89083	46.7105
-65.7857	-0.27008	39.3467
-70.8867	16.3343	19.6699
-67.6769	18.8094	23.3903
-70.0136	23.7506	16.8281
-73.6038	14.4098	14.8584
-50.8172	-16.3567	60.4535
-44.8993	-13.7041	64.1751
-56.5417	-18.7356	54.668
-51.1469	-21.5031	59.7414
-0.866132	32.507	78.3151
-3.02886	31.5773	77.6058
-1.05853	27.7948	83.4732
-0.952402	37.4482	72.3453
-35.5439	88.9638	26.5583
-36.5479	93.7256	21.3401
-41.459	86.7114	24.0618
-34.6532	83.7203	31.4775
-29.8056	90.3185	28.5738
-3.83295	-82.1075	70.1231
-4.08369	-77.6705	76.5889
-7.63915	-82.0889	69.4052
-3.5549	-86.5088	63.5745
-68.4864	-38.4189	33.7478
-68.6824	-31.9597	32.6343
-68.0452	-45.0704	35.2162
-65.2995	-36.3606	41.2356
-4.13095	-65.9602	92.6065
-4.08105	-70.1332	88.083
-3.93729	-62.2942	95.0073
-4.0559	-73.9444	82.4438
-44.5228	-67.8329	62.8657
-44.5069	-63.264	64.8633
-50.7424	-67.1429	57.392
-43.5982	-71.7614	60.7707
-38.285	-67.6572	68.5092
-47.5437	-79.9399	37.0318
-42.4798	-80.724	43.2913
-51.4489	-76.5466	41.1309
-51.8459	-78.6279	30.6469
-43.6393	-83.6339	32.3193
-3.80525	-90.8899	58.291
-3.98447	-97.1993	52.9234
-6.91386	-90.9346	57.3809
-6.23532	21.4087	85.4739
-3.89035	23.1366	87.528
-5.57343	25.2743	80.5447
-8.48105	18.888	82.284
-6.91468	18.4111	89.44
-22.9734	2.44163	66.6121
-18.8114	5.58686	67.4637
-21.0118	7.26345	65.485
-28.0242	0.535433	66.5292
-29.7719	-30.8687	64.49
-30.5907	-31.3968	64.4333
-28.8604	-31.546	64.7015
-28.8036	-30.2613	64.5452
-10.9503	-2.38564	78.1369
-12.3187	-2.37229	76.3451
-10.4838	-3.54201	77.7129
-12.0029	-0.74268	78.2118
-10.5954	-7.38867	76.0731
-9.17408	-7.11894	77.6963
-10.2735	-6.03958	76.1367
-12.3452	-7.01097	73.9696
-11.3245	-8.72381	76.1776
-2.49242	-4.80436	87.6439
-4.15171	-4.34631	86.2735
-2.72408	-6.13334	85.9877
-2.24648	-3.21833	89.8983
-14.4184	-6.13725	72.0315
-15.3602	-7.69153	71.9455
-13.9098	-4.8664	72.5028
-16.2396	-4.54258	70.382
-7.79118	9.20606	95.6624
-7.8949	11.2947	95.5322
-9.81496	8.24275	90.064
-7.38167	6.53006	94.5149
-5.27795	9.53911	99.2643
-26.496	-42.3255	73.212
-28.0886	-45.962	74.1497
-22.7265	-42.4822	76.9448
-25.0076	-39.0032	72.7936
-29.6306	-41.408	69.7965
-29.5322	-24.6274	66.4507
-31.4078	-25.7946	65.6613
-27.3777	-23.5068	67.7924
-29.2687	-20.3597	67.4265
-3.17657	-10.6969	83.6922
-3.03987	-8.83843	84.2373
-4.89008	-10.2465	83.1975
-3.13154	-12.6397	83.0693
-5.33858	29.5655	75.9213
-5.47778	33.7934	70.4806
-7.64035	26.6434	73.2339
-15.3838	5.79932	73.3701
-15.682	6.06318	72.1313
-15.5836	4.1842	73.0045
-14.7395	6.71985	74.9915
-14.4095	7.67288	74.781
-5.74413	-6.48104	82.7776
-4.49227	-6.8319	83.9744
-5.72055	-5.33702	83.3997
-6.80882	-6.47866	81.1681
-5.80567	-8.09996	82.5769
-5.3384	-3.9566	84.5603
-5.20108	-2.65408	86.5279
-14.015	7.67281	76.6007
-14.4577	6.02993	76.1625
-13.686	8.50124	76.598
-15.5276	1.42918	72.5403
-14.9553	-1.15619	72.6299
-14.9831	2.92587	74.4652
-2.83506	-19.1805	81.2474
-2.95516	-16.8819	81.0556
-5.24269	-18.4814	81.421
-3.021	-20.8214	81.9125
-22.6924	-9.41916	68.9209
-19.7333	-5.82996	68.892
-25.4579	-9.43449	67.9904
-25.5531	-12.7814	68.5869
-20.0838	-9.47156	69.9849
-9.84712	-37.0175	83.1068
-13.6302	-37.0792	81.5098
-10.2147	-38.951	84.0375
-6.46828	-36.7182	84.5034
-9.69376	-35.3215	83.0348
-24.9662	-26.1256	69.0352
-24.8027	-25.1309	69.5679
-26.9941	-27.8338	66.1908
-25.2903	-26.7477	68.2656
-13.4141	9.03214	76.2903
-12.3135	10.5223	78.5858
-13.3917	9.77274	74.8538
-17.4033	-37.1639	79.0384
-17.0552	-35.374	78.939
-20.7639	-37.1025	75.8248
-17.8631	-39.371	79.4547
-3.38311	-36.6712	84.9304
-3.33815	-35.2599	84.7116
-3.39713	-38.6565	85.6561
-62.8031	45.2423	27.4038
-63.5381	46.2203	24.9563
-64.3608	38.5794	24.3245
-61.8866	44.5605	29.6406
-44.9669	73.8541	31.0158
-46.4887	78.8095	25.8312
-50.9132	70.4497	27.699
-43.9064	69.562	35.7698
-39.1129	76.2618	34.0341
-56.7711	66.12	23.6631
-58.124	70.557	18.1741
-62.0832	60.5236	18.566
-55.3534	62.7016	28.8196
-44.0641	62.9531	42.0986
-43.6386	65.1908	40.3778
-44.7756	60.4079	43.5336
-38.8437	63.9879	44.4203
-64.6581	46.9953	21.0974
-67.3376	39.4911	16.867
-60.0767	54.7473	27.5579
-65.5674	49.2933	17.2384
-26.5322	54.47	48.4829
-22.5465	53.8195	48.7998
-26.3449	56.0212	49.3901
-30.5808	54.8846	47.9386
-26.5756	52.7766	47.1518
-6.00758	42.0004	58.7762
-5.91689	40.1277	61.4087
-3.27015	44.5689	60.5877
-6.07506	43.8276	57.2713
-8.22153	38.5992	56.7432
-28.9208	16.6244	55.9264
-22.7491	18.3035	56.7573
-27.4408	19.8606	53.4157
-36.655	15.4811	54.8253
-30.4859	12.8333	59.1301
-59.0165	23.6803	31.0811
-56.4009	21.1865	35.8123
-56.5898	25.7655	32.1943
-60.1614	27.6983	28.2505
-61.2789	21.877	29.7491
-5.67462	37.4419	65.3243
-3.27035	39.9296	66.6797
-7.91084	34.0397	63.5194
-45.1251	58.1317	44.2009
-44.9432	56.0098	44.4917
-39.5936	58.5502	46.4625
-49.7447	57.0086	41.7681
-53.8346	54.6664	38.8571
-57.8683	49.7261	35.2669
-53.0861	52.7349	39.8746
-56.7295	33.4597	31.1559
-58.6337	33.0946	29.7651
-55.8	30.1662	31.351
-54.6116	33.6376	32.3766
-57.2805	37.3861	32.3209
-44.6897	41.2396	39.0224
-42.9091	42.7616	40.1379
-45.1838	41.9336	38.8368
-46.2776	39.2205	37.8316
-44.2833	40.6056	38.9453
-40.9281	44.0613	40.9382
-38.5238	44.9998	41.4447
-41.1531	44.9794	40.8588
-40.7073	43.2735	40.8565
-41.2874	45.4379	40.8216
-43.5955	44.0722	39.8834
-38.5918	46.417	41.2256
-35.5871	45.5215	41.7333
-35.4759	46.4082	41.5634
-35.7516	44.712	41.6959
-32.5456	45.2285	41.8762
-35.4047	46.8512	41.4577
-35.3358	47.1285	41.5451
-32.063	46.5352	41.4894
-29.6513	44.4292	42.0193
-29.1247	45.2099	41.6971
-30.1526	43.7233	42.0749
-26.8458	43.1516	42.0293
-24.2628	41.3956	42.0052
-22.1841	39.4584	42.0018
-23.3136	42.0385	41.65
-22.7153	42.3071	41.4272
-25.5203	44.1524	41.4273
-20.6497	40.2623	41.4028
-22.2334	42.4651	41.4367
-20.9417	37.875	41.8431
-20.0376	38.3004	41.6166
-21.5638	42.7713	41.7871
-24.493	44.6743	41.8306
-20.8815	43.2456	42.3292
-35.1826	47.5396	41.9563
-31.692	47.1792	41.9818
-35.0805	48.0063	42.4973
-49.7754	32.8581	35.029
-50.0529	33.6531	34.9915
