1874
8.01161	13.0302	-153.751
0.725285	26.4004	-154.892
7.69843	-0.474122	-151.188
0.692925	-0.484937	-151.446
19.9194	-25.5134	-138.475
26.1405	-25.8393	-135.639
6.32602	-45.1891	-122.64
6.16814	-53.754	-110.423
0.529283	-45.2668	-122.699
6.09336	-60.244	-101.509
0.444035	-60.2219	-101.223
5.15006	-92.7935	-84.3443
0.206267	-92.5408	-83.9315
36.7864	51.6272	-142.591
37.5046	65.9207	-136.57
36.117	37.3569	-145.365
37.9652	79.5195	-126.372
35.393	23.8733	-146.078
34.7133	10.6738	-144.933
33.9919	-2.31192	-142.323
33.3025	-14.8288	-138.045
32.3944	-25.9856	-132.29
31.2875	-36.2037	-124.766
29.9953	-45.6722	-115.339
28.9525	-54.3382	-105.431
28.5319	-61.9726	-96.7076
28.1142	-69.6088	-89.4665
27.2519	-77.9749	-84.2663
26.4938	-86.5321	-81.1062
26.0022	-94.2999	-80.4035
35.612	-109.827	-76.4224
35.267	-116.736	-76.9108
60.2794	66.7749	-107.073
67.8374	38.736	-108.994
67.0748	27.422	-113.191
66.1556	16.6347	-115.338
65.303	5.72445	-115.059
64.3846	-4.64758	-112.726
63.206	-14.6964	-108.355
61.1073	-24.2	-102.823
58.951	-32.8038	-96.3406
57.1618	-40.6476	-89.3131
60.2808	-39.2986	-84.4169
55.7005	-48.4255	-81.2162
54.2593	-55.4285	-74.0965
55.9078	-64.6721	-57.7409
58.1004	-62.8437	-54.7795
76.4563	8.38071	-88.2137
75.7195	0.671541	-88.8322
78.1499	6.1163	-80.9571
72.8871	-20.8571	-81.9013
74.3687	-13.8615	-85.2526
63.1559	-37.4928	-80.2443
75.1255	-6.52914	-87.9453
64.2089	-45.4126	-61.6832
62.2987	-51.6287	-56.6176
17.0743	-86.8453	43.3248
60.335	-68.607	1.11718
49.5714	-83.0774	5.21472
16.3644	-19.9515	84.4741
20.1788	-21.1495	81.7693
23.4433	-23.3816	78.9267
10.7269	-29.7736	90.5848
11.1527	-30.7855	90.9435
11.4713	-31.8575	91.2858
27.5126	-38.2775	77.3993
27.0143	-36.681	77.0709
26.4529	-35.2339	77.136
21.2226	-17.3473	79.9655
42.3025	-29.6105	65.8622
31.2458	-9.4892	68.9556
33.0757	-13.4149	69.5816
34.4173	-17.4552	69.5769
63.5801	-22.2604	44.3918
17.6471	42.8115	44.3823
79.7029	4.03434	-73.403
81.0869	7.04566	-53.8776
81.3416	5.04769	-50.8862
71.7927	-42.4274	-8.8897
25.4488	30.636	48.6929
51.8848	59.6673	29.7099
49.3454	33.2131	36.4947
8.99192	-6.44086	82.4492
47.194	36.4236	37.9928
13.0956	-4.78333	80.0276
82.1523	4.41873	-49.488
57.8836	-103.55	-43.366
61.9025	-70.1956	-41.3992
61.0051	-64.7017	-47.4969
60.7658	-59.5002	-52.1012
23.0518	-2.89881	70.0095
31.9413	-28.8326	69.3013
17.76	-29.1494	83.9307
29.7263	-30.2273	69.4752
9.08015	-25.9307	85.7099
-68.5361	-41.9893	2.27454
-69.3003	-36.9013	2.22635
-69.5319	-41.9088	-4.81612
-67.6758	-46.8586	2.1632
-67.5201	-41.412	10.4056
-57.4244	-115.032	-8.1788
-56.2059	-103.507	-7.65975
-59.8257	-113.935	-12.5629
-58.8012	-126.107	-9.10222
-54.4854	-115.888	-3.98708
-59.7826	-133.757	-10.214
-57.229	-135.557	-5.64458
-61.7179	-131.993	-14.827
-60.5551	-139.67	-11.4525
-48.0653	-95.1305	1.93906
-52.2883	-95.2124	-2.81182
-49.1376	-104.454	1.02032
-43.6931	-95.457	6.30267
-48.2012	-88.2766	2.90718
-60.3347	-95.5279	-15.8432
-58.1167	-95.4033	-11.5497
-60.2306	-89.9113	-15.7679
-61.6972	-94.9653	-21.2229
-60.8024	-102.925	-16.2052
-63.1939	-59.7036	16.3097
-63.359	-59.9268	8.80273
-60.903	-64.1952	15.2345
-62.4705	-59.9341	24.1475
-64.6772	-55.2322	17.2457
-72.214	38.7743	-6.56688
-75.7094	34.2587	-17.9239
-71.3292	32.039	-1.64527
-68.3427	44.5119	3.51512
-73.5233	45.5162	-13.0982
-78.4716	35.4467	-62.8791
-79.3516	29.3297	-55.9396
-79.0066	39.8983	-52.6119
-76.9285	41.1733	-70.0325
-77.6359	29.9788	-71.7748
-7.94454	-102.9	37.2466
-8.41563	-93.173	40.0164
-10.6516	-102.368	35.6719
-8.59666	-114.964	35.6051
-5.63672	-103.052	38.2528
-9.53325	-128.926	32.332
-10.3875	-141.145	29.1128
-6.30065	-129.1	33.5179
-13.0372	-127.958	30.7616
-3.56517	-150.19	28.9805
-3.79269	-156.078	27.6155
-3.34876	-141.772	30.9475
-7.23255	-149.822	28.2523
-65.969	-57.279	-39.0034
-66.4731	-50.5996	-44.5897
-63.4504	-63.1999	-40.1654
-65.7693	-62.4458	-32.801
-68.4845	-51.2913	-38.0902
-67.0812	-45.7587	-48.8136
-70.1449	-40.98	-47.1521
-68.0428	-41.6492	-52.541
-63.644	-51.6432	-50.6168
-62.8089	-124.936	-31.3898
-63.4907	-128.107	-24.8159
-61.0962	-122.109	-38.2102
-62.9894	-131.874	-32.5984
-3.23853	-129.462	34.3159
-3.16204	-115.628	37.5849
-66.933	-40.9333	18.7595
-66.2809	-46.4605	18.8405
-66.1519	-39.9888	26.1122
-67.6489	-35.0331	17.899
-63.8402	-59.8698	1.22195
-65.42	-55.7105	1.60071
-64.2622	-60.6365	-6.50327
-62.0497	-63.8482	0.458967
-12.1365	-59.0073	97.3616
-12.355	-54.9029	97.1161
-17.1536	-59.912	94.1096
-12.0262	-63.4215	96.0846
-7.86102	-58.7246	98.8746
-22.5595	-60.4628	89.7602
-22.8327	-56.0659	89.6901
-27.8038	-61.0957	84.1011
-22.0591	-65.202	88.5091
-4.2861	-50.7413	98.2216
-4.439	-54.5125	99.5496
-3.93685	-47.5411	96.1365
-8.03981	-50.9635	97.3634
-11.8723	-67.4159	93.2373
-7.84694	-66.7531	94.824
-16.6735	-68.5615	90.0577
-11.8191	-71.0333	88.0615
-11.9036	-73.9073	80.9216
-11.8217	-76.794	73.3755
-7.59642	-73.6389	82.4998
-17.0241	22.7129	59.8033
-14.1234	25.7036	60.9139
-16.0837	26.0574	56.2956
-20.2418	20.3165	58.398
-17.9925	19.2235	63.6634
-52.8494	-5.27542	59.1428
-53.6361	-10.0288	59.3013
-46.8028	-3.21973	63.1998
-51.8778	-0.631955	58.1222
-58.3172	-7.4702	53.4436
-62.355	0.917727	44.8103
-62.9084	-4.46075	45.5672
-56.7983	2.5591	51.5237
-60.7491	6.32054	43.7702
-66.8717	-0.515129	36.3531
-69.0162	14.209	19.1009
-66.3732	16.8073	22.7538
-67.724	21.345	16.5112
-70.9249	11.9957	14.5536
-53.9891	-14.9835	59.2421
-48.4953	-12.6594	64.0274
-58.8089	-17.8126	52.9182
-53.5108	-20.2272	59.1849
-1.7815	31.0554	77.7922
-3.93998	30.129	77.2058
-1.53724	26.4958	83.11
-2.10815	35.5663	71.6757
-30.0201	89.5009	27.2756
-31.4624	94.3414	21.6415
-36.0136	87.1431	25.1181
-28.6196	84.1784	32.4959
-24.4711	90.9059	28.8192
-3.0114	-79.9089	66.4404
-3.65832	-76.3065	75.3987
-6.42224	-80.041	65.4889
-2.72114	-83.7129	57.2613
-64.9133	-38.2704	33.2003
-65.8076	-31.6793	32.1124
-63.8492	-45.0684	34.5028
-62.8615	-35.7496	40.3763
-4.46236	-66.4306	95.5449
-4.17821	-70.2243	90.1225
-4.48646	-62.6124	98.5182
-3.91885	-73.4262	83.2318
-42.0006	-70.3865	60.8015
-42.7304	-66.3769	63.4702
-47.0009	-69.5473	55.3478
-40.4452	-73.6816	58.287
-36.8272	-70.4259	67.0649
-41.6723	-78.7592	35.2467
-37.2175	-79.8231	40.5695
-45.7309	-76.3887	39.5349
-45.5726	-77.3676	29.6125
-37.0451	-81.1438	30.1615
-4.08171	-87.4797	48.3699
-4.37327	-93.3802	41.6387
-6.49872	-87.5533	47.4385
-7.00362	20.3031	85.4888
-4.25208	21.8567	87.2135
-6.51079	24.1642	80.6799
-9.93712	18.0718	82.906
-7.52343	17.2747	89.3965
-28.3256	2.26145	68.199
-24.4491	5.62213	69.2206
-26.313	7.06178	66.9426
-32.914	0.137404	67.5361
-34.8391	-29.9901	69.3853
-35.6221	-30.5075	69.2466
-33.9611	-30.7443	69.6965
-33.8993	-29.4266	69.5726
-14.8127	-2.51939	82.2335
-16.8226	-2.78446	80.5599
-14.1131	-3.57256	81.8266
-16.3954	-1.08166	82.2782
-13.9803	-7.13032	80.324
-11.8967	-6.63392	81.6575
-13.8459	-5.94724	80.378
-16.5526	-7.22914	78.5061
-14.7149	-8.35771	80.5374
-2.01501	-4.43344	89.4863
-3.93325	-4.02243	88.3666
-2.11535	-5.71711	87.9851
-2.01409	-2.94536	91.4763
-19.203	-6.59824	76.3672
-19.9495	-7.92892	76.3385
-18.7765	-5.42353	76.8145
-21.7438	-5.07352	73.9648
-8.4621	8.01614	95.6066
-8.51603	10.062	95.4065
-11.4735	7.42786	91.715
-8.26825	5.60893	94.9978
-5.42873	8.11693	98.4646
-30.0818	-43.4374	78.4635
-31.0501	-47.3645	78.5762
-25.9415	-44.2343	82.7587
-29.066	-40.0095	78.5429
-33.4323	-41.9728	74.5837
-33.5774	-23.5827	71.8585
-35.7402	-24.6812	70.5691
-30.9776	-22.3967	73.6907
-32.3758	-19.3837	73.1131
-2.61772	-9.74725	86.1876
-2.39968	-8.2401	86.5064
-4.8255	-9.32488	85.9041
-2.93308	-10.9356	86.0629
-6.32866	28.2056	75.9148
-6.73013	31.9992	70.3462
-9.18241	25.4079	73.7409
-21.2255	5.54833	76.2406
-21.5291	5.90352	74.7305
-21.4792	3.89895	75.9285
-20.3826	6.37519	78.2332
-19.996	7.34627	77.9564
-6.04119	-6.08271	85.4579
-4.24151	-6.40466	86.3297
-5.88427	-5.00945	85.934
-7.96261	-6.04461	84.3317
-6.20533	-7.58041	85.3995
-5.7986	-3.69389	87.0956
-5.6293	-2.43214	88.7561
-19.1853	7.25969	80.1528
-19.9506	5.60016	79.7346
-18.6649	8.09088	80.0865
-21.3456	0.902437	75.8159
-20.4593	-1.78909	76.3149
-20.6807	2.42399	77.9132
-3.82805	-14.0725	87.0973
-3.51397	-12.5988	86.1451
-6.74058	-13.636	86.989
-4.16282	-15.4251	88.0844
-27.1513	-9.1932	72.5445
-25.1315	-6.13672	72.1297
-29.7651	-9.14357	71.2602
-29.1511	-12.0965	72.8944
-24.4601	-9.21494	74.0183
-11.2271	-39.9942	91.0342
-15.9844	-39.9853	89.1464
-11.0465	-42.0129	91.2849
-6.8363	-39.9542	92.0952
-11.2737	-38.2443	91.4405
-29.1948	-25.0271	75.0222
-28.7116	-23.7004	75.7324
-31.8229	-27.0557	71.6046
-29.7258	-25.8549	74.0935
-18.3335	8.62268	79.7568
-16.3835	10.0619	81.7356
-18.5372	9.39841	77.9328
-20.6072	-39.8653	86.4049
-20.6775	-38.2237	86.5204
-24.7714	-39.1458	82.7591
-20.6339	-41.9184	86.5056
-3.13789	-40.1165	92.3021
-2.9541	-38.9743	92.7781
-3.16835	-42.024	92.4656
-60.9479	43.3642	25.958
-61.6616	44.2709	23.8172
-62.0805	36.324	23.3537
-60.0908	42.7311	27.9747
-40.369	74.5615	31.8196
-41.3223	79.0614	27.255
-47.3768	70.6042	28.2175
-39.8678	70.5284	35.5656
-33.8137	77.1466	34.7206
-54.2817	65.587	23.7753
-55.3943	69.8824	18.4736
-60.2661	59.163	18.4895
-53.3547	62.0873	28.2576
-40.4459	64.4528	39.5569
-39.8183	66.6413	38.5938
-41.4312	61.8895	40.2424
-34.9254	66.5018	41.6341
-62.7517	44.9715	20.4299
-64.7408	37.1011	16.5685
-58.5441	53.2385	26.3836
-63.5965	47.2969	16.8839
-23.5632	57.6591	45.6867
-20.0236	56.0793	46.5336
-23.0721	59.6657	46.2253
-27.5716	58.2975	44.7877
-24.2333	55.1184	45.0935
-6.93423	39.4459	58.2522
-7.01171	37.6429	60.8551
-4.72705	41.7949	59.0789
-6.90651	41.0667	56.3827
-9.09159	36.3992	57.2662
-31.9991	14.9031	56.4381
-26.4641	16.5793	57.4542
-30.3709	18.2485	54.0851
-39.264	13.9225	54.379
-34.0761	11.2796	59.3535
-58.5447	21.3742	31.0172
-56.7658	19.3523	35.4497
-56.3	23.1956	32.5211
-59.1838	24.9722	28.2139
-60.7525	19.8257	29.4125
-6.91868	35.196	65.0036
-4.43721	37.5824	65.9922
-9.31391	32.0358	63.8324
-41.9277	59.5478	40.6448
-42.0725	57.2355	40.9359
-36.2	61.527	42.4845
-47.1813	57.0524	38.8416
-51.9786	53.8098	36.314
-56.2699	48.2992	33.0915
-51.2233	51.89	37.3181
-56.0502	30.992	31.2834
-57.5962	30.5196	29.5992
-55.4349	27.5236	31.8188
-54.4895	31.6551	32.9117
-56.271	35.37	31.7515
-45.0656	39.9834	40.5999
-43.2689	41.5992	41.6641
-45.5091	40.6819	40.275
-46.6869	37.8713	39.4388
-44.6891	39.336	40.6462
-41.212	43.0944	42.4706
-38.7193	44.356	43.0879
-41.3133	44.1168	42.1405
-41.0629	42.2251	42.5791
-41.3736	44.616	41.9587
-43.8131	42.9619	41.0936
-38.634	45.9345	42.5251
-35.7219	45.2217	43.3438
-35.5178	46.2078	42.942
-35.9297	44.325	43.457
-32.5342	45.0327	43.6852
-35.3974	46.69	42.7312
-35.3042	46.9977	42.75
-31.8939	46.5445	42.8476
-29.3633	44.3499	43.9271
-28.7619	45.2048	43.4431
-29.9218	43.5768	44.1076
-26.4472	43.0464	44.2491
-23.7822	41.1584	44.4635
-21.5106	39.0397	44.7248
-22.785	41.7604	44.0554
-22.128	41.9942	43.7714
-25.007	44.0323	43.5421
-19.8368	39.6864	44.0675
-21.6084	42.1173	43.7494
-20.0452	37.2938	44.7721
-19.0902	37.6218	44.571
-20.9278	42.3696	44.042
-23.9928	44.5337	43.8977
-20.1897	42.741	44.4335
-35.1299	47.466	43.0527
-31.4406	47.3103	43.1058
-34.9876	48.017	43.425
-50.2797	31.4072	36.2286
-50.5098	32.1945	36.1273
-51.1899	30.0547	35.6958
-49.3751	30.8821	37.334
-48.4757	33.2918	36.5619
-47.9515	32.9183	37.3572
-49.0211	33.1737	35.8091
-48.1516	34.0364	36.8655
-31.8381	58.019	43.7525
-32.3367	55.4362	43.6323
-31.4468	60.363	43.9779
-36.7417	56.6722	42.6592
-48.5524	45.5469	39.4901
-47.6177	43.3284	40.2026
-45.713	47.834	41.1508
-49.5058	47.8099	38.767
-39.2459	26.414	47.7752
-32.2084	27.0206	49.75
-38.7038	28.0207	47.6336
-45.0265	26.1995	44.536
-39.818	24.7509	47.9163
-26.4972	28.0991	49.8805
-26.4712	29.579	49.3388
-26.8744	26.4722	50.2814
-22.2677	29.3023	49.1184
-18.0886	32.4117	47.6482
-18.8927	32.7633	46.8311
-18.8635	31.5503	48.1204
-16.8103	32.3956	48.6706
-17.3445	33.412	47.136
-38.4274	29.335	47.3177
-32.0569	29.8164	49.0188
-38.2741	30.3821	46.9464
-43.8156	29.2906	44.4074
-21.0516	32.2846	46.7951
-20.7544	31.4911	47.4964
-20.183	32.7196	46.3838
-21.1644	32.9346	46.1602
-22.675	31.7096	47.6358
-19.4494	33.0638	46.1334
-18.6972	33.6541	45.8887
-19.59	33.3902	45.6581
-13.8333	42.797	47.273
-13.1401	45.5949	47.9582
-15.6378	45.1142	46.2699
-14.8232	39.9419	46.3383
-16.7774	34.6368	46.5183
-17.5707	34.5929	45.9442
-15.8718	34.9041	47.07
-27.5516	46.2607	43.4392
-27.1122	46.769	43.8361
-28.0268	45.8586	43.119
-15.6858	38.7055	45.7806
-17.1255	40.7205	45.0968
-15.0459	36.9327	46.6148
-38.1763	31.0369	46.6305
-38.107	31.2265	46.1199
-32.0465	31.4576	48.1023
-21.2462	33.3574	45.7592
-23.0031	33.0359	46.4229
-20.4554	33.5242	45.4194
-21.3797	33.4654	45.0325
-38.0833	30.8293	45.1552
-38.1509	30.1673	43.9093
-43.1068	31.0534	42.9103
-46.3866	32.0386	39.6796
-46.7608	31.6638	38.6041
-21.6572	33.0513	43.7256
-21.6911	32.5925	42.4338
-19.7764	33.6503	45.2758
-47.9073	35.6981	38.2034
-48.3451	35.9744	38.0081
-47.331	35.5722	38.2788
-3.47372	55.5619	51.5812
-3.7591	58.5674	50.4658
-5.94466	55.158	51.1786
-3.36368	52.6849	52.7068
-20.5921	24.2663	53.1608
-24.0935	22.7114	52.7837
-21.7135	21.7633	54.9138
-17.9577	26.2128	53.575
-19.884	26.2286	51.8493
-15.4571	28.3514	54.2043
-13.0165	30.8077	55.0913
-14.9824	32.7816	50.1241
-15.0045	34.0006	48.6768
-13.1143	33.9073	51.1931
-10.1181	42.9805	50.5901
-9.55846	44.3659	51.1254
-11.1106	45.0987	49.4801
-19.937	30.3862	48.6721
-19.4906	29.3506	49.6147
-19.5922	27.9002	50.6681
-22.6021	26.3258	50.758
-25.3056	-28.7311	75.2953
-21.2559	-28.0978	79.2341
-28.9801	-29.2429	71.783
-24.9829	-28.7194	74.8737
-30.8053	-29.5288	70.2246
-30.3448	-29.4969	70.0636
-4.37042	-18.6096	89.519
-4.23433	-20.1332	89.8208
-4.37058	-17.2521	89.117
-7.82761	-18.3845	88.8695
-10.7234	-21.6203	88.2074
-13.8154	-21.9506	87.2099
-10.4525	-22.9859	88.1006
-7.70804	-21.3889	89.1155
-10.7512	-20.1549	88.2759
-17.2957	-22.2681	85.3476
-20.7734	-23.2472	82.6086
-17.2574	-23.847	84.9769
-17.2561	-20.9482	85.5297
-10.6558	-18.6011	88.1883
-10.4757	-17.23	87.9562
-13.7746	-19.1089	87.1692
-15.6385	-17.5646	85.806
-16.6958	-18.5242	85.6182
-12.3937	-16.8041	87.0838
-15.0197	-16.5604	85.6278
-24.4894	-25.6488	78.8633
-24.1286	-24.0156	80.0249
-9.89886	-24.3968	87.9984
-13.7127	-24.7769	86.4633
-9.47928	-25.3272	87.4858
-6.57208	-24.1049	88.8423
-17.7488	-25.523	83.9091
-17.6547	-26.6957	83.2357
-32.5642	-28.6263	70.2481
-31.8054	-27.9334	71.1203
-32.6988	-28.4364	70.2924
-33.0058	-29.0387	69.8922
-25.6735	-28.83	76.0353
-25.6776	-29.0843	76.5361
-21.6038	-28.339	80.5163
-25.6039	-28.7073	75.6154
-26.0927	-30.3751	77.8054
-22.5657	-30.7155	82.8147
-25.9271	-29.8785	77.5142
-19.311	-30.4887	86.1633
-19.7793	-31.402	86.3304
-15.2877	-29.9598	89.093
-19.0223	-29.619	85.6875
-9.70603	-27.5287	90.034
-5.83727	-27.5502	91.1571
-9.49348	-26.5419	88.962
-14.2255	-27.8991	87.9421
-10.0018	-28.6174	91.0079
-2.78999	-30.5686	93.3727
-2.70948	-29.2723	92.6794
-5.93681	-30.0602	92.9093
-2.87194	-31.7996	93.8476
-31.0265	-30.7398	69.632
-30.8641	-29.9758	70.0594
-28.8595	-30.3119	71.1593
-30.9888	-32.2983	69.6202
-2.67044	-27.0136	85.3056
-2.66013	-26.0807	86.713
-2.61707	-28.9324	84.3986
-5.53992	-27.0294	84.8344
-2.88312	-33.0492	94.2207
-6.34502	-32.1787	93.8138
-2.9619	-34.2016	94.4249
-2.97998	-37.7226	93.5119
-3.06218	-36.3731	94.1967
-6.51473	-36.9846	93.2139
-10.1281	-16.2796	87.7497
-7.55863	-15.9156	88.2044
-9.31384	-15.0467	87.4078
-2.63158	-27.9398	91.6747
-2.564	-26.6937	90.5271
-2.52384	-26.0376	89.6087
-2.64059	-25.7627	88.8242
-5.5764	-25.8568	89.1211
-9.38954	-25.9726	88.2268
-9.34439	-25.7278	87.5225
-13.6249	-26.4493	86.485
-2.72754	-25.7172	87.8909
-5.55298	-25.6231	87.4817
-17.7692	-27.3242	83.7953
-18.0421	-27.8294	84.3299
-17.6636	-27.1288	83.1696
-20.5613	-34.2899	86.9357
-20.7328	-35.3898	86.8393
-16.7439	-34.1271	89.6521
-20.3601	-33.3074	86.8592
-11.2772	-33.8175	92.5719
-11.4641	-35.0207	92.3081
-6.47905	-34.363	94.0298
-11.0027	-32.7659	92.6571
-3.03929	-35.2822	94.4205
-17.3937	-27.1323	82.3922
-17.0943	-27.1198	81.4742
-13.2864	-26.2515	84.908
-33.3735	-29.2139	69.7034
-33.2988	-28.8878	69.869
-32.3829	-29.4659	69.9031
-31.7993	-29.5649	70.1787
-30.953	-29.6056	70.8212
-29.1794	-29.5275	72.7542
-9.1586	-27.1913	83.9241
-9.16382	-26.2123	85.3966
-9.20154	-29.1184	83.035
-13.1195	-27.5949	82.453
-9.23552	-25.7587	86.5871
-13.2864	-26.2514	84.9081
-11.3393	-36.4841	91.9558
-16.6426	-36.7326	89.3937
-20.0433	-32.3299	86.6648
-16.0566	-31.9827	89.6573
-20.7384	-36.734	86.6957
-24.0226	-35.9885	83.4548
-16.6106	-26.8013	80.687
-20.0534	-27.538	78.1983
-16.0054	-25.4491	79.4906
-13.0619	-26.0753	82.5393
-9.43436	-25.6057	83.9358
-9.23191	-25.8116	85.3805
-10.0815	-24.48	81.8487
-6.35004	-25.3548	84.3492
-15.5301	-22.7197	77.9326
-18.3444	-23.2496	76.395
-15.0219	-19.5667	76.4764
-12.7963	-22.2652	79.0774
-30.4902	-35.6165	70.6263
-28.3062	-35.1707	72.461
-29.6694	-39.6073	72.2357
-2.46404	-32.2061	84.877
-2.26233	-35.9183	85.9525
-5.34528	-32.1995	84.4931
-10.1095	-21.9167	79.8457
-9.71807	-18.8804	78.134
-7.19117	-21.6692	80.2382
-9.03269	-32.3298	83.5953
-8.68073	-35.966	84.8811
-13.1084	-32.7091	82.1738
-33.6567	-31.984	64.5507
-34.173	-32.6842	62.9183
-11.1706	35.9279	52.386
-10.8871	34.898	54.2626
-78.721	-16.6293	-62.0919
-80.0132	-16.6269	-59.8896
-79.3592	-12.3993	-63.4221
-77.4729	-16.8885	-65.7364
-77.928	-20.5202	-60.0528
-78.7059	9.38554	-31.304
-78.2395	12.6705	-26.8735
-79.147	11.1828	-36.2201
-79.2962	11.9846	-42.0128
-79.3171	9.82072	-48.8923
-78.9425	6.75105	-41.7375
-79.5745	17.0164	-44.7728
-72.5102	-37.6655	-45.7783
-73.6998	-34.2332	-48.7261
-71.6016	-41.3373	-42.1036
-74.7816	-35.0284	-44.7958
-74.7261	-31.1013	-51.8476
-76.8361	-29.4029	-50.222
-75.8997	-27.715	-54.8219
-72.4645	-33.6314	-54.0483
-81.8131	-16.3704	-58.7379
-82.1882	-12.0158	-60.0078
-81.2254	-20.0169	-56.9019
-83.7865	-15.9924	-58.7724
-82.0878	-30.8547	-47.4338
-83.2425	-32.134	-46.4224
-80.7406	-29.0904	-48.79
-84.4124	-32.8882	-45.2118
-85.5549	-29.2606	-48.3728
-83.174	-36.5976	-41.6344
-85.4974	-33.0283	-43.6902
-88.9121	-22.9397	-47.7883
-90.2916	-19.2792	-52.1913
-88.7237	-22.1924	-47.2284
-76.7614	-43.0446	-30.5828
-77.3967	-41.6726	-34.1127
-76.3369	-41.651	-32.7099
-76.4525	-42.8937	-28.1263
-77.6642	-43.4643	-29.6513
-79.2113	-32.5301	-20.6114
-78.8202	-33.1999	-20.4395
-77.9847	-34.3548	-20.5613
-88.6281	-21.7388	-46.9399
-88.0854	-22.0696	-45.8286
-91.6059	-8.59343	-55.019
-91.2835	-8.27529	-56.6604
-91.9539	-9.51803	-53.0326
-91.8159	1.78659	-55.6274
-92.0922	3.08011	-56.1557
-92.1051	5.34473	-55.7789
-91.8224	8.06906	-53.3098
-92.2467	5.75451	-56.3941
-91.8979	5.64161	-53.4494
-82.1161	-10.2192	-27.7668
-83.493	-4.96908	-29.723
-81.003	-14.0523	-26.1819
-81.4557	-9.1176	-26.6433
-75.8167	-24.1541	-16.7023
-76.4605	-19.8254	-17.4806
-75.1528	-27.9112	-16.061
-74.888	-23.9011	-13.886
-80.3432	-21.5459	-26.9405
-80.5798	-19.7846	-27.7011
-80.6007	-23.4922	-26.786
-79.0484	4.96235	-41.7092
-79.5921	5.23639	-41.2747
-79.7031	5.50284	-45.4738
-87.9986	14.8243	-43.7739
-89.49	15.8738	-47.7169
-89.1541	14.2007	-42.4963
-86.2872	12.1557	-39.8788
-86.7157	14.9394	-45.1931
-88.1827	15.3973	-53.9324
-87.0265	15.8023	-50.2626
-86.8464	13.3799	-54.8628
-88.9623	12.9412	-57.6339
-89.3508	15.4722	-53.1184
-89.7567	-4.16959	-63.8396
-91.108	-3.87064	-63.0593
-89.8703	2.56788	-63.166
-88.3803	-4.64393	-63.9556
-84.529	-0.510567	-31.3871
-84.7496	-1.99487	-31.9446
-92.3003	-4.18286	-59.3948
-92.8487	1.25145	-58.7323
-92.651	-4.37181	-59.5305
-91.6926	-6.8764	-59.055
-91.2337	9.89662	-49.6259
-90.2721	10.3558	-45.4958
-91.3418	11.0798	-49.3165
-91.2889	8.35952	-49.898
-85.7329	-0.525946	-34.7759
-86.255	1.59597	-36.1578
-85.205	-2.13357	-33.7066
-91.5586	-2.87986	-57.0654
-91.4376	-5.25182	-58.3105
-83.2863	-7.32636	-34.2335
-84.1611	-5.60412	-33.5779
-83.3812	-7.18811	-35.0359
-88.1886	-9.74866	-48.2382
-90.5597	-7.64476	-50.6378
-88.0862	-10.8489	-48.0474
-87.7889	-9.15396	-47.8183
-77.0738	-15.9703	-18.5921
-76.2411	-15.5553	-15.9986
-77.7336	-11.7383	-20.7075
-82.3995	-6.94005	-60.3411
-84.2077	-4.49397	-59.9534
-82.3652	-2.34623	-59.6054
-80.8592	-7.59544	-61.7087
-86.2167	1.22665	-60.4568
-86.5056	-3.30183	-61.9271
-88.0417	6.57715	-60.9983
-85.876	5.67981	-58.4522
-87.0882	-5.61675	-63.0438
-86.2391	-11.1653	-61.8211
-85.8163	-15.8445	-59.9393
-78.9197	-28.6367	-49.5
-79.8742	-26.0202	-52.1727
-77.8219	-31.2054	-46.7528
-80.604	-23.1906	-54.6798
-78.5628	-23.5206	-55.6122
-87.267	-21.8575	-45.0035
-76.6832	-33.7091	-44.2489
-75.4459	-36.6729	-40.921
-76.3377	-41.5949	-25.7238
-75.9381	-41.2222	-25.7448
-75.0753	-41.439	-25.3335
-75.2278	-41.8583	-30.4215
-88.4247	-11.6699	-48.1849
-90.7938	-10.8286	-50.4109
-80.6196	-8.23384	-25.8671
-79.5544	-7.62521	-25.0002
-77.8596	-21.142	-20.799
-78.2188	-21.4775	-21.3817
-81.1958	-26.9526	-25.1983
-81.6624	-25.9258	-26.3912
-82.1153	-29.2867	-26.0396
-80.183	-16.8394	-24.947
-80.9873	-17.5892	-27.0623
-85.3918	8.28369	-55.9214
-84.5777	9.60723	-52.6127
-83.806	3.36619	-56.6619
-82.1848	0.998211	-57.5712
-81.7726	3.53289	-54.1744
-80.966	0.756424	-58.9163
-91.1611	-0.603761	-52.4269
-91.1015	-1.97957	-51.6108
-83.8581	-6.85466	-36.658
-85.016	-6.33694	-39.5794
-87.7352	-8.18932	-47.5633
-87.0977	-7.79947	-46.2266
-89.8792	-5.04201	-49.579
-6.28179	105.58	17.5072
-6.86087	111.172	8.28752
-14.034	104.457	17.5704
-5.80489	99.4832	25.0022
-5.04784	93.024	31.2121
-12.3803	92.5411	30.7713
-4.48768	86.0131	36.5841
-27.7963	78.7106	36.8267
-22.5431	79.3033	38.3715
-27.7517	74.2852	40.119
-1.84183	-1.29535	93.9171
-4.13612	-1.29734	92.004
-2.04594	0.541599	96.0669
-2.07588	12.6375	99.1806
-2.20398	10.5375	99.9775
-2.03158	14.7377	97.6713
-5.27013	12.3497	97.6577
-2.25243	8.14993	100.12
-2.23101	5.59723	99.6117
-2.18415	-6.98302	87.0238
-3.15885	-12.0478	86.0778
-5.82652	-11.2657	85.9377
-2.2009	3.04651	98.1814
-4.97381	3.00674	96.2323
-1.90028	16.9074	95.6034
-1.85412	19.3778	92.5446
-4.8402	16.2246	94.4609
-4.72906	69.463	46.0743
-4.52576	73.1678	44.0137
-10.7389	70.0225	45.7925
-4.84399	66.3625	47.4947
-2.79592	42.9323	59.4393
-2.92947	44.4378	57.5898
-2.56442	41.1879	62.1554
-3.04543	46.0436	56.1477
-3.11409	47.904	54.904
-4.87641	44.9909	55.8125
-3.26445	-25.2628	84.3537
-2.81148	-25.6273	86.4409
-3.73461	-24.1073	82.32
-2.72754	-25.7172	87.8909
-2.84297	-25.2648	88.7909
-5.55298	-25.6231	87.4817
-4.19521	-21.464	89.8652
-3.94308	-22.7534	89.5699
-3.434	-24.0492	89.4571
-4.33689	-16.3407	88.6939
-3.84351	-21.5729	80.2871
-3.70591	-18.6072	78.5104
-20.6173	103.062	17.2876
-21.6053	108.115	8.57379
-26.7998	101.121	16.676
-19.7584	97.6612	24.1063
-16.5285	71.1779	44.8297
-16.5131	74.2928	42.899
-22.4027	72.0566	43.3709
-17.5824	68.9787	45.8161
-19.3573	66.4664	46.5565
-21.5159	63.7466	46.9254
-24.7814	67.5168	45.105
-22.5285	61.6209	46.7633
-26.7792	62.5967	45.5625
-18.354	59.7369	47.7852
-26.6332	47.3757	44.1364
-30.835	48.4594	43.7542
-22.8049	45.6219	44.5995
-26.073	48.8404	44.2407
-29.8904	43.6336	43.4648
-29.5481	44.0283	42.4365
-32.8373	44.2818	43.1901
-28.3107	45.5892	43.1394
-25.0701	51.6798	44.5189
-21.4028	50.0798	45.2274
-29.1693	52.5745	43.9865
-46.5545	98.9414	-6.0779
-45.9452	95.3585	2.94318
-40.7197	103.47	-4.5626
-47.8136	101.544	-17.6895
-32.5579	98.9009	15.3711
-38.6224	95.8254	13.2831
-33.719	103.137	7.31846
-28.0324	71.9239	41.7205
-33.6806	70.4743	39.953
-28.7154	70.0342	42.6569
-31.1339	62.7282	44.1651
-30.6161	65.1301	44.0565
-29.6679	67.7422	43.4632
-33.0644	52.6031	43.621
-37.5074	51.4805	43.2095
-34.2023	49.95	43.766
-45.067	91.8311	10.1878
-43.9792	87.985	16.4308
-51.4628	87.2333	5.90715
-39.6214	68.346	37.4745
-46.1097	64.8962	34.5339
-41.7835	46.3461	42.7615
-44.6912	44.4641	41.7607
-38.3676	47.8687	43.4658
-41.8589	47.4967	42.84
-35.8465	44.4267	42.8268
-38.6874	43.6271	42.5367
-35.7028	44.8996	41.8885
-42.0006	54.9475	41.2858
-46.643	52.8311	40.0367
-41.8569	52.4482	41.7475
-41.874	49.8405	42.3982
-42.6376	83.7516	22.0787
-49.6558	79.3851	17.9714
-57.2414	82.6364	-0.00341946
-62.2502	78.167	-7.26477
-56.7505	78.7505	6.68089
-45.7306	41.0521	40.0816
-45.8703	41.3077	40.0238
-47.2853	38.7633	38.9549
-47.014	42.3632	40.3455
-48.553	39.9956	39.0772
-46.5146	41.9556	40.2433
-46.1194	41.6323	40.1207
-44.4799	39.4895	40.0133
-44.3824	40.0182	38.9921
-42.8433	40.9874	41.0797
-45.9792	37.6538	38.8557
-50.4358	49.9825	38.0964
-53.716	45.3451	35.5891
-17.0268	53.5234	47.0908
-16.2027	55.4123	47.7229
-17.6096	51.1767	46.318
-14.6204	50.6422	47.7371
-14.8898	57.1024	48.4782
-12.7812	54.3669	48.9414
-18.1681	47.7867	45.4816
-18.8832	44.7217	45.1194
-4.64206	62.809	48.8729
-64.6698	-62.9837	-13.7038
-65.0789	-64.5946	-19.8692
-66.1438	-57.795	-13.015
-79.0503	14.8188	-65.9837
-79.647	10.5249	-59.1274
-79.2878	19.0147	-58.4688
-78.1706	19.1209	-72.4378
-78.882	9.72993	-70.5036
-75.6764	-17.876	-71.5802
-76.6	-12.4488	-73.34
-73.7827	-19.1738	-76.9828
-74.6214	-23.0981	-68.2836
-77.2508	-6.55837	-74.9003
-78.7929	-7.14755	-68.1354
-77.8746	-0.952302	-74.8412
-75.573	-6.30978	-81.7663
-69.2557	-37.72	-56.8395
-71.2068	-32.9002	-61.021
-66.2272	-41.4011	-59.5334
-4.60084	79.18	40.6076
-10.8331	79.2116	40.3836
-16.6989	79.3802	39.675
-17.6841	85.6755	35.2244
-20.463	-80.1656	57.9386
-14.8127	-80.1977	62.1411
-26.7374	-80.2233	51.8415
-17.8693	-83.1849	49.7829
-49.0906	-73.9532	43.1962
-50.8237	-70.82	46.5622
-53.2119	-71.608	36.7164
-43.503	-75.5528	49.127
-56.3025	74.3002	12.7137
-61.7272	68.8247	6.48574
-18.7187	91.9392	29.9027
-67.0071	73.2709	-16.0628
-66.9817	68.247	-8.35918
-70.9816	68.6811	-25.428
-22.3363	113.261	-3.26856
-15.2527	115.192	-3.36601
-22.8508	117.525	-17.1019
-28.8049	110.607	-3.12309
-64.8615	51.3341	11.5578
-65.7235	57.1441	5.46552
-49.3851	37.6206	38.0532
-47.2368	35.6578	37.6643
-47.3835	35.8499	36.896
-59.097	42.0034	29.594
-57.633	41.1639	31.3716
-59.4267	35.8001	28.0085
-55.9584	40.2922	32.9864
-3.27079	-103.379	39.0246
-60.4123	-61.1816	33.407
-58.8174	-65.7168	31.0905
-56.6632	-63.8749	42.5986
-61.5245	-56.6154	34.9895
-8.7126	-13.6496	86.8366
-8.13656	-12.3025	86.2639
-10.7326	-14.043	86.3508
-27.8163	-20.7503	76.7743
-24.8751	-18.5602	79.5136
-26.9065	-16.8356	76.9029
-12.146	-11.6539	84.4709
-11.3724	-10.2707	84.0382
-15.3299	-12.0153	83.0477
-12.9258	-12.9996	84.8392
-9.42785	-11.2461	85.3332
-37.4857	-25.433	69.6403
-36.8398	-21.6197	70.6437
-39.3718	-27.0137	68.6671
-37.3556	-28.9021	69.0783
-63.0448	29.4203	22.157
-64.4865	29.5167	19.1193
-63.3755	23.3805	23.2486
-61.2664	29.6264	24.8985
-66.2571	29.3206	15.3228
-68.4245	27.8839	10.0321
-52.794	32.3036	34.4328
-51.2029	32.7572	35.752
-52.7389	30.0512	34.3364
-59.5865	29.729	27.252
-80.361	1.50774	-61.6185
-80.2942	4.73739	-58.5322
-79.714	2.61849	-66.3916
-80.1475	-2.75342	-63.5373
-76.8714	-24.3289	-57.6906
-75.2921	-25.6181	-60.7229
-68.9648	-52.6828	-24.5563
-69.7267	-50.6406	-30.9766
-67.2022	-58.4523	-25.8235
-68.2713	-53.316	-18.1914
-70.5255	-48.0414	-23.3473
-79.8298	-7.54108	-64.0233
-73.9488	-23.9278	-10.5183
-72.9207	-23.6054	-5.97686
-74.7593	-19.5702	-11.4381
-73.1084	-28.1515	-9.83696
-72.9292	8.86677	7.28421
-74.74	5.20868	-1.12016
-73.0269	1.5087	10.388
-72.3436	16.5878	4.08706
-54.7953	24.7504	33.4299
-53.4093	23.3434	36.2426
-53.4914	26.5046	34.2137
-52.4605	28.1812	34.8552
-51.1809	27.257	36.6905
-71.7181	-22.2963	0.346406
-72.8771	-17.2234	-0.978455
-70.7872	-27.1705	1.04074
-70.3512	-20.6224	7.06496
-25.2891	10.7419	64.701
-22.1447	12.9	65.6196
-24.3545	14.5009	61.4978
-29.4227	9.00767	63.7429
-36.2008	7.35376	62.0837
-37.8578	3.12838	64.6377
-43.7102	5.99364	59.6294
-18.7046	15.4811	67.2495
-18.97	12.5043	70.617
-15.1689	18.7231	69.3943
-22.3495	6.7145	71.8499
-21.0123	8.65239	72.7243
-18.5468	4.87235	82.7616
-19.452	4.07244	81.1001
-18.3765	2.86523	82.6981
-16.957	5.7803	84.9532
-20.1056	3.32058	79.561
-19.6762	0.975112	79.5198
-42.5343	-10.6253	67.2474
-41.3844	-6.03835	66.9101
-43.1437	-15.6601	67.3072
-37.0519	-9.68262	69.1688
-39.4254	-1.32241	66.1608
-6.57848	-9.00616	85.4778
-8.33901	-9.01538	84.8019
-7.11789	-10.1659	85.6255
-59.9135	-32.596	47.4692
-58.5183	-39.2249	48.7212
-56.5128	-29.0956	53.8239
-61.3095	-26.345	46.5004
-31.0498	-15.2771	72.9041
-33.4854	-16.2728	71.9352
-28.4515	-14.465	74.3817
-43.233	-20.6358	67.2882
-39.1181	-18.7547	69.4089
-47.7821	-22.9284	64.0685
-42.8157	-25.44	67.1393
-7.64132	-11.1406	85.8211
-56.7922	-46.4045	50.3047
-54.2174	-51.9128	53.3686
-53.3773	-40.7287	56.282
-59.8464	-50.2125	43.7724
-63.3014	-9.84888	45.5133
-66.6158	-12.0871	37.2404
-63.08	-15.2767	45.5058
-31.5222	-69.813	74.1865
-26.2507	-69.492	81.0019
-32.4483	-66.1699	76.0898
-42.6449	-61.3425	65.6693
-37.8192	-61.9742	71.0347
-41.2996	-55.2946	68.1081
-46.8025	-59.306	61.3612
-58.4357	11.3817	42.1435
-53.0229	12.1448	47.6435
-55.7093	15.7073	40.9654
-49.0084	26.6541	40.1188
-49.7869	24.736	40.2651
-48.1387	28.5707	40.2764
-53.728	18.5131	40.3403
-51.9332	20.837	40.324
-49.0446	18.6718	45.1364
-47.5264	30.1277	40.2583
-4.46584	-58.5744	99.6656
-49.7127	-36.1453	61.0721
-45.7888	-32.3157	64.89
-51.0929	-31.1977	60.0853
-47.8958	-40.4435	62.6797
-39.7337	-49.7961	69.6903
-36.0433	-51.1721	73.7478
-37.7599	-44.3702	71.1217
-42.7723	-47.2464	66.9594
-46.9577	13.0047	51.3506
-44.7394	16.4257	49.6976
-49.0499	8.90787	53.8134
-52.5121	-25.7581	59.3794
-50.6747	4.23109	56.2408
-12.385	-51.1386	95.7376
-17.3701	-51.3522	92.783
-11.9601	-47.7141	93.8437
-22.4672	-51.8081	88.8374
-21.9507	-47.9817	87.5013
-27.479	-52.19	83.7512
-43.1722	19.0233	48.8141
-35.7084	19.7416	51.4908
-41.8141	21.1584	48.4212
-50.7527	22.797	40.2472
-46.6678	22.6899	44.617
-40.7723	23.0452	48.0799
-33.3844	23.6656	50.4349
-12.0149	22.0332	71.7269
-11.7958	25.6649	66.9656
-12.4002	18.571	75.8807
-13.7321	11.7538	85.1477
-14.1765	10.7288	85.9667
-10.9122	13.4804	88.8094
-13.4472	13.1266	83.2549
-10.9447	33.4674	56.2408
-11.2376	31.5162	58.7196
-23.0156	18.2209	57.9653
-2.27792	38.7595	66.4388
-63.3398	18.2913	26.8241
-11.5984	28.7349	62.5632
-62.3413	-51.7286	35.8795
-64.7769	-50.8972	26.4287
-69.699	-1.64889	27.8976
-71.3974	-3.05597	19.9844
-69.3839	-8.12085	28.7126
-66.6367	-25.5765	31.1742
-67.4251	-27.5805	24.1987
-65.0624	-23.3349	38.4568
-67.5477	-19.7588	30.2911
-68.5627	-13.9705	29.3847
-69.2862	-16.2208	21.7631
-21.4581	-69.1055	86.0033
-11.2915	-44.814	92.3072
-16.1153	-44.8776	89.9822
-7.2633	-44.7155	93.4852
-21.1752	-44.5936	86.8614
-26.7071	32.3876	47.6487
-26.6802	31.767	48.1731
-29.3254	20.8598	52.5694
-28.3174	23.051	51.5907
-27.5758	24.7602	50.8138
-3.45258	-44.7017	93.9502
-6.58658	48.887	52.7561
-6.35103	46.0777	54.0626
-5.0912	49.6341	53.4181
-7.23127	51.5335	51.6289
-7.85028	47.5733	52.2906
-18.0469	34.5923	45.6336
-17.8762	36.0242	45.1478
-14.9463	35.3018	47.5926
-8.84368	45.9547	51.7421
-9.8028	48.5449	50.6301
-3.2852	50.1621	53.7924
-6.0711	-1.11032	90.3493
-6.76025	0.722399	91.9134
-8.31259	11.8421	94.7678
-11.421	10.9003	90.8775
-8.16808	13.4754	93.5365
-18.8162	-3.76712	77.4646
-16.2657	-4.98369	79.2888
-18.5826	-2.47499	78.5638
-7.76209	15.1735	92.119
-6.80663	42.8789	55.1572
-8.125	54.3764	50.736
-9.825	53.157	50.2072
-18.4696	37.716	44.4878
-11.1978	51.5502	49.644
-12.1003	49.6543	48.9895
-12.6772	47.7834	48.4968
-21.7719	-9.5589	76.1181
-23.5683	-11.4901	76.273
-18.6331	-9.81724	78.7421
-25.6734	-13.9068	76.3705
-22.242	-13.1911	78.861
-29.3834	-29.0373	70.0622
-27.1797	-28.7529	72.0038
-29.1218	-27.9217	69.4325
-29.9463	-26.4914	73.5867
-27.0779	-24.9928	77.207
-28.4952	-25.1727	68.4684
-27.5051	-21.9456	67.7406
-24.7634	-24.5515	71.5867
-15.9204	-9.70538	80.8721
-17.2033	-11.1888	81.1901
-13.2693	-9.2518	82.4455
-19.0074	-12.6754	81.0802
-20.4839	-14.3577	81.244
-24.0255	-28.3216	74.9158
-22.2877	-26.765	75.2001
-21.3501	-23.87	74.3188
-20.7533	-20.6284	73.132
-10.7419	-8.94475	83.709
-10.173	-7.58394	83.2828
-14.2738	-14.9017	85.2042
-18.1824	-15.6818	83.4307
-18.8809	10.6435	73.9751
-15.9071	12.8848	76.9117
-1.67417	22.7142	88.0819
-12.8262	15.5382	80.0991
-7.5632	3.17963	93.8347
-10.2615	2.88809	90.5784
-13.2531	2.45038	87.4222
-16.0155	1.72709	84.5731
-14.1769	4.52406	87.8899
-17.6495	0.87282	82.5
-18.315	-0.178105	80.8669
-18.5617	-1.35279	79.6312
-14.3631	9.74156	86.8562
-14.472	8.3874	87.6297
-14.5165	6.58956	87.9681
-39.0415	-143.05	12.7409
-37.1854	-134.568	13.6231
-43.2085	-141.551	9.59564
-40.5905	-149.511	12.1635
-34.4678	-144.4	15.8232
-34.9273	-122.208	14.9275
-30.6854	-123.488	18.3738
-32.7993	-109.201	16.3827
-38.9872	-120.793	11.4895
-33.3182	-84.5555	25.0855
-31.172	-90.435	20.4716
-29.4622	-85.6633	29.4665
-36.8794	-83.7911	20.5076
-31.4699	-98.7569	17.981
-35.3193	-97.5653	14.2514
-27.4217	-99.7672	21.8131
-45.7644	-44.4102	64.3711
-42.5501	-39.2355	67.025
-48.4765	-50.0622	61.1601
-51.091	-56.5019	56.7501
-52.1535	-62.2549	53.0183
-52.1111	-66.8931	49.6926
-39.8911	-35.6299	68.2654
-37.9769	-38.0532	69.6213
-38.0176	-32.766	68.7533
-41.0949	-32.7096	67.6069
-36.7939	-31.3052	68.9899
-35.5903	-33.0354	69.5431
-40.5537	-82.7982	15.8776
-45.1428	-82.7317	10.336
-39.2189	-88.5267	12.403
-44.0179	-79.1789	19.7036
-48.5005	-76.2547	23.5301
-52.9286	-73.2963	26.5642
-51.0996	-75.427	16.3653
-56.2488	-69.5358	29.0862
-57.7427	-68.5326	21.2657
-42.9028	-119.168	7.98115
-45.1359	-131.676	7.07773
-40.7674	-106.465	9.10984
-46.8137	-117.998	4.31959
-46.9906	-140.115	6.33195
-50.5828	-138.754	2.80371
-48.7786	-146.7	5.76546
-39.3534	-96.321	10.4252
-69.8342	-18.4002	14.4126
-71.1354	-12.4243	13.3344
-68.7605	-23.9864	15.541
-58.5847	-68.0386	13.9488
-59.3783	-67.6403	6.55731
-56.0293	-71.4755	11.7528
-71.4545	25.0018	1.50264
-74.6808	20.2122	-8.72416
-65.6171	-51.0389	18.1923
-65.9744	-51.1862	9.94172
-68.0401	-29.4095	16.89
-68.7915	-30.9226	9.19915
-72.4504	-5.3313	12.4782
-73.2875	-8.66498	4.61927
-69.9772	-32.0657	1.90441
-71.2225	-32.495	-4.76065
-55.4022	-83.799	-6.09088
-52.5732	-83.341	-1.0897
-55.9481	-79.1877	-5.07124
-57.9187	-84.3649	-10.8824
-55.3062	-89.1247	-6.79697
-55.4644	-95.2461	-7.15644
-56.9801	-74.8585	-3.38455
-58.4402	-71.0499	-1.88115
-58.8591	-75.3474	-9.16804
-55.1953	-74.7279	2.50407
-75.8472	1.93054	-9.51561
-75.1711	-5.21785	-5.17986
-76.3295	8.99296	-14.0612
-76.9655	16.3558	-19.1183
-77.5443	23.3758	-23.7555
-78.1714	30.3837	-29.1679
-78.6395	37.221	-35.1368
-79.5056	26.7772	-39.8076
-66.6648	-51.4033	1.96931
-67.1576	-51.9376	-5.72684
-74.1215	-11.4345	-2.44386
-74.8471	-13.7971	-8.50942
-50.7657	-116.768	0.287579
-52.5641	-129.002	-0.45088
-53.2755	-74.8874	9.27291
-50.8429	-78.6132	6.64441
-54.0478	-137.265	-1.1924
-55.4874	-143.386	-2.13456
-61.6391	-113.108	-16.8596
-62.5704	-123.093	-18.0888
-60.2644	-84.7858	-15.5615
-60.5169	-80.1613	-15.2266
-61.8843	-84.0576	-20.873
-61.0414	-75.5902	-14.6693
-63.0438	-130.321	-19.4767
-63.2527	-136.039	-21.0385
-67.6419	-53.0929	-12.5107
-72.3115	-32.3207	-9.40175
-71.6373	-36.297	-9.71432
-73.4676	-31.3998	-13.0102
-75.481	-14.9956	-12.5904
-61.5701	-92.7937	-28.4454
-61.5826	-86.5271	-27.7703
-60.188	-89.7528	-35.6103
-62.1946	-80.7611	-27.4507
-61.697	-75.8522	-34.3081
-65.476	-64.5924	-26.4595
-71.6353	-45.269	-22.8472
-72.7067	-43.7592	-29.7399
-58.156	-119.39	-45.7128
-57.8477	-111.653	-44.3747
-54.8024	-116.92	-52.672
-58.3971	-126.758	-47.3206
-70.5494	-46.6165	-36.7527
-72.4612	-42.5497	-36.125
-73.99	-40.5137	-35.891
-75.2384	-39.7134	-35.831
-29.7379	-145.499	18.7238
-31.1176	-151.994	17.7585
-24.9978	-146.663	21.3953
-28.2174	-137.029	20.0217
-22.8403	-100.484	25.9594
-22.7855	-92.02	28.7609
-24.1313	-111.338	24.0577
-18.3491	-101.301	29.8724
-32.2273	-80.1028	46.1624
-35.7304	-78.3736	51.3585
-28.3633	-82.7366	40.1632
-24.8677	-86.2939	34.1089
-20.3162	-86.5396	38.6618
-26.1445	-124.39	22.0101
-21.5782	-125.7	25.4091
-36.1039	-40.3814	71.5216
-34.798	-36.9241	71.4771
-38.3302	-76.2441	55.3343
-33.9573	-34.8049	71.163
-33.2369	-33.1852	70.8613
-31.6316	-36.2416	73.9616
-32.5935	-31.7948	70.7858
-30.7041	-32.9101	73.0066
-32.0646	-52.1463	78.593
-32.6514	-56.7956	78.2993
-32.9471	-61.7765	77.3724
-25.5391	-29.4397	77.3691
-21.9608	-29.3276	81.8467
-25.3052	-28.7312	75.2953
-21.2556	-28.0977	79.2342
-25.2899	-29.0683	74.6605
-28.9898	-29.2542	71.8161
-25.1349	-29.7399	74.2819
-25.122	-31.4364	74.2256
-20.9864	-29.0755	77.6277
-24.8315	-34.667	75.3259
-20.8856	-34.0398	78.2036
-24.242	-38.4953	77.1829
-14.0993	-101.877	33.2298
-15.3897	-113.398	31.2701
-14.1293	-92.7225	36.1921
-20.1473	-147.868	23.7553
-21.0572	-154.048	22.543
-15.3445	-148.806	25.7779
-18.8453	-139.354	25.5353
-17.105	-126.86	28.4228
-8.94456	-87.4323	46.5657
-8.96531	-83.7073	55.1938
-11.7177	-87.3907	44.8986
-11.1083	-149.434	27.2251
-11.7475	-155.423	25.8965
-10.4116	-80.0371	64.779
-17.3935	-27.1323	82.3922
-17.1664	-27.4836	81.4214
-16.8934	-28.2233	80.4536
-17.1072	-30.0999	79.7332
-17.0661	-33.3393	80.3937
-16.6393	-37.0687	81.8965
-74.549	52.0027	-20.1099
-70.7449	56.9941	-10.1277
-74.9171	58.3003	-27.6224
-77.4125	47.6717	-30.8154
-79.6614	23.0937	-49.5674
-72.9358	-28.2122	-65.0535
-70.4277	-30.794	-69.1693
-51.232	-98.2888	-55.5341
-48.4825	-96.8597	-60.5636
-51.4365	-107.166	-56.6085
-53.986	-100.467	-50.0275
-51.5168	-89.1939	-54.8613
-51.8367	-114.969	-57.9197
-48.71	-113.59	-62.6393
-52.3515	-122.62	-59.4467
-57.5342	-85.5757	-43.0405
-58.6525	-77.4947	-42.6592
-54.7621	-82.3501	-49.4657
-57.3369	-94.512	-42.9566
-22.9146	120.431	-32.8416
-15.5068	122.744	-33.2858
-22.9497	121.164	-49.5897
-29.9285	117.2	-32.1257
-22.5861	83.4547	-132.203
-14.7633	84.3919	-134.021
-21.8587	69.0137	-142.77
-30.0439	81.8675	-129.561
-23.2528	96.3549	-118.376
-21.3996	54.4103	-148.677
-14.1301	54.5672	-150.406
-21.0708	39.4541	-151.405
-28.484	53.2124	-146.113
-23.3314	106.659	-102.529
-23.2489	114.316	-85.1958
-15.5155	108.168	-104.173
-30.819	104.491	-100.047
-7.46708	122.345	-69.166
-7.46639	117.082	-87.4253
-15.4204	121.217	-68.4462
-7.44371	124.736	-51.0164
-20.6963	25.6449	-152.042
-14.0136	26.1389	-153.77
-20.2216	12.2085	-150.898
-27.1914	24.8873	-149.457
-19.6857	-1.33349	-148.221
-13.2067	-0.805484	-150.12
-19.2135	-14.0625	-144.065
-26.1218	-1.73192	-145.584
-16.9747	-45.1509	-120.844
-17.9777	-35.6874	-130.881
-11.2914	-45.2068	-121.89
-16.5075	-53.8637	-109.872
-22.9288	-45.4133	-118.524
-5.98891	-25.1069	-141.89
-5.69834	-35.5049	-134.14
-12.3999	-25.204	-140.569
-6.11568	-13.6261	-147.121
-14.8405	-93.5089	-84.005
-9.68529	-93.2396	-84.6694
-14.6704	-100.75	-83.5238
-20.1439	-93.9422	-82.5231
-15.0846	-85.7919	-85.4781
-14.538	-107.761	-83.1071
-9.61154	-107.534	-83.4473
-14.5204	-114.791	-82.794
-19.6147	-108.128	-82.3475
-16.5643	-60.965	-100.879
-10.8525	-60.3918	-101.654
-16.167	-67.9377	-94.0444
-21.9164	-61.4403	-99.3959
-15.5033	-76.6924	-88.92
-10.2064	-76.0398	-89.9322
-21.0755	-77.4081	-86.9045
-4.94565	-75.5451	-89.7367
-4.74776	-84.9693	-86.0299
-5.14001	-66.7832	-94.9429
-48.6505	103.421	-31.2836
-42.6914	108.602	-31.3272
-49.5563	103.681	-46.0506
-54.4193	97.3627	-30.8995
-47.7169	48.6215	-132.982
-48.2321	61.8211	-126.944
-41.845	50.3191	-137.885
-47.2027	35.1459	-136.037
-53.2081	46.5784	-127.624
-48.4435	74.314	-117.285
-54.0634	70.793	-112.301
-49.0342	84.9186	-104.926
-42.7066	77.1899	-121.773
-49.8404	93.0834	-91.294
-50.6911	98.5251	-76.7043
-43.8966	97.4591	-94.3601
-55.7325	87.7981	-87.8307
-50.2818	102.169	-61.4922
-56.1915	96.1958	-59.8269
-44.1018	107.438	-62.9137
-46.4802	22.2638	-137.121
-51.9022	21.1119	-132.023
-40.5595	23.1838	-141.765
-45.7391	9.60485	-136.376
-44.8408	-2.72542	-134.24
-39.0481	-2.50511	-138.389
-43.9397	-14.5807	-130.34
-50.268	-3.13008	-129.385
-42.6273	-25.2999	-124.92
-47.5381	-25.1106	-120.324
-37.1749	-25.6734	-128.645
-41.2505	-35.6047	-117.275
-40.2019	-45.1807	-107.423
-34.7817	-45.3779	-111.584
-39.3535	-53.6025	-97.8471
-45.0088	-44.2182	-103.554
-38.5764	-61.484	-89.6743
-43.2233	-60.9585	-85.4041
-33.3007	-61.9069	-93.3657
-37.7253	-69.7727	-82.6171
-35.9386	-94.5411	-74.6492
-40.6342	-94.9073	-70.7558
-36.3399	-86.4369	-74.636
-30.7781	-94.549	-77.8766
-35.5209	-102.498	-75.9002
-24.8039	-108.6	-81.0656
-30.1181	-109.208	-79.1245
-25.11	-101.665	-80.9288
-24.6555	-115.354	-81.0822
-36.9238	-78.231	-77.421
-32.0193	-78.1722	-81.0788
-41.5518	-77.8644	-73.014
-40.9935	42.3361	41.9576
-40.931	42.9565	40.9604
-67.7747	57.5762	-93.7169
-63.7448	62.3105	-100.813
-67.2404	48.932	-102.615
-71.4417	52.2174	-85.7912
-68.6634	64.2646	-83.1572
-69.8987	69.4624	-72.3771
-70.6571	73.3721	-61.2933
-65.759	75.8525	-78.745
-73.4743	62.8722	-64.907
-69.7435	76.8175	-50.4566
-66.017	83.311	-54.8232
-72.4929	70.4924	-43.4357
-56.703	19.9873	-126.784
-55.9356	8.03102	-126.234
-61.0698	18.5362	-121.147
-57.4968	31.9846	-125.329
-58.0968	44.4566	-122.081
-62.6233	41.7871	-115.888
-58.7065	56.1933	-116.129
-51.9645	-24.5992	-114.706
-50.1244	-34.1946	-107.741
-56.0742	-24.1053	-108.578
-53.8793	-14.402	-119.986
-55.0241	-3.62585	-123.94
-59.3548	-3.79481	-118.242
-49.0268	-42.8822	-99.2923
-48.3671	-51.5004	-89.5264
-52.7336	-41.7615	-93.9548
-47.2541	-59.6001	-81.2612
-50.7476	-57.3265	-77.5629
-45.9476	-77.4951	-67.3735
-45.3779	-86.6596	-65.6018
-49.74	-78.8286	-60.7821
-76.859	23.702	-79.2842
-75.0926	27.6409	-86.5682
-76.0839	16.2115	-85.0136
-59.3862	90.7916	-29.7693
-60.4117	91.3436	-43.9321
-78.775	43.7797	-41.6631
-78.1466	50.2055	-49.0836
-66.5184	-21.8628	-92.6461
-64.3006	-29.7477	-86.6873
-69.2714	-21.0853	-87.0721
-68.3645	-13.7938	-97.1489
-63.4522	-22.9119	-97.7079
-69.247	-5.15097	-100.904
-71.8222	-5.7574	-94.1412
-70.0241	3.63822	-102.411
-66.4248	-4.70855	-106.982
-70.9084	13.0582	-102.118
-73.2998	10.7531	-94.9393
-71.9167	22.3541	-99.2827
-68.1328	15.0884	-108.941
-57.7903	-49.8772	-68.1158
-56.0886	-56.6586	-62.5592
-60.3082	-47.3541	-64.9877
-59.823	-43.5638	-74.0536
-55.4408	-52.5334	-71.0741
-67.6096	-32.9221	-73.0798
-69.8012	-26.8144	-77.7638
-64.838	-34.8832	-76.5185
-65.3989	-38.8334	-67.606
-52.4661	-80.3511	-54.9697
-53.6707	-71.8256	-56.2
-73.7954	-36.6046	-17.1789
-72.1382	-39.0306	-14.1597
-74.3736	-32.6738	-16.3129
-74.4458	-30.655	-15.3911
-78.4127	-6.17729	-24.1376
-79.3415	-1.69215	-27.6594
-92.2062	-3.8396	-62.0233
-92.8884	-4.10969	-60.9259
-92.3909	2.49719	-61.4997
-81.4813	-40.1908	-37.1373
-80.2763	-42.5403	-32.7825
-79.9459	-39.7909	-37.9666
-92.0511	8.09385	-59.3454
-92.9616	7.40534	-58.3012
-91.4429	12.3528	-55.9735
-90.8805	8.45659	-60.3118
-84.6034	8.34471	-36.2354
-83.3015	8.14616	-37.1882
-90.6297	15.0197	-51.8397
-91.6858	14.1927	-50.772
-86.8435	-25.5289	-52.0486
-83.3686	-38.9714	-28.9148
-81.7857	-41.7501	-28.73
-82.6359	-38.0556	-26.239
-80.205	0.585985	-29.745
-85.6213	14.4336	-46.5201
-83.9899	11.6913	-42.928
-84.5726	12.8044	-48.0603
-82.0688	7.75076	-38.7999
-81.1319	7.41221	-40.7722
-89.5611	8.44249	-60.9231
-80.6629	6.92227	-41.9485
-81.8342	8.30661	-45.1125
-83.3623	9.34635	-49.2227
-81.9351	6.16489	-49.3297
-86.2971	-32.0851	-42.1792
-86.3853	-31.8769	-34.175
-79.5756	-43.148	-28.9841
-81.9491	-36.4391	-24.4593
-82.3771	-33.459	-25.6237
-83.371	-31.2978	-27.1338
-84.1264	-29.8549	-28.5043
-91.2743	-15.3493	-55.9915
-92.0897	-10.2717	-58.8904
-92.9468	-4.31905	-60.0824
-93.4638	1.6584	-59.5875
-89.9734	13.3492	-41.9231
-91.4605	14.2058	-45.7339
-90.2864	12.3183	-41.5976
-90.0371	11.5003	-41.5291
-91.255	12.4306	-45.0655
-89.4232	10.4695	-41.5657
-93.2959	6.78912	-57.5057
-93.1867	6.17655	-56.9905
-92.795	10.6511	-54.2102
-92.2765	13.2539	-49.9708
-92.3803	12.3262	-49.5689
-91.8916	11.7906	-49.2
-92.2814	9.54296	-53.4738
-92.7254	5.94195	-56.7045
-91.3239	-8.20564	-57.9869
-88.8977	9.11532	-41.8368
-86.2576	2.54836	-37.4473
-91.2458	6.71891	-50.0531
-91.8395	-10.1121	-51.8135
-91.7729	-8.19244	-52.0832
-91.5942	-6.26114	-52.0846
-91.2751	-4.63002	-51.6528
-90.8452	-3.1836	-50.8053
-81.661	-25.8751	-27.8447
-82.8983	-27.8175	-28.8627
-84.7251	-3.37359	-32.7047
-81.0291	-17.9574	-28.4371
-84.0288	-29.2012	-29.4083
-34.7515	48.6453	43.6737
-34.7215	107.507	-3.7107
-35.8227	110.943	-16.77
-7.22145	116.648	-3.69927
-7.44281	121.201	-17.8328
-36.3993	113.304	-31.8007
-36.9263	113.816	-47.7052
-7.46066	124.117	-33.6532
-22.9892	119.171	-67.3326
-30.4233	116.127	-65.9161
-37.3563	112.217	-64.5608
-37.7462	108.133	-81.1586
-66.5791	62.6767	-1.38301
-74.2602	64.3019	-35.6291
-76.1858	60.3473	-46.2555
-61.3193	90.0197	-58.0168
-61.8512	86.6613	-71.152
-7.43587	109.062	-105.053
-7.32551	98.3488	-121.17
-37.4636	101.561	-97.1334
-37.1494	91.8563	-112.477
-76.2998	56.5017	-57.0091
-75.4634	52.22	-67.5654
-60.8742	82.1989	-83.9147
-59.7882	75.6063	-95.74
-74.5227	46.8977	-77.7303
-73.6067	40.0026	-86.9044
-72.7425	31.8476	-94.1778
-69.9183	35.4343	-101.719
-44.9435	-95.9186	-65.7841
-44.626	-104.282	-66.9953
-44.7799	-112.018	-67.9249
-40.2219	-110.637	-72.9032
-45.0606	-119.435	-68.8662
-6.96501	84.9816	-134.795
-6.68931	69.7675	-145.293
-6.71875	54.5121	-151.202
-6.81427	39.9699	-153.849
-6.80319	26.4327	-154.646
-6.60051	13.1147	-153.724
-6.31559	-0.41728	-151.178
-18.6934	-25.358	-138.485
-24.9156	-25.6338	-135.656
-5.26636	-45.1456	-122.651
-5.20252	-53.7127	-110.437
-5.20591	-60.205	-101.525
-4.73954	-92.781	-84.3505
-4.7061	-99.9192	-83.7891
-4.64905	-107.193	-83.5037
-4.78489	-114.581	-83.4233
-35.299	51.8548	-142.43
-34.6358	37.6057	-145.239
-36.0346	66.1173	-136.381
-36.5425	79.6667	-126.172
-33.939	24.1347	-145.986
-33.305	10.9415	-144.877
-32.6363	-2.04353	-142.301
-32.0098	-14.5631	-138.049
-31.1741	-25.7281	-132.318
-30.1431	-35.9589	-124.814
-28.9332	-45.4435	-115.405
-27.9803	-54.1257	-105.509
-27.6479	-61.773	-96.7906
-27.331	-69.4282	-89.5496
-26.5938	-77.8261	-84.3371
-25.9673	-86.4196	-81.1586
-25.5962	-94.223	-80.4381
-35.3933	-109.8	-76.4596
-35.1013	-116.736	-76.9108
-59.0327	67.0104	-106.932
-66.5307	39.1446	-108.965
-65.737	27.8776	-113.184
-64.8014	17.1197	-115.358
-63.96	6.23038	-115.115
-63.0677	-4.1289	-112.824
-61.9177	-14.174	-108.491
-59.8611	-23.6852	-102.995
-57.7584	-32.2988	-96.5458
-56.0208	-40.1517	-89.5459
-54.6204	-47.9314	-81.4778
-59.1161	-38.76	-84.6876
-53.2514	-54.9482	-74.3829
-55.0007	-64.1349	-58.1336
-57.1707	-62.2541	-55.2225
-75.1453	8.94519	-88.4385
-76.839	6.69781	-81.2409
-74.396	1.2648	-89.0726
-71.5879	-20.2145	-82.2229
-73.0566	-13.2297	-85.5452
-61.9667	-36.9139	-80.5539
-73.8028	-5.91483	-88.207
-63.0658	-44.7529	-62.1354
-61.224	-50.9607	-57.1019
-15.7574	-86.7702	42.6237
-60.2557	-67.3514	-0.484042
-49.1	-82.8691	4.62954
-17.0719	-19.6381	85.6171
-20.7487	-20.5824	83.2534
-23.9261	-22.7171	80.6101
-10.2335	-29.6509	91.6744
-10.4764	-30.6269	92.1231
-10.6901	-31.6858	92.5054
-28.3767	-37.6977	78.4183
-27.82	-35.9964	78.4107
-27.4468	-34.4452	78.2811
-22.0188	-16.7668	81.3179
-42.1963	-29.3849	67.1697
-32.9524	-9.15312	70.224
-34.6886	-13.1739	70.7561
-35.9622	-17.1846	70.7304
-62.4192	-20.6441	45.636
-19.5135	43.314	44.7093
-78.39	4.63118	-73.7508
-79.7823	7.59966	-54.3543
-80.0174	5.61975	-51.3937
-70.679	-40.9987	-10.1096
-26.518	30.8068	48.7928
-52.8298	59.9793	30.8841
-50.565	32.919	36.2211
-9.91242	-6.36237	83.0374
-48.4801	36.1987	37.9216
-13.7213	-4.57851	81.2094
-80.8242	4.99934	-50.0063
-57.4375	-103.297	-43.5704
-60.7902	-69.4971	-41.9868
-60.0292	-64.0356	-48.032
-59.7927	-58.8449	-52.6032
-24.3439	-2.4599	71.1712
-32.9093	-28.2242	70.3151
-18.4273	-28.6434	85.1047
-30.849	-29.571	70.3441
-9.23552	-25.7587	86.5871
14.7561	-107.769	-83.1056
14.686	-114.791	-82.794
-75.9882	-39.6613	-35.5538
-77.0904	-38.7202	-37.424
80.3021	-22.8733	-21.2852
-78.7511	-21.863	-22.0999
80.9366	-34.9261	-43.0347
-78.6424	-38.9868	-38.3421
31.0331	-30.8768	69.6077
-31.0501	-30.4352	71.1296
89.5318	-0.914999	-43.435
-87.3156	-2.69071	-42.707
-87.2178	-4.19798	-43.3817
83.0677	-13.8726	-36.4464
82.3045	-16.3565	-36.2878
85.6816	-10.9015	-40.6961
-79.8371	-18.012	-35.7186
-80.3594	-19.1535	-36.484
81.3174	-18.8789	-35.0124
-81.4816	-20.9811	-37.3122
87.8921	-7.57392	-43.2385
-86.4535	-6.80683	-43.8402
-14.1802	-27.9803	-21.7169
15.1234	-28.1853	-21.5388
-23.6656	-65.3699	-3.04563
24.554	-65.5973	-2.56439
-25.0176	-68.232	41.7318
26.3306	-66.7246	42.3719
27.4035	-5.78092	28.3347
-27.5343	-5.40528	29.0157
-33.6515	-40.2675	65.7066
33.4085	-39.8751	64.9537
33.0846	-25.8255	60.5605
