1923
5.27913	-14.7717	89.514
9.06062	-14.4811	88.6887
5.26952	-13.4573	89.1788
0.902938	-15.2026	90.0394
5.19379	-16.1405	89.5704
11.6792	-17.5516	87.5224
11.8453	-16.2385	87.9058
8.76457	-17.1849	88.3008
11.188	-18.6951	86.856
14.2891	-18.2444	86.4431
17.2109	-19.4566	84.8397
17.3133	-18.0362	85.352
16.9539	-20.8439	83.9744
20.483	-21.3143	82.4492
11.784	-14.7228	87.9657
14.3685	-15.435	86.9992
11.675	-13.3287	87.7864
16.1094	-14.0264	85.7738
16.936	-15.2841	85.6716
15.586	-12.8519	85.5165
13.3732	-12.8811	86.9086
23.7087	-24.7588	78.8285
23.8234	-22.8103	80.0833
10.3671	-19.7873	85.9669
7.35568	-19.2475	86.858
9.80098	-20.6372	85.0926
13.5923	-20.7178	84.6358
16.961	-22.5065	82.6688
16.7477	-23.5401	81.6856
29.4558	-30.7875	72.3124
29.8477	-31.2201	72.0104
29.6065	-30.593	72.3683
28.8393	-30.0112	73.0513
23.5777	-28.7304	76.2423
23.5014	-28.6816	75.9353
20.0779	-26.1539	79.2752
23.5729	-28.8571	76.5887
23.7749	-29.7049	77.3192
23.7029	-29.3474	77.1957
20.4054	-27.7405	80.7501
17.2556	-26.5867	83.442
17.132	-25.8145	83.1171
14.3176	-25.5861	85.5492
17.5412	-27.456	83.5064
10.1011	-22.5286	86.2731
10.5099	-23.6073	86.7095
13.6382	-23.5664	84.8365
9.84379	-21.6406	85.8659
6.69781	-21.7338	86.978
4.17646	-23.5001	88.2756
4.34795	-24.6101	88.6034
7.38026	-24.0644	87.8845
3.97032	-22.3843	87.8581
1.11436	-23.1851	88.4011
27.8517	-32.6727	71.5733
27.7406	-31.9357	71.9796
27.7571	-34.0956	71.4645
25.9216	-31.8096	72.6808
3.17778	-21.9328	82.699
3.25087	-20.9042	84.2162
5.83059	-22.2126	82.1976
3.07185	-23.8935	81.5384
0.725349	-21.8252	82.8521
4.49724	-25.7666	88.8755
1.2859	-25.4978	89.0097
4.64472	-26.9453	89.0321
7.97253	-26.3443	88.4227
4.52947	-31.3978	88.3508
8.13065	-31.748	87.9208
4.62827	-29.6414	88.9048
1.2905	-31.2431	88.4279
11.3349	-12.3158	87.5683
10.4302	-10.8721	87.0822
8.71208	-11.9902	88.0756
3.80266	-21.3055	87.3007
1.03486	-21.2329	87.5273
3.58006	-20.634	86.9974
3.39658	-20.3475	86.6873
6.40647	-20.5282	86.2372
3.41449	-20.2718	86.1682
0.832573	-20.2821	86.708
9.76055	-21.1389	85.5148
13.2675	-22.3287	83.953
9.65066	-20.9959	84.9754
3.4227	-20.3956	85.3795
6.21149	-20.5577	84.9356
0.742276	-20.3477	85.4113
16.7565	-24.0142	81.9972
16.7023	-23.922	81.5108
16.8396	-24.3949	82.3215
18.1559	-30.3629	83.9327
18.3434	-31.5879	83.8029
17.9734	-29.3204	83.9016
15.1428	-30.1002	85.9122
11.8985	-29.3974	87.5124
11.9578	-30.7103	87.2414
11.8009	-28.1388	87.5821
8.3532	-28.7894	88.5308
4.66882	-28.1825	89.0439
1.25591	-27.9326	89.2041
16.4455	-24.0002	80.7903
12.9533	-22.2498	82.7621
16.1763	-24.0917	79.9515
30.1967	-31.4103	71.868
29.8319	-31.7225	72.0102
30.1343	-31.0755	72.0169
29.2289	-31.6276	71.9478
28.662	-31.6633	72.157
29.1729	-31.8384	72.0799
27.8667	-31.6245	72.6855
26.3669	-31.1587	74.047
9.04636	-22.7967	81.4049
9.22878	-21.673	82.8944
12.5558	-23.8312	80.3153
8.96083	-24.8365	80.316
9.43208	-21.1233	84.1143
12.9533	-22.2498	82.7621
11.802	-32.348	86.8307
15.2544	-32.8842	85.4195
17.7219	-28.3375	83.763
14.8342	-27.8102	85.834
18.4358	-33.1163	83.5938
21.3303	-33.3815	81.1498
15.7697	-23.8623	79.277
12.6211	-22.3328	80.6624
15.3408	-22.593	78.3405
18.8179	-25.5898	77.3782
9.36975	-21.275	81.7311
6.58113	-20.7436	82.123
9.90536	-20.4294	80.0398
9.31162	-21.2925	82.9826
15.1013	-19.7782	77.1161
12.5317	-18.6906	77.9036
14.7141	-15.9599	75.6371
17.7321	-21.098	75.9946
27.1368	-36.9252	72.0211
26.2361	-40.3142	73.1057
25.135	-36.0751	73.2683
3.0497	-27.0521	81.436
5.63356	-27.3898	81.0506
3.03316	-30.8615	82.076
0.788357	-26.9398	81.5746
9.97874	-17.8827	78.4409
7.21147	-17.3278	78.7274
9.59715	-14.1632	76.669
8.81927	-28.063	80.337
8.59259	-31.8397	81.1485
12.1952	-29.0915	79.3582
30.5772	-33.5426	66.5204
31.0899	-34.0021	64.7648
12.9015	37.7111	50.3399
12.6207	36.855	52.1847
84.7216	-18.4867	-59.8067
83.9103	-22.2486	-57.8291
83.3535	-18.8461	-63.3994
85.3833	-14.3464	-61.0795
86.1068	-18.4163	-57.6404
84.6682	8.53533	-29.4356
85.1076	10.1081	-34.235
84.0602	11.9899	-25.1179
85.2532	10.6653	-39.894
85.4265	15.509	-42.5551
84.9979	5.50625	-39.6466
85.3062	8.24013	-46.6353
78.4174	-38.8868	-43.7977
80.8659	-36.2458	-42.7839
77.5259	-42.5011	-40.1576
79.6396	-35.5259	-46.7011
80.6697	-32.4927	-49.7806
78.2116	-35.0369	-51.9963
81.8552	-29.2026	-52.7109
82.9258	-30.7797	-48.1521
87.9984	-18.1612	-56.508
90.0391	-17.8231	-56.5496
87.4025	-21.7086	-54.7219
88.3715	-13.8813	-57.7258
90.8375	-34.2651	-43.2299
91.9732	-30.7337	-46.3581
91.9783	-34.3829	-41.7212
89.5911	-37.8865	-39.6764
95.5088	-24.4669	-45.7521
95.3269	-23.6991	-45.1907
83.2347	-44.1546	-28.5825
84.1837	-44.5754	-27.645
83.0206	-43.9739	-26.0899
82.7538	-42.7556	-30.7117
85.0386	-33.2674	-18.4182
84.6378	-33.9009	-18.2164
84.057	-34.8725	-18.2601
95.2327	-23.2393	-44.8997
94.6847	-23.5263	-43.7898
98.1782	-10.4877	-52.8352
97.8197	-10.2373	-54.4463
98.5681	-11.3429	-50.8804
98.315	-0.231323	-53.3527
98.5831	1.01641	-53.86
98.573	3.27505	-53.4713
98.3676	3.66183	-51.1796
98.7074	3.64302	-54.0699
98.2544	6.0699	-51.0216
88.6408	-10.9777	-25.8303
89.9428	-5.80313	-27.8161
87.9354	-9.81961	-24.7312
87.5755	-14.76	-24.2167
82.5696	-24.6317	-14.551
81.624	-24.2807	-11.7146
82.0133	-28.4463	-13.8342
83.0905	-20.2565	-15.421
87.0313	-22.3243	-24.8923
87.3314	-24.294	-24.7232
87.2408	-20.5717	-25.6688
85.1468	3.7327	-39.6235
85.8025	4.11002	-43.3136
85.7111	4.00671	-39.1956
94.1808	13.2033	-41.6082
95.713	14.0469	-45.4641
92.8603	13.2971	-42.9977
92.4685	10.7784	-37.817
95.388	12.6119	-40.3691
94.3535	13.3488	-51.5421
93.1638	13.9312	-47.9488
95.5721	13.4318	-50.751
95.1969	10.7564	-55.1982
93.0135	11.3503	-52.4707
96.1406	-6.4159	-61.4665
94.7059	-6.85863	-61.5763
96.2281	0.274311	-60.7369
97.5409	-6.11243	-60.7061
90.9254	-1.44673	-29.4843
91.1848	-2.94342	-30.0264
98.8225	-6.30468	-57.1111
99.3528	-0.9113	-56.4124
98.2116	-8.94518	-56.7972
99.1811	-6.50152	-57.2491
97.6234	8.03833	-47.3932
96.6329	8.68088	-43.3349
97.707	6.51087	-47.6734
97.7142	9.2127	-47.0803
92.159	-1.59577	-32.8237
91.6541	-3.15276	-31.7616
92.6589	0.442515	-34.1853
98.0745	-4.91058	-54.8021
97.9495	-7.29959	-56.0482
95.3539	0.708591	-44.3813
95.1455	-0.353305	-43.1562
96.8883	-0.903884	-48.2356
89.7716	-8.30582	-32.2571
89.8643	-8.19951	-33.0497
90.6498	-6.59664	-31.6194
94.7332	-11.3173	-46.1236
97.1405	-9.35844	-48.4968
94.3239	-10.702	-45.7047
94.6351	-12.4058	-45.9396
83.5847	-16.3868	-16.621
84.1423	-12.1911	-18.8061
82.704	-15.8777	-14.043
88.5759	-8.86419	-58.0107
86.9533	-9.55149	-59.3505
88.5277	-4.28861	-57.2458
90.4503	-6.46678	-57.6171
92.4786	-0.861487	-58.0708
92.0952	3.62421	-56.0589
94.303	4.36098	-58.5574
92.7918	-5.42231	-59.5563
93.3931	-7.76089	-60.6841
92.5327	-13.2019	-59.5267
92.1159	-17.7477	-57.715
85.1152	-30.0245	-47.4378
84.0078	-32.5069	-44.7149
86.0613	-27.5106	-50.0772
86.7802	-24.7714	-52.5458
84.6443	-25.1027	-53.4621
93.867	-23.2685	-42.9631
82.8785	-34.9377	-42.2297
81.6387	-37.8357	-38.9239
84.5341	-34.7235	-41.8944
82.3274	-40.773	-33.5601
81.5374	-40.8139	-33.8396
81.6803	-42.9269	-28.3998
83.0193	-42.6322	-23.6321
82.6125	-42.2451	-23.6488
81.731	-42.4519	-23.2303
94.9909	-13.2356	-46.0816
97.3994	-12.5233	-48.2944
87.0465	-8.88984	-23.9713
85.9441	-8.22276	-23.1174
84.5329	-21.7146	-18.7342
84.9109	-22.075	-19.313
88.0121	-27.7866	-23.1067
88.9524	-30.1863	-23.9522
88.4603	-26.7773	-24.318
86.7963	-17.5141	-22.9487
87.632	-18.3434	-25.0509
91.5816	6.31271	-53.5522
89.9982	1.44265	-54.3114
90.7452	7.76454	-50.2954
88.3386	-0.898969	-55.2191
87.0557	-1.16852	-56.534
87.9154	1.75293	-51.8619
86.2785	-18.8643	-27.8129
87.1335	-18.8822	-27.2784
97.6847	-2.4647	-50.2196
97.6433	-3.79953	-49.4234
90.3469	-7.9411	-34.6557
89.428	-10.3423	-35.124
91.513	-7.54565	-37.5487
94.2648	-9.73023	-45.4497
96.4362	-6.72305	-47.4359
93.6243	-9.29099	-44.1222
4.44324	99.2063	21.3516
4.14697	93.3079	28.0757
12.1588	98.102	21.5211
4.98997	104.721	12.8123
-3.45154	99.7197	21.156
3.70113	87.1225	33.4845
-3.48019	87.424	33.3363
3.60584	80.4748	38.1158
10.7725	86.6044	33.3337
26.1894	74.1369	39.8556
27.0254	70.7988	42.6969
21.3442	74.8078	41.0294
-0.167014	11.5565	82.7482
0.0120816	12.7357	84.0013
-1.935	11.5101	83.2188
1.98209	11.628	81.836
0.129955	23.031	86.4439
3.43733	22.4261	85.7304
0.144244	24.6681	85.6038
-2.79582	23.1839	86.6054
0.323541	21.087	87.1928
0.36638	18.8873	87.2803
-2.63359	18.9605	87.8177
0.322841	16.6372	86.6325
0.286158	8.03067	79.4851
-1.50111	7.9218	79.7213
2.20256	-2.46556	82.2875
4.65384	-1.89619	82.1394
-0.305565	-2.93844	82.3658
0.170569	14.5061	85.3182
2.93141	14.1206	84.3589
-2.43421	14.5818	85.8547
0.00866664	26.1556	84.4959
3.05904	25.5342	83.9576
0.0594397	27.7534	82.9124
-2.73302	26.2373	84.5972
5.31833	68.3261	47.5521
-1.06811	68.802	47.5182
5.58683	65.8932	48.7287
11.7821	68.7608	47.1296
4.96533	71.1511	45.6526
3.13608	44.8488	55.8127
3.13521	43.1063	58.2919
3.15739	46.3941	54.0753
1.33052	45.1605	55.7961
3.24095	48.0219	52.7667
5.16715	46.8652	52.564
3.34367	49.8561	51.7853
1.397	48.3474	52.7681
3.67401	-20.4888	82.2387
0.691442	-20.4215	82.3971
3.9957	-19.5775	80.4981
3.37545	-20.5592	84.1115
3.42268	-20.3955	85.3795
0.742268	-20.3477	85.4112
6.21136	-20.5576	84.9357
3.57167	-19.9011	86.369
5.03645	-17.2617	89.1966
4.71674	-18.2507	88.4657
0.816507	-17.5041	89.6806
4.16252	-18.9304	87.4522
0.794903	-19.1233	87.6645
5.31073	-12.483	88.7052
0.936356	-13.0743	89.1558
4.02009	-17.0419	78.7745
3.76595	-13.3194	76.763
0.591844	-16.948	78.7077
18.6912	96.784	21.3801
17.8322	91.4945	27.6493
24.8434	94.9762	20.9232
19.8063	101.819	13.21
17.4667	69.3689	46.3092
18.7771	67.6442	47.1136
23.0615	69.839	45.0483
16.8737	71.6825	44.7063
20.7918	65.6386	47.8218
22.8944	62.999	48.322
25.8834	66.1595	46.5988
23.8658	60.7928	48.1994
19.8497	59.5532	48.9231
27.9579	61.2469	47.1078
28.148	47.1203	45.5378
27.3546	48.5766	45.5704
24.3803	45.9081	45.0965
31.8151	47.5654	45.6242
31.3255	42.9719	45.0967
33.8834	43.1792	45.1495
31.0049	43.4956	43.8404
29.8214	45.1392	44.664
26.0921	51.4422	45.7038
29.8294	51.7845	45.6033
22.6081	50.5154	45.6539
46.0603	93.9473	-1.24519
47.9983	96.6671	-12.7058
39.8506	98.0721	0.403603
44.9257	90.2955	7.5863
30.6125	92.9421	19.7598
32.0918	97.2552	12.0431
36.7998	90.1803	17.7643
27.819	68.9872	44.0124
28.7628	67.4752	44.7135
33.4457	67.4423	42.2195
31.8375	60.9661	45.9761
31.3076	63.236	45.8643
30.2168	65.7095	45.2818
33.7121	51.3703	45.5346
35.0906	48.5876	45.8887
38.5319	50.1722	44.8898
43.5899	86.6649	14.6799
50.5906	82.7378	10.2646
42.0413	82.7455	20.764
40.0929	64.8715	39.6926
46.6181	61.7135	36.5624
42.8878	45.7012	44.552
42.8994	46.7401	44.5713
39.3217	46.674	45.4991
45.8053	44.2549	43.2386
36.636	43.1554	45.0887
36.5877	43.8212	43.9306
39.3446	42.8125	44.6172
43.0938	53.4354	42.2044
42.8643	51.1527	42.7733
47.6185	51.5158	40.188
42.8274	48.879	43.8011
40.2535	78.3911	26.2895
47.7493	74.8194	22.1836
57.2583	78.8387	4.1129
56.3148	75.0857	10.6807
63.2804	74.9244	-3.45501
47.1201	41.2778	41.2063
49.0676	39.2436	39.2311
47.2784	41.5064	41.1407
48.5151	42.3842	41.4334
47.9281	42.0484	41.3766
50.3756	40.2831	39.2724
47.5254	41.779	41.2592
45.8018	39.6651	41.2152
47.5536	38.2022	39.4583
43.875	40.9738	42.6769
45.7987	40.2271	40.0246
51.5794	49.0164	37.7747
55.3916	45.1069	34.5493
18.0354	54.0335	47.6038
15.5185	51.6601	47.5545
18.6253	51.8192	46.6147
17.3071	55.8057	48.4146
16.1945	57.5605	49.2233
13.6151	55.0425	49.0769
19.5352	48.5164	45.6696
20.2772	45.3732	45.1099
5.41356	63.1766	49.6445
-0.0230757	63.1712	49.7581
70.5533	-64.8098	-12.0913
72.5325	-59.4514	-11.1053
70.5863	-66.1992	-18.3841
84.8357	12.4381	-63.2898
84.6818	7.229	-67.7725
83.8025	16.3774	-69.5125
85.0555	16.8838	-55.8967
85.5769	8.49277	-56.6416
81.3611	-20.0231	-69.1583
80.2844	-25.0492	-65.974
79.2825	-21.4891	-74.4827
82.3369	-14.7346	-70.8244
83.0045	-8.99852	-72.2791
81.151	-9.0143	-78.9972
83.6439	-3.47948	-72.1481
84.7143	-9.3185	-65.6582
74.7111	-39.1436	-54.825
71.3793	-42.8274	-57.5566
76.7322	-34.4913	-58.9086
4.37847	75.3914	42.3148
-2.64616	75.653	42.2504
10.2953	75.1037	42.2642
15.991	75.1383	41.782
15.9177	79.9566	37.5473
19.2383	-81.19	60.0208
17.3409	-84.695	50.9693
24.9504	-81.284	53.3717
13.9454	-81.5582	64.3786
48.5894	-76.3531	42.5938
41.6941	-77.4123	49.7349
54.4328	-74.3778	36.1268
49.8426	-73.0693	46.1501
55.4114	70.7922	16.5958
62.0649	66.2597	9.90554
16.8357	85.9636	32.8663
69.1031	70.4291	-12.5658
73.9723	66.0256	-22.1304
68.8851	65.8257	-5.16571
20.8413	107.063	1.87591
27.46	104.609	1.99411
21.835	111.506	-11.5356
13.6268	108.854	1.78931
66.5177	50.4726	13.7096
67.3114	55.7446	8.00675
51.5548	38.359	37.7638
49.0884	36.5575	37.6278
49.3446	36.7864	36.6742
61.0054	42.9429	28.0357
61.8057	37.3299	26.2463
59.5678	41.9704	29.7711
58.0645	41.0245	31.3537
2.2008	-106.651	37.4731
-0.13085	-106.542	37.7547
61.9051	-63.945	34.8013
62.7958	-58.6304	36.2829
56.5644	-65.7993	42.336
60.82	-69.0328	32.1452
9.51356	-8.76319	85.9727
11.6414	-9.4534	85.7124
8.20766	-5.72665	84.2126
27.503	-20.8228	77.7845
26.8411	-16.2167	78.0554
25.0092	-17.3278	80.0592
11.7754	-4.82069	82.2153
8.86564	-3.41319	82.4395
13.1789	-7.66168	83.6472
15.1435	-6.39797	81.5978
10.3497	-1.97633	80.6944
34.9752	-27.2749	72.1586
34.4042	-31.012	71.5728
36.7643	-28.482	71.1297
34.8673	-22.9458	72.7477
65.9625	30.2881	21.3285
63.8033	31.0139	23.5934
66.4079	24.0962	22.4892
68.0649	29.8899	18.7785
70.3261	29.655	15.4925
73.0301	28.3773	10.5777
55.3312	33.8306	33.0241
53.7069	34.2626	34.5199
55.1303	31.6174	32.822
61.8022	31.4779	25.5716
86.3895	-0.533945	-59.1729
86.1759	-4.81307	-61.0999
85.6619	0.383985	-63.8396
86.3226	2.79525	-56.1204
82.8396	-25.944	-55.5229
81.1068	-27.3006	-58.5335
75.1215	-53.9278	-22.6588
76.977	-49.1707	-21.3126
74.7028	-54.6517	-16.1948
72.9597	-59.7877	-24.1296
75.7048	-51.8035	-29.1176
85.8567	-9.56662	-61.6238
80.6831	-24.2222	-8.31164
80.0251	-28.5273	-7.50225
81.3073	-19.7959	-9.36603
79.5899	-23.7424	-3.72622
77.9529	9.30709	8.14051
77.4177	17.0418	4.90921
77.6698	1.94729	11.3466
80.0825	5.51533	0.00334983
57.0543	26.4917	31.5215
55.8259	28.1283	32.3915
55.4162	24.6941	34.797
54.7027	29.6881	33.3716
53.2526	28.6553	35.4576
78.2049	-22.2029	2.61998
76.6885	-20.2791	9.29906
77.6557	-27.1799	3.55102
79.0016	-17.0699	1.01901
26.2869	16.6022	59.3594
29.9648	14.4982	58.4966
25.6074	19.5864	57.3621
23.3093	18.5229	60.7032
35.3024	11.0781	57.8726
41.6358	8.1359	56.4395
36.0337	6.63478	60.104
19.9466	21.2522	62.9226
16.4674	24.3974	65.1769
20.0631	18.9443	65.486
22.8737	13.6188	65.9815
21.5515	15.5103	66.9141
17.509	13.017	75.9169
15.6273	14.5444	77.7256
17.2622	10.9288	76.1871
18.6436	11.7785	74.6933
19.3974	10.7531	73.5487
18.7058	8.47756	74.0265
38.269	-9.7556	65.2352
34.1257	-7.86202	67.274
38.9201	-15.2792	66.612
37.5299	-4.29504	63.7538
36.5854	1.53845	62.1256
4.32061	3.64724	79.4789
5.1871	0.972923	80.6173
6.22007	2.60943	79.304
56.8673	-32.1238	47.0128
57.9559	-25.729	46.1444
51.8028	-28.5754	53.5141
55.6262	-38.9346	48.3395
30.1095	-15.5659	74.7639
27.8849	-13.784	75.8511
32.195	-16.8782	73.6981
39.4598	-20.5436	67.9213
39.4797	-25.73	68.9278
43.1655	-22.6335	64.3145
36.4723	-19.1692	70.6599
6.53945	-2.19692	82.2205
54.3863	-46.2556	49.8741
58.8368	-50.2054	43.6172
49.8033	-40.7326	56.2804
51.8394	-52.2314	52.9461
61.2606	-8.95576	44.6503
60.0502	-14.2821	45.1343
65.9941	-11.45	37.8229
29.1513	-71.3879	78.3249
30.0711	-67.7939	79.8956
24.6828	-71.0566	84.8108
39.5339	-62.7036	67.0367
43.8796	-60.2744	61.9177
38.1274	-56.6439	69.4241
34.8387	-63.6918	73.4815
60.421	12.3058	40.9449
58.0711	16.3981	39.8016
53.8503	13.2851	45.9854
50.7444	27.6122	39.2219
51.4709	25.578	39.0959
49.9823	29.5215	39.5329
56.0105	19.2861	39.1558
50.3942	19.3262	43.7839
53.9526	21.619	39.1347
49.3904	31.0646	39.7179
2.83307	-62.476	100.562
-1.82095	-62.6707	100.805
45.7903	-36.2892	61.822
44.3604	-40.8867	63.6068
46.5541	-30.9457	60.4915
41.9081	-32.6375	66.5203
36.4733	-50.8895	71.2779
39.5007	-48.1903	68.2973
34.2911	-45.2708	72.8901
32.6506	-52.251	75.3773
46.1322	14.2356	49.6865
47.758	10.3599	51.5985
44.4181	17.5135	48.1181
47.3747	-25.4139	59.2259
49.1803	6.2034	53.1315
11.4673	-52.1828	95.8026
11.0843	-46.7362	91.7983
15.8335	-52.4173	93.232
20.3523	-52.9145	89.5885
24.5503	-53.0311	85.2503
19.3212	-47.8941	86.8492
43.1452	20.0066	47.1856
42.127	21.8563	46.8832
36.2996	21.1027	49.4662
52.5896	23.6208	39.0412
47.9284	23.2724	43.2339
41.4132	23.4649	46.6777
34.5643	24.5372	48.6271
13.1446	27.5827	67.4554
13.1951	25.2533	70.8037
13.071	30.0372	63.7754
12.779	20.8382	77.5189
12.7641	21.8713	76.1336
9.72238	22.8298	80.1727
13.0295	19.9394	78.2539
12.91	35.6171	54.2214
13.0739	34.1157	56.5602
25.0851	22.2838	54.8932
3.01637	40.6602	62.3246
0.977476	41.0013	62.3575
66.3718	18.8734	26.1885
13.1354	32.1182	59.9521
63.5774	-52.3453	36.8134
68.4593	-52.5798	28.9344
71.5125	-1.42955	28.5967
70.8412	-8.19319	29.6834
74.2669	-2.94322	21.382
67.9108	-25.6248	32.5455
68.8256	-19.9639	31.6216
63.8979	-22.989	39.0466
70.8942	-27.8195	26.1749
69.9652	-14.1699	30.5674
72.5192	-16.3617	23.6999
20.392	-70.936	89.7585
11.0814	-42.0535	88.8058
7.25447	-41.8082	90.0558
15.0462	-42.404	87.0053
18.8	-43.294	85.034
28.36	32.8236	47.0881
28.3859	32.2936	47.4716
31.0009	23.5124	50.085
30.2706	25.3002	49.1272
29.6503	26.7665	48.6081
3.75275	-41.583	90.5524
0.466637	-41.5944	90.9748
7.08777	50.284	50.5334
8.43804	48.9383	50.06
7.7291	52.4928	50.2293
5.39828	51.243	50.9348
6.85994	47.6998	51.2737
19.2368	35.4936	44.9311
18.6867	36.8079	44.6885
16.7152	36.249	46.3532
9.52407	47.346	49.6157
10.4999	49.7789	49.0156
3.50493	52.0575	51.0461
1.33821	52.372	51.0467
3.9749	11.3599	80.97
4.61003	12.2779	81.7812
6.57323	21.6141	84.0367
6.47906	23.0716	83.2292
9.93157	20.4947	81.6204
17.3247	3.99247	73.1859
17.1462	5.33057	73.9053
14.6388	3.21506	74.8758
6.17186	24.4837	82.4439
7.36661	44.5927	52.2386
8.75618	55.0217	50.209
10.414	53.8112	49.682
18.9479	38.3829	44.2508
11.8255	52.4276	48.9393
12.8356	50.7854	48.2796
13.5676	49.1449	47.5408
20.7674	-3.54245	74.0921
17.5414	-2.97902	75.9963
23.1838	-7.43719	75.675
25.4531	-11.9276	77.1824
22.2433	-9.69263	78.7536
26.4596	-30.6204	71.8546
26.3516	-29.3743	71.2902
24.6129	-29.7322	73.2727
27.5646	-28.1037	75.0464
25.97	-25.3293	77.6921
26.2941	-26.2044	70.2866
23.2599	-24.5577	72.5449
25.9838	-22.1548	69.096
14.6832	-2.11408	77.5321
11.8969	-0.88776	78.6632
16.6334	-4.86873	78.949
18.8582	-8.07829	80.2982
20.5232	-11.2598	81.4051
22.1469	-27.9168	75.1425
20.9107	-25.8742	75.1926
20.4307	-22.6837	74.4751
20.086	-18.7957	73.2699
8.96857	0.846012	79.1474
8.0128	3.16575	77.9954
14.7708	-10.7763	84.8438
18.2582	-12.3708	83.5806
19.3965	17.6961	68.382
16.3579	20.3328	71.2293
0.286791	29.8253	80.111
-2.23625	30.0181	80.0824
12.9338	23.3767	73.9588
5.49968	13.8822	82.9934
8.23559	13.2247	81.1146
11.4332	12.0505	79.386
12.4391	14.0149	79.8861
14.6654	10.387	77.7869
16.4015	8.99104	76.5474
17.0375	7.6497	75.5126
17.1795	6.45894	74.66
13.0874	19.0745	79.0252
13.0531	17.8277	79.7105
12.9301	16.035	80.0713
39.2777	-143.354	12.5821
34.682	-144.685	15.7058
40.7561	-149.511	12.1634
43.476	-141.896	9.43889
37.501	-135.317	13.2543
35.3864	-123.59	14.2384
39.6092	-122.188	10.8164
33.4968	-111.344	15.3269
30.982	-124.883	17.6951
34.3118	-88.2237	23.3985
38.7603	-88.0286	17.8986
29.5688	-88.3646	28.3966
32.2307	-93.9806	18.5664
32.4586	-101.536	16.5449
27.9604	-102.421	20.6284
36.7348	-100.512	12.6538
42.4318	-45.1448	65.5038
45.44	-50.6218	61.4576
39.1949	-40.0765	68.9337
48.6687	-57.0854	56.3862
50.2777	-63.3183	52.6834
50.7147	-68.6831	49.2769
36.8978	-36.911	70.5481
38.068	-33.9641	69.9921
35.0824	-34.66	71.0857
34.7481	-39.136	71.6962
33.5877	-33.4235	71.4009
32.3773	-35.0413	71.7023
43.3252	-87.7373	13.0634
47.036	-84.2739	16.6744
41.4141	-92.5247	10.1885
48.1178	-87.1661	8.24017
51.3934	-80.6491	21.3783
55.1609	-80.3953	14.6225
55.8139	-77.2554	25.7311
58.9019	-73.2869	29.343
62.342	-73.1053	21.5801
43.6814	-120.584	7.32239
45.5878	-132.414	6.73709
47.7257	-119.367	3.74557
42.0071	-108.688	8.04187
47.2831	-140.483	6.17831
48.9443	-146.7	5.76544
50.8863	-139.067	2.68248
41.1003	-99.4017	8.82761
74.5402	-18.4003	16.5352
73.8711	-24.1401	17.9733
75.4935	-12.1856	15.051
64.6375	-72.7071	14.2379
61.2257	-76.0003	11.4208
65.4512	-71.4586	7.29492
76.3344	25.3373	2.37013
79.8872	20.2084	-7.52325
71.9329	-52.9044	21.0972
74.4905	-53.1708	12.8505
73.4926	-29.6389	19.4732
75.7066	-30.949	11.9708
76.6184	-4.97143	13.6856
78.6115	-8.26358	6.06428
77.2073	-32.2409	4.5967
78.4124	-32.8893	-2.21035
59.0368	-86.3919	-6.09453
58.4443	-91.4794	-6.92805
61.5739	-86.5472	-10.6037
60.0816	-81.9522	-4.88057
56.1133	-86.4521	-1.5326
58.0893	-97.312	-7.37362
61.6498	-77.7988	-2.97604
59.8228	-78.311	2.44868
63.4748	-77.759	-8.46922
63.6767	-74.072	-1.16145
81.5622	1.96587	-8.1078
81.9912	8.85458	-12.6449
80.9128	-5.08038	-3.67774
82.5342	15.9595	-17.5892
82.9686	22.6711	-22.0462
83.4242	29.2822	-27.2033
85.0544	25.2939	-37.602
83.718	35.6672	-32.8598
74.6592	-53.0572	4.68599
74.4715	-53.4613	-3.31863
79.9611	-11.2658	-0.744128
81.0542	-13.8408	-6.64986
51.8091	-118.06	-0.190655
53.1256	-129.668	-0.699319
57.7189	-79.2761	8.47088
54.6661	-82.7533	5.56935
54.3603	-137.53	-1.30059
55.6531	-143.386	-2.13456
62.9644	-113.95	-16.8931
63.2675	-123.516	-18.1169
63.9128	-86.6366	-15.101
65.6538	-85.6563	-20.2513
64.6035	-82.1001	-14.5772
65.5888	-77.59	-13.7996
63.3819	-130.472	-19.4817
63.4184	-136.039	-21.0386
74.4044	-54.5373	-10.3703
79.395	-32.8121	-6.9673
80.4595	-31.9537	-10.6775
78.8279	-36.9533	-7.24195
81.8564	-15.1899	-10.6598
64.5423	-93.9547	-27.9896
63.2911	-90.7736	-35.0254
65.2107	-87.8342	-27.1444
66.379	-82.1449	-26.6331
66.2028	-77.1064	-33.2896
70.8659	-66.0074	-24.9896
78.2282	-46.3335	-20.7479
79.0659	-44.8226	-27.7269
58.7023	-119.554	-45.6414
58.5628	-126.758	-47.3207
55.3462	-117.064	-52.5826
58.9032	-112.014	-44.1943
76.4707	-47.7481	-34.8644
78.5891	-43.6516	-34.1689
80.2423	-41.6158	-33.9041
29.915	-145.793	18.5837
28.3737	-137.731	19.6655
25.1442	-146.902	21.2621
31.2832	-151.994	17.7585
22.9684	-103.119	24.9979
18.142	-104.05	29.0045
24.2427	-113.532	23.1412
22.8114	-94.7072	27.9359
30.3258	-81.1258	46.8856
27.2989	-83.9737	40.3202
33.1167	-79.4799	52.4111
24.5642	-88.4197	33.7929
20.0567	-88.7232	38.5378
26.2588	-125.809	21.3473
21.5138	-127.17	24.7562
32.616	-41.3398	73.3561
31.4859	-38.2818	73.1296
35.5287	-77.8665	56.7983
30.7164	-36.4758	72.8601
28.3395	-37.3844	74.8977
30.0033	-35.1126	72.6787
29.4072	-33.8468	72.6619
29.0411	-32.7897	72.5996
27.5901	-34.6274	74.3497
28.7392	-53.2184	80.1526
29.782	-58.1671	80.6785
30.3943	-63.539	80.4296
23.4197	-28.917	77.1458
20.1851	-26.8264	80.1294
23.2259	-28.6921	75.628
26.1576	-30.825	73.2885
23.1392	-29.1172	75.0458
19.812	-26.1211	78.3157
22.9014	-29.7693	74.5925
22.6581	-31.3981	74.3495
19.3765	-27.2906	76.8226
22.0665	-34.3255	74.9477
21.2844	-37.6318	76.271
18.6403	-32.1101	76.7269
13.5625	-104.883	32.2734
13.5302	-95.9978	35.4379
14.9638	-115.796	30.352
20.2814	-148.055	23.6331
18.8648	-140.035	25.2103
15.4868	-148.956	25.6925
21.2228	-154.048	22.543
16.8851	-128.381	27.7828
7.56284	-90.8388	45.7581
10.7601	-90.4047	44.4178
8.56229	-85.5975	56.0666
11.2325	-149.596	27.1525
11.9131	-155.423	25.8965
9.68696	-81.4911	66.7811
16.4455	-24.0002	80.7903
16.1849	-24.4468	79.8415
15.8285	-25.2939	78.8649
15.7778	-27.2667	77.9958
15.4209	-30.4239	78.1677
14.9445	-34.0731	79.1581
78.388	50.4044	-17.7142
81.9103	45.8999	-28.3439
78.696	56.1536	-24.8012
73.6897	55.3678	-7.62619
85.3712	21.2724	-47.1609
78.5193	-29.9728	-62.8448
75.7688	-32.6406	-66.9413
52.8652	-98.8176	-55.0864
53.7428	-89.9124	-54.1832
55.6346	-101.012	-49.6367
52.4928	-107.493	-56.3547
50.0473	-97.3759	-60.0789
52.3964	-115.108	-57.8101
52.5172	-122.62	-59.4468
49.2599	-113.722	-62.521
60.618	-86.5042	-42.3052
59.6472	-95.2868	-42.4522
57.6833	-83.2424	-48.6181
62.4605	-78.5634	-41.6879
22.5203	114.627	-26.9554
29.81	111.566	-26.3807
23.197	115.478	-43.4544
14.8566	116.81	-27.2953
24.9908	77.1085	-125.367
25.3553	90.1255	-111.562
32.7138	75.5963	-122.958
24.4795	62.6532	-136.044
16.9145	78.0527	-126.999
24.0829	48.1168	-142.213
31.5215	47.0382	-139.809
23.7953	33.5013	-145.241
16.5085	48.4114	-143.771
25.0871	100.634	-95.8306
32.8576	98.5649	-93.5763
16.9938	102.116	-97.2904
24.5909	108.493	-78.6599
7.73133	116.586	-62.5475
-0.708964	116.983	-62.753
7.14072	118.932	-44.6489
15.9698	115.465	-61.945
8.23642	111.226	-80.5812
23.548	20.0823	-146.184
30.3906	19.2872	-143.754
23.1855	6.89715	-145.375
16.5686	20.4826	-147.771
22.6294	-6.26314	-143.112
29.2872	-6.63021	-140.642
22.0489	-18.5464	-139.409
15.9135	-5.74911	-144.855
19.2697	-47.9784	-117.679
25.4245	-48.2124	-115.467
18.586	-56.0738	-107.245
13.3834	-48.0176	-118.652
20.4805	-39.15	-127.173
8.22753	-29.1067	-137.45
1.39683	-29.1038	-137.794
8.48278	-18.0848	-142.203
14.8652	-29.2211	-136.245
7.77423	-38.968	-130.22
15.5771	-93.9916	-83.372
16.1049	-86.4976	-84.5321
20.9449	-94.4073	-81.9264
15.1598	-101.043	-83.1525
10.358	-93.7151	-84.0154
4.92279	-107.319	-83.3354
9.89057	-107.654	-83.2924
4.95057	-114.581	-83.4233
0.151881	-107.148	-83.2865
5.13879	-100.209	-83.3857
18.4564	-62.7081	-98.698
23.9814	-63.1665	-97.2881
17.8326	-69.2866	-92.262
12.5645	-62.1193	-99.4132
16.8617	-77.6987	-87.5607
22.5547	-78.3853	-85.6213
11.4507	-77.0626	-88.5093
6.06612	-76.5354	-88.2893
6.50238	-68.1066	-93.0537
5.59052	-85.6475	-85.0305
0.646014	-76.4698	-87.795
49.5227	98.618	-26.1642
55.708	92.9213	-26.0708
51.1202	98.8595	-40.8006
43.1976	103.484	-25.971
51.5079	42.9075	-127.439
57.2259	41.0765	-122.359
51.1081	29.598	-130.728
45.4099	44.4151	-132.071
51.8555	56.0289	-121.239
51.8478	68.5819	-111.515
45.8646	71.2377	-115.71
52.2016	79.337	-99.1838
57.7364	65.3075	-106.842
52.7429	87.7069	-85.6484
58.9415	82.6902	-82.5079
46.505	91.8718	-88.4216
53.276	93.3834	-71.1947
52.4208	97.232	-56.114
45.9	102.266	-57.2637
58.6802	91.5294	-54.7576
50.4275	16.9628	-132.083
49.6712	4.60624	-131.65
44.2764	17.7451	-136.5
56.0734	15.9908	-127.226
48.7153	-7.36567	-129.858
54.362	-7.62943	-125.199
47.6975	-18.7872	-126.346
42.6939	-7.24268	-133.825
46.2193	-29.0359	-121.315
44.6398	-38.7885	-114.107
40.5467	-29.4987	-124.898
51.3435	-28.7204	-116.87
43.3779	-47.7569	-104.733
48.425	-46.7204	-100.945
42.312	-55.6345	-95.5877
37.7326	-48.0404	-108.774
41.2767	-63.0739	-87.8009
40.1019	-70.9955	-81.1271
35.758	-63.5465	-91.4286
46.1625	-62.4999	-83.589
37.0781	-95.0184	-74.1047
36.2159	-102.768	-75.5962
31.7643	-95.0054	-77.3283
37.9227	-87.1229	-73.8186
41.9338	-95.4029	-70.2229
25.1021	-108.688	-80.9415
24.8212	-115.354	-81.0822
19.9054	-108.225	-82.2184
25.6669	-101.934	-80.6015
30.4281	-109.289	-79.0065
38.9193	-79.1514	-76.2896
43.7782	-78.7741	-71.91
33.8229	-79.1073	-79.91
41.7081	42.0471	43.8154
41.7666	42.6903	42.7127
72.3427	53.133	-89.2765
73.1394	60.047	-78.8498
76.3332	48.2104	-81.7694
71.8603	44.3315	-98.1724
67.9653	57.465	-96.0297
74.1409	65.4606	-68.2105
78.0321	59.3473	-61.1257
69.6219	71.4136	-74.1487
74.5569	69.5905	-57.2165
73.2131	73.1977	-46.4279
76.1209	67.3284	-39.8001
69.2031	79.3025	-50.4305
61.0787	15.0531	-122.215
61.8354	26.8494	-120.532
65.6437	13.8351	-116.818
60.2955	3.38146	-121.944
62.336	39.1918	-117.092
62.8139	50.8956	-111.023
67.0931	36.8039	-111.195
55.9927	-28.0403	-111.412
58.0765	-18.2988	-116.346
60.3218	-27.3575	-105.443
53.9533	-37.1375	-104.816
59.331	-7.93807	-119.959
63.8739	-7.90489	-114.457
52.6729	-45.3036	-96.7541
56.6172	-44.0603	-91.5043
51.8218	-53.4055	-87.3845
50.4609	-61.1051	-79.4744
54.2395	-58.812	-75.7666
48.4325	-78.3934	-66.2956
52.4251	-79.7094	-59.7773
47.3703	-87.3652	-64.8202
82.3365	20.5933	-76.1085
81.5617	12.9899	-81.817
80.3957	24.1479	-83.1174
61.0625	86.7392	-25.2644
62.7326	87.1583	-39.3034
83.7004	41.7406	-39.0401
82.9495	47.6686	-46.0886
71.4238	-24.6514	-89.8705
68.14	-25.8435	-94.8308
73.3781	-16.9249	-94.1378
74.3941	-23.7045	-84.4022
69.0732	-32.1401	-84.1608
74.3243	-8.61241	-97.6566
71.318	-8.39547	-103.562
75.1383	-0.0494184	-98.9693
77.0857	-8.9506	-91.0789
76.0366	9.20041	-98.5112
73.0794	10.9005	-105.081
77.0577	18.4185	-95.5695
78.6006	7.22278	-91.5721
62.0588	-51.3286	-66.2422
59.4414	-53.994	-69.2324
64.2814	-45.273	-71.9735
64.8562	-48.7858	-63.0885
60.1404	-57.9124	-60.8977
72.7031	-34.8288	-70.8283
70.3772	-40.4785	-65.515
69.7003	-36.8505	-74.2477
75.0187	-28.9936	-75.3564
55.2729	-81.23	-54.0391
57.0007	-72.8318	-55.0104
80.7727	-37.3945	-14.887
81.3365	-33.3323	-14.0269
79.2094	-39.8455	-11.7926
81.3792	-31.2475	-13.1151
84.7092	-6.71251	-22.2965
85.5907	-2.36651	-25.8099
98.6933	-6.07329	-59.6913
98.8493	0.216999	-59.1139
99.407	-6.29855	-58.6201
87.9258	-41.4015	-35.1878
86.7657	-43.7017	-30.8203
98.4578	5.83716	-56.9404
97.2246	6.18652	-57.8803
97.7786	10.1969	-53.5905
99.4063	5.18996	-55.9313
90.82	7.17354	-34.2546
89.4699	6.98431	-35.1911
96.8965	13.0014	-49.5073
98.0076	12.2145	-48.4789
93.2721	-27.1426	-49.9922
90.1261	-40.0758	-26.8951
89.3012	-39.1122	-24.17
88.4749	-42.8753	-26.7198
86.4306	-0.178029	-27.877
91.7363	12.7534	-44.2912
90.1133	10.239	-40.7967
90.7	11.1202	-45.8125
88.2215	6.55385	-36.7676
87.2515	6.15955	-38.7002
95.8688	6.17238	-58.4712
86.7707	5.63542	-39.8551
87.9554	6.85934	-42.9533
89.4914	7.67773	-46.9736
88.0811	4.55839	-47.0954
92.858	-33.4205	-40.2037
93.1388	-33.0378	-32.1809
86.1826	-44.2693	-26.9773
88.1931	-37.4608	-22.3306
89.0783	-34.43	-23.5269
90.2193	-32.2692	-25.0622
90.9646	-30.8478	-26.4536
99.4778	-6.47183	-57.7945
99.9751	-0.556178	-57.2521
96.2571	11.7744	-39.8139
96.5998	10.7632	-39.5013
97.7711	12.435	-43.5433
96.362	9.95948	-39.4395
97.5986	10.7289	-42.9043
95.7565	8.95652	-39.4783
99.7592	4.60003	-55.1578
99.2085	8.55588	-51.8841
99.6579	4.01325	-54.656
98.6426	11.3143	-47.707
98.7673	10.4117	-47.3209
98.2726	9.90424	-46.9616
98.7028	7.50276	-51.1712
99.1916	3.80197	-54.374
97.8458	-10.2084	-55.7548
95.2341	7.61817	-39.7526
92.6466	1.35372	-35.4545
97.6873	4.88495	-47.8383
98.4669	-11.8923	-49.6813
98.3852	-9.99161	-49.9346
98.1868	-8.07489	-49.921
97.8478	-6.43292	-49.4822
97.3946	-4.94871	-48.6367
96.4457	-3.48231	-46.4176
88.4326	-26.7599	-25.7775
89.6861	-28.7587	-26.8039
91.1868	-4.34771	-30.7685
87.6688	-18.7563	-26.4224
90.8474	-30.1996	-27.3589
35.68	47.2743	45.8668
33.5828	101.759	1.36366
35.2955	105.393	-11.4293
5.49057	110.236	1.457
6.05309	114.98	-12.1712
-2.99318	110.89	1.16427
36.579	107.912	-26.2352
37.7867	108.488	-41.9594
6.578	118.136	-27.6028
-1.92512	118.665	-27.9252
23.8242	113.476	-60.9819
31.5657	110.559	-59.7723
38.8221	106.816	-58.6424
39.6907	102.569	-75.0843
68.3309	60.7474	1.48796
77.9791	61.6412	-32.4
80.466	57.5372	-42.9797
64.1669	85.6535	-53.2676
65.1137	82.0929	-66.2984
8.63747	103.041	-98.0239
8.89855	92.1372	-114.007
0.226023	103.401	-98.187
39.7751	95.773	-90.9075
39.7865	85.8663	-106.159
81.0191	53.4697	-53.6101
80.4553	48.9263	-64.0508
64.3925	77.3956	-78.9271
63.5262	70.5878	-90.6579
79.5982	43.3372	-74.105
78.6727	36.2365	-83.1762
77.8415	27.9383	-90.4122
74.8215	31.1426	-97.6458
46.3952	-96.4297	-65.2712
45.575	-104.597	-66.702
45.3062	-112.159	-67.7984
45.2263	-119.435	-68.8662
40.665	-110.763	-72.7744
8.86241	78.6917	-127.621
8.82829	63.5436	-138.233
0.898819	78.7326	-127.85
8.9526	48.5336	-144.388
9.09963	34.1125	-147.377
1.32777	48.5668	-144.414
9.20592	20.7352	-148.495
9.09795	7.81392	-147.913
1.51006	20.9082	-148.585
8.7872	-5.31784	-145.786
1.53342	-5.29831	-145.955
21.3775	-29.3646	-134.287
27.825	-29.5936	-131.608
7.15141	-47.9372	-119.336
6.89567	-55.8356	-107.718
1.15883	-48.0013	-119.337
6.73803	-61.885	-99.2511
0.906965	-61.8499	-98.9221
5.3578	-93.2406	-83.6823
0.354171	-92.9818	-83.2538
38.6176	45.8082	-136.354
39.1799	59.937	-130.106
38.0714	31.7852	-139.435
39.4561	73.5218	-119.82
37.416	18.5682	-140.481
36.766	5.71867	-139.725
36.0384	-6.87706	-137.539
35.3064	-18.9413	-133.722
34.3102	-29.6182	-128.425
33.0881	-39.3094	-121.382
31.6517	-48.1874	-112.467
30.4578	-56.2826	-103.057
29.8995	-63.4649	-94.7694
29.3189	-70.7213	-87.9305
28.2232	-78.7814	-83.1127
27.2109	-87.1003	-80.2951
26.4801	-94.6827	-79.8685
35.7411	-109.89	-76.3384
35.267	-116.736	-76.9108
62.957	61.8127	-101.796
71.2125	34.4877	-104.575
70.4823	23.2924	-108.922
69.572	12.6525	-111.255
68.7125	1.99948	-111.242
67.7662	-8.03889	-109.217
66.5402	-17.6992	-105.188
64.3334	-26.7724	-99.9975
62.0503	-34.9258	-93.8568
60.1432	-42.3619	-87.1522
63.49	-40.8657	-82.3541
58.5745	-49.7337	-79.389
57.0011	-56.4202	-72.5655
58.7596	-65.25	-56.7051
61.1868	-63.3904	-53.7566
80.6062	5.70383	-85.2745
79.8445	-1.85398	-86.0238
82.464	3.80406	-78.298
76.8941	-22.6883	-79.6391
78.4345	-15.949	-82.7962
66.5833	-38.9391	-78.2572
79.221	-8.88218	-85.2867
67.8954	-46.1778	-60.2062
65.8948	-52.2326	-55.3318
15.3033	-89.2828	42.5214
66.0976	-70.3527	0.595353
52.4247	-86.6324	3.46454
17.2125	-16.5863	85.6035
20.7161	-18.6337	83.446
23.8473	-21.4133	80.8056
10.8772	-24.6709	87.0571
11.2543	-25.7835	87.299
11.5467	-26.9446	87.4999
25.1089	-37.4901	77.8927
24.7729	-35.8344	77.7005
24.4536	-34.0765	77.6777
22.0394	-14.6587	81.8253
39.1278	-30.2765	69.5002
30.9012	-6.2732	68.5918
32.585	-12.2672	70.7944
34.0756	-17.9081	72.4303
59.1052	-19.781	45.3678
20.8386	43.865	44.8212
84.1692	2.06968	-71.0115
85.7954	5.80955	-51.9994
86.0883	3.96627	-49.1126
77.9248	-41.869	-7.64053
28.3449	31.4959	47.8949
53.0238	57.8888	32.4607
52.9732	34.367	35.0844
7.7638	4.66936	77.3976
50.5214	37.0641	37.6014
11.8363	4.60915	76.1139
86.937	3.40941	-47.7654
59.0758	-103.868	-43.2466
65.2457	-70.661	-40.7626
64.3672	-65.1664	-46.6336
64.1777	-60.0107	-51.0477
23.5977	4.79868	66.6987
29.8296	-30.3798	72.4119
16.8613	-24.9962	82.7631
27.7567	-31.5407	72.2513
9.43206	-21.1233	84.1143
-74.945	-42.7796	5.69953
-75.3273	-37.3288	5.65528
-75.5153	-42.6492	-1.53514
-74.3046	-47.9725	5.49197
-73.972	-42.1948	13.9253
-58.086	-115.485	-8.19343
-57.4205	-104.257	-7.60035
-60.56	-114.363	-12.49
-59.0787	-126.34	-9.13396
-55.052	-116.363	-4.09721
-59.8747	-133.853	-10.2282
-57.3149	-135.662	-5.67302
-61.8083	-132.067	-14.8311
-60.5551	-139.67	-11.4525
-49.3273	-96.2808	1.48394
-53.8566	-96.3047	-2.90139
-49.9925	-105.242	0.70076
-44.5851	-96.5647	5.51696
-49.9667	-89.7895	2.44339
-62.1965	-96.3345	-15.312
-59.9356	-96.3051	-11.1732
-62.4911	-90.8505	-15.0628
-63.5588	-95.6769	-20.5573
-62.1702	-103.547	-15.8618
-69.3796	-63.1942	18.4851
-70.0798	-62.6014	11.0274
-67.2739	-67.8326	16.5901
-66.8495	-63.6638	26.1068
-70.6991	-58.2698	20.148
-74.5671	39.6209	-3.26367
-78.4314	34.7105	-14.2838
-73.7584	33.1771	1.41028
-70.2126	45.6195	6.62908
-75.8763	45.8908	-9.48279
-81.4871	34.0932	-57.8759
-82.495	28.3474	-51.2015
-82.0285	38.8776	-47.8087
-79.7951	39.4324	-64.7754
-80.5941	28.3474	-66.6482
-7.13506	-105.431	36.0286
-7.10232	-96.4827	38.5517
-9.90359	-104.508	34.6633
-8.11266	-116.962	34.6603
-4.78763	-105.869	36.8628
-9.27248	-130.178	31.7332
-10.2752	-141.674	28.8508
-6.07663	-130.481	32.8757
-12.7341	-129.099	30.1883
-3.54761	-150.392	28.9038
-3.79269	-156.078	27.6155
-3.28341	-142.425	30.6435
-7.20649	-149.987	28.1852
-69.5476	-58.027	-36.5103
-70.001	-51.3255	-41.8086
-66.6507	-63.9454	-37.9563
-69.4278	-63.2628	-30.5555
-72.3787	-52.0174	-35.3177
-70.5522	-46.4971	-45.8243
-73.8724	-41.6927	-43.9618
-71.4631	-42.4287	-49.3684
-66.7781	-52.4028	-47.8822
-62.9849	-125.013	-31.3257
-63.6115	-128.162	-24.7884
-61.3136	-122.187	-38.1054
-62.9894	-131.874	-32.5984
-3.07484	-130.935	33.6351
-2.79847	-117.962	36.4751
-71.7558	-42.3031	21.9389
-71.5935	-48.4482	22.071
-69.0109	-41.7857	28.8823
-71.9165	-35.9001	20.938
-69.8492	-61.8218	3.54311
-71.8475	-57.3939	4.36832
-69.5592	-62.1786	-4.24901
-67.5102	-65.9268	2.33349
-16.381	-62.5918	98.8271
-15.4678	-57.3405	98.3794
-20.7277	-63.2891	96.3022
-16.6671	-67.5172	97.6374
-11.6503	-62.5207	100.164
-24.8918	-63.3139	92.9288
-24.1465	-57.8989	92.2805
-29.1622	-63.8371	88.427
-24.6075	-68.6548	92.2167
-5.42366	-51.7265	98.4456
-6.37347	-57.1275	100.415
-3.95701	-46.4217	94.8787
-9.55582	-51.6913	97.5787
-16.512	-71.6452	95.0402
-12.2672	-71.1572	96.2856
-20.2861	-72.4424	92.9807
-15.8207	-75.0781	90.5177
-14.3493	-77.3008	83.9265
-13.2598	-79.3664	76.417
-10.1114	-77.1805	84.9769
-16.2073	26.3082	57.2164
-13.398	29.0573	58.4538
-15.3642	28.9824	54.4012
-19.1171	24.2442	55.576
-17.0862	23.8843	59.4761
-46.8243	-4.5432	56.6257
-47.2689	-9.70034	57.02
-41.1478	-1.89841	59.553
-46.3726	0.735103	55.6841
-52.831	-7.0666	51.9223
-59.1428	1.85909	44.7404
-59.1095	-4.00975	45.2987
-52.6168	3.88482	50.3598
-58.4463	7.69193	43.9527
-64.8557	0.34292	37.4649
-69.998	15.3009	21.3797
-66.9996	18.1483	24.5968
-68.9449	22.622	18.8287
-72.537	13.0079	17.2245
-47.3828	-15.0164	57.3951
-41.9246	-12.4588	61.6882
-52.8609	-17.8678	51.9012
-47.2955	-20.6992	58.1491
-2.55726	34.9876	71.6107
-4.71741	34.1313	71.0685
-3.77282	32.3545	75.9458
-1.48949	37.6984	67.1418
-33.4497	85.054	28.1775
-34.8541	89.9158	23.3481
-38.6006	83.0254	26.2821
-32.1527	79.6748	32.571
-28.6529	86.3502	29.6175
-4.15819	-81.7853	68.1531
-5.13632	-79.0293	77.4192
-7.35173	-81.7756	67.3851
-3.12375	-85.673	58.1673
-65.5257	-40.4071	35.211
-66.0156	-33.134	34.108
-64.7125	-48.0105	36.1446
-61.5465	-37.7338	40.9964
-7.53246	-71.112	96.8435
-6.98082	-74.6098	91.9963
-7.06646	-67.2685	99.5788
-6.0295	-77.1137	85.396
-41.7733	-73.1049	63.9414
-42.5071	-69.2862	66.4509
-46.7686	-72.0035	57.2705
-40.0931	-76.1107	61.1969
-37.3212	-73.2703	71.2467
-41.7613	-79.8008	35.9619
-36.446	-80.1822	41.9658
-46.2563	-78.0608	40.6258
-46.6817	-79.5347	29.6838
-36.9187	-81.7196	30.3155
-2.59105	-90.9335	47.13
-2.35061	-97.5263	39.6796
-5.2458	-90.7436	46.4269
-8.96265	27.3998	77.9871
-6.774	28.8344	79.3032
-8.1313	29.8913	74.2187
-11.3196	25.3849	75.9214
-9.38576	25.3647	80.575
-26.2813	8.6429	60.6419
-22.6589	12.2712	61.1922
-24.6623	13.5378	58.9932
-29.8521	5.00579	60.9656
-30.6167	-31.1343	72.2495
-31.4452	-31.6803	72.1477
-29.727	-31.834	72.5035
-29.6332	-30.4869	72.3549
-13.1729	6.01533	74.5076
-15.0581	5.11431	73.0154
-12.4341	5.21809	74.3117
-14.8364	6.82605	74.3011
-12.3173	1.45639	73.5393
-10.3787	2.73592	74.7496
-12.1314	2.68623	73.3263
-14.8404	0.495467	71.8288
-13.1057	-0.197586	74.1786
-3.18713	10.0755	80.5964
-4.67449	10.1336	79.5758
-3.17076	9.14268	79.7612
-3.39229	10.7891	81.4597
-17.4198	0.736825	69.7526
-18.198	-1.06663	70.4364
-16.9685	2.07729	69.8869
-19.6136	2.0495	67.398
-10.0026	17.491	83.6571
-10.0883	19.3609	83.7183
-12.0133	16.4688	81.5051
-9.49483	15.3299	83.2933
-7.9776	18.1412	85.5205
-27.7209	-44.1002	79.9675
-29.3496	-48.642	80.809
-23.8378	-43.9303	83.1368
-26.2294	-40.1076	79.5127
-30.858	-43.0626	76.8624
-29.7695	-23.8794	74.0929
-31.7292	-25.3171	73.1508
-27.5959	-22.1434	75.4524
-29.2048	-18.9251	74.6195
-3.37902	4.17022	79.4625
-3.27419	6.46838	79.1171
-5.0911	3.99251	78.9391
-3.27232	0.936038	80.4482
-7.21511	32.5744	69.9501
-6.23602	34.9289	65.8395
-9.88657	30.031	68.646
-19.4611	11.9228	68.3408
-19.7866	12.2921	66.8193
-19.5655	10.2656	68.1008
-18.8586	12.8691	70.1979
-18.5997	13.863	69.9622
-5.98547	7.40625	77.4994
-4.72824	7.91708	78.3392
-5.97785	8.71266	77.6629
-7.20561	6.0114	76.6699
-6.01578	5.60569	77.7873
-5.80983	9.42125	78.3285
-6.01311	10.4335	79.2538
-18.0847	14.2031	71.9457
-18.5141	12.2477	71.5332
-17.7437	15.1854	71.9328
-19.2649	7.57106	68.2978
-18.4234	5.34694	69.1228
-18.8136	8.98294	70.0828
-3.08218	-9.5798	86.5725
-2.97251	-6.65722	84.5043
-6.15514	-8.90852	86.0747
-3.34773	-11.3702	87.9267
-24.3819	-4.43773	68.9944
-22.7211	0.333752	66.3982
-26.4629	-5.20825	68.058
-26.2128	-9.30202	71.6294
-22.1586	-4.12965	70.325
-10.4705	-35.4138	87.1331
-14.5359	-35.634	86.0715
-10.7207	-38.0071	87.9306
-6.2235	-35.3524	87.9548
-10.2006	-33.4416	87.0399
-25.6361	-24.8258	76.6949
-25.5572	-23.1763	77.041
-27.6513	-27.6961	74.0595
-25.9105	-25.9058	76.0165
-17.4936	15.7596	71.644
-16.0692	17.6718	73.7787
-17.6174	16.1555	70.1332
-18.2697	-36.212	84.2611
-17.8529	-34.0798	84.2963
-21.708	-36.7047	81.8297
-18.786	-38.9301	84.623
-2.43929	-35.277	88.061
-2.08372	-33.1422	88.0059
-2.61478	-37.8412	88.6732
-60.7797	45.8362	28.0704
-61.7676	46.3788	26.2389
-62.5549	38.9142	25.3669
-59.7142	45.4757	29.7624
-42.1841	71.58	33.1063
-42.8085	75.5591	28.4931
-47.8757	68.6264	30.4047
-41.567	68.5653	36.9328
-36.6086	73.6072	35.4392
-54.0077	64.3924	26.664
-55.2211	68.5041	21.4955
-59.9394	59.2141	21.7066
-53.0043	61.8533	30.949
-41.6134	64.0544	41.1082
-41.4067	65.6693	39.9524
-42.0677	62.0755	42.0187
-37.2678	65.9413	42.6058
-63.2823	46.5825	23.1731
-66.3325	38.8	19.3033
-57.8299	54.853	29.0185
-64.409	48.5603	19.8774
-26.2436	59.2138	46.5368
-22.1116	58.0321	47.0569
-26.0833	61.2635	47.1225
-30.0924	59.2069	45.861
-26.2788	56.525	45.9286
-4.73057	41.4354	55.1235
-5.16462	39.7425	57.5536
-2.43289	43.6729	55.4323
-4.42599	42.9561	53.1466
-7.16815	38.5994	54.6506
-30.3161	18.4524	53.169
-24.9563	20.8217	53.8328
-28.9037	21.5816	51.5918
-36.6467	16.1521	51.8655
-31.8307	15.1518	54.6784
-58.3922	24.304	31.4484
-56.317	21.6756	35.9226
-55.8633	26.4249	32.6141
-58.9467	28.4497	28.4909
-60.8148	22.288	30.2186
-5.60884	37.5295	61.3673
-3.1433	39.5653	62.0145
-8.18561	34.8392	60.7279
-42.2955	59.9714	42.5115
-42.1892	57.8572	42.8213
-37.8847	61.7371	43.8591
-46.6895	58.4024	40.6815
-50.8287	56.4265	38.2257
-54.9975	51.3203	35.0843
-50.1553	54.5064	39.0549
-55.6923	34.0743	31.5266
-57.2741	33.7827	29.9634
-54.9903	30.7677	31.8841
-54.2721	34.2079	33.1722
-55.9431	38.1167	32.4885
-45.1877	40.3426	42.5711
-43.3481	41.7088	43.896
-45.6342	41.1229	42.2649
-46.7705	38.7235	40.8196
-44.7791	39.6574	42.5477
-41.2241	42.8882	44.8861
-38.7917	43.7745	45.7346
-41.3545	43.9357	44.5919
-41.0205	41.9875	44.9446
-41.4207	44.4652	44.4148
-43.8839	43.1747	43.3689
-38.8186	45.3904	45.2048
-35.9809	44.5123	46.162
-35.8162	45.577	45.7363
-36.1313	43.5795	46.2655
-32.914	44.8295	46.2647
-35.7114	46.0931	45.4927
-35.6297	46.4144	45.4951
-32.3352	46.4518	45.3601
-29.9699	44.914	46.0929
-29.394	45.8824	45.5254
-30.4934	44.0121	46.3559
-27.1964	44.1681	46.058
-24.3001	42.5984	45.7225
-21.627	40.8139	45.15
-23.1803	43.2851	45.127
-22.3976	43.5798	44.6548
-25.6118	45.3692	45.0188
-19.5728	41.5698	44.0825
-21.7789	43.7284	44.5046
-19.7713	39.3063	44.4044
-18.6095	39.6519	44.0427
-20.9718	43.9907	44.6766
-24.5424	45.923	45.2676
-19.9763	44.4401	44.7797
-35.4745	46.8889	45.7867
-31.9326	47.3226	45.535
-35.3568	47.448	46.1428
-50.2602	33.3995	36.4375
-50.5049	34.2219	36.3703
-51.0925	32.1606	35.8435
-49.3506	32.6836	37.5414
-48.5197	35.1321	36.9191
-47.9801	34.5249	37.7885
-49.0566	35.0765	36.1576
-48.2004	35.717	37.3565
-33.7905	58.4224	45.0838
-33.7585	55.8844	45.1548
-33.8362	60.7213	45.1436
-37.7575	56.9839	44.3302
-48.0695	47.4967	41.3485
-47.4893	44.4621	42.222
-45.4195	48.7472	43.2726
-48.7259	50.2008	40.5285
-38.7883	26.8849	47.1861
-32.0425	27.7608	49.1391
-38.526	28.3667	47.3467
-44.5963	27.0212	44.2419
-38.9468	25.3905	47.0346
-26.0961	29.9622	48.7669
-26.3095	31.1536	48.6355
-26.2217	28.6286	48.8227
-21.9777	31.4208	47.7891
-17.6223	34.4733	46.2975
-18.5065	34.8753	45.5806
-18.5128	33.6237	46.7381
-16.2275	34.397	47.2298
-16.6174	35.4125	45.8136
-38.3983	29.5615	47.3274
-32.1286	30.33	48.8879
-38.2647	30.5268	47.1792
-43.7385	30.0062	44.4942
-20.8831	34.3335	45.7764
-20.5409	33.5376	46.3432
-19.9315	34.8254	45.2777
-21.0003	35.0086	45.211
-22.58	33.6125	46.7766
-19.1057	35.1895	44.9681
-18.2334	35.7703	44.7149
-19.2498	35.5322	44.5259
-11.8514	44.7609	45.6352
-11.1973	47.6714	46.148
-14.3861	47.1715	45.175
-13.1126	41.838	45.0598
-15.9426	36.6393	45.2693
-16.9163	36.6685	44.762
-14.7734	36.8034	45.7786
-28.2131	47.1208	45.3932
-27.7967	47.6805	45.7319
-28.6752	46.6663	45.096
-14.358	40.6348	44.7178
-15.9831	42.6489	44.3544
-13.6807	38.8184	45.3953
-38.1468	31.1173	47.0296
-38.0405	31.2794	46.6176
-32.1524	31.8787	48.3056
-21.0907	35.456	44.8378
-22.9716	34.8909	45.8301
-20.2071	35.6579	44.4132
-21.1945	35.5434	44.1873
-37.9819	30.9639	45.6116
-38.0026	30.4597	44.2764
-43.0752	31.7005	43.3233
-46.3966	33.2803	40.1664
-46.7624	33.0458	39.034
-21.3881	35.0637	42.988
-21.334	34.5821	41.7123
-19.4367	35.7851	44.2147
-47.9802	37.0462	39.0572
-48.4286	37.348	38.9051
-47.3948	36.8706	39.1174
-2.28933	57.7238	50.4563
-3.43206	60.4634	50.2782
-4.99216	57.6337	50.2797
-1.33679	54.7931	50.5233
-19.7876	27.4702	51.1466
-22.9948	26.01	50.7146
-20.5773	25.3838	52.6287
-17.4258	28.974	51.7325
-19.3303	29.0101	49.9171
-14.8879	30.8069	52.5314
-11.9813	33.0295	53.4536
-13.9479	34.6343	48.6796
-13.9167	35.8628	47.2923
-11.6676	35.7375	49.6995
-7.54997	44.8401	48.1008
-6.97671	46.2077	48.5006
-8.76247	47.0688	47.2076
-19.6541	32.5062	47.231
-19.1484	31.5438	47.9893
-19.1706	30.4204	48.8062
-22.0053	28.9382	48.9428
-21.7164	-27.8472	76.2286
-18.4028	-25.5926	78.539
-24.8176	-29.6317	73.9725
-21.4585	-27.7998	75.7391
-26.5174	-30.3265	72.7971
-26.0758	-30.2331	72.582
-3.41203	-14.7595	89.5259
-3.23936	-16.153	89.6043
-3.46229	-13.4174	89.1742
-7.10541	-14.4716	88.6783
-9.92102	-17.564	87.4036
-12.7663	-18.2367	86.1539
-9.54363	-18.6409	86.7188
-6.89605	-17.1497	88.2897
-9.98555	-16.2361	87.7776
-15.8096	-19.5298	84.369
-18.9371	-21.4608	82.0135
-15.5788	-20.7973	83.6718
-15.9473	-18.219	84.7724
-9.91701	-14.7358	87.84
-9.79115	-13.3258	87.6809
-12.8027	-15.5845	86.5986
-14.6572	-14.1581	85.1981
-15.5865	-15.4885	85.0257
-11.6379	-12.9285	86.6461
-14.0762	-12.9865	84.996
-21.9621	-24.2303	78.8657
-22.0289	-22.588	79.8262
-8.85158	-19.6857	85.8541
-12.2337	-20.6279	84.4491
-8.33309	-20.5112	85.0387
-5.68167	-19.1788	86.865
-15.6747	-22.3872	82.4295
-15.3741	-23.2037	81.5268
-28.2822	-29.5261	72.8973
-27.5618	-28.6958	73.6643
-28.4218	-29.3304	72.9403
-28.7182	-29.9944	72.587
-22.0468	-27.8212	76.9035
-22.061	-27.8974	77.2609
-18.6463	-25.417	79.5573
-21.9749	-27.8148	76.5714
-22.424	-28.685	78.1776
-19.1772	-26.6517	81.2384
-22.294	-28.3225	77.9694
-16.0657	-25.6322	83.8034
-16.4179	-26.4002	83.9423
-12.8073	-24.9327	85.8749
-15.9257	-24.9921	83.427
-8.38414	-22.1357	86.3991
-4.85473	-21.4862	87.0988
-8.28998	-21.3682	85.8584
-12.2235	-23.1219	84.9924
-8.60592	-23.1254	86.9335
-1.78506	-23.2016	88.3606
-1.73795	-22.102	87.899
-4.92697	-23.4429	88.0722
-1.83551	-24.3158	88.716
-26.7459	-31.5983	72.2559
-26.5712	-30.7941	72.6512
-24.6834	-30.7402	73.3876
-26.7993	-33.1495	72.2257
-1.72727	-21.8166	82.6996
-1.74158	-20.7397	84.1472
-1.65703	-23.7984	81.6009
-4.42697	-22.0749	82.2747
-1.82833	-25.4523	89.0138
-5.2968	-25.7584	88.7358
-1.91203	-26.6382	89.1966
-2.01904	-31.1427	88.4392
-2.06214	-29.4188	89.0331
-5.57348	-31.1856	88.1986
-9.46533	-12.334	87.4762
-6.88607	-11.9826	88.0558
-8.67796	-10.945	87.0045
-1.70539	-21.0635	87.3061
-1.6843	-20.2853	86.7767
-1.66404	-20.0391	86.4638
-1.7784	-20.0277	86.0017
-4.68667	-20.382	86.3469
-8.25768	-20.9517	85.473
-8.18438	-20.8483	84.9605
-11.8725	-21.936	83.9001
-1.84722	-20.1888	85.2561
-4.59112	-20.4109	84.9661
-15.4022	-23.5883	81.9209
-15.5212	-23.8767	82.3518
-15.326	-23.5356	81.3981
-17.1366	-29.2118	84.5003
-17.3875	-30.4982	84.4699
-13.8858	-29.0116	86.4273
-16.9143	-28.1786	84.4098
-9.77025	-28.5469	87.8889
-9.9631	-29.9066	87.6762
-5.45272	-28.0514	88.8694
-9.54207	-27.3628	87.9491
-2.00785	-27.9421	89.1977
-15.087	-23.6396	80.7005
-14.8327	-23.7426	79.8786
-11.6269	-22.0492	82.675
-29.0874	-30.2137	72.4342
-29.0107	-29.851	72.571
-28.0921	-30.3967	72.5775
-27.5099	-30.4437	72.812
-26.6659	-30.4019	73.3891
-25.0352	-29.8363	74.8725
-7.75327	-22.6425	81.5112
-7.86243	-21.5481	82.9646
-7.71677	-24.5971	80.4999
-11.308	-23.568	80.351
-8.0042	-21.0002	84.1313
-11.6268	-22.0491	82.6751
-10.0342	-31.5453	87.4057
-14.0968	-31.8165	86.0492
-16.6282	-27.2369	84.2289
-13.4236	-26.8514	86.2707
-17.6035	-32.2016	84.4069
-20.6577	-32.4296	82.0326
-14.4476	-23.5431	79.191
-17.4521	-25.1548	77.4883
-14.0144	-22.3388	78.1432
-11.3575	-22.1604	80.5796
-8.0684	-21.1839	81.7365
-7.94233	-21.1895	83.0199
-8.65566	-20.3563	79.9225
-5.21146	-20.6567	82.1408
-13.7523	-19.5781	76.6588
-16.2743	-20.7295	75.5849
-13.4418	-15.8601	74.8469
-11.2635	-18.5865	77.4916
-26.7401	-36.3177	72.9511
