1907
18.7744	-83.0512	51.705
27.6007	-79.1231	53.591
15.1973	-80.8323	63.0786
49.7863	-70.0315	43.6926
44.2044	-71.8044	50.1632
54.1935	-68.2378	37.5647
51.344	-66.7015	46.9486
57.2136	74.5782	11.645
62.8074	69.2563	5.56009
21.633	93.094	30.7049
69.3302	73.7994	-16.1219
73.6464	69.1936	-25.2832
68.9785	68.7493	-8.71649
24.5739	114.098	-1.7204
31.0692	111.421	-1.89103
24.9776	118.333	-15.3453
17.4099	116.029	-1.48103
65.5809	51.8156	10.5247
66.8212	57.6256	4.54851
50.9783	37.9652	37.3446
48.1153	36.4027	37.0582
48.3709	36.4924	36.2962
61.6351	41.7403	28.644
61.9912	36.3458	27.4966
60.2775	40.7794	30.4712
58.778	39.9307	31.9729
2.15955	-103.316	40.1994
-0.375736	-103.377	40.4404
60.6906	-59.8302	35.6123
61.827	-55.4805	36.8996
56.9631	-60.677	43.2402
59.2796	-63.9722	33.2823
7.95794	-14.953	85.1585
9.95459	-15.4559	84.6985
7.18314	-13.0385	84.19
26.2043	-23.1245	76.4452
25.4073	-19.0557	76.4741
23.3219	-20.6236	78.6337
10.9656	-12.1321	82.1659
8.22778	-11.5046	82.8836
11.8284	-14.1785	83.0853
14.0243	-12.7864	81.0305
10.0147	-10.099	81.1741
35.1666	-27.7314	71.4206
34.8658	-31.2846	71.3511
37.4002	-28.8437	70.1961
34.726	-23.7093	71.4175
65.5164	30.0827	21.9734
63.774	30.3313	24.877
66.071	23.8615	23.2571
67.0443	29.9833	18.8266
68.6169	29.7834	15.0544
70.7146	28.3398	9.80121
54.1505	32.823	33.9916
52.4213	33.3259	35.267
53.9549	30.5475	33.9815
61.9312	30.4894	27.2475
84.2314	1.67905	-60.687
84.0102	-2.59	-62.5754
83.5962	2.84766	-65.3865
84.1473	4.90337	-57.6562
80.4523	-24.3684	-56.7748
78.8021	-25.6232	-59.775
71.7869	-53.2285	-23.4604
73.4924	-48.6361	-22.2897
71.0513	-53.9443	-16.9794
69.8833	-58.9007	-24.7094
72.6223	-51.0947	-29.9816
83.6649	-7.40374	-63.0517
77.3625	-24.7096	-9.89158
76.4637	-29.004	-9.12119
78.205	-20.2626	-10.8824
76.285	-24.4581	-5.39492
75.89	8.90832	7.43279
75.2606	16.8269	4.17314
75.931	1.30382	10.6473
77.8997	5.07795	-0.908499
56.6471	25.3488	33.1269
54.9756	27.0782	33.8223
54.9804	24.0232	36.0491
53.5783	28.6679	34.5429
52.1606	27.8897	36.3349
75.0432	-23.2118	0.834169
73.7947	-21.5033	7.44509
74.084	-28.1884	1.6258
76.1959	-18.0055	-0.569369
25.4961	12.9266	62.4915
29.753	11.1916	61.7741
23.8746	17.2882	59.8604
21.9579	15.3617	63.4284
36.2199	9.30629	61.185
43.5117	7.60589	59.5956
37.2923	4.59428	63.3659
18.5469	17.8929	65.3005
15.2661	20.826	67.4754
19.1903	14.7274	68.1711
22.9622	7.87351	68.9599
21.587	10.1068	69.8231
19.1841	6.55875	78.7882
17.5433	7.50857	81.2823
18.8255	4.55683	78.5397
20.0688	5.77674	77.0067
20.6185	4.9439	75.4743
19.8594	2.54918	75.2484
39.951	-10.8722	66.0634
34.7076	-9.99865	67.4667
40.4545	-16.0779	66.6013
39.2592	-5.79952	65.5378
38.1505	-0.423841	64.7237
5.19097	-7.98888	82.0469
5.72058	-9.76319	82.5911
6.83482	-7.98423	81.3465
59.624	-32.2696	47.2322
60.759	-26.1393	46.4275
55.3737	-29.0054	53.7104
58.269	-38.665	48.5189
29.218	-17.5257	72.9544
26.7646	-16.5056	74.1664
31.5027	-18.3787	71.9169
40.7513	-21.2729	67.1405
40.7834	-26.3349	67.8267
45.5887	-23.2769	64.0319
36.6679	-20.0395	69.3385
6.38726	-11.3642	83.2994
56.7189	-44.8608	50.0847
60.0529	-48.359	43.9544
52.8521	-40.1584	56.1745
54.1651	-49.6184	53.0866
63.3833	-9.58683	45.5445
62.5174	-14.8902	45.8517
67.2891	-11.943	38.0042
31.3752	-67.7446	75.6233
32.1197	-64.2365	77.0406
26.1423	-69.0283	81.0623
42.6346	-58.0414	66.3619
46.9214	-55.9293	61.8125
41.1177	-53.0832	68.6663
37.5184	-59.2963	71.7358
61.0291	11.9649	42.513
58.4069	16.3219	41.2013
54.948	13.2614	48.2826
49.9558	27.4297	39.5859
50.9687	25.4103	39.732
48.9811	29.346	39.6237
56.2431	19.2497	40.3842
51.1164	19.6161	45.2544
53.9702	21.525	40.1521
48.2841	30.9306	39.5864
2.02266	-63.3387	95.5331
-1.80998	-63.6177	95.5081
48.8328	-36.2623	61.3848
47.3019	-40.2169	63.2074
49.7616	-31.4216	60.239
44.3615	-33.0056	65.7114
39.2465	-48.7731	70.4146
42.4116	-46.276	67.8393
36.5507	-44.8156	72.1069
34.9969	-50.7887	73.8263
47.6364	14.7099	52.3717
49.5076	10.516	54.4648
45.6748	18.1523	50.3186
50.7083	-25.9622	59.4027
51.1946	5.88722	55.9986
10.7957	-55.1377	91.292
10.7507	-51.8407	88.8566
15.6138	-54.6794	89.0824
20.7193	-54.1961	85.9552
25.6422	-53.4011	82.1285
20.1118	-50.6615	84.4882
44.2559	20.6944	49.0123
42.8625	22.7181	48.1921
36.3154	21.7778	51.2645
52.4043	23.4785	39.9169
48.2082	23.594	44.0652
41.7889	24.4657	47.5113
34.0841	25.3775	49.7072
12.3305	23.688	70.1644
12.8884	20.124	74.1032
11.9456	27.329	65.7654
14.2999	13.4498	82.414
14.0465	14.7371	80.7012
11.4892	14.8815	86.1768
14.7576	12.4343	83.1354
11.1667	34.7475	54.8054
11.2986	33.1068	57.4261
22.1079	20.9795	56.9318
1.36775	39.2163	65.7656
-0.675803	39.5301	65.8015
66.091	18.6978	26.8545
11.6169	30.6161	61.1959
63.0164	-50.4927	37.1342
66.0266	-50.961	28.7633
71.3997	-1.51295	28.8782
70.8549	-8.18694	29.4995
73.4667	-3.1511	20.8433
67.7458	-25.7348	31.5904
68.7363	-19.9665	30.7156
65.2583	-23.147	38.7638
69.5534	-28.1088	24.4791
69.8767	-14.1558	29.987
71.4436	-16.6752	22.2742
21.0264	-69.9864	85.3825
10.7462	-48.5988	87.2389
6.64791	-48.8247	88.1263
15.172	-48.183	85.7326
19.5445	-47.5015	83.6911
28.0196	33.3464	46.166
27.9188	32.7515	46.731
28.6892	23.3126	51.9059
27.8298	25.1339	50.7116
27.2504	26.5683	49.843
2.99904	-49.2415	88.6095
-0.259821	-49.1407	88.6805
5.10722	49.5574	53.6163
6.83178	48.3426	52.659
6.32627	52.0446	52.8665
3.10145	50.2968	54.3849
4.7394	46.8565	54.4505
18.166	35.4756	43.7432
17.6985	36.8265	43.4413
15.6678	36.1656	45.215
8.22596	46.7383	51.6146
9.47592	49.3122	50.8901
0.839291	50.7689	54.8529
-1.53899	50.7994	55.04
5.5844	0.301875	86.9441
6.46709	1.76368	88.6148
8.90797	12.4211	92.0308
8.81775	14.1471	90.8907
11.9793	12.1083	88.168
18.3657	-2.21862	73.2389
18.2129	-0.846656	74.302
15.656	-3.42355	74.764
8.44483	15.9895	89.5559
5.33386	43.691	55.2776
8.10288	54.8253	52.414
10.0271	53.684	51.5799
18.0437	38.4053	42.9936
11.5274	52.2543	50.5434
12.414	50.3698	49.4582
13.0248	48.5485	48.3456
20.7253	-9.0613	73.3623
17.6672	-9.07536	75.2834
22.3057	-11.9357	74.5305
24.1425	-15.4421	75.6875
20.7109	-14.3501	77.5975
26.2112	-31.5594	72.0054
26.0664	-30.4145	71.2617
24.1049	-31.2967	73.3244
27.0457	-29.0821	75.0091
24.9486	-27.391	77.076
25.8749	-27.5309	69.7374
22.4455	-26.8401	71.8367
25.4524	-23.9467	68.0655
14.8837	-8.97508	77.1916
11.9575	-8.66578	78.9596
16.0547	-11.0868	78.2874
17.5365	-13.5631	79.3523
18.7001	-16.0356	80.2225
21.3475	-30.8351	74.9293
19.9614	-29.1579	74.696
19.3511	-26.0404	73.6152
19.0268	-22.3976	72.1742
9.17006	-8.28719	80.3217
8.61779	-6.48798	79.5904
13.0448	-16.5415	83.7527
16.378	-17.5075	82.3589
19.3929	12.5226	71.1459
16.4613	14.8367	74.2793
2.44505	23.4714	85.8716
0.0214826	23.7208	86.0053
13.3907	17.2196	77.8481
7.67696	3.95894	90.6994
10.2226	4.06988	87.5096
13.3057	4.02642	83.9711
14.4568	6.15426	84.6492
16.2909	3.42611	80.5098
17.7981	2.59318	78.169
18.2693	1.45354	76.4776
18.3097	0.310727	75.2464
14.9538	11.4617	83.988
15.0395	10.1155	84.6818
14.9823	8.30579	84.8646
39.368	-142.968	12.9585
34.7582	-144.359	16.0329
40.7561	-149.511	12.1634
43.5712	-141.459	9.83705
37.7344	-134.382	14.1257
35.8646	-121.883	15.8364
40.028	-120.472	12.3777
34.3901	-108.779	17.755
31.4859	-123.186	19.3022
36.3541	-83.9846	27.0474
40.3457	-83.0205	21.9662
31.9765	-84.8591	31.5912
34.351	-89.9017	22.5787
33.8939	-98.2552	19.717
29.4813	-99.3021	23.6699
37.9751	-97.0614	15.8509
45.4296	-43.6294	65.1797
48.4074	-48.1041	61.3498
41.5734	-39.7833	68.4825
51.0663	-53.4341	56.6593
52.3429	-58.4115	53.0392
52.453	-62.7779	49.8236
38.4973	-36.9986	70.096
39.6492	-34.0978	69.2759
35.9031	-34.9527	70.9427
36.4969	-39.3046	71.3455
34.168	-33.7166	71.3955
32.9698	-35.4099	71.8278
44.1079	-82.2786	17.094
47.0062	-78.2196	20.4016
42.502	-87.9992	13.907
47.9354	-82.1266	11.5475
50.688	-74.4694	24.183
53.2994	-74.3158	17.3409
54.4728	-71.1683	27.4625
57.3162	-67.6732	30.6811
59.2953	-67.5046	23.0765
44.0189	-118.84	8.84056
45.7666	-131.474	7.55677
47.9313	-117.7	5.12503
42.5933	-106.065	10.338
47.3749	-140.02	6.57426
48.9443	-146.7	5.76544
50.95	-138.675	3.00727
42.0064	-95.8608	11.8919
72.7512	-19.0936	14.8099
71.7063	-24.7428	15.9081
73.9889	-13.0153	13.697
60.6029	-67.5	15.9065
58.0864	-70.8201	13.3117
61.5516	-67.5767	8.42985
74.081	25.3618	1.43709
77.6319	20.3805	-8.65323
67.8631	-51.4804	20.4331
68.6991	-52.0525	11.9046
70.9064	-30.2749	17.1874
71.9343	-32.028	9.70339
75.1735	-5.77073	12.7947
76.4275	-9.25278	4.84249
73.1905	-33.1557	2.61779
74.4756	-33.4888	-3.95705
57.4543	-83.7378	-4.77864
57.2429	-89.0264	-5.59099
59.8902	-84.3841	-9.65343
58.0744	-79.1856	-3.66427
54.7516	-83.1533	0.266775
57.2305	-95.1064	-6.07151
59.1455	-74.89	-1.87716
57.3704	-74.5341	4.02852
61.0041	-75.5104	-7.75484
60.6413	-71.1742	-0.265216
79.1648	1.70028	-9.23689
79.6154	8.92656	-13.8181
78.4978	-5.65045	-4.86802
80.2178	16.4264	-18.9007
80.7706	23.5494	-23.5412
81.4085	30.6383	-28.9157
83.0221	27.019	-39.3308
81.925	37.5462	-34.7958
69.4168	-52.3864	3.63928
69.9173	-52.7963	-4.2503
77.4386	-12.0551	-2.09818
78.2635	-14.4136	-8.07224
51.865	-116.5	1.03281
53.1878	-128.84	-0.0471128
55.4478	-74.2947	10.6604
53.1448	-78.1093	7.97565
54.3949	-137.188	-1.03196
55.6531	-143.386	-2.13456
62.5558	-113.041	-16.359
63.1032	-123.067	-17.8288
62.1827	-84.8442	-14.4344
63.8761	-84.1635	-19.8408
62.5506	-80.2872	-14.0149
63.179	-75.7983	-13.3792
63.3353	-130.324	-19.3833
63.4184	-136.039	-21.0386
70.392	-53.8172	-11.1777
75.5903	-33.2194	-8.5831
76.8109	-32.217	-12.2093
74.8481	-37.2118	-8.7873
78.9497	-15.5851	-12.0956
63.2927	-92.8749	-27.6926
61.997	-89.846	-34.9026
63.6481	-86.6426	-26.8982
64.5011	-80.9145	-26.4925
64.2374	-76.0577	-33.4017
68.0889	-64.9561	-25.3316
74.6948	-45.8919	-21.8238
75.8308	-44.267	-28.7934
58.5313	-119.414	-45.6032
58.5628	-126.758	-47.3207
55.1768	-116.936	-52.5683
58.5045	-111.69	-44.1228
73.5548	-47.0037	-35.8223
75.6054	-42.9518	-35.2183
77.2328	-40.9242	-35.0016
29.9992	-145.443	18.9273
28.5996	-136.878	20.4903
25.2169	-146.598	21.5585
31.2832	-151.994	17.7585
24.4746	-100.055	27.8994
19.4342	-100.916	31.7744
25.1821	-110.974	25.5306
25.0105	-91.496	31.0517
33.2258	-78.2331	47.9556
29.9973	-81.4613	42.2129
36.2241	-75.5109	52.7065
26.9921	-85.503	36.3707
21.8447	-85.9824	40.7498
26.7594	-124.121	22.9369
21.9735	-125.483	26.299
34.3731	-41.6034	72.9299
32.5928	-38.85	73.1419
38.7326	-72.9528	56.6367
31.3953	-37.0452	73.0659
29.0674	-38.4933	75.1603
30.3531	-35.6042	72.9926
29.5359	-34.2973	73.0109
29.0857	-33.2109	72.9566
27.6332	-35.4296	74.7863
30.5752	-52.487	77.8439
31.5249	-56.3715	77.8234
32.2887	-60.514	77.4763
22.7544	-32.0132	77.1726
19.581	-31.7054	79.9799
22.4623	-31.3043	75.5695
25.809	-31.7964	73.5325
22.4389	-31.6364	75.0153
18.9143	-30.5355	77.9062
22.3178	-32.3016	74.5995
22.3413	-34.006	74.4768
18.6143	-31.5676	76.5157
22.2645	-37.2294	75.1716
22.0206	-40.9779	76.3165
18.5879	-36.6647	76.8081
14.5538	-101.562	35.021
14.7934	-92.3524	38.2615
15.6419	-113.155	32.6082
20.3354	-147.805	23.8812
19.0337	-139.261	25.9232
15.5104	-148.772	25.8799
21.2228	-154.048	22.543
17.2711	-126.699	29.2456
7.80214	-87.1851	48.3261
11.412	-87.0752	46.6628
8.99649	-84.1466	56.5788
11.246	-149.42	27.3063
11.9131	-155.423	25.8965
10.4661	-81.0745	65.3047
15.3713	-29.5355	80.1541
15.1656	-29.8964	79.258
14.9152	-30.6733	78.3658
15.089	-32.6261	77.6982
15.1113	-36.0234	78.1331
14.9784	-39.9246	79.1891
77.1814	52.4274	-20.1694
80.4685	48.0669	-30.5997
77.7547	58.7567	-27.4824
72.8822	57.4591	-10.4778
83.3532	23.3511	-48.8871
76.3358	-28.1711	-64.0645
73.712	-30.7094	-68.1413
52.2004	-98.3226	-55.1378
52.7954	-89.2451	-54.3175
54.9563	-100.512	-49.6252
52.0932	-107.185	-56.3671
49.4218	-96.8795	-60.181
52.2188	-114.974	-57.8096
52.5172	-122.62	-59.4468
49.0865	-113.584	-62.5347
59.2928	-85.661	-42.3511
58.6609	-94.5799	-42.3979
56.3962	-82.4396	-48.7896
60.8084	-77.6469	-41.8674
24.9944	121.227	-30.8831
32.1473	117.998	-30.4062
25.0469	121.972	-47.4659
17.4174	123.518	-31.1144
25.1285	84.6074	-129.313
25.7243	97.4161	-115.622
32.8192	82.9903	-126.777
24.4015	70.2157	-139.823
17.0552	85.5682	-131.05
23.8164	55.5705	-145.786
31.2387	54.4154	-143.261
23.3727	40.7247	-148.582
16.238	55.8602	-147.445
25.699	107.631	-99.9393
33.4095	105.448	-97.5759
17.6383	109.149	-101.491
25.5058	115.21	-82.7683
9.157	123.145	-66.6651
0.716516	123.454	-66.8855
9.1043	125.484	-48.592
17.361	122.045	-66.0454
9.22863	117.96	-84.8146
23.0125	27.002	-149.291
29.8333	26.1336	-146.75
22.5672	13.4495	-148.241
16.0448	27.4177	-150.977
21.9556	-0.183413	-145.719
28.5811	-0.615569	-143.148
21.3466	-13.0024	-141.753
15.267	0.368485	-147.56
18.5888	-44.5005	-119.235
24.6831	-44.7915	-116.961
17.9315	-53.3785	-108.527
12.755	-44.5443	-120.254
19.781	-34.8733	-129.005
7.59691	-24.1139	-139.696
0.799797	-24.171	-140.1
7.84421	-12.5259	-144.717
14.1977	-24.2283	-138.416
7.1655	-34.6515	-132.186
15.3569	-93.4285	-83.6425
15.7725	-85.6729	-84.9481
20.6946	-93.8729	-82.177
15.0382	-100.7	-83.31
10.1633	-93.1525	-84.2975
4.88266	-107.17	-83.4056
9.8489	-107.514	-83.3565
4.95057	-114.581	-83.4233
0.114467	-106.997	-83.3594
5.03783	-99.8642	-83.5558
17.8346	-60.6097	-99.7486
23.2957	-61.102	-98.2973
17.271	-67.6785	-93.1003
12.0055	-60.0255	-100.497
16.4031	-76.5128	-88.1805
22.0432	-77.2477	-86.1975
11.0399	-75.8493	-89.1627
5.70316	-75.3546	-88.9542
6.0548	-66.5098	-93.9509
5.32948	-84.8439	-85.4712
0.335229	-75.3393	-88.4615
51.1132	104.16	-30.2519
56.9536	98.0602	-30.0774
52.2029	104.44	-44.7225
45.086	109.369	-30.0827
51.0626	49.696	-130.473
56.6926	47.5923	-125.25
50.5219	36.2265	-133.557
45.0366	51.4483	-135.247
51.5665	62.8644	-124.463
51.7177	75.3064	-114.897
45.835	78.2286	-119.245
52.2318	85.8507	-102.687
57.4832	71.7334	-110.063
52.9407	93.9597	-89.2445
58.9637	88.6368	-85.939
46.8461	98.3675	-92.16
53.6685	99.3526	-74.8709
53.1005	102.959	-59.8919
46.7888	108.252	-61.1452
59.1275	96.9513	-58.4077
49.7271	23.3315	-134.705
48.8776	10.6344	-134.061
43.6346	24.3066	-139.242
55.2967	22.1188	-129.724
47.8514	-1.74981	-132.053
53.4252	-2.21436	-127.295
46.7812	-13.6895	-128.318
41.8903	-1.47919	-136.117
45.2727	-24.5139	-123.075
43.6712	-34.9533	-115.643
39.6698	-24.8432	-126.732
50.3172	-24.3793	-118.557
42.3891	-44.6853	-106.031
47.3376	-43.7641	-102.207
41.3191	-53.2487	-96.6723
36.834	-44.8363	-110.134
40.3154	-61.2449	-88.6828
39.2191	-69.6259	-81.801
34.9076	-61.6312	-92.3435
45.0835	-60.7603	-84.4408
36.6704	-94.5104	-74.3045
35.9996	-102.482	-75.7038
31.4282	-94.5067	-77.5396
37.3262	-86.39	-74.1372
41.4484	-94.8918	-70.4026
25.0519	-108.589	-80.9837
24.8212	-115.354	-81.0822
19.8588	-108.112	-82.2653
25.5136	-101.633	-80.7309
30.3723	-109.205	-79.0421
38.1628	-78.1487	-76.7689
42.9031	-77.8139	-72.3598
33.1602	-78.062	-80.4181
41.704	43.0138	41.3689
41.7843	43.5592	40.3485
71.5873	58.344	-91.9745
72.4408	64.9807	-81.629
75.3644	52.8949	-84.2827
71.0369	49.7274	-100.764
67.397	63.138	-98.9039
73.5206	70.1331	-71.0826
77.1729	63.4777	-63.8126
69.2307	76.5887	-77.2127
74.0537	74.0159	-60.207
72.912	77.4405	-49.5851
75.609	71.0554	-42.8092
69.144	83.9834	-53.7563
60.2207	20.9318	-124.602
61.0787	32.9411	-123.101
64.6866	19.413	-119.089
59.347	8.9392	-124.135
61.7014	45.4103	-119.846
62.3004	57.1213	-113.939
66.334	42.6739	-113.804
54.8678	-23.935	-113.029
56.9924	-13.6371	-118.149
59.086	-23.5124	-106.994
52.7969	-33.6498	-106.243
58.3074	-2.77754	-121.957
62.7546	-3.01526	-116.366
51.4814	-42.4731	-97.988
55.3025	-41.4118	-92.7068
50.5964	-51.2315	-88.4181
49.25	-59.4438	-80.3144
52.8855	-57.2036	-76.6134
47.4156	-77.4831	-66.7082
51.2832	-78.8656	-60.1195
46.5641	-86.6629	-65.0775
80.7478	24.1835	-78.0248
79.9752	16.706	-83.661
78.9812	28.2076	-85.1548
61.9639	91.4481	-29.1442
63.2404	92.0288	-42.9743
82.1383	44.173	-41.1851
81.6219	50.6657	-48.422
69.8494	-21.4544	-91.2931
66.6794	-22.4453	-96.2842
71.8645	-13.2998	-95.6884
72.6933	-20.7422	-85.7945
67.4315	-29.4432	-85.454
72.8865	-4.57695	-99.3439
69.9944	-4.06295	-105.316
73.7602	4.26096	-100.786
75.5146	-5.26394	-92.6998
74.7181	13.7137	-100.458
71.8987	15.8223	-107.137
75.7849	23.0165	-97.6355
77.1379	11.3229	-93.4181
60.3049	-49.8483	-67.1589
57.8248	-52.4722	-70.1207
62.5435	-43.4545	-73.0229
62.9566	-47.3618	-64.034
58.4003	-56.6951	-61.6647
70.77	-32.7955	-72.0155
68.3816	-38.7946	-66.6073
67.8824	-34.7213	-75.4242
73.1397	-26.6077	-76.6324
54.0442	-80.4191	-54.302
55.5255	-71.9037	-55.4345
77.0779	-37.3593	-16.2684
77.7268	-33.4238	-15.4816
75.3152	-39.8494	-13.1772
77.8244	-31.413	-14.6032
82.0155	-6.46951	-23.6473
82.983	-1.88162	-27.1725
96.4661	-3.6908	-61.1107
96.6705	2.67664	-60.6011
97.1568	-3.97551	-60.0308
84.9569	-40.5509	-36.2807
83.6525	-42.9669	-31.8957
96.3095	8.28978	-58.491
95.0963	8.66612	-59.4405
95.6398	12.5505	-55.1819
97.2337	7.58797	-57.465
88.4119	8.3577	-35.7227
87.0665	8.165	-36.6586
94.7481	15.2072	-51.122
95.8343	14.3628	-50.0755
90.7281	-25.623	-51.2073
86.9045	-39.4385	-28.0586
85.9882	-38.5804	-25.3738
85.2255	-42.2301	-27.8394
83.8666	0.448403	-29.2541
89.5193	14.5812	-45.8796
87.8166	11.7862	-42.3309
88.4716	12.9477	-47.3876
85.824	7.77688	-38.2419
84.8709	7.44822	-40.1794
93.7496	8.65522	-60.038
84.3971	6.96433	-41.3356
85.6331	8.38616	-44.4643
87.233	9.46827	-48.5142
85.7812	6.25914	-48.6053
90.0578	-32.3363	-41.3737
90.1367	-32.2359	-33.3917
82.9229	-43.6368	-28.0713
84.8239	-37.0415	-23.5911
85.7978	-33.9925	-24.8082
87.0203	-31.7852	-26.3518
87.8266	-30.3082	-27.7391
97.2114	-4.19275	-59.2006
97.7595	1.81693	-58.7215
93.9776	13.4508	-41.3656
94.3006	12.4074	-41.0385
95.5452	14.3389	-45.1211
94.0501	11.5812	-40.9673
95.3335	12.5453	-44.4571
93.426	10.5406	-40.9956
97.5704	6.96125	-56.6816
97.0246	10.8219	-53.4454
97.455	6.33986	-56.1718
96.4439	13.4121	-49.287
96.5499	12.4735	-48.8876
96.0436	11.9309	-48.5214
96.4941	9.69833	-52.7188
96.9808	6.09844	-55.8875
95.5116	-8.1286	-57.1237
92.8871	9.17477	-41.2557
90.155	2.50459	-36.8835
95.3947	6.82576	-49.3436
96.0125	-10.113	-51.0238
95.952	-8.17799	-51.296
95.7733	-6.2344	-51.3025
95.4419	-4.59602	-50.8787
94.9901	-3.15127	-50.0456
94.0234	-1.78791	-47.8391
85.3295	-26.3375	-27.1164
86.5737	-28.2628	-28.1147
88.5687	-3.53056	-32.1536
84.7336	-18.3439	-27.7901
87.7374	-29.6426	-28.6479
36.0127	48.6808	43.358
36.9749	108.281	-2.76516
38.079	111.729	-15.567
9.21786	117.451	-1.46871
9.24861	121.952	-15.5402
0.573707	118.039	-1.47055
38.7136	114.095	-30.32
39.3382	114.619	-45.9785
9.1547	124.851	-31.3001
0.597292	125.298	-31.5229
25.1487	120.011	-65.056
32.7823	116.969	-63.7998
39.8909	113.048	-62.6081
40.4108	109.01	-79.01
68.161	63.1661	-2.02769
77.257	64.8105	-35.2535
79.5004	60.8599	-45.6264
64.3645	90.7391	-56.7637
65.0834	87.4139	-69.6507
9.29445	110.04	-102.3
9.28255	99.4344	-118.259
0.874215	110.316	-102.528
40.2438	102.494	-94.7904
40.0378	92.8626	-109.96
79.9229	57.0363	-56.1187
79.2991	52.7809	-66.4659
64.2202	82.9937	-82.1826
63.2385	76.4433	-93.82
78.4141	47.4854	-76.4473
77.4693	40.6287	-85.443
76.6122	32.4992	-92.592
73.7605	36.1694	-99.9635
45.8313	-95.924	-65.42
45.2348	-104.281	-66.7819
45.148	-112.01	-67.8313
45.2263	-119.435	-68.8662
40.5506	-110.629	-72.8159
8.99411	86.1699	-131.765
8.7294	71.0636	-142.207
1.00201	86.1203	-132.067
8.66925	55.9319	-148.148
8.67604	41.2833	-150.906
1.02465	55.8729	-148.253
8.68546	27.619	-151.79
8.5115	14.3458	-150.966
0.990108	27.7049	-151.965
8.16218	0.773838	-148.577
0.92704	0.712952	-148.82
20.6699	-24.4079	-136.378
27.0689	-24.7183	-133.611
6.57569	-44.4743	-120.988
6.35769	-53.2206	-109.06
0.631123	-44.5947	-121.024
6.24013	-59.8388	-100.355
0.472542	-59.8582	-100.044
5.18344	-92.6949	-83.9676
0.202434	-92.4574	-83.5414
38.2987	53.0382	-139.67
39.0411	67.2645	-133.627
37.5983	38.7966	-142.528
39.5063	80.7514	-123.504
36.8255	25.3108	-143.356
36.0837	12.0779	-142.367
35.2892	-0.968394	-139.94
34.5135	-13.5782	-135.874
33.4965	-24.8547	-130.341
32.2684	-35.2188	-123.058
30.8379	-44.8575	-113.894
29.6638	-53.691	-104.239
29.1394	-61.4629	-95.7304
28.6209	-69.217	-88.6796
27.6439	-77.6877	-83.6552
26.7763	-86.333	-80.6578
26.1924	-94.1667	-80.0983
35.6697	-109.798	-76.372
35.267	-116.736	-76.9108
62.5617	67.8968	-104.852
70.3152	39.9569	-107.042
69.4971	28.696	-111.237
68.512	17.9304	-113.422
67.5738	7.00589	-113.243
66.552	-3.41526	-111.048
65.2508	-13.5455	-106.847
62.9857	-23.1576	-101.494
60.6554	-31.8837	-95.1953
58.7079	-39.8479	-88.3389
61.9218	-38.5094	-83.5273
57.099	-47.7461	-80.4142
55.5163	-54.8542	-73.4315
57.1003	-64.2094	-57.2976
59.3826	-62.3623	-54.3678
79.0106	9.43931	-87.0422
78.2043	1.73063	-87.692
80.7149	7.10573	-79.9824
75.0828	-19.9246	-81.0106
76.6814	-12.8687	-84.2662
64.8894	-36.709	-79.4285
77.5335	-5.4911	-86.8615
65.8553	-44.7918	-61.1878
63.8327	-51.066	-56.1886
16.4105	-86.4693	44.52
62.5071	-67.5803	1.24336
51.5005	-82.4601	5.9513
15.4245	-21.7348	84.2909
18.9058	-22.6771	82.132
22.2242	-24.8464	79.5867
9.74422	-32.716	87.399
10.1263	-33.7942	87.7475
10.4278	-34.9426	88.057
25.9603	-40.2014	78.1463
25.3367	-38.5509	78.0866
24.7341	-37.0949	78.1024
20.1193	-18.8307	80.5035
40.5005	-30.5886	68.5008
31.0084	-9.44178	68.3555
32.5136	-14.1754	69.7657
33.769	-19.0249	70.8165
61.7992	-20.4187	45.8538
20.2473	43.8734	43.5198
82.2638	4.94945	-72.6227
83.5921	7.75301	-53.5485
83.8161	5.72661	-50.6274
73.782	-41.9027	-9.04596
27.6424	31.8411	47.4333
55.3712	58.2718	28.9942
51.6725	33.4782	35.7399
8.48792	-4.8428	79.0541
49.5728	36.7428	37.2753
12.7807	-3.03058	76.6767
84.6336	5.09028	-49.2655
58.4031	-103.348	-43.1665
63.2463	-69.7115	-41.1166
62.371	-64.2112	-47.1661
62.1757	-58.9887	-51.7228
24.1113	-1.39989	68.0608
29.8468	-30.7565	72.5766
16.1674	-31.1727	82.5272
27.6435	-32.1003	72.5428
8.32927	-28.2419	83.525
-70.795	-43.67	5.20839
-71.5688	-38.7058	4.95055
-71.8059	-43.4719	-2.0673
-69.93	-48.3686	5.23487
-69.6732	-43.188	13.3612
-58.173	-115.275	-7.52591
-57.3737	-103.928	-6.65158
-60.5189	-114.17	-11.9331
-59.1754	-126.216	-8.76369
-55.301	-116.15	-3.30597
-59.9241	-133.795	-10.0779
-57.3863	-135.593	-5.50343
-61.8354	-132.032	-14.7104
-60.5551	-139.67	-11.4525
-49.9351	-95.8973	3.23285
-53.9025	-95.8346	-1.52583
-50.5708	-105.004	2.06978
-45.8518	-96.3906	7.60467
-50.2783	-89.0993	4.35419
-61.5674	-95.9904	-14.6472
-59.4396	-95.8982	-10.3121
-61.6157	-90.4452	-14.381
-62.8531	-95.4154	-20.0697
-61.7968	-103.287	-15.2643
-64.902	-59.9989	19.5795
-65.505	-60.656	12.0172
-62.8415	-64.3047	18.2309
-63.4071	-59.4769	26.9617
-66.3198	-55.7326	20.637
-73.9219	39.0035	-6.62969
-77.7465	34.2111	-17.5624
-73.0738	32.1949	-1.68551
-69.6128	45.0566	3.02985
-75.3025	45.7528	-13.0566
-80.9581	35.3408	-61.4787
-81.8548	29.1064	-54.6255
-81.4434	39.8042	-51.4613
-79.3715	41.1796	-68.5228
-80.1299	29.8768	-70.1742
-8.11148	-103.233	38.495
-7.99063	-93.6089	41.3733
-11.238	-102.826	37.0138
-8.8162	-115.222	36.5389
-5.49654	-103.281	39.4223
-9.67492	-129.086	32.8839
-10.4586	-141.216	29.3605
-6.36736	-129.235	34.0439
-13.2912	-128.154	31.3741
-3.56375	-150.209	29.0201
-3.79269	-156.078	27.6155
-3.35907	-141.83	31.1589
-7.24354	-149.839	28.3094
-67.8113	-58.1229	-37.1268
-68.3852	-51.4346	-42.7199
-65.1296	-63.9545	-38.417
-67.5723	-63.2914	-30.8954
-70.4809	-52.2197	-36.1179
-69.0479	-46.5666	-46.9538
-72.2607	-41.8508	-45.241
-70.0643	-42.4227	-50.6893
-65.4314	-52.3708	-48.8456
-62.9482	-125.006	-31.2333
-63.5979	-128.156	-24.703
-61.2558	-122.19	-38.0316
-62.9894	-131.874	-32.5984
-3.24414	-129.57	34.8114
-3.10603	-115.766	38.413
-68.3755	-42.272	21.4859
-67.7767	-47.2805	21.888
-66.7522	-40.6704	28.5772
-69.0923	-36.7302	20.1674
-65.9548	-60.8039	4.10659
-67.6036	-56.829	4.64126
-66.3058	-61.6238	-3.89666
-64.0912	-64.6358	3.12424
-14.3565	-63.5782	93.0485
-13.9175	-59.3125	92.6097
-18.8841	-63.1891	90.6708
-14.4753	-67.8583	92.0411
-9.83575	-63.6073	94.3828
-23.4639	-62.3748	87.2472
-22.9533	-58.5255	86.8691
-27.9565	-61.6097	82.8115
-23.4577	-66.5634	86.6433
-5.132	-55.5258	92.9835
-5.55068	-59.5238	94.6427
-4.37506	-52.0622	90.6804
-8.95402	-55.4926	92.1789
-14.2633	-71.6214	89.5509
-10.0476	-71.4759	90.8096
-18.6748	-71.2177	87.5052
-13.8274	-74.6795	85.176
-13.2158	-76.7099	79.277
-12.7244	-78.7568	72.7749
-8.92869	-77.123	80.3282
-17.3948	24.0471	59.0223
-14.6935	26.9026	60.1745
-16.5214	26.9476	55.6048
-20.1936	21.9077	57.7169
-18.3521	20.8944	62.4361
-51.2783	-2.21992	57.1208
-51.6552	-7.36062	57.4133
-45.3562	-0.742292	61.134
-50.8744	2.72677	56.1275
-56.9907	-4.05933	51.5657
-62.3916	4.41654	43.5876
-62.498	-0.803711	44.2168
-56.5402	6.24747	49.781
-61.2571	9.32528	42.775
-67.3499	2.10453	35.8597
-70.4824	14.5175	19.2104
-67.758	17.5066	22.5273
-69.2337	21.704	16.372
-72.6918	11.8204	14.969
-51.5576	-13.0785	57.6931
-45.8442	-11.4175	62.5457
-56.5833	-15.5161	51.6244
-50.7474	-19.3637	58.3115
-2.49828	31.6836	76.1121
-4.68295	30.7981	75.5746
-2.40183	27.261	81.2398
-2.61134	35.8734	70.6242
-31.7169	90.8772	27.9522
-33.0615	95.6203	22.4333
-37.5672	88.3726	25.4047
-30.4201	85.6861	33.144
-26.2636	92.3914	29.8424
-4.06065	-81.537	66.5602
-4.43563	-79.0705	74.3308
-7.55766	-81.4127	65.7366
-3.6639	-84.5291	58.2852
-64.6105	-38.566	35.0537
-65.6365	-32.1394	33.6079
-63.44	-44.7986	36.4488
-61.9333	-35.8204	40.9808
-5.94945	-71.4348	91.4778
-5.56055	-74.7798	86.7632
-5.76248	-67.8085	94.1216
-5.05452	-77.2423	80.8755
-41.8136	-67.4145	61.3257
-42.3183	-63.4949	63.8339
-46.4572	-66.1835	55.6752
-40.3492	-70.7924	58.8797
-37.1648	-67.9843	67.6108
-42.6806	-77.7701	36.3617
-38.1488	-78.6	41.6078
-46.1525	-74.4306	40.4099
-46.8572	-76.7868	30.786
-39.039	-81.4501	31.5815
-3.17582	-87.6942	49.6544
-2.83367	-93.5857	42.771
-5.90068	-87.864	48.77
-7.97047	21.3262	83.591
-5.12852	22.7422	85.1416
-7.48792	25.1314	79.0497
-10.9709	19.273	81.189
-8.48308	18.3562	87.1683
-29.0625	3.26092	65.7305
-25.4062	6.66451	66.6842
-27.2967	8.23428	64.5491
-32.8856	1.28503	65.17
-31.4521	-33.0834	72.5802
-32.2628	-33.5806	72.428
-30.5628	-33.8427	72.8648
-30.4916	-32.5406	72.7398
-14.7183	-1.12155	78.3294
-17.052	-1.52451	76.5195
-13.8444	-2.20063	77.9085
-16.6936	0.36003	78.4522
-13.5271	-5.9997	76.6176
-11.2377	-5.42026	78.0865
-13.4893	-4.70466	76.5283
-16.6764	-6.22961	74.6261
-14.2658	-7.42995	77.0093
-2.10617	-2.93758	86.038
-3.93133	-2.51939	84.915
-2.21702	-4.15059	84.5156
-2.08855	-1.6375	88.1
-19.7358	-5.67818	72.5361
-20.2237	-7.25064	72.9353
-19.4052	-4.42015	72.8133
-22.335	-4.14361	70.5125
-9.11527	8.68419	92.7979
-9.24889	10.7963	92.6843
-12.4251	8.78184	89.0305
-8.86916	6.40978	92.1455
-5.99546	8.25233	95.3612
-28.0605	-45.7016	78.4082
-29.336	-49.1287	78.1158
-24.1617	-46.9529	81.5156
-26.8032	-42.626	78.799
-31.233	-44.0974	75.5524
-30.6714	-26.6554	74.1861
-32.7141	-27.6755	73.1636
-28.3067	-25.4378	75.5463
-29.9557	-22.2299	74.7103
-2.65422	-8.49179	82.9347
-2.47586	-6.73888	83.0903
-4.67624	-8.11836	82.6288
-2.80076	-10.2576	83.169
-7.16806	29.0518	74.3827
-7.37709	32.6963	69.3883
-10.1448	26.4518	72.5221
-22.127	6.73154	73.2622
-22.4337	7.05584	71.8981
-22.3419	4.98895	72.8664
-21.3568	7.7549	75.1055
-20.9893	8.7764	74.8978
-5.79609	-4.56091	81.9484
-4.17845	-4.871	82.8553
-5.70167	-3.46304	82.4245
-7.47039	-4.56824	80.7704
-5.91163	-6.13572	81.9245
-5.60645	-2.18414	83.6166
-5.54886	-1.04395	85.398
-20.2692	8.9079	76.9286
-20.9682	7.08934	76.4285
-19.7693	9.7992	76.9369
-22.1189	1.92729	72.4268
-21.2081	-0.782096	72.5893
-21.5193	3.6012	74.4995
-3.15257	-15.4584	85.856
-2.96167	-13.5234	84.5506
-5.99008	-15.0025	85.6736
-3.44642	-16.9632	86.952
-26.2677	-9.3996	70.7457
-25.2176	-5.47367	69.3098
-28.5056	-9.5535	69.6454
-27.5384	-13.4296	72.4299
-23.8424	-9.35134	72.0955
-10.6938	-43.7854	87.1028
-14.9562	-43.4688	86.0249
-11.0642	-45.8723	86.8687
-6.58926	-44.005	87.5204
-10.3262	-42.0195	87.6505
-26.3136	-28.1268	76.9108
-26.0196	-26.7163	77.2934
-28.5698	-30.2302	74.3831
-26.7213	-29.0091	76.2531
-19.4465	10.3599	76.6417
-17.5416	11.8425	78.8868
-19.5727	11.0023	75.0454
-18.8771	-43.1149	84.2749
-18.5338	-41.3727	84.6983
-22.5	-42.1995	81.9695
-19.2816	-45.2019	84.0367
-3.01518	-44.2549	87.5288
-2.66741	-42.7661	88.2192
-3.2193	-46.3187	87.4859
-62.7552	44.175	24.7246
-63.1588	45.1611	22.7087
-63.915	37.2791	22.5919
-62.119	43.4569	26.645
-41.8129	75.629	31.8462
-42.7039	80.1182	27.0049
-48.3872	71.4217	27.6784
-41.4914	71.4722	35.663
-35.5015	78.4806	35.2828
-54.9658	66.2529	22.7468
-55.9753	70.607	17.53
-60.7235	59.901	17.3147
-54.7176	62.365	26.8014
-42.6247	64.8807	39.7358
-41.8415	67.2434	38.9099
-43.7431	62.1908	40.1864
-37.3567	66.6279	42.6914
-63.8569	45.8752	19.4709
-66.1522	37.9345	15.9524
-60.3914	53.3606	24.3705
-64.4139	48.134	16.0396
-26.342	56.7056	47.78
-22.4016	55.2993	48.5845
-26.1717	58.6803	48.5904
-30.2554	57.3652	46.4463
-26.3664	54.2219	46.5596
-7.25543	39.8541	58.2747
-7.37432	38.1732	60.7437
-5.15398	42.2409	59.2703
-7.22974	41.3687	56.574
-9.47596	36.8426	56.9995
-32.2634	16.9588	55.8328
-26.4149	18.4879	56.7206
-30.3345	19.8822	53.6974
-39.7353	16.1911	53.8478
-34.4797	13.591	58.1359
-59.6956	22.1167	30.6107
-57.7217	20.5676	34.9089
-57.1898	23.793	32.0495
-60.4068	25.5467	27.8408
-62.035	20.6391	29.0063
-7.40505	35.8132	64.5469
-4.89529	37.9985	65.4465
-9.89503	32.9159	63.3552
-44.2903	59.8324	40.4478
-44.4673	57.4409	40.492
-38.6581	61.2774	43.371
-50.8229	56.9026	36.7984
-56.6141	52.8934	32.8233
-59.7899	48.0121	30.1752
-56.01	51.0174	33.7945
-56.9979	31.4112	30.7969
-58.8073	31.0931	29.114
-56.1659	27.8818	31.3549
-55.0774	31.7823	32.4044
-57.6864	35.8463	30.984
-45.2334	39.7011	39.996
-43.4303	41.3004	41.0547
-45.7533	40.3964	39.6579
-46.8202	37.6148	38.8083
-44.8019	39.0549	40.0324
-41.3227	42.7208	41.8256
-38.7606	43.8433	42.3907
-41.5029	43.7158	41.4901
-41.1227	41.8664	41.9252
-41.6256	44.2088	41.3017
-44.1285	42.6406	40.4443
-38.7758	45.3961	41.8609
-35.7733	44.5982	42.6295
-35.6172	45.5751	42.2741
-35.9582	43.719	42.7116
-32.7227	44.3717	42.9106
-35.5246	46.057	42.085
-35.4448	46.3617	42.1192
-32.1645	45.8617	42.198
-29.7864	43.6205	43.0937
-29.2264	44.4577	42.6696
-30.3097	42.8727	43.2296
-27.009	42.2827	43.2642
-24.4076	40.4959	43.352
-22.2255	38.5218	43.4663
-23.4413	41.1059	42.9817
-22.8164	41.363	42.7336
-25.6301	43.2989	42.6182
-20.6259	39.2188	42.8623
-22.3189	41.5022	42.729
-20.8364	36.9061	43.4118
-19.9053	37.2479	43.2168
-21.6616	41.7604	43.0449
-24.6356	43.7904	42.9969
-20.9729	42.1687	43.5088
-35.2804	46.819	42.4485
-31.764	46.6096	42.5395
-35.1613	47.3591	42.8612
-50.4165	31.2633	35.6881
-50.6868	32.0582	35.5876
-51.3642	29.9426	35.1752
-49.4436	30.7207	36.7518
-48.5874	33.1266	36.0016
-48.0042	32.7353	36.7593
-49.1749	33.0243	35.2516
-48.2656	33.8574	36.2802
-34.33	57.3986	44.8634
-34.2404	54.8353	44.3432
-34.245	59.619	45.3954
-38.721	56.4522	43.0271
-51.5042	45.0278	37.2621
-49.0498	42.9585	38.9424
-47.6002	47.3944	39.7368
-53.5627	47.133	35.7799
-39.3287	26.6157	46.9177
-32.4188	27.0583	48.7229
-38.7301	28.0985	46.6788
-45.0076	26.36	43.7501
-39.9853	25.1562	47.2
-26.7494	28.137	48.7795
-26.8317	29.4398	48.0643
-27.0165	26.7284	49.3332
-22.6309	29.228	47.9053
-18.7769	32.1508	46.2218
-19.5827	32.4897	45.391
-19.4857	31.3261	46.7625
-17.5165	32.1433	47.2518
-18.118	33.1152	45.6226
-38.4031	29.3407	46.2979
-32.2372	29.7144	47.846
-38.2156	30.3522	45.9051
-43.6584	29.2789	43.514
-21.6562	32.0238	45.3814
-21.3176	31.2639	46.1301
-20.8375	32.4513	44.9637
-21.8085	32.66	44.7362
-23.1972	31.4695	46.2475
-20.1382	32.7888	44.7004
-19.4276	33.3642	44.4317
-20.2916	33.1101	44.2222
-14.5063	42.4172	46.465
-13.8485	45.2876	47.9096
-16.5123	44.764	45.9698
-15.6174	39.5764	45.0066
-17.5885	34.3224	44.9775
-18.3613	34.2816	44.4406
-16.7088	34.5857	45.488
-28.0841	45.4784	42.7577
-27.6693	45.9681	43.2136
-28.5461	45.0993	42.4049
-16.5377	38.3501	44.349
-17.9728	40.3299	43.886
-15.904	36.5998	45.0401
-38.0965	30.9835	45.5806
-38.0181	31.1583	45.0731
-32.231	31.3061	46.8698
-21.9182	33.0729	44.3263
-23.5887	32.7607	44.9869
-21.1512	33.2394	43.9894
-22.0543	33.1835	43.6156
-38.0064	30.7621	44.131
-38.0992	30.1138	42.9337
-42.9487	30.9497	42.0403
-46.3378	31.8528	39.0019
-46.7437	31.4828	37.9549
-22.2952	32.7994	42.3623
-22.2842	32.3868	41.1349
-20.481	33.3685	43.8504
-48.0461	35.4783	37.5843
-48.5269	35.7537	37.3864
-47.4214	35.3509	37.6651
-4.08489	55.8585	53.645
-4.47719	59.0923	53.0374
-6.89854	55.0986	53.32
-3.81267	53.0082	54.2405
-20.5667	25.18	52.4961
-23.8382	23.8327	52.2445
-21.4593	23.1422	54.3917
-18.2736	26.8032	52.7805
-20.0591	26.7217	51.0154
-15.9772	28.8231	53.4051
-13.6113	31.1522	54.2789
-15.7614	32.5407	48.6808
-15.8081	33.7111	47.1451
-13.8788	33.7019	49.825
-10.5608	42.6959	50.4303
-10.0196	44.1728	51.2929
-11.6728	44.8108	49.5046
-20.4574	30.2274	47.4006
-19.9625	29.2927	48.4463
-19.8745	28.1307	49.7109
-22.7038	26.6587	49.8393
-22.3795	-31.8363	76.6113
-18.5262	-30.9506	79.1301
-25.7323	-32.4337	74.3368
-22.0757	-31.797	76.1494
-27.4133	-32.6611	73.2206
-26.976	-32.6308	72.9954
-3.66858	-20.2385	88.3615
-3.54998	-21.84	88.5018
-3.65101	-18.8511	88.0225
-7.00288	-20.1449	87.7256
-9.64231	-23.65	86.7826
-12.2612	-24.2246	85.9171
-9.25016	-25.2455	86.3147
-6.82369	-23.3868	87.5169
-9.72893	-22.0574	87.0619
-15.1002	-24.8088	84.6256
-18.2643	-25.8758	82.572
-14.9766	-26.4698	83.986
-15.2085	-23.3873	84.944
-9.66862	-20.4378	87.0755
-9.554	-18.9937	86.8861
-12.3335	-21.1437	86.2642
-14.082	-19.6055	85.1033
-14.899	-20.7582	85.0694
-11.3024	-18.5859	86.0849
-13.5604	-18.4918	84.862
-21.8414	-28.4587	79.3878
-21.6042	-26.7126	80.4227
-8.55231	-26.9595	85.7102
-11.8119	-27.454	84.5888
-8.04239	-28.0172	85.0267
-5.61799	-26.4961	86.5064
-15.2295	-28.2392	82.9177
-15.0871	-29.4602	82.0699
-29.1766	-31.7685	73.3069
-28.4742	-31.1	74.0423
-29.318	-31.5793	73.3415
-29.5977	-32.1697	73.0009
-22.7461	-31.9471	77.2781
-22.7658	-32.1986	77.6529
-18.8332	-31.1794	80.2051
-22.6678	-31.8247	76.9396
-23.2237	-33.4975	78.5882
-19.7173	-33.5513	82.0642
-23.0459	-32.9911	78.3821
-16.4699	-33.3129	84.7142
-16.9203	-34.2252	84.8865
-12.963	-33.0406	86.6535
-16.2083	-32.4362	84.2782
-8.20291	-30.5996	86.8687
-4.84287	-30.5876	87.599
-8.04334	-29.4376	86.0856
-12.1145	-30.8823	85.5144
-8.48314	-31.8574	87.587
-2.30721	-33.5932	89.2657
-2.20959	-32.2546	88.686
-5.08093	-33.2641	88.9386
-2.39962	-34.8504	89.6796
-27.6309	-33.8491	72.667
-27.4637	-33.1025	73.0771
-25.5889	-33.477	73.7687
-27.6595	-35.3651	72.5569
-1.94297	-29.6317	82.6584
-1.98031	-28.623	84.0261
-1.87799	-31.6793	81.6942
-4.41212	-29.7167	82.3092
-2.43684	-36.1021	90.0109
-5.43902	-35.5603	89.7663
-2.51272	-37.2878	90.1935
-2.56497	-41.2204	89.1186
-2.60058	-39.7037	89.8676
-5.8043	-40.6517	88.991
-9.2391	-18.0016	86.6841
-6.74956	-17.6069	87.1269
-8.45714	-16.6872	86.2976
-2.14409	-30.8224	87.8985
-2.04479	-29.4459	87.0874
-1.98639	-28.6305	86.5309
-2.05822	-28.2875	85.9416
-4.67875	-28.4762	86.2996
-7.97975	-28.7512	85.5497
-7.90213	-28.4567	84.9894
-11.5901	-29.3244	84.2382
-2.09726	-28.2222	85.1324
-4.58437	-28.1988	84.8539
-15.1908	-30.1143	82.4928
-15.4191	-30.6312	82.973
-15.0861	-29.9065	81.9621
-17.7811	-37.1758	85.4221
-18.0714	-38.3341	85.3034
-14.3603	-37.3023	87.3612
-17.5229	-36.1599	85.3679
-9.84929	-37.3817	88.9401
-10.0754	-38.6415	88.7116
-5.63749	-37.8255	89.9208
-9.57856	-36.2897	88.9826
-2.5625	-38.4613	90.1719
-14.8437	-29.9045	81.2481
-14.5958	-29.8844	80.4078
-11.254	-29.0386	82.9344
-29.9564	-32.338	72.8452
-29.8883	-32.0191	72.9847
-28.9735	-32.5966	72.9987
-28.3985	-32.7006	73.2348
-27.5609	-32.7476	73.8148
-25.9635	-32.7395	75.2109
-7.53224	-29.9494	81.6722
-7.59758	-28.9453	83.0404
-7.57056	-31.9626	80.7626
-11.0305	-30.3838	80.6977
-7.73435	-28.4731	84.161
-11.2539	-29.0385	82.9345
-10.15	-40.194	88.274
-14.5869	-40.0847	86.8657
-17.1894	-35.1661	85.1906
-13.735	-35.1488	87.1855
-18.3023	-39.7812	85.0546
-21.4636	-39.006	82.5976
-14.1975	-29.5434	79.6802
-17.4352	-30.3404	78.0488
-13.7314	-28.0987	78.5774
-11.0025	-28.7986	80.8537
-7.79984	-28.2767	81.8066
-7.66823	-28.5165	83.0694
-8.38911	-27.0359	80.0258
-5.12551	-27.9279	82.0573
-13.5206	-25.1045	77.0938
-16.1442	-25.7234	76.0907
-13.4284	-21.4238	75.4405
-11.0094	-24.5744	77.7959
-27.4891	-38.4969	72.9481
-25.3873	-38.14	74.3324
-27.1538	-42.1435	73.5967
-1.80543	-35.1926	81.8421
-1.77759	-39.2159	82.4541
-4.30683	-35.2263	81.6028
-8.57415	-24.1466	78.2609
-8.54656	-20.4843	76.497
-5.97142	-23.797	78.4671
-7.5367	-35.3785	81.0281
-7.50332	-39.2948	81.8288
-11.1697	-35.7301	80.1629
-30.7183	-34.5164	67.0768
-31.4391	-34.9094	65.137
-11.7337	35.836	51.4348
-11.4143	35.0155	53.5044
-81.2143	-17.2749	-60.257
-82.55	-17.3096	-58.0596
-81.8852	-13.0036	-61.6037
-79.9196	-17.4763	-63.8919
-80.3836	-21.2115	-58.2063
-81.177	8.70375	-30.087
-80.6524	12.0482	-25.8024
-81.6418	10.5628	-34.97
-81.814	11.4158	-40.6947
-81.8628	9.27255	-47.4438
-81.471	6.09364	-40.3296
-82.0876	16.5494	-43.4989
-74.7263	-38.5782	-43.8427
-75.9667	-35.1096	-46.8153
-73.774	-42.2912	-40.1316
-77.0874	-35.9706	-42.8497
-77.0377	-31.9331	-49.9581
-79.2228	-30.2654	-48.3255
-78.2606	-28.4998	-52.95
-74.683	-34.4178	-52.1742
-84.4024	-17.0729	-56.909
-84.8062	-12.6764	-58.2037
-83.7824	-20.7633	-55.0537
-86.435	-16.6977	-56.9427
-84.6109	-31.7686	-45.5116
-85.7859	-33.0618	-44.4898
-83.2412	-29.9821	-46.8833
-86.9783	-33.8311	-43.2697
-88.1812	-30.1578	-46.4631
-85.6857	-37.5865	-39.6525
-88.0956	-33.9905	-41.7404
-91.6689	-23.8297	-45.9188
-93.1093	-20.0958	-50.3503
-91.4815	-23.088	-45.365
-79.0849	-44.1679	-28.4333
-79.7415	-42.7549	-32.0219
-78.6591	-42.7555	-30.5987
-78.7781	-44.0542	-25.932
-80.0078	-44.595	-27.4864
-81.6807	-33.8577	-18.4119
-81.2774	-34.5316	-18.224
-80.4222	-35.6861	-18.3255
-91.3872	-22.6367	-45.0804
-90.8303	-22.9841	-43.9639
-94.505	-9.31081	-53.2647
-94.1765	-8.97025	-54.8968
-94.8565	-10.2656	-51.2787
-94.7395	1.16901	-53.9816
-95.0245	2.48112	-54.5176
-95.0366	4.76609	-54.1737
-94.7384	7.4994	-51.7676
-95.1841	5.18532	-54.7857
-94.8183	5.04536	-51.874
-84.7177	-11.2877	-26.1074
-86.13	-5.93346	-28.18
-83.5746	-15.1943	-24.4356
-84.0364	-10.1855	-25.017
-78.2389	-25.5629	-14.6558
-78.8992	-21.1806	-15.5648
-77.5568	-29.3504	-13.9002
-77.2841	-25.365	-11.8302
-82.8931	-22.7505	-25.0228
-83.1398	-20.9637	-25.8217
-83.1492	-24.7079	-24.8266
-81.5844	4.2748	-40.2676
-82.1405	4.54735	-39.8409
-82.2636	4.85777	-43.9992
-90.7552	14.2877	-42.4681
-92.3006	15.3713	-46.3672
-91.9352	13.6449	-41.2021
-88.9879	11.5586	-38.5885
-89.4419	14.416	-43.8712
-90.9863	14.9342	-52.4797
-89.7785	15.3229	-48.8752
-89.6159	12.9029	-53.3728
-91.8027	12.4734	-56.0971
-92.1815	14.9998	-51.6792
-92.6177	-4.74411	-62.061
-94.0125	-4.45638	-61.2895
-92.7478	2.04164	-61.4513
-91.2026	-5.21738	-62.1733
-87.1857	-1.38436	-29.9336
-87.4185	-2.88797	-30.4526
-95.2337	-4.81556	-57.6502
-95.8086	0.6585	-57.0482
-95.5951	-5.00483	-57.7831
-94.6011	-7.53286	-57.2883
-94.1214	9.32131	-48.1587
-93.1141	9.75844	-44.0903
-94.2284	10.5177	-47.8704
-94.1814	7.76653	-48.4055
-88.439	-1.36894	-33.2931
-88.9737	0.798068	-34.7037
-87.8957	-3.01227	-32.1963
-94.4717	-3.52697	-55.3525
-94.3441	-5.90472	-56.5653
-85.9368	-8.27885	-32.6105
-86.8273	-6.53846	-31.9953
-86.036	-8.12963	-33.4111
-90.9882	-10.5566	-46.5065
-93.4315	-8.40523	-48.9192
-90.8809	-11.6683	-46.3044
-90.5783	-9.96212	-46.0976
-79.5292	-17.2592	-16.7986
-78.6656	-16.8802	-14.2192
-80.211	-12.9314	-19.0332
-85.0412	-7.55978	-58.5762
-86.9067	-5.10424	-58.2099
-85.0161	-2.93492	-57.8871
-83.4545	-8.1962	-59.9299
-88.9868	0.668276	-58.7626
-89.2752	-3.88413	-60.1748
-90.868	6.07316	-59.3509
-88.6369	5.14665	-56.8266
-89.8673	-6.20541	-61.2638
-88.9778	-11.8072	-60.0078
-88.5247	-16.5379	-58.1053
-81.3704	-29.5145	-47.6002
-82.3655	-26.8545	-50.2927
-80.2363	-32.1269	-44.8291
-83.131	-23.9798	-52.8168
-81.0257	-24.2916	-53.7515
-89.9913	-22.7845	-43.1401
-79.0513	-34.666	-42.2988
-77.7704	-37.6747	-38.9321
-78.6824	-42.8034	-23.4907
-78.2784	-42.4347	-23.5136
-77.3997	-42.6576	-23.0938
-77.5342	-42.9963	-28.272
-91.2249	-12.4937	-46.4308
-93.6629	-11.6176	-48.6589
-83.1805	-9.29902	-24.2661
-82.0827	-8.69314	-23.4178
-80.3406	-22.4496	-18.8612
-80.7073	-22.7768	-19.4378
-83.7384	-28.1995	-23.1609
-84.2217	-27.1501	-24.3843
-84.6681	-30.5162	-23.9718
-82.732	-18.0325	-23.1315
-83.5575	-18.7576	-25.2301
-88.1319	7.75752	-54.3561
-87.2823	9.06938	-51.1062
-86.5021	2.79569	-55.0295
-84.8334	0.417748	-55.9066
-84.4071	2.94454	-52.5733
-83.5822	0.194225	-57.2381
-94.0618	-1.2779	-50.7823
-93.9976	-2.67605	-49.954
-86.5272	-7.77355	-35.0312
-87.7229	-7.21465	-37.948
-90.5243	-8.99167	-45.8569
-89.8674	-8.61384	-44.5305
-92.7327	-5.7906	-47.9011
-7.55587	106.675	19.7206
-7.94042	112.147	10.5599
-15.4919	105.667	19.428
-7.31853	100.75	27.1169
-6.81835	94.4911	33.2317
-14.2579	94.1118	32.4137
-6.48307	87.6823	38.5708
-29.7915	80.2603	37.9357
-24.7404	80.9609	39.8461
-30.0357	75.5398	41.5601
-1.96538	-0.263233	90.5889
-4.19685	-0.0715451	88.7326
-2.2798	1.28305	92.7755
-2.72806	12.5665	95.9929
-2.80067	10.3623	96.759
-2.75804	14.9348	94.5829
-5.96216	12.6502	94.6739
-2.80699	7.94649	96.8631
-2.74663	5.50154	96.2719
-2.31417	-5.4007	83.5639
-2.83719	-12.0833	83.7339
-5.28853	-11.4896	83.7328
-2.60885	3.32598	94.8402
-5.33062	3.59675	93.089
-2.67095	17.4631	92.6817
-2.63053	20.1428	89.9007
-5.68105	16.9436	91.6707
-6.34519	70.9523	49.321
-6.31752	74.9153	47.1344
-13.1321	71.2871	48.8651
-6.39149	67.5499	50.7559
-3.26787	43.4203	59.7254
-3.41197	44.9369	58.065
-3.01952	41.6563	62.1028
-3.53695	46.5238	56.7729
-3.60409	48.336	55.7612
-5.35435	45.3959	56.351
-2.44623	-27.7308	82.0173
-2.1076	-28.1195	83.8694
-2.838	-26.4671	80.2243
-2.09725	-28.2222	85.1324
-2.2321	-27.7177	86.0707
-4.58437	-28.1988	84.8539
-3.48242	-23.3414	88.248
-3.23005	-24.7644	87.7155
-2.73756	-26.3514	87.0619
-3.61997	-17.9157	87.5972
-3.00731	-23.5885	78.4307
-3.06109	-19.9994	76.6461
-22.1539	104.312	18.8276
-22.9939	109.237	10.2289
-28.3532	102.361	17.8957
-21.446	99.0485	25.5321
-19.2631	72.0966	47.6078
-19.0205	75.6396	45.4624
-25.1361	72.8875	45.6304
-20.4917	69.3941	48.6136
-22.4699	66.2513	49.2778
-24.8146	62.9611	49.5113
-28.1056	67.0071	47.3893
-25.7924	60.6845	49.2646
-30.1045	61.5789	47.6795
-20.93	59.1274	50.4764
-27.2342	46.5566	43.6037
-31.2115	47.7239	43.3243
-23.5114	44.8789	43.851
-26.8839	48.0184	44.0988
-30.2905	42.9401	42.588
-30.0178	43.3789	41.602
-33.0237	43.6485	42.3782
-28.8124	44.8386	42.401
-26.4349	50.8438	45.1047
-22.6219	49.3624	45.6029
-30.4087	51.7948	44.4802
-47.9931	99.8092	-5.34359
-47.3453	96.2958	3.43319
-42.1376	104.407	-3.58715
-49.2895	102.322	-16.7245
-34.0843	100.093	16.2892
-40.0782	96.9341	13.8799
-35.1724	104.231	8.38365
-30.5839	72.6652	43.3799
-35.784	71.3275	40.8976
-31.4143	70.3664	44.3644
-34.0767	61.9519	45.7477
-33.6522	64.4474	45.8132
-32.5959	67.4752	45.2405
-34.2629	52.0103	43.8036
-38.4604	51.0423	42.9431
-34.7382	49.316	43.472
-46.4222	92.8231	10.483
-45.295	89.018	16.5119
-52.734	88.0982	5.95131
-41.479	69.1244	37.7733
-47.7828	65.5107	33.8524
-42.2949	45.9099	42.0564
-45.3661	44.1074	40.9642
-38.6822	47.3096	42.876
-42.5468	47.0554	42.1059
-35.9017	43.8317	42.0884
-38.7257	43.1401	41.8313
-35.8596	44.3475	41.1807
-44.2737	55.014	40.641
-50.3729	52.4219	37.6661
-43.6686	52.2919	41.0374
-43.0702	49.4697	41.6105
-43.9424	84.8106	21.9685
-50.6461	80.2767	17.5244
-58.5318	83.3806	-0.0509262
-63.6805	78.7955	-7.25775
-57.8262	79.5179	6.33349
-46.0279	40.7646	39.4442
-46.2318	41.0145	39.3575
-47.5484	38.5027	38.3026
-47.8614	42.0329	39.4358
-49.1987	39.7165	38.2888
-47.1133	41.6408	39.4668
-46.5778	41.3292	39.4127
-44.6106	39.2094	39.3914
-44.5812	39.7414	38.3397
-42.963	40.6876	40.4554
-46.088	37.3981	38.225
-55.0664	49.1878	34.6836
-57.445	45.0255	32.6962
-18.8003	53.0577	48.9345
-18.184	54.9643	50.0239
-19.1258	50.6776	47.5318
-15.8596	50.3569	48.959
-16.8305	56.743	51.0828
-14.2286	54.0461	51.1048
-19.3101	47.313	45.7774
-19.7667	44.1984	44.5107
-5.74235	63.7022	51.9495
-66.6206	-63.9251	-11.3664
-66.9535	-65.4917	-17.7298
-68.1883	-58.8624	-10.532
-81.6044	14.4942	-64.3634
-82.2168	10.0808	-57.5542
-81.8293	18.6725	-57.0007
-80.6999	18.9098	-70.753
-81.4351	9.40148	-68.7812
-78.0508	-18.374	-69.7133
-79.0244	-12.8997	-71.4741
-76.0733	-19.5876	-75.0949
-76.9347	-23.6594	-66.4255
-79.7173	-6.95476	-73.0404
-81.3171	-7.64902	-66.3215
-80.3801	-1.31422	-73.0046
-77.9786	-6.60331	-79.855
-71.3274	-38.4428	-54.9975
-73.3655	-33.5716	-59.1764
-68.1653	-42.0587	-57.7351
-6.53333	80.9658	43.3141
-12.9965	81.0039	42.7284
-18.9474	81.1351	41.5534
-19.7275	87.4132	36.4836
-21.6401	-80.3011	58.8401
-16.069	-80.9453	62.6947
-27.9426	-79.6686	52.8598
-19.3045	-83.7351	51.0896
-49.019	-71.1636	43.8304
-50.4634	-67.7777	47.0506
-53.4049	-69.4026	37.8125
-43.4618	-72.7713	49.7638
-57.1073	75.0655	12.043
-62.6165	69.5319	5.84351
-20.5708	93.4878	31.2464
-68.652	73.7663	-15.8983
-68.4423	68.7875	-8.48385
-72.8443	69.044	-25.054
-23.5701	114.257	-1.4812
-16.3472	116.147	-1.30839
-23.9452	118.41	-15.1801
-30.1295	111.613	-1.60897
-65.585	52.1285	10.7166
-66.6318	57.8469	4.78881
-49.9702	37.4133	37.2901
-47.3478	35.4433	37.0506
-47.5621	35.6464	36.264
-61.2374	42.665	28.1895
-59.8965	41.7341	29.8456
-61.3219	36.6412	27.1559
-58.2014	40.7331	31.4464
-2.90398	-103.495	40.12
-60.3368	-59.7078	35.5088
-59.0765	-64.2234	33.1867
-55.9257	-61.4743	43.5806
-61.2357	-55.2837	36.9612
-7.90354	-15.0538	85.5503
-7.4143	-13.2196	84.5851
-9.81139	-15.5343	85.1592
-25.3986	-23.5087	77.8631
-22.5923	-21.0895	80.0088
-24.6866	-19.3551	77.807
-11.266	-12.3307	82.6672
-10.5724	-10.2557	81.629
-14.2296	-12.9694	81.6042
-11.891	-14.2953	83.5826
-8.70919	-11.7057	83.2866
-34.4207	-28.3266	72.3425
-34.1457	-24.114	72.3816
-36.4449	-29.5224	71.1157
-34.1268	-31.9034	72.1188
-64.6822	30.2553	21.6496
-66.121	30.2574	18.5923
-64.8471	24.0878	22.8696
-62.8924	30.4143	24.4271
-67.8502	29.8611	14.8503
-70.0812	28.1702	9.78996
-53.2038	32.2754	33.8954
-51.4885	32.6494	35.2013
-53.0475	30.025	33.8331
-61.0455	30.4329	26.7927
-82.959	0.988144	-59.9224
-82.8905	4.2162	-56.9032
-82.2878	2.17057	-64.6584
-82.7309	-3.2878	-61.7869
-79.2745	-25.065	-55.8318
-77.6345	-26.3043	-58.8658
-71.0369	-53.7633	-22.3176
-71.8055	-51.6737	-28.8631
-69.1555	-59.4241	-23.6912
-70.3662	-54.4496	-15.7921
-72.6933	-49.2088	-21.0504
-82.389	-8.10563	-62.2324
-76.3096	-25.4624	-8.44181
-75.2406	-25.2356	-3.89053
-77.1359	-21.0333	-9.52026
-75.4558	-29.7279	-7.60345
-75.0919	8.25041	7.98599
-76.9491	4.37285	-0.202064
-75.1013	0.548445	11.2884
-74.3494	16.2834	4.56702
-55.5029	25.1947	32.9214
-54.0026	23.9183	35.6761
-53.9892	26.7411	33.6945
-52.7351	28.1703	34.3475
-51.3812	27.2047	36.1417
-73.9797	-24.0375	2.40125
-75.1322	-18.831	0.814673
-73.0594	-28.9919	3.33789
-72.6287	-22.4166	9.03585
-25.9533	12.3004	62.7816
-22.5882	14.52	63.8444
-24.5532	16.3829	60.1573
-30.076	10.7961	61.8203
-36.3691	9.61521	60.3492
-37.5328	5.01173	62.5103
-43.4583	8.67828	57.9272
-19.1001	17.2116	65.6765
-19.6108	14.1544	68.6098
-15.8603	20.3199	67.9297
-23.2708	7.78493	69.2256
-21.9067	9.95645	70.2038
-19.6335	6.59903	79.2704
-20.4719	5.65931	77.5968
-19.3038	4.49459	79.0945
-18.1303	7.61225	81.5919
-21.0472	4.71895	76.091
-20.4398	2.24566	75.8267
-39.8385	-10.1592	65.6699
-39.4513	-4.90645	64.785
-40.1593	-15.8628	66.5664
-34.837	-9.83753	67.4724
-38.4566	0.250232	63.8732
-6.21877	-7.91908	82.2346
-7.81607	-8.03097	81.5885
-6.6251	-9.69379	82.8327
-58.3974	-32.4984	47.1347
-56.9581	-39.1247	48.6343
-54.3097	-29.0729	53.3755
-59.6989	-25.57	45.9621
-28.8907	-17.6881	73.9218
-31.2117	-18.5269	72.8032
-26.3976	-16.7584	75.2009
-40.3231	-21.4287	67.4638
-36.3523	-20.3325	70.0093
-44.9184	-23.2864	63.9941
-40.1059	-26.8799	68.3982
-7.01343	-11.4016	83.6117
-55.2511	-45.5884	50.3506
-52.6672	-50.5601	53.3545
-51.4743	-40.8623	56.3409
-58.694	-49.0423	44.3781
-62.4043	-6.41417	44.2134
-66.4718	-9.85	36.9279
-61.8168	-12.4188	44.3949
-32.129	-68.2716	74.6678
-27.3134	-69.1869	80.5524
-32.741	-64.7962	76.3351
-41.9503	-59.1072	65.9174
-37.3688	-60.2681	71.2216
-40.3493	-54.2965	68.3672
-45.8156	-57.0965	61.5151
-59.2595	13.7433	41.3424
-53.5923	14.6986	46.8336
-56.5065	17.6354	40.3507
-49.1456	26.708	39.4614
-50.032	25.0245	39.6439
-48.1654	28.4896	39.5839
-54.4532	20.0587	39.7874
-52.5439	21.917	39.7732
