1934
41.0703	44.1502	41.3008
39.0572	46.0726	42.1904
36.1458	46.8013	42.1215
22.526	-77.4918	68.2804
21.6317	-79.39	64.4862
24.7764	-76.4951	68.177
45.2688	38.06	38.7383
45.6316	38.6325	38.7538
44.3732	40.4108	39.1544
44.9616	37.8042	38.7749
46.0849	36.1277	38.1828
48.8834	39.7276	36.8741
50.7709	40.8461	35.1265
47.7666	43.3197	37.7714
46.9025	39.2244	38.2437
48.7452	36.7729	36.482
62.9764	-46.5713	-10.2145
64.089	-45.9466	-15.0095
63.1652	-44.7011	-9.28213
62.3113	-48.798	-10.0523
24.9524	33.0061	44.9794
25.0186	33.3699	46.3471
29.8345	32.0997	46.0986
25.1399	32.3033	43.4392
21.2619	33.8223	43.593
16.3798	35.9541	44.8648
16.886	35.1715	44.8354
16.4597	36.9482	44.7708
16.0781	35.9158	45.0063
18.662	37.9334	43.2048
18.0611	37.8962	44.3222
18.9305	38.0195	41.6533
15.0244	39.1064	44.4777
15.5263	38.8919	44.2584
16.339	41.0509	43.8949
14.4634	39.4695	44.7808
14.7984	37.3747	45.1039
7.5124	43.4064	52.6897
6.98967	43.6907	53.3351
7.46728	45.3933	51.802
17.0186	-29.1717	78.683
17.5914	-30.1395	77.7028
17.2958	-28.4043	78.85
14.4415	-28.0916	80.66
57.1918	-68.9016	-10.6639
55.7843	-67.7492	-5.29858
57.022	-71.7931	-12.1237
58.1355	-66.7578	-11.6105
70.8692	-3.40301	-18.2794
69.9576	-9.79415	-13.6817
71.319	-4.86589	-20.8644
71.7799	3.28158	-23.8083
70.5348	-1.30046	-14.0558
59.5316	-74.1513	-23.4788
59.4502	-76.5216	-24.9628
59.9064	-70.1897	-24.5416
58.7225	-75.4448	-18.4255
61.4549	-109.532	-27.6741
62.2861	-118.051	-29.2766
59.604	-106.45	-35.4157
60.3373	-100.534	-27.4012
61.7796	-111.817	-21.3705
21.76	-31.6546	75.2748
21.887	-31.8566	75.2646
21.8	-31.4494	75.1297
20.6108	-31.7823	76.6146
21.9231	-32.125	75.3391
22.2254	-32.1371	75.1734
18.7713	-33.3641	79.7466
18.7856	-32.8172	79.3009
16.4975	-34.1506	82.4999
26.7182	-75.4359	68.1538
30.3988	-75.9074	62.0771
27.0498	-73.1016	71.6025
45.1265	-68.1972	-68.0848
44.3384	-65.2193	-72.8931
47.5085	-66.7797	-64.7017
44.4697	-71.2564	-67.4133
55.1047	88.8021	-8.99338
56.465	89.0165	-16.3188
51.6706	92.7332	-7.33565
55.8741	85.3872	-4.95942
80.9444	-25.1803	-47.2398
82.2278	-20.9785	-51.5259
81.2968	-24.0737	-46.3937
79.7686	-28.6182	-43.4983
80.3949	-25.6054	-48.5954
75.9934	0.0197981	-28.4713
75.0471	-3.98899	-26.3366
77.0489	-0.20231	-28.8637
76.7958	4.04249	-30.8471
74.681	0.253468	-28.0815
72.9101	-20.6754	-22.4874
72.3654	-21.1079	-21.2592
73.366	-23.4539	-22.873
73.4063	-21.2487	-23.9982
72.9278	-19.005	-22.6597
72.2793	-27.0287	-21.0118
71.9829	-24.0083	-20.6373
73.2011	-27.044	-22.3543
83.2062	-15.9788	-55.5488
82.4499	-16.2117	-56.531
83.9321	-10.2867	-58.4102
83.6086	-15.7148	-54.5303
81.439	-16.3457	-57.5159
80.6334	-21.215	-53.8736
80.1068	-16.1876	-58.1335
81.9117	-10.6373	-60.3312
72.9963	2.94787	-30.916
74.0049	4.43527	-33.2406
72.5484	4.47106	-30.5389
73.4665	2.22104	-28.9997
77.35	-24.0664	-51.8138
75.797	-23.2719	-52.1536
78.054	-20.2449	-54.7996
78.468	-24.8046	-51.2468
76.311	-27.3286	-48.7513
79.5878	-28.7598	-38.3127
80.1299	-26.2803	-41.5208
79.3072	-30.2708	-35.6593
79.472	-30.0398	-39.2458
77.4633	-37.3561	-33.8853
76.7827	-38.6522	-30.4361
76.2335	-39.3589	-34.7114
78.3242	-34.6093	-37.4797
78.5051	-34.152	-33.2596
77.5248	-33.8712	-27.7322
76.9831	-35.7716	-27.5315
78.2604	-33.0658	-29.7211
76.9694	-32.7906	-26.6303
66.4989	-42.7877	-21.1065
65.954	-43.748	-21.2693
67.4639	-42.0536	-23.025
66.3229	-41.0338	-17.2626
71.5463	-40.5757	-22.219
72.1652	-42.3013	-24.3925
73.0633	-38.9677	-22.2281
70.8429	-37.5984	-20.3319
70.1461	-41.1509	-22.6714
79.7792	5.60585	-32.8539
79.847	7.18649	-33.1527
78.5773	2.45156	-30.9225
80.0506	5.40078	-33.3908
79.7969	8.29021	-33.4948
81.2283	11.0958	-36.272
79.143	8.34027	-33.5302
83.5335	-15.2939	-53.7619
82.6112	-19.2161	-50.078
84.3056	-10.2241	-56.5468
84.2648	-1.23789	-55.9788
84.0389	-2.18952	-55.3661
84.3944	-2.05479	-56.7658
84.3484	0.500319	-54.847
80.2267	6.07119	-35.5639
80.2907	5.89804	-34.9777
79.7296	4.48979	-35.4095
80.6912	7.40576	-36.9548
80.1185	5.21936	-33.8913
79.3169	2.14862	-32.9752
81.431	8.96514	-36.2989
82.6719	-15.0871	-47.9699
83.6722	-12.3992	-48.938
81.2432	-18.2182	-46.1117
79.2451	2.59269	-36.5463
79.6918	4.06362	-37.4481
79.1572	2.58981	-36.004
79.5965	1.29529	-37.996
79.9202	4.59395	-38.8544
80.3894	3.68273	-40.6782
78.3174	-18.6367	-42.3145
79.0581	-20.5709	-42.6788
75.8749	-10.5602	-28.5897
76.9077	-6.27272	-29.7614
75.7596	-10.259	-27.3617
74.7571	-15.165	-27.4627
78.5524	-1.51837	-35.1827
78.8529	0.31481	-35.0368
48.8457	-64.5753	-63.1713
49.1689	-60.5291	-66.5865
49.9065	-64.3727	-60.4434
23.7601	-0.159418	65.8637
24.874	-4.10281	66.8028
24.3663	1.31633	65.3431
22.0607	0.570793	66.3239
19.3728	3.04956	68.0638
19.7436	1.87436	67.5587
19.8464	5.73381	67.7239
18.6469	3.06259	69.5063
50.1477	58.3242	33.7291
49.9612	56.7511	34.9636
54.554	52.0231	30.3034
50.5495	59.2399	32.3054
45.8968	62.0487	36.4816
7.55779	0.241307	78.541
6.97804	0.944017	79.6818
7.15384	-0.581094	78.362
8.97191	0.0677265	77.6087
9.8717	3.37309	80.9982
8.28139	3.05581	81.8186
11.0735	2.54321	78.942
10.6698	4.37068	81.6155
44.9778	34.9857	38.2983
44.5025	35.1387	38.3495
45.6056	34.4411	38.062
44.8178	35.7035	38.5497
17.9811	35.017	43.4862
18.6017	34.6791	43.4503
18.446	34.9173	42.459
17.645	34.9925	44.3313
16.3629	11.2993	77.6369
16.5343	10.3206	77.7978
16.626	11.2124	76.6687
15.3032	12.1411	79.2259
75.204	-30.7466	-45.4966
74.1016	-32.8372	-43.282
74.0032	-28.9718	-46.7936
76.2519	-32.0317	-44.5279
62.9811	80.669	-27.0488
60.7813	84.4466	-26.9371
63.7144	77.2525	-21.3057
64.6836	79.0476	-36.6244
24.6153	-38.5016	70.9893
24.9358	-36.7636	69.8202
25.1438	-41.6037	70.0694
23.6465	-37.761	72.4424
23.8263	-27.6461	67.9973
22.5521	-27.3775	69.5911
24.176	-25.1872	65.5089
24.4118	-29.7502	67.9415
-15.1007	-77.1119	74.9508
-15.8338	-75.2101	77.9404
-17.3611	-77.7265	71.2081
-12.3808	-77.7631	75.2023
-63.6279	7.78375	30.1369
-64.4794	10.3624	25.7414
-63.8424	4.32675	30.2686
-62.0267	9.77249	33.3651
-60.1071	12.2545	35.5213
-58.1875	12.2325	39.3709
-59.7192	15.7064	33.044
-12.3093	63.9295	49.4663
-14.245	62.109	49.518
-9.21969	59.8078	50.434
-9.52696	64.3966	49.2857
-16.6604	67.0396	48.2636
-24.3318	41.4732	44.0253
-24.015	41.8744	42.6989
-22.4456	39.7232	43.8182
-24.4348	41.535	44.9182
-26.7318	43.2633	44.2156
-8.37258	41.5424	52.3954
-7.90011	42.1578	52.9062
-8.6736	42.9767	51.1312
-9.07954	40.1797	52.3229
-11.5775	40.7899	48.5009
-13.7842	38.4779	47.5033
-11.2828	39.2018	49.8814
-10.1191	43.1752	49.2675
-12.2787	42.6462	47.3743
-44.4264	34.0862	42.1727
-44.7971	33.4227	42.184
-41.4544	32.9645	45.3508
-44.1652	34.2929	42.0889
-45.8052	34.9404	39.8676
-15.8318	32.5619	51.0278
-17.3857	31.3296	50.6596
-15.2529	31.8446	52.2887
-15.5605	33.6098	50.3729
-20.1932	36.2626	43.7876
-20.341	36.3466	42.8217
-20.2139	35.7469	43.8219
-19.9641	36.2746	44.4511
-20.4964	37.0725	43.7896
-26.3581	33.3938	46.2205
-23.1919	34.1462	44.4928
-26.5205	32.6275	44.6567
-31.1726	32.5128	47.3241
-26.3907	33.8065	47.5843
-23.3681	-32.4084	72.3257
-23.1161	-32.3021	72.4618
-23.2026	-32.3594	72.5856
-23.4615	-32.6449	71.9282
-22.3407	-30.7097	74.4385
-23.3774	-31.5457	73.2277
-22.4571	-31.6988	73.4458
-21.0515	-29.9466	75.6691
-22.5067	-30.0755	74.8196
-23.9627	-31.8857	72.7496
-23.9801	-32.056	72.6662
-24.1201	-31.68	72.8162
-25.8117	-31.056	72.7382
-26.0498	-29.7403	72.9768
-26.2747	-31.8348	72.3742
-24.9866	-30.9161	72.9254
-23.8438	-33.0107	71.2077
-23.555	-33.3451	71.7037
-24.5022	-33.4131	69.7675
-23.0756	-32.309	71.4738
-19.9588	-35.0669	78.3512
-20.3032	-35.8696	78.1467
-18.1232	-36.3873	81.2273
-19.8041	-34.3976	78.2484
-21.7169	-33.7544	75.3071
-19.1937	-22.8239	80.2139
-18.7787	-21.2082	80.3987
-21.0071	-25.3198	78.3976
-19.312	-23.7589	79.9493
-16.5334	-20.3265	82.1455
-22.4583	-32.0351	73.4206
-21.1662	-31.8093	74.4961
-22.5184	-32.045	73.2246
-22.5388	-32.1303	73.4574
-68.4474	-33.3383	-18.1908
-69.2977	-32.4886	-18.4749
-68.2102	-37.2664	-20.0479
-67.7765	-33.6031	-17.2871
-77.2553	-26.9069	-31.5298
-77.7924	-25.7144	-34.5872
-78.2463	-28.2635	-31.6266
-76.6916	-27.5859	-28.9063
-75.6316	-25.544	-31.1364
-72.7323	-30.9469	-20.3503
-73.5992	-32.5473	-21.4025
-72.3429	-31.0872	-19.5153
-72.1577	-28.265	-20.6056
-70.9218	-19.8521	-26.5963
-70.7779	-18.8577	-28.5773
-71.4362	-22.1229	-26.8169
-72.3034	-19.9281	-25.6943
-71.7221	-17.7233	-27.1812
-78.0137	-0.955771	-33.237
-78.133	-0.230605	-32.4741
-78.2019	-0.269637	-33.9902
-77.4073	-3.0154	-33.47
-81.3806	8.69435	-39.9798
-81.2444	9.54284	-39.2455
-82.5839	9.09068	-43.2094
-81.069	7.73418	-39.6775
-74.3648	-11.4154	-34.4971
-76.8255	-8.45091	-38.544
-73.6259	-13.8699	-34.408
-73.3524	-11.6977	-31.1665
-75.6446	-7.63903	-34.437
-80.5283	1.43886	-40.9697
-80.1224	-0.00250828	-40.3746
-79.2952	2.88465	-37.1686
-81.0541	2.83068	-42.1773
-82.1092	-0.113761	-45.4422
-72.6113	-32.27	-41.433
-73.7749	-31.2177	-42.8141
-71.4052	-31.7818	-41.5984
-72.3871	-34.4111	-39.4915
-82.7388	-13.8361	-48.3463
-83.0441	-12.933	-49.5841
-81.8162	-16.6657	-47.1075
-82.6334	-13.5089	-47.7955
-83.1059	-11.6655	-51.5872
-83.4046	-9.42871	-51.1683
-83.2102	-9.00924	-53.5666
-83.0303	-12.5414	-52.408
-78.1148	-24.6671	-36.9784
-78.4894	-22.9377	-39.3926
-78.9565	-25.6992	-37.3064
-76.5239	-22.7816	-36.3573
-80.0992	-12.491	-44.7907
-78.8294	-14.1535	-43.4151
-80.2083	-11.15	-44.8012
-81.5583	-13.1183	-46.2273
-77.964	-16.9631	-41.6654
-78.7413	-18.877	-42.0369
-76.5143	-17.5633	-39.2137
-70.1237	-25.3311	-18.2239
-69.849	-24.3767	-17.8864
-70.8389	-25.1185	-19.1277
-70.4219	-27.6457	-18.2032
-69.7854	-22.6508	-17.626
-69.3988	-22.6013	-16.7193
-70.2461	-20.6709	-18.1563
-71.8175	-14.0231	-20.2725
-72.4183	-10.9831	-21.2669
-72.1838	-14.5462	-21.0242
-71.4828	-14.4623	-19.7463
-71.0961	-15.1154	-19.1057
-70.8011	-17.4907	-18.7545
-70.7354	-14.7819	-18.2414
-73.431	-24.0492	-29.3486
-73.2941	-22.6917	-31.3626
-73.7988	-24.1426	-27.201
-73.9348	-11.0358	-29.674
-72.7489	-14.6119	-28.287
-75.0055	-9.96534	-28.956
-75.2695	-7.4835	-30.9795
-72.4856	-16.4123	-27.4814
-73.2197	-16.4236	-26.9548
-83.3996	2.17655	-50.6455
-83.6058	0.666377	-51.9907
-83.3065	1.88611	-49.9803
-83.5094	2.8343	-51.1054
-83.6603	-3.00453	-51.7741
-83.7481	-3.73243	-50.0757
-83.5532	-0.873745	-50.3943
-83.5454	-1.91671	-52.921
-83.652	-4.79495	-52.1904
-80.7134	7.1512	-39.7427
-79.9049	6.67767	-38.526
-81.3955	6.72447	-42.3618
-82.2366	5.88294	-45.5319
-81.5883	5.01468	-44.6752
-83.097	6.82709	-46.5813
-83.2528	4.69889	-49.3646
-81.2771	3.96316	-43.3785
-82.5776	2.55664	-47.2115
-80.0842	5.2799	-39.8083
-39.6076	46.3089	42.9698
-39.5387	45.9108	42.7683
-36.7646	47.382	43.3877
-39.7615	46.7522	43.2286
-42.1111	44.7606	42.2958
-20.5386	-78.3874	65.9227
-22.8866	-77.3855	65.5112
-19.4207	-80.1457	62.4309
-46.5553	38.4968	39.6515
-46.775	39.0556	39.7096
-47.4263	36.5275	39.058
-46.3226	38.2393	39.6865
-45.5066	40.8561	40.322
-49.6321	40.1932	37.8803
-48.5973	43.588	38.8831
-51.3881	41.3435	36.1984
-49.7294	37.1218	37.4809
-47.8559	39.5855	39.2882
-62.7562	-44.6876	-10.489
-62.1486	-46.8965	-10.3798
-62.9145	-42.8241	-9.53147
-63.8583	-44.1406	-15.1721
-19.3664	36.4382	44.8096
-19.6802	35.6283	44.9687
-18.839	36.4082	45.0395
-19.5922	37.4283	44.695
-21.2386	38.2914	43.8191
-21.0517	38.2795	44.7349
-21.0381	38.3651	42.3839
-17.444	39.6405	44.6556
-18.7153	41.5169	44.2057
-18.178	39.3987	44.3555
-17.022	37.9608	45.2812
-16.5751	40.0335	45.0507
-7.18713	43.5735	53.104
-7.13938	45.625	52.2159
-6.58212	43.855	53.7212
-18.3314	-29.9188	77.3375
-16.1241	-28.7507	79.4671
-18.8096	-29.2174	77.4781
-18.6288	-30.8958	76.3763
-57.098	-67.2955	-11.1691
-58.046	-65.1038	-12.0955
-56.9098	-70.2935	-12.5729
-55.8111	-66.0168	-5.94472
-70.526	-2.00142	-17.6932
-69.5753	-8.33727	-13.1941
-70.1896	0.0406727	-13.4733
-71.4417	4.64674	-23.1248
-70.9517	-3.42596	-20.2785
-59.0958	-72.8688	-23.6755
-58.4683	-74.1208	-18.7191
-59.4744	-68.8407	-24.7276
-58.9321	-75.3233	-25.132
-61.216	-109.144	-27.6983
-62.0803	-117.843	-29.2813
-61.5181	-111.445	-21.4165
-60.0474	-99.9335	-27.4526
-59.3555	-106.048	-35.4167
-22.5582	-32.6221	73.687
-21.432	-32.7236	75.0785
-22.5988	-32.4153	73.5451
-22.6795	-32.8259	73.6658
-23.5831	-32.9235	73.2826
-24.5506	-32.2678	72.6558
-23.7917	-33.3872	73.3674
-23.0059	-33.1042	73.5558
-23.9052	-32.3898	72.7935
-19.5619	-33.9624	78.2787
-17.6561	-34.6994	80.9569
-19.6123	-33.4702	77.8402
-24.8991	-76.4867	65.1773
-25.4248	-74.5118	68.1524
-28.6111	-76.8855	59.224
-44.7921	-67.5425	-67.9073
-44.1454	-70.6431	-67.2531
-47.1692	-66.0554	-64.5198
-44.0086	-64.5647	-72.691
-54.3052	89.8379	-8.01265
-55.0932	86.4419	-3.95254
-50.7917	93.7478	-6.39237
-55.7655	90.0351	-15.3546
-80.628	-23.456	-46.5898
-81.919	-19.2466	-50.7922
-80.0634	-23.8955	-47.947
-79.4654	-26.8944	-42.9223
-80.9987	-22.3397	-45.7323
-75.662	1.52301	-27.7456
-74.726	-2.47304	-25.6681
-74.3461	1.72654	-27.3721
-76.4691	5.53284	-30.0633
-76.7324	1.32393	-28.1234
-72.5418	-19.0282	-22.0631
-72.0147	-19.4629	-20.8517
-72.5601	-17.3737	-22.2117
-73.0316	-19.5916	-23.5634
-72.9993	-21.7715	-22.4804
-71.9427	-25.323	-20.6948
-71.6469	-22.3374	-20.2797
-72.8431	-25.3301	-22.0198
-82.8715	-14.2428	-54.7393
-83.2911	-13.9699	-53.7172
-83.6214	-8.54991	-57.5302
-82.1272	-14.4926	-55.7251
-81.1203	-14.6503	-56.7199
-80.2858	-19.5225	-53.1493
-81.6102	-8.9452	-59.47
-79.7743	-14.5203	-57.3513
-72.6888	4.37162	-30.1869
-73.1515	3.65385	-28.2799
-72.2215	5.86999	-29.8044
-73.6755	5.87513	-32.4766
-77.0383	-22.4319	-51.1641
-75.4423	-21.6719	-51.5156
-75.9697	-25.6997	-48.1658
-78.1219	-23.1444	-50.5967
-77.7092	-18.6093	-54.0933
-79.2908	-27.0109	-37.782
-79.8083	-24.5453	-40.9314
-79.1813	-28.2975	-38.7213
-79.0248	-28.5089	-35.1717
-77.1881	-35.6017	-33.5173
-78.224	-32.3786	-32.8495
-78.024	-32.8696	-37.0369
-75.9583	-37.6324	-34.3726
-76.5421	-36.8751	-30.1304
-77.2323	-32.0724	-27.391
-76.6874	-31	-26.2913
-77.9703	-31.2748	-29.3389
-76.717	-33.9749	-27.2222
-66.2199	-41.0598	-21.0942
-66.0345	-39.2663	-17.2831
-67.2005	-40.3359	-22.9637
-65.6632	-42.0289	-21.2748
-71.7346	-38.5558	-21.9109
-72.0286	-40.4687	-24.2185
-69.9803	-39.33	-22.5282
-71.4191	-35.8333	-20.1805
-73.6077	-37.0971	-22.0274
-79.4956	7.15325	-32.0091
-79.7753	6.95754	-32.5408
-78.2551	3.99321	-30.1318
-79.5678	8.72493	-32.2914
-79.5157	9.82081	-32.6224
-78.8312	9.85687	-32.6674
-80.9303	12.6481	-35.3478
-83.9678	0.482667	-55.0312
-84.0548	2.21469	-53.8901
-84.0928	-0.329502	-55.8209
-83.7331	-0.471125	-54.4332
-79.9449	7.63445	-34.6967
-80.3959	8.97417	-36.0663
-79.4401	6.0533	-34.5628
-80.0074	7.46101	-34.1134
-79.8382	6.78086	-33.0396
-81.1299	10.5353	-35.3889
-79.0083	3.71437	-32.1676
-82.341	-13.3504	-47.2022
-80.9325	-16.4978	-45.3979
-83.3618	-10.6512	-48.1265
-79.6338	6.17179	-37.989
-79.3981	5.6345	-36.5963
-78.9291	4.16244	-35.7192
-78.8374	4.15703	-35.1812
-75.5104	-8.96276	-27.9709
-76.5839	-4.69431	-29.0776
-74.4206	-13.5466	-26.9152
-75.4001	-8.66759	-26.7497
-78.2113	0.0640139	-34.4089
-78.5197	1.88892	-34.2432
-78.4423	-0.614349	-36.0555
-48.516	-63.7961	-62.9792
-49.552	-63.5571	-60.2601
-48.8289	-59.7192	-66.3582
-26.0728	0.489866	65.7169
-24.1332	1.30227	66.1024
-26.636	2.09597	65.1855
-27.1802	-3.81716	66.6935
-21.3079	3.9639	67.8639
-20.4964	3.84954	69.2683
-21.8445	6.86129	67.3895
-21.669	2.67144	67.317
-50.1587	58.3392	34.9622
-50.4058	56.5835	35.947
-45.2355	62.7293	37.9953
-50.4276	59.5773	33.7382
-54.8291	52.3986	31.5801
-7.88795	1.77708	80.5721
-8.12274	2.30309	81.1091
-8.67353	1.19763	79.4768
-6.63004	1.67648	81.3308
-8.3345	3.03546	81.9968
-9.46621	3.38383	81.5994
-7.088	3.40169	83.6591
-46.4111	35.4123	39.1013
-45.9251	35.5706	39.1709
-46.2464	36.1531	39.3764
-47.0387	34.8373	38.8411
-20.4723	35.3994	43.9179
-20.632	35.268	43.0408
-21.0062	35.0477	43.9598
-20.3602	35.4089	44.6276
-17.2077	11.8361	77.2061
-15.9558	12.6245	78.7974
-17.5526	11.7995	76.2519
-17.4454	10.8814	77.361
-62.4862	81.7456	-26.0293
-64.2559	80.1501	-35.589
-63.2071	78.3333	-20.2691
-60.2324	85.4963	-25.9422
-24.8734	-39.0662	69.4175
-23.9269	-38.3953	70.856
-25.2086	-42.0027	68.3458
-25.3218	-37.3397	68.2954
-24.9002	-28.2958	66.7473
-25.3107	-30.3737	66.5835
-25.4834	-25.6883	64.4361
-23.6077	-28.1318	68.3426
-11.0225	3.71157	80.8015
-11.6409	4.78794	81.3505
-12.4454	2.92406	78.7153
7.08073	2.72003	82.211
6.00909	3.17929	83.8493
6.65527	2.01873	81.3271
6.2678	1.51627	80.8014
5.00973	1.40857	81.5678
-9.29661	0.470687	78.3655
-10.6388	0.276166	77.497
-8.96683	-0.376278	78.2058
72.0089	-38.8861	-36.6092
70.581	-38.6195	-35.6835
72.6865	-36.0289	-39.8838
73.196	-39.6917	-36.2623
70.8208	-41.5752	-32.4475
61.2534	-41.9575	3.57507
60.2725	-41.2234	11.4668
60.2743	-46.849	3.61274
62.496	-41.914	-3.37713
62.2674	-36.8772	3.46087
56.8539	-115.291	-7.24962
54.9655	-103.819	-6.37137
54.0815	-116.246	-2.91491
58.6766	-126.266	-8.57367
59.1192	-114.13	-11.7494
59.8651	-133.831	-9.99142
60.7208	-139.67	-11.4526
61.7925	-132.052	-14.6466
57.3086	-135.638	-5.40154
47.031	-95.7871	3.78417
46.4559	-88.7143	4.73276
43.3492	-96.3942	8.38123
48.5522	-105.074	2.68062
50.7354	-95.6137	-1.17484
58.1686	-95.6449	-14.6254
59.2584	-103.065	-15.1836
59.5074	-95.0489	-20.1042
57.5627	-89.9955	-14.427
56.0681	-95.5883	-10.2067
54.9263	-59.4136	18.7792
56.4834	-55.1319	19.5891
53.9603	-59.3966	26.9323
53.1324	-63.4105	17.411
55.6792	-59.6921	10.814
68.3014	38.743	-5.16721
69.5027	45.3807	-11.5913
64.9726	44.3643	4.437
67.4663	32.1296	-0.192326
71.0936	34.2344	-16.1691
72.8747	35.491	-60.0192
71.9385	30.093	-68.7107
71.5756	41.2273	-66.9614
73.5555	39.8674	-50.0105
73.5643	29.3673	-53.286
8.7623	-106.521	42.5555
6.219	-106.699	43.5556
9.39994	-117.881	39.5824
11.8182	-105.963	40.9516
8.56551	-97.1938	46.2438
10.0879	-130.743	34.6989
10.7295	-141.918	30.1372
13.6561	-129.749	33.2093
6.8407	-130.992	35.8869
3.76422	-150.437	29.2206
7.43717	-150.038	28.5124
3.68187	-142.633	31.9504
0.167663	-150.461	29.5457
3.95827	-156.078	27.6155
61.2495	-57.1387	-37.4048
63.1434	-51.1608	-36.4232
61.2078	-62.3497	-31.2588
59.3748	-63.0917	-38.6165
61.4634	-50.444	-42.8469
61.9266	-45.5825	-46.9533
59.0266	-51.4631	-48.8091
62.7765	-41.4575	-50.576
64.5575	-40.8164	-45.2637
62.7853	-124.993	-31.1907
63.1551	-131.874	-32.5984
60.9981	-122.153	-37.9916
63.5171	-128.152	-24.6688
3.76474	-131.392	36.6434
3.83414	-118.636	41.4652
0.760146	-131.442	36.9998
59.4184	-40.2961	19.6522
60.2745	-34.7679	18.665
58.2288	-39.005	26.976
58.6665	-45.5739	20.0194
56.9341	-59.7422	3.00967
55.6583	-63.6309	2.24509
58.0524	-60.5638	-4.79285
58.1853	-55.6577	3.3258
10.2712	-63.5015	90.4416
6.54301	-63.6443	91.5167
10.0132	-67.6378	89.6049
14.4798	-63.3658	88.3977
10.4899	-59.4559	90.0017
18.8342	-62.9105	85.5205
18.8156	-67.1438	84.7985
23.4435	-62.7448	81.5567
18.5759	-58.8851	85.2084
3.46464	-55.9822	90.4421
6.59907	-55.7532	89.8884
3.23886	-52.3016	88.659
0.522249	-56.2845	90.5558
3.57863	-59.9546	91.6418
9.8293	-71.5492	87.2127
9.97951	-74.8663	82.98
14.1255	-71.4365	85.435
6.34174	-71.4504	88.1116
10.5826	-77.4339	77.3256
6.84775	-77.7208	78.0509
10.9605	-79.955	71.1986
14.7857	25.2463	58.8733
15.5304	21.8618	61.9817
17.0245	22.819	57.9915
14.147	28.3298	55.7296
12.5726	28.1761	59.8713
44.9395	-4.64744	56.0027
50.4844	-6.85786	50.2977
45.0378	0.574014	54.951
38.893	-2.65728	60.397
44.5808	-9.7915	56.9101
56.2933	1.8479	43.2876
59.9644	0.160849	37.1115
55.7166	7.68069	43.1703
50.9618	4.6001	48.847
55.9099	-3.75333	43.6714
64.6662	14.5636	20.9208
66.5449	12.1896	16.4631
63.9594	21.6024	18.0428
62.2545	17.2995	24.3478
44.2076	-15.0773	57.6392
43.6633	-20.3782	58.42
48.8386	-17.6175	51.9026
39.1081	-12.727	62.2971
2.90795	32.337	75.346
2.56933	36.9119	69.9135
0.927256	32.7465	75.3918
3.1374	28.0641	80.0934
4.88784	31.2722	74.8051
32.3285	87.0293	26.1279
27.1972	88.3979	27.6857
31.3234	81.6398	30.8883
37.7289	84.8674	24.0623
33.4679	91.9842	20.9726
4.26269	-83.4197	65.473
4.35889	-86.7909	59.1903
7.34741	-83.298	64.9771
3.90238	-80.408	72.1385
1.42617	-83.5219	65.5439
56.4593	-37.3632	33.8702
54.0574	-35.1681	40.4933
55.425	-43.5314	35.2481
57.3562	-31.4127	32.6945
3.37449	-71.6346	88.2814
3.46317	-68.1916	90.705
0.961441	-71.9208	88.0853
3.60273	-75.1618	83.7712
3.74668	-77.8726	78.2031
0.93143	-78.0211	78.1122
37.5612	-69.1211	61.1453
32.9214	-69.7687	67.5674
36.519	-72.5767	58.7563
41.7052	-67.1972	55.4968
37.7641	-64.8511	63.6185
39.116	-77.8973	35.9241
36.1358	-81.8986	31.6449
42.259	-76.1732	30.0354
41.9179	-74.7052	39.8445
34.8896	-79.6924	41.6733
3.79262	-90.8638	53.4839
6.40386	-90.9361	52.8614
1.32351	-90.949	53.6568
3.46082	-97.4314	47.7939
7.47757	22.1631	82.3562
7.89583	19.285	85.7485
9.79252	20.3655	79.88
7.2405	25.6445	78.0477
5.24139	23.5698	83.8597
24.3166	3.88457	64.6487
27.5227	1.50519	64.1386
22.9585	8.58146	63.4147
21.2197	7.18252	65.6173
25.4781	-31.8374	73.8436
24.5123	-31.2325	74.0106
24.6289	-32.5583	74.1396
26.2914	-32.3844	73.6591
12.2552	1.47737	76.9905
13.9055	2.91264	76.9896
11.4825	0.462126	76.613
14.1157	1.19325	75.123
11.2104	-3.30726	75.2959
11.88	-4.8141	75.718
13.6924	-3.64144	73.3335
11.1141	-2.03682	75.192
9.02753	-2.61052	76.9967
0.980487	1.17195	85.0644
1.17882	1.92278	86.6928
-0.620249	0.96878	85.4804
0.91263	0.33452	83.7707
2.51787	1.52219	83.9738
16.0402	-3.08191	71.411
18.0911	-1.89135	69.5933
15.7481	-1.74164	71.6438
16.4842	-4.79233	71.9044
8.34179	10.2378	90.8324
5.78866	9.99287	93.4818
7.93649	8.10371	90.1146
10.9148	10.2155	87.1539
8.47147	12.2397	90.7976
23.762	-45.3687	78.2671
26.5159	-43.6464	75.8653
22.4814	-42.1144	79.0323
20.1536	-46.5837	80.9327
24.9354	-49.1249	77.6044
24.9791	-25.4319	75.0361
24.5798	-20.9915	75.215
22.9756	-24.1207	76.0959
26.9076	-26.5865	74.1511
1.11147	-4.00112	82.4721
1.15756	-6.18191	82.746
2.79412	-3.90783	82.1109
1.00099	-2.12006	82.5499
-0.845363	-4.04876	82.6225
6.96466	29.6099	73.6279
9.04354	27.1423	71.9118
6.6508	33.6532	68.7407
18.4286	8.53804	71.8426
17.542	10.6225	73.4948
17.8506	9.65953	73.6696
18.5328	6.82559	71.4285
18.6909	8.56619	70.5291
3.81567	-0.577674	81.2602
3.81929	-2.19065	81.3035
5.21821	-1.12908	80.1086
3.84347	0.519948	81.6732
2.49411	-0.575626	82.2025
3.82539	1.45447	82.6616
4.03126	2.43144	84.1182
17.1081	10.7767	75.4734
16.7279	11.5868	75.482
17.5867	9.11413	74.9752
18.1845	4.05523	71.0655
17.827	5.80134	72.9906
17.2311	1.68283	71.4423
1.31765	-13.8827	85.6596
1.59542	-15.6907	86.7522
3.838	-13.1508	85.4643
1.27703	-11.2992	84.3625
-1.4235	-14.5597	85.7278
21.6863	-7.5807	70.3558
19.5342	-7.31369	71.5914
22.615	-11.8716	72.515
23.6316	-8.056	69.4317
20.607	-3.55024	68.6085
8.93162	-43.1398	85.8061
8.83412	-41.2333	86.4735
5.69366	-43.3544	86.0937
9.10188	-45.5041	85.5157
12.264	-42.8336	84.9758
20.9438	-26.69	77.5661
21.1647	-27.5664	77.1224
22.7273	-28.8075	75.553
20.9486	-25.3141	77.629
16.4383	12.1285	75.1905
16.4511	12.6594	73.6912
14.9869	13.4287	77.4007
15.5326	-42.4571	83.6493
15.9768	-44.606	83.1802
18.6485	-41.4725	81.9177
15.1853	-40.7131	84.2094
2.67773	-43.5711	86.0828
-0.180853	-43.6209	85.9633
2.85671	-45.8108	85.9758
2.44157	-41.8829	86.906
57.3089	44.3594	27.0459
56.3918	44.1844	28.9588
58.5972	37.1345	24.396
58.1799	44.8902	24.8265
41.2886	73.1203	30.9696
35.7261	75.2597	33.4788
40.8151	69.7241	34.8663
46.9762	69.6829	27.9663
42.3458	77.0469	26.1886
52.3894	65.0189	23.9985
51.5199	61.9641	28.2843
57.4104	58.6633	18.8013
53.5624	68.9865	18.6414
41.277	64.8398	39.0636
40.8952	66.3963	38.1317
36.355	67.0454	41.2633
41.8317	62.9824	39.6937
59.3612	45.0857	21.3721
60.3331	47.047	17.6763
55.5938	53.6357	26.6868
61.4535	37.2034	17.572
25.3156	59.5438	45.8335
25.2801	56.7014	44.9979
29.1064	59.8351	44.7802
25.1476	61.7526	46.4355
21.487	57.9045	46.6242
6.10997	41.2531	57.1958
8.22025	38.24	56.2295
6.01788	42.7869	55.3668
4.02482	43.4607	58.0604
6.30346	39.4979	59.8168
28.2825	17.3702	55.5922
29.9432	13.336	57.3796
35.2105	15.9814	53.9353
26.4704	20.6792	54.1434
22.556	19.0989	56.6688
54.9216	23.0447	32.3602
57.1057	20.9784	30.7242
55.4855	26.7214	29.5178
52.647	25.2443	33.7364
53.2019	20.9656	36.6427
6.50619	36.9929	63.7809
8.6271	34.0945	62.6171
4.33699	39.1719	64.6466
41.8667	61.0601	40.0792
45.8286	58.5593	38.2042
37.4331	62.681	42.0729
41.636	58.9122	40.3246
49.5206	55.0398	35.9621
48.8022	53.1846	36.8587
53.2297	49.652	33.0448
52.3752	32.9171	32.4464
52.5136	37.1562	32.8411
50.7871	33.6336	34.1562
51.83	29.5838	32.9505
53.8785	32.2995	30.7773
41.9131	40.7026	40.6988
43.3188	39.0207	39.7893
42.2973	41.445	40.3687
40.3108	42.1524	41.6957
41.6273	40.0396	40.7274
38.3994	43.4878	42.286
38.5355	44.467	41.9024
36.2265	44.4911	42.4614
38.2791	42.6619	42.4005
38.618	44.9748	41.7016
36.1806	46.0597	41.8421
40.7464	43.5274	41.1002
33.5545	45.0152	42.6401
33.3769	46.0182	42.2293
30.7042	45.0356	42.7303
33.7504	44.1643	42.7651
33.2706	46.5155	42.0154
30.1061	46.6495	42.0185
33.1875	46.8269	42.0291
27.6843	44.4674	43.1334
27.1511	45.3673	42.6921
24.8998	43.1921	43.4806
28.2167	43.6758	43.2888
21.9513	41.5835	43.7424
21.0061	42.3361	43.3156
19.1525	39.8779	44.0734
20.384	42.718	43.0301
19.883	42.9109	42.9833
17.4963	40.6965	43.6129
23.6313	44.4278	42.6534
17.2022	38.3588	44.5536
16.3486	38.733	44.4195
19.2241	43.2234	43.2674
22.6836	45.0543	42.9632
18.5563	43.6973	43.6771
33.0296	47.2903	42.3164
32.9139	47.8454	42.6799
29.7021	47.4217	42.3263
46.3558	33.3384	37.7253
47.2945	32.0347	37.2235
46.6051	34.1365	37.6167
45.4653	32.7435	38.7231
44.6692	35.1321	37.9355
44.3899	35.7751	38.1175
45.2516	35.0378	37.2176
44.2104	34.6446	38.5846
33.0043	59.1794	43.5327
37.0343	57.9701	42.0699
33.0686	61.61	43.7959
32.5371	56.2854	43.3111
45.7529	46.6484	39.2877
44.5996	44.2262	40.2412
46.8192	49.2021	38.3306
42.8962	48.8961	40.8324
36.7278	27.5606	47.8612
42.106	27.5456	44.8841
36.2248	29.0054	47.5547
29.9412	28.1038	49.6772
37.195	26.1184	48.2497
24.0205	29.2966	49.8166
24.3699	30.6119	49.0772
20.1465	30.7686	48.778
24.0155	27.8338	50.4076
16.7631	33.7007	46.7285
17.255	33.9857	46.0068
16.0839	34.6333	46.1385
15.8083	33.762	47.5616
17.5085	32.8988	47.1805
35.9714	30.2651	47.1549
40.9269	30.58	44.6183
35.7777	31.3227	46.7613
29.893	30.6742	48.7786
18.9046	33.4628	46.2375
18.767	32.7598	46.9267
20.5663	32.8886	47.1995
18.8622	34.0681	45.6411
18.0149	33.8938	45.8476
17.3421	34.2401	45.6122
16.6423	34.8136	45.3818
17.3251	34.5625	45.1935
12.8353	44.48	46.1655
12.4216	47.3813	46.9607
13.3823	41.3063	45.4582
14.7276	46.594	45.5935
15.2267	35.865	45.7044
15.7136	35.7868	45.3037
14.4954	36.1431	46.1341
26.0562	46.5127	42.7623
25.6934	47.0567	43.1856
26.4847	46.0887	42.4191
13.94	39.9856	45.0244
13.5439	38.2262	45.6668
15.1714	41.9704	44.6193
35.6575	31.9861	46.4241
29.8761	32.2892	47.7991
35.5852	32.1874	45.9371
18.8792	34.4841	45.2298
19.0854	34.604	44.4987
18.0653	34.6808	44.9429
20.7947	34.1197	45.9132
35.5614	31.8357	45.0552
40.1943	32.2979	43.161
35.5984	31.2446	43.9441
42.9839	33.5512	40.6221
43.2676	33.2785	39.6635
19.5886	34.255	43.1236
19.7912	33.868	41.828
17.3787	34.8175	44.8634
44.2556	37.2211	39.1377
44.675	37.5064	38.9582
43.7312	37.079	39.1244
2.976	57.1268	51.577
0.196667	57.1804	51.8085
2.55706	54.374	52.4063
5.29728	56.7532	51.4655
3.81142	60.0072	50.6795
17.4678	26.6144	53.1628
17.4096	28.3788	51.5008
15.8011	28.421	53.0759
18.0421	24.1577	55.1369
20.2618	24.8325	53.2651
14.0786	30.3728	53.3811
12.1247	32.623	53.9952
14.2499	34.197	48.867
12.4969	35.4764	49.8012
14.134	35.3563	47.448
9.3622	44.7386	49.4261
10.3476	46.878	48.4577
8.81749	46.0921	50.0485
18.2877	31.8493	47.9144
17.8024	30.979	48.8815
17.5378	29.8219	50.0325
19.7752	28.124	50.7323
17.5345	-30.5087	77.1378
17.2667	-30.4791	76.6406
20.1701	-30.926	75.4354
14.6001	-29.877	78.9074
21.6657	-31.23	74.4329
21.2884	-31.203	74.1611
1.8898	-19.1495	88.0255
4.77251	-18.8338	87.4157
1.82358	-17.7439	87.7713
-1.53737	-19.5847	88.3229
1.8484	-20.7391	88.044
7.0538	-22.2294	86.1606
7.12975	-20.6278	86.6326
4.69528	-22.092	86.8818
6.814	-23.8666	85.4775
9.2902	-22.7102	85.2343
11.6871	-23.4305	83.9823
11.7866	-21.8758	84.3802
11.7082	-25.233	83.2232
14.4709	-24.8057	82.007
7.06936	-19.0095	86.7303
9.31323	-19.5328	85.8244
7.01798	-17.5841	86.6313
10.8716	-17.8597	84.7859
11.5366	-19.0696	84.6727
10.4622	-16.7134	84.5544
8.54515	-17.0214	85.8163
17.524	-27.235	79.2025
17.4216	-25.5753	80.0203
6.36734	-25.6175	84.6373
3.85823	-25.2522	85.453
5.94033	-26.7484	83.8808
9.11578	-26.1788	83.6042
11.926	-27.1702	82.186
11.8402	-28.3489	81.367
23.2391	-30.3771	74.5755
23.6338	-30.8024	74.2701
23.3766	-30.1935	74.6023
22.6174	-29.6693	75.2767
17.9279	-30.6054	77.8051
17.8123	-30.4839	77.4832
14.9873	-30.0819	79.9669
17.9978	-30.8681	78.1704
18.6304	-32.2679	79.0824
18.3983	-31.7251	78.8837
16.0264	-32.6015	81.923
13.3312	-32.4462	84.2684
13.0831	-31.5628	83.7669
10.6232	-32.1124	85.7957
13.7389	-33.3843	84.5138
6.58651	-29.4112	85.7275
7.08021	-30.7166	86.4586
9.7179	-29.8545	84.5757
6.20088	-28.1839	84.9214
3.74236	-29.4482	86.4382
1.6443	-32.543	88.2427
1.80397	-33.8062	88.6625
4.38498	-32.0962	87.8824
1.45611	-31.1812	87.6313
-0.875886	-32.7667	88.2687
21.9189	-32.4717	73.8619
21.7183	-31.6781	74.2946
22.0861	-34.0676	73.6718
20.0986	-32.0301	74.8399
0.848677	-28.6704	81.532
0.801704	-27.5798	82.9007
2.89481	-28.7176	81.1687
0.940417	-30.8229	80.578
-1.00227	-28.7262	81.6024
1.97809	-35.1217	88.9904
-0.803544	-35.367	89.017
2.14189	-36.3437	89.1519
4.94245	-34.5085	88.6684
2.31862	-40.2893	87.8759
5.51259	-39.7794	87.6998
2.31089	-38.8063	88.6965
-0.56064	-40.5774	87.9006
6.76007	-16.5639	86.4652
6.07349	-15.1729	86.0949
4.56178	-16.2607	86.9214
1.2742	-29.73	86.8164
-1.07066	-29.7981	86.899
1.00256	-28.2294	85.9914
0.851713	-27.4319	85.4149
3.22556	-27.35	85.12
0.867303	-27.1346	84.8123
-1.20336	-27.6118	85.4119
6.0248	-27.478	84.3758
9.02485	-28.1362	83.2748
5.86322	-27.2174	83.8223
0.879727	-27.1101	84.0029
3.02404	-27.0766	83.6982
-1.18312	-27.2602	83.9934
12.0121	-29.0433	81.7963
11.858	-28.8077	81.2703
12.2718	-29.6157	82.3082
14.5529	-36.3648	85.1206
14.788	-37.5745	84.9821
14.3212	-35.3287	85.0541
11.7161	-36.4524	86.8039
8.51191	-36.4378	87.9595
8.65035	-37.7556	87.684
8.39031	-35.303	87.9539
5.34016	-36.8407	88.7754
2.23187	-37.5528	89.0788
-0.704382	-37.8367	89.1246
11.5973	-28.8041	80.5667
8.63355	-27.8543	81.921
11.323	-28.7782	79.7482
23.9751	-30.9947	74.1112
23.6462	-31.3024	74.306
23.8999	-30.6615	74.2482
23.068	-31.201	74.277
22.5491	-31.2829	74.5013
23.0338	-31.4122	74.4357
21.7917	-31.2933	75.0605
20.3907	-31.1944	76.368
5.45179	-28.9024	80.5637
5.51069	-27.8289	81.8772
8.35112	-29.3023	79.7825
5.58538	-31.0095	79.7056
5.64722	-27.2862	82.9963
8.63355	-27.8543	81.921
8.68497	-39.4124	87.1746
11.9835	-39.305	86.1786
14.0045	-34.3274	84.8491
11.2928	-34.2654	86.5266
14.9844	-39.1053	84.6562
17.6807	-38.2419	82.6096
10.916	-28.4228	79.0315
8.26128	-27.6347	79.9094
10.4148	-26.9008	77.9387
13.5748	-29.2674	77.7568
5.56066	-27.1386	80.7095
3.33428	-26.8354	80.9567
5.92424	-25.8166	79.0476
5.53358	-27.3737	81.9175
10.133	-23.707	76.5327
8.01146	-23.1332	77.0972
10.047	-19.7504	74.9556
12.336	-24.3949	75.7219
22.3353	-37.442	73.7856
22.4847	-41.4459	73.9741
20.4414	-37.0618	75.1293
1.11905	-34.4414	80.7303
3.18364	-34.4374	80.4977
1.32844	-38.5274	81.2971
-0.647598	-34.4794	80.7504
5.96739	-22.7188	77.4695
3.82565	-22.4208	77.6419
5.94492	-18.7294	75.8835
5.79794	-34.5435	80.015
6.01893	-38.5765	80.7782
8.70102	-34.8821	79.3891
25.1188	-33.5195	67.9471
25.8723	-34.0329	65.8917
10.5169	37.7351	50.8253
10.1527	36.698	52.8973
72.2861	-16.4635	-59.6697
71.5668	-20.3481	-57.7198
71.1869	-16.6973	-63.2389
72.8672	-12.2359	-60.9261
73.4325	-16.4748	-57.5209
72.716	9.43108	-29.1988
73.1026	11.2334	-34.0331
72.4704	12.7171	-24.8265
73.2019	12.0464	-39.7207
73.5531	17.0716	-42.4135
72.7585	6.82524	-39.4714
73.1203	9.90565	-46.4776
66.6224	-37.5183	-43.8783
68.609	-34.8943	-42.8933
65.7589	-41.2014	-40.2928
67.6897	-34.079	-46.7471
68.6278	-30.9415	-49.7838
66.6538	-33.4478	-51.9718
69.7083	-27.5461	-52.6724
70.4949	-29.261	-48.1765
75.0377	-16.2391	-56.3996
76.8233	-15.8765	-56.4407
74.501	-19.8833	-54.6434
75.4073	-11.8838	-57.5938
77.277	-32.7946	-43.3589
78.3376	-29.166	-46.4242
78.2456	-32.9381	-41.871
76.1473	-36.5005	-39.871
81.3168	-22.8744	-45.7925
81.1458	-22.128	-45.2312
70.1617	-42.961	-28.9603
70.9638	-43.3816	-28.0496
69.7945	-42.818	-26.522
69.809	-41.5634	-31.0477
71.0684	-32.4572	-19.0074
70.7018	-33.0878	-18.8172
70.1628	-34.0402	-18.8692
81.0582	-21.6762	-44.9391
80.5699	-22.0081	-43.8411
83.8631	-8.55474	-52.7325
83.5914	-8.23304	-54.3305
84.1523	-9.48642	-50.7964
84.1866	1.7979	-53.2228
84.4538	3.0863	-53.7289
84.5033	5.34446	-53.3432
84.3249	5.63544	-51.0565
84.6413	5.75076	-53.94
84.3051	8.05649	-50.9022
75.1901	-10.2124	-25.8717
76.5814	-4.96302	-27.7651
74.6235	-9.11213	-24.7485
74.0869	-14.0452	-24.3388
69.0489	-24.173	-15.0555
68.1852	-23.9313	-12.2693
68.3526	-27.9209	-14.4562
69.7552	-19.847	-15.7781
73.3467	-21.5255	-25.1652
73.5432	-23.4683	-25.037
73.601	-19.7634	-25.8963
72.8065	5.03854	-39.4562
73.387	5.58386	-43.154
73.2965	5.30566	-39.0312
81.0871	14.7979	-41.4942
82.4089	15.8409	-45.3685
79.9221	14.9308	-42.8811
79.5106	12.147	-37.6785
82.1083	14.1615	-40.2587
81.2116	15.3972	-51.4349
80.1847	15.802	-47.8429
82.2487	15.457	-50.651
81.8383	12.9525	-55.0781
79.9501	13.4022	-52.3508
82.2852	-4.10354	-61.305
81.063	-4.56353	-61.4123
82.4663	2.61827	-60.5807
83.5097	-3.81771	-60.5489
77.6157	-0.510876	-29.38
77.7747	-1.99065	-29.9424
84.5543	-4.14967	-56.9718
85.1236	1.26363	-56.2718
83.978	-6.83333	-56.6643
84.8737	-4.33958	-57.109
83.8329	9.87445	-47.2794
82.9915	10.3289	-43.2228
83.8477	8.34361	-47.5572
83.9558	11.0508	-46.9684
78.707	-0.520618	-32.7258
78.1846	-2.12588	-31.6798
79.2185	1.59623	-34.0738
83.8962	-2.85097	-54.6724
83.7656	-5.21217	-55.9175
81.5831	2.32678	-44.2689
81.3686	1.19426	-43.0492
82.8962	0.879243	-48.1222
76.347	-7.2969	-32.229
76.436	-7.15879	-33.0178
77.1544	-5.58939	-31.5747
80.768	-9.70279	-46.0636
82.9255	-7.61181	-48.4149
80.4091	-9.10785	-45.6428
80.6626	-10.8018	-45.8874
70.4436	-15.9887	-16.834
71.1947	-11.745	-18.8767
69.6953	-15.5849	-14.2604
75.6378	-6.81389	-57.8628
74.2574	-7.45419	-59.1935
75.6523	-2.22941	-57.0906
77.2799	-4.38975	-57.4686
79.1698	1.30431	-57.9171
78.9363	5.7426	-55.9115
80.8999	6.62473	-58.4082
79.3726	-3.21617	-59.3997
79.873	-5.52627	-60.5264
79.0715	-11.0654	-59.3836
78.6657	-15.7359	-57.5998
72.356	-28.5069	-47.4737
71.3626	-31.0777	-44.7921
73.243	-25.8888	-50.0707
73.9303	-23.0539	-52.5009
72.094	-23.3716	-53.4041
79.8106	-21.7933	-43.0242
70.2945	-33.5847	-42.3521
69.1587	-36.5556	-39.0951
71.7418	-33.3625	-42.025
69.553	-39.5657	-33.8349
68.8915	-39.6109	-34.1021
68.7545	-41.7756	-28.7699
69.5891	-41.5307	-24.1267
69.2272	-41.1581	-24.1405
68.4376	-41.376	-23.7243
80.9531	-11.6236	-46.0349
83.0979	-10.7931	-48.2303
73.9083	-8.22713	-23.9626
72.9516	-7.61572	-23.0934
71.0364	-21.1484	-19.0779
71.3526	-21.4806	-19.6612
73.9975	-26.9345	-23.5111
74.8268	-29.2557	-24.3755
74.4508	-25.9018	-24.6841
73.2737	-16.8341	-23.1428
73.9992	-17.5738	-25.2476
78.5441	8.33678	-53.4116
77.0302	3.44427	-54.1622
77.833	9.65266	-50.1597
75.5288	1.10227	-55.0665
74.4387	0.876429	-56.375
75.1954	3.62319	-51.7116
72.8443	-18.0207	-27.9779
73.5965	-18.0464	-27.4536
83.5659	-0.589452	-50.1037
83.4894	-1.96448	-49.3136
76.8668	-6.82459	-34.6166
76.0088	-9.22629	-35.1064
77.9247	-6.3035	-37.4963
80.3707	-8.14445	-45.383
82.333	-5.01211	-47.3472
79.7883	-7.75805	-44.0582
8.7821	102.825	17.9169
8.64788	96.6918	24.9033
16.5408	101.812	17.6424
9.05837	108.568	9.18424
0.73058	103.21	18.1828
8.25705	90.2891	30.6373
0.722932	90.2269	31.1652
7.93818	83.4447	35.6735
15.5638	89.9668	29.8771
30.5335	77.048	35.4961
30.3148	73.5067	39.1553
25.7542	77.7	37.1259
1.37693	2.63879	88.7504
1.90618	3.71092	90.6958
-0.320774	2.51438	89.3142
3.20117	3.03178	87.1813
3.08395	14.285	94.2086
5.80436	14.2708	92.8724
3.07079	16.5517	92.8042
0.392061	14.3167	94.5569
3.12011	12.145	94.9567
3.09814	9.7593	95.0222
0.314467	9.82525	95.5323
2.95516	7.41492	94.3479
0.962615	-0.759982	82.9547
-0.746545	-0.905645	83.2937
1.1811	-8.82556	83.4108
3.25918	-8.33647	83.3138
-1.08863	-9.15117	83.3747
2.59785	5.29761	92.7737
4.79021	5.67357	91.0479
0.160716	5.29325	93.4419
3.01087	18.6656	91.0446
5.58642	18.2093	90.0079
3.03958	21.1385	88.4264
0.536292	18.9097	91.2266
6.92732	69.583	46.2805
0.0896745	69.5082	46.4473
6.62326	66.9586	47.7823
13.7537	70.609	45.6365
7.23768	72.7055	44.1212
2.27267	44.5491	58.4727
2.27757	42.8309	60.965
2.29339	46.053	56.6773
0.614318	44.8478	58.5239
2.36025	47.6683	55.2978
4.02965	46.6287	54.9355
2.36121	49.5804	54.1589
0.730795	47.9512	55.3824
1.13338	-26.7148	80.9437
-1.07364	-26.7658	80.9927
1.39317	-25.3944	79.2248
0.872433	-27.0765	82.7564
0.879712	-27.1101	84.0029
-1.18313	-27.2602	83.9934
3.02404	-27.0766	83.6982
0.975279	-26.583	84.9394
1.79985	-22.2368	87.5995
1.60785	-23.7037	86.9222
-1.45874	-22.5093	87.8966
1.2869	-25.2576	85.9634
-1.32075	-25.4855	86.054
1.79725	-16.7547	87.3867
-1.52247	-17.3772	87.5898
1.43965	-22.3045	77.6049
1.41799	-18.3194	76.0212
-1.09253	-22.302	77.4695
22.9866	100.531	17.1683
22.436	95.0936	23.5199
28.9007	98.7201	16.449
23.6221	105.72	8.97923
19.8761	71.6793	44.292
20.6637	70.1015	45.402
25.583	72.4612	42.6101
20.0098	74.0006	42.2428
22.1126	68.4414	46.3571
23.8192	66.14	47.0134
27.2938	69.2772	44.8147
24.6563	63.88	46.9569
20.4627	62.1213	47.9642
28.8105	64.4679	45.697
25.2733	47.7462	43.4675
24.9768	49.453	43.6404
21.6955	46.4408	43.5724
29.1737	48.6618	43.0101
28.2388	43.7732	42.6365
31.0092	44.3058	42.2535
27.9975	44.3529	41.6168
26.7362	45.8036	42.4171
24.8184	52.7184	44.1673
28.6721	53.3911	43.5904
21.1342	51.3409	44.6534
46.5348	97.4828	-5.15346
47.3773	100.304	-16.2118
41.2487	101.804	-3.70397
46.17	93.7509	3.3835
34.2905	96.6462	15.1304
35.1219	101.043	7.5734
39.8147	93.7891	13.1159
30.4296	71.7307	41.061
30.9359	70.3111	42.1365
35.425	70.3047	39.2025
32.8244	63.8984	44.0688
32.4107	66.2825	43.9363
31.7081	68.7555	43.1636
32.2214	53.1093	43.1891
32.5175	49.9522	43.1455
36.1958	52.0409	42.5513
45.5106	90.085	10.2225
51.0261	85.8567	6.25017
44.6263	86.1534	16.0647
40.8752	67.8175	36.8454
46.019	64.4824	34.1256
39.1776	46.6498	42.4925
39.3052	47.8638	42.5318
36.1037	47.9313	42.7701
41.7293	45.116	41.7138
33.7024	44.303	42.154
33.601	44.979	41.2302
36.1915	43.8479	41.9588
41.1227	56.5282	40.622
40.4133	53.7588	41.0883
44.5711	54.3597	39.4106
39.6765	50.6292	41.9061
43.4464	81.8269	21.3259
49.2958	77.9247	17.7224
55.9669	81.613	0.721912
55.4132	77.7363	7.1356
60.2416	77.4028	-6.16812
42.5132	41.8331	40.1571
43.9096	39.9313	39.2851
42.6616	42.0804	40.1068
43.8488	43.1136	40.5248
43.3002	42.7109	40.4008
45.3132	41.1551	39.2831
42.9111	42.3881	40.2355
41.4276	40.2267	40.1043
42.6371	38.8118	39.1905
39.9313	41.5581	41.0768
41.3241	40.8445	39.0769
47.9187	51.3798	37.5794
50.916	46.7742	35.386
17.7685	55.3466	47.0275
14.5444	52.4564	47.3532
17.8841	52.7553	46.0149
17.3154	57.4727	47.8402
16.2338	59.3946	48.6745
12.867	56.3853	49.0882
17.6526	49.0356	45.0478
17.6694	45.8505	44.384
5.6306	64.012	49.2047
-0.0430541	63.5134	49.385
59.1081	-62.9147	-12.0577
60.1137	-57.7463	-11.3757
59.9875	-64.5247	-18.2788
72.9289	14.953	-63.1652
72.6921	9.89544	-67.6153
72.2168	19.2722	-69.4206
73.2494	19.1055	-55.7988
73.3938	10.6385	-56.4957
69.6127	-17.6504	-68.9604
68.6413	-22.8747	-65.8092
67.9311	-18.9139	-74.2551
70.441	-12.2245	-70.6163
71.057	-6.33693	-72.0655
69.5795	-6.04833	-78.7608
71.6684	-0.743118	-71.944
72.4192	-6.96213	-65.4726
63.8424	-37.5159	-54.7653
61.2155	-41.1701	-57.4588
65.5925	-32.6873	-58.8109
7.74765	77.7018	40.3331
0.438902	77.4625	40.6455
14.3786	77.7284	39.7318
20.2419	77.9169	38.6223
21.0618	83.3056	33.789
20.023	-82.0591	59.2343
18.55	-85.6736	52.7138
25.663	-81.5547	53.4976
14.8586	-82.7793	62.5587
43.9584	-71.4673	43.3583
39.5339	-73.9949	49.6514
47.2694	-68.9189	37.2795
45.2138	-68.1643	46.726
54.7211	73.3138	12.9494
59.4259	68.1816	7.10174
21.7147	89.4223	28.8705
64.2452	72.7099	-14.5938
67.521	68.2556	-23.6234
64.2105	67.7299	-7.15501
23.9362	111.125	-2.2298
30.1501	108.598	-2.2053
24.0162	115.733	-15.3764
17.0308	112.945	-2.14976
61.6558	50.9612	12.1953
62.7448	56.7343	6.22644
45.9676	39.1174	38.7999
43.6256	37.1898	38.5498
43.7559	37.4029	37.8586
55.4553	43.6553	30.4466
55.7396	37.2308	29.1439
54.0511	42.815	32.145
52.5685	41.963	33.5542
3.72204	-107.025	44.2474
1.30257	-107.014	44.5381
52.1242	-59.6429	35.4788
53.0797	-54.9919	36.8303
49.4184	-61.1726	43.228
50.9434	-63.9284	33.0926
5.59858	-13.2648	85.3325
7.30787	-13.8038	84.9161
5.15781	-10.8435	84.2496
20.788	-22.0798	77.7971
20.3229	-17.816	77.6559
18.4199	-19.6424	79.6441
8.83197	-9.86921	82.1472
6.33749	-8.97361	82.8539
9.34761	-12.2249	83.2519
11.5043	-10.8408	81.1057
8.12732	-7.56043	81.018
28.5897	-27.3373	73.2686
28.167	-30.8333	73.2344
30.7148	-28.6836	71.827
28.3626	-23.2582	73.1141
59.5173	29.9997	23.2668
57.6838	30.637	26.1223
59.8609	23.952	24.6344
61.2068	29.6968	20.1817
62.9922	29.4389	16.4884
65.0004	28.1227	11.4033
48.9935	34.2517	35.8571
47.3974	34.7025	37.1988
48.8877	32.0221	35.8085
55.8632	31.2106	28.5164
73.904	1.63789	-59.0073
73.6603	-2.60371	-60.9294
73.3292	2.77309	-63.6653
73.889	4.85483	-55.9622
70.5846	-24.1604	-55.4479
69.208	-25.4269	-58.431
63.0875	-52.6123	-22.9589
64.3345	-47.9699	-21.7472
62.1779	-53.2586	-16.5931
61.8388	-58.367	-24.2395
63.9801	-50.5381	-29.3503
73.328	-7.38203	-61.4556
67.2886	-23.9792	-8.94697
66.3868	-28.1916	-8.31631
68.1984	-19.6199	-9.79968
66.3651	-23.675	-4.46679
68.5804	9.02671	9.32166
68.4082	16.8446	6.02197
68.0219	1.46502	12.3332
69.7168	5.28002	0.832796
51.1857	26.8456	34.6336
49.8499	28.6025	35.5046
49.683	25.3339	37.6201
48.5915	30.1427	36.3713
47.3507	29.2094	38.2066
65.309	-22.397	1.77714
64.0894	-20.7242	8.45837
64.2267	-27.2354	2.37321
66.6143	-17.334	0.56702
21.8509	12.9588	61.6706
25.5786	11.0293	60.7432
20.7816	17.0999	59.4783
18.9366	15.4153	62.8629
31.1699	8.91583	59.4684
37.6635	7.24969	57.4492
32.0186	4.28972	61.5258
16.1442	18.1316	64.9908
13.5366	21.3295	67.3153
16.5664	15.2495	67.6334
19.3366	8.65457	68.1075
18.3476	11.0941	69.0223
16.5565	8.57114	77.7489
15.3533	9.38653	79.9927
16.1854	6.69995	77.5912
17.1834	7.87454	76.0898
17.5655	7.03621	74.5837
16.966	4.70917	74.36
33.7661	-10.8313	65.4718
29.1885	-9.61455	67.4565
34.044	-16.0839	66.6665
33.3594	-5.91478	64.341
32.5738	-0.633086	63.0996
4.05085	-4.07075	81.6724
4.39628	-6.14807	82.3177
5.48112	-4.53057	80.9997
50.825	-32.2639	47.1744
51.9079	-26.1123	46.173
47.0796	-28.9668	53.7356
49.6376	-38.3819	48.6067
23.5885	-16.3943	74.3692
21.6137	-15.2411	75.3366
25.6102	-17.4138	73.4317
34.142	-21.3548	67.9515
33.9945	-26.3801	69.0417
38.4501	-23.4306	64.3941
30.4053	-19.7916	70.6852
4.77878	-8.39101	83.165
48.3695	-44.6839	50.2257
51.3983	-47.9824	44.04
44.8894	-40.1488	56.6171
46.4365	-49.896	53.167
54.8655	-9.16095	44.2817
53.8325	-14.6729	44.8896
58.4947	-11.297	37.5284
27.7053	-69.805	74.3719
28.3211	-66.2328	75.8767
22.8374	-70.5944	79.2777
37.4231	-60.0294	65.6665
41.0093	-57.4869	61.3626
35.8047	-54.8492	68.148
33.1073	-61.4397	70.8251
54.0652	12.7222	42.5451
52.1178	17.044	41.6747
48.5409	13.8979	47.5696
45.5304	28.3418	41.2916
46.3711	26.3828	41.3702
44.64	30.1971	41.3597
50.4463	20.0716	41.2237
45.8465	20.3525	45.7812
48.7221	22.4853	41.4293
44.0279	31.7271	41.2813
3.45741	-64.1221	91.775
0.937878	-64.5402	91.6419
41.3159	-36.296	62.0571
40.0276	-40.4947	63.7636
42.0546	-31.436	60.7371
37.157	-33.0237	66.5929
33.7791	-50.1595	70.2193
36.2988	-47.44	67.8204
31.0846	-45.5693	72.4006
30.2098	-52.0565	73.4808
42.0444	14.9094	51.1261
43.4023	10.6238	52.6706
40.8567	18.5124	50.0977
42.9466	-25.9925	59.4383
44.4656	5.94503	53.7531
10.0665	-55.5218	88.8406
9.7143	-52.0751	87.2846
13.9199	-55.1348	86.8503
17.9504	-54.8791	84.198
22.0778	-54.3138	80.8737
17.148	-50.9517	83.3354
39.9422	21.0769	49.3914
38.9585	22.9879	49.0399
32.6628	21.7794	51.8885
47.5075	24.4849	41.3904
43.8088	24.2853	45.2523
38.0798	24.6178	48.5712
30.7635	25.2346	50.741
11.15	24.3859	69.8455
11.5623	20.9814	73.428
10.8426	27.8948	65.7517
12.933	14.8273	81.0195
12.6346	16.0406	79.445
10.636	16.1667	84.7075
13.2892	13.9231	81.6482
10.1288	35.2381	55.1406
10.2789	33.5599	57.706
19.3444	20.6762	57.4641
2.40895	40.3407	64.9662
0.536957	40.6797	65.0219
59.5576	19.0009	28.202
10.5944	31.0976	61.364
53.9795	-49.8203	37.1472
56.387	-50.1051	28.4566
63.1337	-1.21312	29.3318
62.1426	-7.82144	29.7193
65.2434	-3.2363	21.7954
58.315	-25.4967	31.7092
59.4622	-19.642	30.8592
56.1047	-23.0447	38.6739
59.8751	-27.5176	24.7571
60.8685	-13.8123	30.1273
62.2343	-16.3506	22.7361
18.43	-70.9017	82.8931
9.42084	-48.6734	86.0381
6.11121	-48.8094	86.7436
12.9549	-48.1936	84.7425
16.5813	-47.5405	82.9693
24.9126	33.2197	47.1246
24.8325	32.639	47.7182
25.448	23.0345	53.0053
24.7349	24.8641	52.0235
24.2965	26.338	51.1835
2.98063	-49.0096	87.0587
0.111238	-48.9747	86.982
5.57482	50.5731	52.281
6.88421	49.3172	51.5337
6.17237	53.247	51.5395
4.03219	51.3729	52.8631
5.42195	47.7543	53.1954
15.9554	35.7686	45.1308
15.5182	37.1622	44.8026
13.7112	36.5787	46.545
7.96637	47.6526	50.7966
8.96282	50.3636	49.9648
2.41814	51.8889	53.1972
0.567436	52.0543	53.3149
4.85186	3.33551	85.6322
5.79041	4.35815	87.0264
8.39705	13.9962	90.3222
8.35792	15.6119	89.2243
11.0631	13.574	86.5229
15.8489	-0.031678	72.2396
15.6327	1.34167	73.3482
13.5782	-1.19843	73.8609
8.0727	17.2834	87.9951
5.92143	44.5355	54.1752
7.38415	56.0829	51.035
9.09612	54.9853	50.2756
15.9006	38.8443	44.2497
10.5863	53.5106	49.3514
11.4989	51.4789	48.5987
12.0408	49.5803	47.8034
17.4855	-7.31335	73.0516
15.1315	-7.14149	74.7975
18.2809	-10.4443	74.9258
19.5083	-14.0837	76.5718
16.8757	-12.8376	78.1147
20.4995	-30.7399	73.8962
20.3473	-29.6015	73.0803
18.7428	-30.4656	75.0746
21.2444	-28.2185	76.8603
19.5749	-26.5321	78.5523
20.1692	-26.6854	71.3843
17.2517	-25.945	73.2045
19.9194	-23.0093	69.4289
12.7854	-6.83655	76.695
10.0812	-6.26677	78.6186
13.4908	-9.17707	78.1379
14.372	-11.8808	79.6086
14.8861	-14.5702	80.7989
16.5286	-30.0684	76.3274
15.2434	-28.3991	75.8767
14.6826	-25.1495	74.6143
14.5565	-21.2812	72.984
7.54122	-5.41021	80.0303
7.15575	-3.43781	79.1779
10.0234	-14.8269	84.0509
12.8063	-15.9593	82.8158
16.673	13.5972	70.4402
14.3587	15.9222	73.5542
3.07108	24.3491	84.6187
0.883164	24.6104	84.7207
12.0184	18.2602	76.9232
7.01898	6.04764	88.8696
9.30555	6.15997	85.8207
11.8683	6.04454	82.4901
12.9328	8.0135	83.0458
14.0951	5.53981	79.4863
15.3348	4.78674	77.2879
15.6953	3.67332	75.6022
15.7155	2.50308	74.3249
13.4554	13.0284	82.4223
13.5075	11.7638	83.0555
13.3883	10.0529	83.2269
39.2882	-143.281	13.2108
34.7388	-144.649	16.2768
40.7561	-149.511	12.1634
43.4316	-141.778	10.0796
37.5568	-135.141	14.7063
35.5522	-123.297	16.8807
39.45	-121.728	13.2697
33.8118	-110.875	19.1421
31.4187	-124.743	20.5027
33.6803	-86.5373	27.3554
36.8559	-85.0119	22.5022
30.3172	-87.807	32.0692
32.5917	-92.7368	23.4232
32.8706	-100.788	21.0493
29.1242	-102.218	25.3649
36.3376	-99.2249	16.937
38.6438	-44.4233	65.4263
41.4884	-48.9333	61.4511
34.9689	-40.1783	68.9982
44.0995	-54.1656	56.5482
45.502	-59.348	52.9143
45.8961	-64.0333	49.6606
31.9051	-37.0283	71.1514
32.8376	-34.1037	70.4594
29.2725	-34.6317	72.615
30.3724	-39.4243	72.2515
27.5723	-33.2475	73.2523
26.5389	-34.9141	73.6849
39.8488	-83.5888	17.6487
41.6458	-78.8501	20.6742
39.3424	-89.7671	14.6445
43.1358	-82.9269	12.0023
44.3048	-74.7729	24.0512
46.1459	-74.1333	17.4055
47.0468	-71.1761	27.1959
49.3132	-67.592	30.4672
50.5585	-66.9651	22.7847
43.1804	-119.96	9.61406
45.3559	-132.096	8.00488
46.8608	-118.628	5.75631
41.1157	-107.599	11.278
47.1744	-140.327	6.79698
48.9443	-146.7	5.76544
50.7285	-138.91	3.17028
39.7624	-97.6312	12.7802
63.2518	-18.6658	15.5793
61.952	-24.0986	16.522
64.9031	-12.7519	14.7788
51.5449	-66.883	15.5888
49.9576	-70.3774	13.1986
52.9808	-67.0374	8.29785
67.6332	25.2105	3.17071
70.0343	20.32	-6.88702
57.7132	-50.5694	20.0973
58.2754	-51.1515	11.7054
60.9365	-29.4137	17.6643
61.963	-30.9106	10.2591
66.6633	-5.59778	14.1767
67.3959	-8.77023	6.26136
63.209	-32.0803	3.15948
64.4257	-32.5265	-3.35821
52.3508	-83.8919	-4.44296
