1912
-23.2611	-30.6514	73.3701
-4.18531	-25.7968	82.8415
-5.44971	-33.3553	89.9746
-5.51052	-35.7773	89.6604
-9.42656	-14.622	84.1531
-4.43506	-25.2552	84.7999
-10.6396	-26.2612	82.685
-13.5416	-35.6461	86.6928
-13.1752	-33.317	86.8648
-10.2035	-26.3337	80.8396
-10.2122	-26.725	80.8234
-15.0979	-26.4252	76.1812
-10.0302	-24.9101	78.2322
-23.1923	-32.9637	73.0165
-4.04265	-28.9153	80.6722
-4.33999	-25.348	82.7298
-5.22051	-23.9899	79.2425
-10.1736	-29.6663	78.9112
-26.4541	-23.4521	65.9986
-29.3445	-25.9891	63.1443
-14.2757	-19.826	73.3526
-9.65688	-18.4576	74.8324
-26.586	-40.7968	71.2527
-23.4492	-40.2537	74.4005
-3.59489	-36.2228	82.335
0.251398	-36.333	82.3582
-5.39242	-17.5815	75.5388
-10.1726	-36.8839	80.5125
-29.4918	-40.808	66.9066
-81.0554	-19.8925	-54.9095
-82.3169	-12.1493	-58.0665
-79.8913	-11.9882	-63.9523
-78.2745	-20.9724	-60.3128
-78.9677	6.216	-18.9968
-80.8982	19.3452	-31.7474
-81.0953	14.1464	-49.8172
-80.9938	7.11378	-43.7058
-77.5601	-31.8	-44.714
-75.3945	-37.8351	-38.8028
-79.5242	-26.1384	-50.1197
-75.5608	-29.3601	-54.6434
-86.1526	-10.0965	-57.0169
-85.088	-19.6346	-53.6745
-83.417	-35.3337	-40.241
-86.2196	-28.0825	-46.919
-80.1559	-41.9747	-31.0002
-77.6991	-41.8065	-27.0608
-91.2611	-18.0674	-45.9469
-93.2939	-5.39584	-53.9615
-77.5326	-19.1467	-12.3533
-76.061	-27.4109	-10.8355
-82.4939	-19.0048	-23.7797
-82.6426	-22.8589	-23.0714
-82.2911	6.4642	-42.0301
-89.717	-10.6506	-59.7016
-89.8961	16.5321	-46.0925
-92.4281	15.5725	-43.4807
-87.6041	14.3095	-48.3791
-87.5776	1.31825	-30.7694
-95.1518	1.66704	-55.7114
-92.5637	-8.82754	-47.53
-92.1096	-5.89415	-47.1823
-85.8818	0.501697	-55.6185
-82.7155	-2.62723	-57.8075
-81.2987	-31.0056	-43.432
-82.3012	-2.65835	-25.2277
-84.9167	5.74823	-50.272
-82.4656	3.89331	-52.4541
-91.7037	6.46173	-43.2536
-86.43	-12.7152	-41.3598
-15.988	109.657	9.29708
-14.8795	98.7414	24.7255
-13.4694	86.2481	35.535
-23.2751	74.1964	41.3138
-4.08529	5.35537	86.5176
-5.39465	18.1598	88.7655
-12.4031	73.5335	44.01
-12.2686	66.2185	47.7527
-3.73521	46.0921	53.5254
-28.6863	105.729	8.68684
-24.0315	68.7832	44.4667
-26.5155	62.8436	46.1919
-32.2184	44.8313	41.9931
-29.9119	48.9207	44.2143
-22.354	46.5637	44.4784
-40.0578	99.6529	5.87634
-42.469	106.391	-15.6688
-38.0219	43.5768	43.181
-37.4955	48.4947	43.8336
-50.1289	83.7484	12.1611
-43.7134	44.3008	41.7572
-37.8601	46.8996	43.3958
-38.0045	44.5535	41.8918
-46.1519	49.8696	40.468
-61.7238	74.0781	0.543311
-46.6258	39.8106	39.0221
-46.3029	39.3111	39.2641
-42.2195	42.1649	40.1989
-52.1229	43.8181	36.6156
-13.8231	51.8	48.1363
-68.0296	-58.2454	-17.1362
-81.5916	7.02722	-60.0795
-79.1954	13.0801	-74.2026
-76.4802	-12.7084	-76.2103
-73.9227	-24.9404	-70.0188
-81.0261	-1.84166	-64.5166
-77.7883	0.320729	-78.5349
-69.845	-35.8654	-61.6714
-13.2608	-87.2744	54.1441
-24.5497	-85.4838	46.5754
-54.5965	-64.876	40.5441
-71.6762	63.4742	-15.9768
-16.4985	119.28	-15.6469
-30.3935	114.305	-15.2353
-49.49	36.3572	37.1576
-56.112	-55.1761	46.9504
-8.1181	-10.8084	82.4577
-20.056	-15.6392	77.9102
-7.08587	-6.97191	80.175
-11.5481	-8.55656	78.6476
-13.7499	-12.818	80.6674
-34.8284	-23.8507	70.6254
-33.9129	-31.2679	70.8446
-73.005	-45.7055	-27.6192
-74.0129	-27.5788	-2.89476
-75.7982	-18.5065	-4.71626
-76.3143	13.2738	-2.94954
-75.9946	-1.50827	4.41419
-51.3474	26.9421	37.0372
-73.6648	-14.5703	8.10867
-71.529	-25.4576	10.4374
-14.0878	17.4058	69.5114
-16.5293	4.66358	75.426
-14.6863	7.07819	78.7129
-33.9465	-14.2118	69.3181
-52.949	-34.6113	56.4545
-43.1998	-28.1031	65.9186
-49.31	-44.4752	59.402
-65.0208	-17.7027	40.4293
-34.1051	-56.0893	71.7238
-42.6892	-51.6091	64.627
-49.6492	17.2847	47.6088
-46.7279	22.0434	45.6391
-41.0183	-36.1506	67.5351
-36.7891	-42.1031	69.9062
-14.4895	-50.4232	86.5659
-33.3889	22.9732	50.3613
-10.6194	15.9257	83.3798
-71.394	-10.0051	23.09
-69.2133	-21.8446	25.0558
-8.12394	49.3984	50.4727
-18.9285	36.2397	43.3999
-17.1549	-9.9963	75.5766
-20.6524	-28.2223	73.1217
-19.6282	-21.7244	70.4779
-33.1063	-136.705	17.2284
-41.6607	-133.705	10.8165
-45.2333	-148.149	9.11899
-35.9476	-150.873	15.208
-37.8223	-91.4948	18.3247
-29.7486	-94.5247	26.251
-38.1451	-109.567	13.9602
-29.8203	-112.693	21.2568
-31.544	-35.9048	71.7161
-49.1642	-78.4285	14.5
-55.0348	-70.2654	20.2868
-49.2086	-130.763	3.90121
-52.3239	-145.25	2.41195
-58.2596	-70.1308	6.34644
-54.8416	-78.503	1.93868
-59.3996	-79.4842	-8.64561
-61.1343	-97.8567	-34.8397
-74.8209	-34.1988	-11.0692
-61.4327	-82.3458	-33.5736
-54.7189	-109.152	-50.7408
-54.8613	-124.027	-55.2975
-26.2877	-153.115	20.309
-23.6948	-139.034	23.2937
-19.918	-96.6577	34.2557
-20.3022	-115.363	28.935
-25.745	-35.5216	75.0086
-16.8403	-28.8407	77.3171
-16.7401	-31.3484	76.3765
-15.8268	-154.981	24.777
-16.577	-38.532	78.2433
-78.4583	54.4437	-35.8698
-49.5651	-87.6481	-59.0155
-48.6247	-105.708	-61.0405
-54.6324	-91.4177	-48.2139
-49.8416	-121.212	-63.5959
-57.4811	-71.7833	-48.7913
-16.2469	122.928	-47.3046
-31.0083	117.408	-45.7227
-16.1314	97.0103	-114.709
-14.9936	69.0508	-138.267
-30.2018	67.2852	-134.092
-31.6192	93.8673	-110.415
-14.9274	39.4737	-146.808
-28.7149	38.2277	-142.725
-31.6506	111.184	-79.0952
-16.2735	115.424	-82.205
-14.3902	12.5307	-146.795
-27.5233	11.3187	-142.547
-13.4228	-13.897	-140.838
-26.4021	-14.4923	-136.299
-24.7493	-35.9459	-124.037
-12.5082	-35.5985	-128.561
-11.3949	-53.6767	-107.413
-22.7155	-54.0079	-105.314
-10.041	-85.3801	-85.2142
-9.7276	-100.406	-83.4907
-19.9317	-101.184	-82.0627
-20.7957	-86.1947	-82.4917
-9.65262	-114.686	-83.1086
-19.3881	-114.895	-82.4794
-11.0444	-67.0786	-92.8998
-22.1505	-68.7599	-90.1337
-44.2675	108.738	-44.1174
-56.1506	97.5533	-42.6415
-54.9516	58.7589	-116.401
-43.4591	63.6465	-126.107
-42.3413	36.0882	-135.084
-53.8418	33.3261	-125.339
-55.8644	80.1432	-95.9461
-44.2746	88.1249	-103.846
-57.673	92.5018	-70.4601
-45.456	103.16	-75.0295
-52.3247	8.65008	-126.294
-40.8644	10.0182	-135.337
-39.1938	-14.8075	-129.479
-50.2925	-14.6104	-121.038
-46.951	-35.0726	-109.237
-36.8474	-35.9045	-117.152
-34.545	-53.9861	-98.9953
-45.1762	-52.7188	-90.9069
-33.3986	-69.7696	-84.3198
-40.4871	-103.085	-71.6588
-41.5398	-86.3672	-69.3778
-31.6394	-86.5602	-77.0349
-30.4893	-102.192	-78.3458
-29.9229	-115.813	-79.685
-65.7921	69.8072	-85.7618
-64.6001	52.4271	-104.997
-72.142	44.4527	-90.4859
-73.6738	58.2106	-71.7987
-75.0117	66.8456	-51.1761
-67.7674	79.9418	-63.5482
-61.5476	7.04713	-115.88
-63.2477	29.7921	-114.43
-55.1759	-33.2523	-98.3023
-59.3901	-14.274	-109.714
-52.8622	-49.7635	-82.5388
-75.8244	19.2271	-87.8112
-62.5452	-31.0851	-88.0057
-68.5583	-28.1107	-78.7355
-72.4935	-13.4798	-87.2861
-66.7367	-14.0509	-98.9174
-73.9676	2.28216	-91.3823
-68.6688	4.92146	-104.544
-70.5294	25.0794	-101.847
-59.6379	-53.907	-57.4651
-63.9102	-40.9717	-67.843
-58.3641	-45.7502	-74.8513
-95.0853	2.40684	-57.0969
-93.052	2.99372	-59.136
-94.1851	11.8642	-51.7358
-92.0124	13.229	-53.7565
-89.1866	12.2154	-36.0314
-86.7875	12.633	-38.462
-84.6824	10.9387	-41.5781
-90.1434	1.3099	-59.7513
-89.2911	11.3435	-54.8284
-93.5403	-9.52217	-55.2199
-93.4683	13.6132	-42.3385
-94.5749	10.2651	-50.5616
-40.2796	-117.658	-74.1365
17.901	-76.2509	77.3734
14.9227	-77.1461	77.6326
20.215	-76.733	73.6131
18.876	-74.2276	80.2308
69.0839	8.07048	29.8776
67.1007	9.93464	32.8975
69.6666	4.59209	30.2611
70.0104	10.71	25.0412
65.0632	12.1848	34.6322
64.5333	15.6447	31.8166
62.78	11.9442	38.6193
12.0743	60.6032	49.2963
14.0442	58.2698	49.2449
15.521	63.461	48.2866
9.15726	61.8214	49.2906
9.39136	56.626	50.1339
24.1679	40.1427	42.9649
21.7579	38.328	42.7513
24.0208	40.5645	41.5365
27.1495	41.9765	43.2522
24.2219	40.1815	43.9279
8.87549	39.0625	51.6316
9.51032	37.8335	51.3966
9.18675	40.3927	50.3685
8.42054	39.6442	52.1435
11.8881	38.2931	47.645
13.6751	36.2208	46.6341
12.5292	39.9514	46.7089
10.5323	40.5622	48.5006
11.5896	36.8556	48.8934
45.4199	33.2765	40.7303
45.1469	33.4902	40.6642
42.1679	32.159	43.8773
45.8269	32.6073	40.6741
46.8511	34.1753	38.3484
15.9214	30.9472	49.5673
15.5847	31.8663	49.0275
15.3985	30.2644	50.7297
17.366	29.9439	49.0564
18.8907	34.7136	42.9932
19.0383	34.2367	42.9369
19.4524	34.8893	41.8063
19.1516	35.517	42.9984
18.3595	34.6205	43.9069
26.2934	-30.9025	71.8544
26.0237	-30.7948	71.9906
26.4198	-31.1504	71.469
26.1108	-30.8503	72.1159
24.9868	-29.1524	73.9924
25.2852	-30.1768	72.976
26.2484	-30.0264	72.7697
25.0845	-28.5145	74.3912
23.4223	-28.3122	75.3406
26.8857	-30.3751	72.2929
27.0384	-30.1685	72.3629
26.9121	-30.5467	72.2094
28.802	-29.5465	72.3182
27.8967	-29.4032	72.4895
29.3501	-30.3346	71.985
28.986	-28.2289	72.551
26.8797	-31.5415	70.7884
26.0284	-30.8267	71.0263
27.6216	-31.987	69.4475
26.5607	-31.8616	71.2661
21.9464	-33.1422	78.5705
22.3321	-33.9942	78.4268
24.3548	-32.1419	74.8726
21.8094	-32.4816	78.3898
19.3889	-34.0637	82.1899
19.8111	-21.0504	80.014
19.2353	-19.5056	80.1605
16.5199	-18.7751	81.8768
20.0241	-21.9566	79.7591
22.3175	-23.5567	78.1226
25.2945	-30.5137	72.9478
25.382	-30.6093	72.9835
25.3669	-30.5274	72.7512
23.7791	-30.2185	74.0404
77.6317	-34.7769	-17.1476
76.9371	-35.044	-16.2146
77.2331	-38.7478	-18.9525
78.3592	-33.8465	-17.4355
87.0952	-28.3104	-30.8735
87.6373	-27.1197	-34.0024
85.3017	-26.9214	-30.5159
86.5102	-28.9886	-28.1897
88.1672	-29.6857	-30.9353
81.4087	-32.3556	-19.4373
81.4733	-29.6414	-19.749
80.8037	-32.494	-18.5565
82.2082	-33.9972	-20.4404
80.1521	-21.1148	-26.0879
79.9446	-20.1158	-28.1241
80.9889	-18.9673	-26.7275
81.703	-21.2006	-25.1586
80.7321	-23.4192	-26.2432
87.5382	-2.10752	-33.1812
86.9124	-4.18511	-33.3757
87.7261	-1.42351	-33.9494
87.6442	-1.36592	-32.4301
90.9701	7.52152	-40.1011
90.7833	8.39003	-39.3801
90.658	6.55991	-39.7842
92.3348	7.86209	-43.3344
83.6045	-20.6058	-34.4411
82.4752	-18.7724	-33.6307
82.7132	-24.0232	-30.8294
86.187	-24.1571	-35.8689
86.1261	-18.9124	-38.8646
89.4651	-2.28389	-39.6995
89.8564	-1.24862	-40.3492
88.0062	-1.79756	-36.0131
89.3715	-3.80065	-40.3599
92.9712	-15.2927	-48.1159
92.8606	-14.9573	-47.5639
91.9459	-18.1135	-46.8221
93.2899	-14.3967	-49.3735
93.3324	-13.1408	-51.4155
93.6496	-10.893	-51.0273
93.2434	-14.0285	-52.2288
93.4111	-10.4941	-53.4498
87.955	-26.0734	-36.4514
88.3291	-24.3446	-38.9301
88.8593	-27.1203	-36.7561
90.0441	-13.8806	-44.5655
88.6399	-15.5305	-43.1582
91.6487	-14.5375	-45.9941
90.1554	-12.5315	-44.599
79.51	-26.6506	-17.4219
79.575	-28.9938	-17.3241
80.2709	-26.4387	-18.342
79.2025	-25.6765	-17.1138
79.1138	-23.9187	-16.9084
79.5834	-21.9105	-17.5126
78.7007	-23.8608	-15.9933
81.1047	-15.1716	-19.8611
80.7559	-15.6121	-19.3203
81.5236	-15.7113	-20.5998
81.6713	-12.0947	-20.9501
80.3606	-16.2691	-18.6565
79.9641	-15.9216	-17.8037
80.111	-18.6803	-18.2244
82.9064	-25.3917	-28.7491
83.3556	-25.484	-26.5585
83.2939	-12.2302	-29.3994
82.0708	-15.8318	-27.9242
82.6537	-12.9058	-30.8961
84.6756	-8.658	-30.7913
84.463	-11.1508	-28.6952
93.4676	0.786237	-50.6777
93.5709	1.44267	-51.15
93.3731	0.503441	-50.0046
93.7203	-0.750084	-52.0056
93.849	-4.44176	-51.7299
93.9657	-5.15716	-50.0101
93.8631	-6.24669	-52.1215
93.6978	-3.36138	-52.9023
93.7011	-2.28225	-50.3769
90.2872	5.97359	-39.8408
91.0703	5.50042	-42.4515
89.3778	5.52105	-38.6184
92.0487	4.60059	-45.6134
91.3422	3.74469	-44.7415
93.2455	3.34488	-49.4304
93.0097	5.52891	-46.6729
40.9043	45.3683	42.4922
40.7379	45.0231	42.2558
43.2815	43.9153	41.6692
41.1145	45.7502	42.8082
38.0085	46.4262	42.99
23.7189	-77.2736	68.2346
22.6921	-79.3602	64.42
26.1907	-76.0917	67.9788
47.9674	37.7038	38.2206
48.351	38.2419	38.3055
46.9687	40.0544	39.0239
47.633	37.4665	38.2501
48.8614	35.7271	37.4404
51.8927	39.1682	36.4384
53.8936	40.2348	34.8735
50.7414	42.2682	37.7529
49.7325	38.705	37.8553
51.7267	36.3293	35.7729
71.3778	-46.3547	-8.92915
72.3752	-45.7357	-13.8023
71.6772	-44.4705	-7.97826
70.588	-48.5981	-8.77685
26.593	32.4458	44.5247
26.6713	32.8482	45.9173
31.5151	31.7828	45.6758
26.8285	31.74	42.8969
22.8042	32.9842	43.065
17.7145	34.7107	44.3754
18.2392	33.9926	44.324
17.8089	35.6751	44.3152
17.3926	34.6481	44.5142
20.0861	36.805	42.8662
19.484	36.6925	43.9584
20.3265	36.9431	41.3056
16.2933	37.5598	44.1045
16.8283	37.3997	43.8741
17.6458	39.5899	43.7002
15.6974	37.8577	44.435
16.0782	35.96	44.6604
7.77335	40.9901	52.4094
7.18649	41.2254	53.0407
7.7204	42.9301	51.575
19.9383	-28.0429	77.4807
20.5793	-29.089	76.3397
20.3123	-27.353	77.5795
17.0529	-26.7296	79.89
63.3073	-68.9099	-9.82117
62.1612	-67.7743	-4.37926
62.766	-71.8211	-11.3669
64.5163	-66.7397	-10.7123
79.1308	-2.91389	-17.674
78.4007	-9.30664	-12.9797
79.7148	-4.39689	-20.2074
79.8543	3.75988	-23.2576
78.5719	-0.780436	-13.535
64.854	-74.1557	-22.8182
64.4813	-76.5353	-24.3582
65.6206	-70.1779	-23.8141
64.004	-75.4619	-17.7677
63.0578	-109.573	-27.5637
63.1295	-118.085	-29.2357
61.3315	-106.495	-35.291
62.8445	-100.58	-27.1898
63.282	-111.861	-21.2965
25.3933	-31.096	73.2104
25.5287	-31.2998	73.1919
25.4463	-30.8925	73.07
24.0339	-31.1156	74.642
25.554	-31.559	73.2675
25.8892	-31.5807	73.092
21.4936	-32.0214	78.4635
21.5694	-31.5517	77.9711
18.8744	-32.3907	81.884
28.2261	-74.9248	67.8725
32.2667	-75.2	61.842
28.5484	-72.5723	71.1922
48.5617	-68.4156	-67.7855
47.8401	-65.4765	-72.5838
51.2801	-66.9723	-64.3625
47.6733	-71.4656	-67.1412
56.5865	90.2607	-8.9303
58.4882	90.3087	-16.2372
52.6799	94.301	-7.26664
57.2946	86.8681	-4.91181
90.5866	-24.9189	-46.201
92.0023	-20.7356	-50.5077
91.0198	-23.798	-45.3484
89.3076	-28.3448	-42.4377
89.9336	-25.3639	-47.5734
84.7819	0.490339	-27.7541
83.8887	-3.52266	-25.5879
85.9848	0.27383	-28.1173
85.5151	4.51456	-30.1569
83.2983	0.715341	-27.3979
82.0295	-20.2734	-21.5
81.4615	-20.7055	-20.2679
82.5708	-23.0643	-21.8355
82.5579	-20.8573	-23.0027
82.0118	-18.5952	-21.7024
81.4547	-26.657	-19.9212
81.1047	-23.6205	-19.5967
82.4323	-26.6716	-21.2608
93.0451	-15.7566	-54.5568
92.1909	-16.008	-55.5535
93.8248	-10.0765	-57.4425
93.5174	-15.4778	-53.5292
91.0436	-16.1618	-56.5581
90.1485	-21.0132	-52.8957
89.5323	-16.0231	-57.2019
91.5434	-10.4697	-59.3983
81.3235	3.3758	-30.2901
82.391	4.85625	-32.6021
80.7304	4.9025	-29.9459
81.8663	2.66847	-28.3637
86.4996	-23.8808	-50.8658
84.7319	-23.1044	-51.241
87.2526	-20.0753	-53.8722
87.7315	-24.605	-50.276
85.3238	-27.133	-47.7936
89.2132	-28.4459	-37.2162
89.7664	-25.9806	-40.4566
88.9445	-29.9449	-34.534
89.0464	-29.7396	-38.1498
86.7872	-37.0633	-32.7369
86.1167	-38.3492	-29.2519
85.3347	-39.0924	-33.5858
87.7145	-34.3219	-36.3652
88.0418	-33.8319	-32.1032
87.0974	-33.5226	-26.5373
86.4806	-35.4365	-26.3282
87.871	-32.7198	-28.5412
86.527	-32.4358	-25.4425
74.8539	-42.5626	-19.972
74.2099	-43.5349	-20.1452
75.894	-41.8234	-21.9002
74.8774	-40.7824	-16.072
80.4988	-40.2898	-21.0148
81.0579	-42.0297	-23.2009
82.2048	-38.6588	-21.0091
79.8242	-37.2959	-19.1349
78.9074	-40.8849	-21.4966
88.8463	6.09597	-32.1053
88.8602	7.68025	-32.4188
87.6001	2.93504	-30.172
89.1722	5.88718	-32.6308
88.7569	8.78334	-32.7727
90.2609	11.5862	-35.5403
88.0022	8.82596	-32.825
93.4406	-15.0481	-52.7621
92.4482	-18.9507	-49.0579
94.2642	-9.98962	-55.5692
94.112	-0.977314	-55.0544
93.8747	-1.92625	-54.44
94.2665	-1.80421	-55.8357
94.1815	0.778374	-53.9326
89.3514	6.54042	-34.8022
89.4254	6.37276	-34.2144
88.8514	4.9494	-34.6418
89.8249	7.86977	-36.1941
89.2592	5.69997	-33.1263
88.4586	2.61982	-32.1983
90.5757	9.44875	-35.5421
92.537	-14.7884	-46.9677
93.6404	-12.0941	-47.9393
90.9748	-17.9245	-45.105
88.3758	3.02791	-35.7671
88.8325	4.5009	-36.6719
88.2725	3.03005	-35.2283
88.8242	1.71632	-37.1926
89.0843	5.01937	-38.0737
89.6366	4.09118	-39.8777
87.7294	-18.3377	-41.3456
88.578	-20.2731	-41.6793
85.0144	-10.1333	-27.7248
86.0518	-5.82778	-28.9336
84.889	-9.82008	-26.5018
83.9184	-14.7563	-26.5459
87.7227	-1.09048	-34.3764
88.0016	0.753015	-34.2447
52.9006	-64.7576	-62.7981
53.4562	-60.7353	-66.1873
54.098	-64.5361	-60.0523
25.4483	-0.662557	66.5554
27.1626	-4.277	67.5645
25.9567	0.805215	66.0376
23.1877	-0.180907	66.7906
20.0658	2.13071	68.4351
20.5028	0.969895	67.9559
20.5083	4.85654	68.0382
19.1783	2.01726	69.8439
52.3597	56.4836	33.5994
52.6136	54.5336	34.8622
57.1949	51.0153	30.1236
52.287	57.9534	32.1343
47.0413	60.0646	36.6997
8.0057	-0.310141	77.337
7.43534	0.501438	78.2776
7.62541	-1.15541	77.2167
9.29536	-0.561302	76.6501
9.92963	3.2	79.6386
8.46162	3.02095	80.2084
11.134	2.04111	77.9474
10.6071	4.31865	80.2169
47.6078	34.6346	37.5439
47.0662	34.8148	37.6472
48.319	34.0607	37.2476
47.4195	35.3693	37.8541
19.3859	33.9309	42.9634
20.0378	33.6477	42.9235
19.8703	33.8864	41.9289
19.0323	33.8659	43.8149
16.2426	10.7717	76.6317
16.4321	9.72335	76.8394
16.5554	10.5591	75.7645
15.1393	11.9221	78.026
84.1153	-30.5423	-44.5193
82.8816	-32.6315	-42.3007
82.7579	-28.7864	-45.8567
85.2715	-31.813	-43.5218
66.4659	81.651	-26.9004
63.9053	85.4621	-26.8038
67.0848	78.3139	-21.1835
68.839	79.831	-36.4126
28.0871	-37.7501	69.5192
28.6354	-36.0751	68.3385
28.4034	-40.8048	68.9405
27.0321	-37.0211	70.8209
27.7758	-27.0933	66.5908
26.3515	-26.8329	68.027
28.1628	-24.7204	64.5151
28.4047	-29.1616	66.4925
-17.8075	-76.2678	77.35
-18.6136	-74.3576	80.267
-20.1838	-76.7092	73.6377
-14.8677	-77.0973	77.5263
-68.8721	8.05481	29.9336
-69.8375	10.664	25.0169
-69.4619	4.56104	30.2315
-66.679	10.0186	33.1683
-64.2832	12.4597	35.2799
-61.7953	12.2435	39.4674
-63.743	16.0034	32.3979
-11.7539	60.5761	49.3186
-13.585	58.2921	49.2393
-9.22896	56.6587	50.1239
-9.04154	61.7914	49.3072
-15.2886	63.3612	48.323
-24.7459	40.3281	42.8832
-24.3809	40.6317	41.5573
-22.746	38.4948	42.5709
-24.8743	40.435	43.7927
-27.2954	42.1692	43.2264
-8.68879	39.0277	51.5711
-8.25445	39.6041	52.1139
-8.98378	40.3885	50.3584
-9.31009	37.7948	51.3845
-11.7727	38.4785	47.5179
-13.9419	36.5414	46.3252
-11.4071	36.9864	48.8354
-10.3872	40.6337	48.4489
-12.5477	40.2431	46.4426
-45.6456	33.2386	40.3404
-46.0288	32.5704	40.3187
-42.3143	32.1814	43.6313
-45.3764	33.4485	40.2694
-47.174	34.075	37.9982
-15.701	30.9698	49.6633
-17.3005	29.8782	49.1847
-15.1249	30.2666	50.8723
-15.4527	31.9652	49.0577
-20.3474	34.9352	42.3973
-20.5194	35.0201	41.4362
-20.362	34.434	42.4109
-20.0908	34.9372	43.0617
-20.6811	35.7556	42.4257
-26.7518	32.5376	44.4778
-23.4415	33.0755	42.9112
-26.9464	31.7542	42.9207
-31.6821	31.7826	45.5797
-26.7783	32.9624	45.8344
-26.0365	-30.9041	71.9145
-25.7656	-30.7961	72.0518
-25.8563	-30.8518	72.1757
-26.1562	-31.1521	71.5318
-24.741	-29.1503	74.0535
-26.0138	-30.0284	72.8133
-25.0373	-30.1802	73.0352
-23.1473	-28.3079	75.4097
-24.841	-28.5091	74.4443
-26.6492	-30.3759	72.3393
-26.6743	-30.5479	72.2573
-26.8061	-30.169	72.4053
-28.5772	-29.5499	72.35
-28.7485	-28.2317	72.5835
-29.1257	-30.3409	72.015
-27.6765	-29.4033	72.5186
-26.6059	-31.5422	70.8523
-26.2878	-31.8621	71.334
-27.3187	-31.988	69.5159
-25.7538	-30.8265	71.0912
-21.6927	-33.1262	78.6211
-22.1068	-33.9679	78.4301
-19.233	-34.0934	82.177
-21.5423	-32.4635	78.4587
-24.0744	-32.1514	74.9888
-19.6167	-21.0761	79.9956
-19.1211	-19.5406	80.1063
-21.9467	-23.5819	78.236
-19.7895	-21.9826	79.7594
-16.5291	-18.8143	81.7537
-25.0435	-30.5174	73.0111
-23.4954	-30.2177	74.1429
-25.1132	-30.5306	72.8146
-25.1319	-30.6139	73.0471
-77.4933	-34.5701	-17.4279
-78.4199	-33.7173	-17.7306
-77.1139	-38.5192	-19.2558
-76.8066	-34.8345	-16.4993
-86.8712	-28.1716	-31.057
-87.405	-26.9906	-34.1711
-87.9447	-29.5394	-31.125
-86.2915	-28.841	-28.3869
-85.0769	-26.7897	-30.6948
-82.1598	-32.1829	-19.6442
-83.0508	-33.7968	-20.6818
-81.76	-32.3215	-18.7918
-81.5187	-29.4782	-19.9686
-79.9228	-21.0105	-26.2511
-79.7107	-20.0194	-28.2773
-80.5056	-23.3024	-26.4187
-81.4702	-21.0917	-25.3265
-80.7465	-18.8711	-26.883
-87.2559	-2.06636	-33.2829
-87.3615	-1.32668	-32.5312
-87.4441	-1.38389	-34.0496
-86.6299	-4.13863	-33.4818
-90.6762	7.55036	-40.1941
-90.4904	8.4154	-39.4719
-92.0385	7.89527	-43.4275
-90.3664	6.58993	-39.8771
-83.4536	-12.5862	-34.3714
-86.0902	-9.65641	-38.4823
-82.6949	-15.0525	-34.2383
-82.395	-12.8376	-31.0209
-84.8115	-8.79312	-34.374
-89.9892	0.238917	-41.0674
-89.5692	-1.20102	-40.4488
-88.5345	1.75235	-37.2905
-90.5239	1.62309	-42.2998
-91.782	-1.38616	-45.5221
-81.3698	-33.5438	-41.0591
-82.6539	-32.5042	-42.4616
-80.0343	-33.0468	-41.2403
-81.1174	-35.6796	-39.0671
-92.6923	-15.202	-48.2301
-93.0079	-14.3076	-49.4856
-91.6699	-18.0181	-46.9434
-92.5821	-14.8677	-47.6784
-93.0478	-13.0546	-51.5231
-93.3613	-10.8108	-51.133
-93.1227	-10.4125	-53.5526
-92.9601	-13.9394	-52.3375
-87.7143	-25.9523	-36.6103
-88.0787	-24.232	-39.0781
-88.6163	-26.9931	-36.9203
-85.9396	-24.0433	-36.0253
-89.7693	-13.7989	-44.6803
-88.367	-15.4462	-43.2782
-89.8788	-12.4532	-44.7111
-91.3663	-14.4515	-46.1107
-87.4675	-18.2466	-41.4722
-88.3146	-20.1753	-41.8118
-85.864	-18.8202	-38.9986
-79.3235	-26.5013	-17.6366
-79.0098	-25.534	-17.3225
-80.0762	-26.2922	-18.5533
-79.6732	-28.8391	-17.5544
-78.9123	-23.7874	-17.1061
-78.4991	-23.7302	-16.1918
-79.3724	-21.792	-17.6951
-80.855	-15.0908	-20.007
-81.4122	-12.0286	-21.0817
-81.2751	-15.628	-20.7474
-80.511	-15.5293	-19.4675
-80.1218	-16.1836	-18.8058
-79.8833	-18.582	-18.3863
-79.7272	-15.8385	-17.9508
-82.6825	-25.2672	-28.9263
-82.4832	-23.9084	-30.9948
-83.1334	-25.3537	-26.7443
-83.031	-12.1622	-29.5258
-81.8197	-15.751	-28.0635
-84.1971	-11.0853	-28.819
-84.4051	-8.60138	-30.9066
-81.5769	-17.558	-27.2088
-82.4152	-17.5715	-26.6675
-93.172	0.844097	-50.7726
-93.4239	-0.68791	-52.101
-93.0781	0.561092	-50.0997
-93.2745	1.49934	-51.244
-93.5544	-4.37238	-51.8288
-93.6714	-5.08675	-50.1118
-93.4058	-2.21775	-50.4749
-93.4031	-3.29276	-52.9999
-93.5696	-6.17278	-52.2225
-89.9971	6.00405	-39.9335
-89.0856	5.5496	-38.7124
-90.7761	5.53634	-42.546
-91.7524	4.6426	-45.7082
-91.0465	3.78663	-44.8368
-92.7161	5.57103	-46.7658
-92.9504	3.39512	-49.5234
-90.7388	2.74491	-43.522
-92.2476	1.27454	-47.3357
-89.3456	4.12498	-39.9726
-40.8275	45.416	42.39
-40.7309	45.0582	42.1418
-37.9114	46.4518	43.0001
-41.0104	45.8088	42.6899
-43.3986	43.9529	41.4965
-23.6401	-77.2479	68.2102
-26.1072	-76.049	67.8585
-22.5595	-79.3264	64.2658
-48.0243	37.6525	38.0487
-48.3028	38.1923	38.183
-48.9524	35.657	37.2231
-47.7583	37.404	38.0502
-46.9178	40.0664	39.0529
-51.4697	39.174	36.5013
-50.4515	42.3141	37.8576
-53.4023	40.2252	35.0255
-51.5089	36.2582	35.7469
-49.5187	38.658	37.8399
-71.3919	-45.9997	-9.39068
-70.6205	-48.2121	-9.2753
-71.6768	-44.1337	-8.41886
-72.3413	-45.4212	-14.2123
-19.4842	35.0644	43.436
-19.7744	34.2874	43.5684
-18.9495	35.0017	43.6779
-19.7471	36.0514	43.3433
-21.4753	37.0139	42.501
-21.2836	37.0278	43.3974
-21.2629	37.0354	41.0781
-17.6998	38.0311	43.4156
-19.0324	39.9363	43.0532
-18.4165	37.8727	43.0979
-17.1823	36.3596	43.9974
-16.8598	38.3254	43.8414
-7.61044	40.9416	52.3818
-7.57056	42.9255	51.5735
-7.05562	41.1906	53.0087
-19.6644	-28.0512	77.4987
-16.8287	-26.7519	79.877
-20.0228	-27.3569	77.6029
-20.2995	-29.1021	76.3969
-63.4185	-68.4598	-10.4445
-64.6179	-66.2899	-11.3241
-62.847	-71.4032	-11.953
-62.3454	-67.2381	-5.11715
-78.8554	-2.89143	-17.7716
-78.1436	-9.26055	-13.0937
-78.2962	-0.770932	-13.6216
-79.5752	3.76405	-23.3447
-79.4434	-4.3664	-20.31
-64.563	-73.8624	-23.219
-63.943	-75.1316	-18.2318
-65.3102	-69.8816	-24.2223
-64.1116	-76.2719	-24.731
-62.9021	-109.488	-27.6946
-62.9632	-118.037	-29.3088
-63.1299	-111.772	-21.4392
-62.6617	-100.447	-27.386
-61.1732	-106.42	-35.4034
-25.1427	-31.1025	73.2812
-23.7501	-31.1179	74.7469
-25.197	-30.8984	73.136
-25.2774	-31.306	73.2625
-26.2615	-31.4085	72.882
-27.2908	-30.762	72.2569
-26.4917	-31.8723	72.9795
-25.64	-31.5853	73.1566
-26.6007	-30.8806	72.3868
-21.2227	-32.0074	78.5371
-18.711	-32.4139	81.868
-21.2921	-31.5486	78.06
-28.17	-74.9226	67.672
-28.5898	-72.786	70.76
-32.1489	-75.1227	61.7681
-48.3538	-68.3574	-67.8557
-47.4687	-71.4099	-67.2103
-51.0755	-66.905	-64.4458
-47.6231	-65.4224	-72.6455
-56.4602	89.9753	-9.16275
-57.159	86.586	-5.13914
-52.5752	94.0206	-7.50211
-58.3498	90.0361	-16.4721
-90.3261	-24.8081	-46.3347
-91.7277	-20.6346	-50.6281
-89.6756	-25.2538	-47.7046
-89.0603	-28.2224	-42.5889
-90.7554	-23.6881	-45.4836
-84.4997	0.516198	-27.851
-83.609	-3.48641	-25.6927
-83.0172	0.737734	-27.4932
-85.2311	4.53167	-30.249
-85.7	0.302571	-28.2156
-81.7989	-20.166	-21.6681
-81.2323	-20.5949	-20.4413
-81.7752	-18.4963	-21.8623
-82.3285	-20.7478	-23.1702
-82.3515	-22.9403	-22.018
-81.2538	-26.5096	-20.1319
-80.8879	-23.4916	-19.7898
-82.2312	-26.5269	-21.4653
-92.7637	-15.6644	-54.6639
-93.2336	-15.3859	-53.6376
-93.5323	-9.99229	-57.5427
-91.908	-15.9162	-55.6601
-90.76	-16.0719	-56.6631
-89.8789	-20.9153	-53.0101
-91.2506	-10.3882	-59.4961
-89.2517	-15.9353	-57.3052
-81.0402	3.39003	-30.3818
-81.5835	2.68357	-28.4561
-80.4502	4.91074	-30.0342
-82.1099	4.86982	-32.6922
-86.2343	-23.7816	-50.9876
-84.4711	-23.0108	-51.3578
-85.0737	-27.0257	-47.9262
-87.4721	-24.502	-50.3992
-86.9821	-19.9844	-53.9818
-88.9736	-28.3146	-37.3825
-89.5177	-25.8628	-40.6052
-88.808	-29.6065	-38.3167
-88.7132	-29.8035	-34.7138
-86.5888	-36.8918	-32.9506
-87.8322	-33.6703	-32.3061
-87.4978	-34.1709	-36.5522
-85.1422	-38.9175	-33.8037
-85.9293	-38.1591	-29.491
-86.9033	-33.3474	-26.7615
-86.3275	-32.264	-25.6658
-87.6657	-32.5544	-28.7521
-86.2914	-35.2517	-26.5645
-74.755	-42.3131	-20.3001
-74.7869	-40.5255	-16.412
-75.7783	-41.5867	-22.2108
-74.1192	-43.2824	-20.4778
-80.8694	-39.8244	-21.1151
-81.0489	-41.74	-23.4486
-78.9093	-40.5938	-21.7494
-80.6414	-37.0903	-19.3904
-82.9657	-38.3692	-21.2406
-88.5548	6.11705	-32.199
-88.8791	5.90984	-32.7253
-87.3139	2.96074	-30.2671
-88.5681	7.69793	-32.5112
-88.4653	8.7985	-32.8639
-87.7144	8.83937	-32.9145
-89.9694	11.5998	-35.6295
-93.8133	-0.911118	-55.1495
-93.8814	0.839958	-54.0264
-93.9679	-1.73557	-55.9315
-93.5776	-1.85939	-54.5352
-89.0588	6.56365	-34.896
-89.5335	7.89177	-36.2861
-88.5601	4.97522	-34.7361
-89.133	6.39549	-34.3077
-88.9663	5.72346	-33.2206
-90.2844	9.46795	-35.6332
-88.1709	2.64967	-32.2949
-92.2581	-14.7	-47.083
-90.7014	-17.8302	-45.2284
-93.3542	-12.0091	-48.0506
-88.7916	5.04871	-38.1689
-88.5416	4.52929	-36.7664
-88.088	3.05845	-35.8621
-87.9851	3.06015	-35.3235
-84.7479	-10.0705	-27.846
-85.7731	-5.77906	-29.0446
-83.6602	-14.676	-26.6851
-84.6217	-9.75912	-26.6228
-87.4405	-1.05155	-34.4762
-87.717	0.787347	-34.3419
-87.7236	-1.75519	-36.1135
-52.6964	-64.6839	-62.8899
-53.9006	-64.4574	-60.1528
-53.2427	-60.6652	-66.2712
-25.3218	-0.632945	66.5014
-23.0182	-0.0865488	66.7818
-25.8256	0.873138	66.0545
-27.2014	-4.23288	67.5872
-19.771	2.25787	68.4676
-18.9399	2.11255	69.8035
-20.191	5.04254	68.0329
-20.2437	1.11148	67.9264
-51.8909	56.4828	33.8722
-52.3349	54.6595	34.9324
-46.0152	60.5781	37.0851
-51.7347	58.0426	32.5073
-56.8276	50.9609	30.4546
-6.96634	1.19848	78.9834
-7.23464	1.84882	79.4806
-7.62084	0.513034	78.064
-5.80962	1.1487	79.6134
-7.49069	2.77498	80.3165
-8.52509	3.05875	80.0831
-6.40141	3.42715	81.774
-47.8793	34.5416	37.2116
-47.3534	34.7064	37.3
-47.6932	35.2874	37.5305
-48.5428	33.9654	36.9308
-20.6235	34.1122	42.4887
-20.8114	33.9967	41.6
-21.1725	33.8032	42.5058
-20.4799	34.1134	43.2045
-16.0102	10.8033	76.5952
-14.9816	11.9225	77.9027
-16.2934	10.6004	75.7687
-16.197	9.771	76.809
-66.2903	81.4314	-27.1112
-68.6535	79.6472	-36.6041
-66.9057	78.0849	-21.3872
-63.744	85.2298	-27.0194
-27.6753	-37.7422	69.6652
-26.6553	-37.0072	70.9486
-28.0391	-40.8011	69.0516
-28.2389	-36.0729	68.4635
-27.4647	-27.097	66.6541
-28.0893	-29.1653	66.5553
-27.9034	-24.7226	64.5627
-26.0382	-26.8395	68.0955
-9.92235	3.22333	79.5258
-10.5707	4.36711	80.1035
-11.038	2.07094	77.8956
7.37432	2.7197	80.4592
6.37001	3.3583	81.8708
7.07288	1.8024	79.6651
6.76911	1.16929	79.1908
5.60879	1.07071	79.8017
-8.09501	-0.279803	77.1493
-9.25526	-0.53342	76.5093
-7.75294	-1.12687	76.9961
80.5801	-38.6734	-35.5824
79.0136	-38.415	-34.675
81.3307	-35.8221	-38.8832
81.8818	-39.4676	-35.2088
79.2893	-41.3593	-31.3908
70.3107	-41.7217	5.14154
69.3274	-41.0768	13.0924
69.233	-46.5971	5.18338
71.313	-41.6642	-1.95888
71.2558	-36.6347	4.9522
58.1575	-115.378	-7.37458
57.2225	-103.934	-6.40058
55.2928	-116.353	-3.14258
59.2596	-126.317	-8.69045
60.504	-114.199	-11.786
60.0651	-133.854	-10.045
60.7208	-139.67	-11.4526
61.9834	-132.069	-14.6779
57.5207	-135.663	-5.47754
49.7086	-96.009	3.65051
49.8734	-88.9705	4.83558
45.6862	-96.6444	8.03396
50.4602	-105.262	2.36357
53.6299	-95.7897	-1.16735
61.3309	-95.7174	-14.3864
61.661	-103.131	-15.0546
62.704	-95.1017	-19.8186
61.3011	-90.0668	-14.0862
59.1793	-95.6892	-10.022
63.0259	-59.3628	20.0935
64.8243	-55.0333	20.9646
61.6157	-59.4644	28.0487
60.8673	-63.5199	18.6426
63.8941	-59.5533	12.1917
73.1105	39.5855	-5.06448
74.3865	46.2526	-11.4479
68.5713	45.3369	4.50614
72.4104	32.9023	-0.143558
77.0238	34.9586	-15.9526
80.2354	35.679	-59.4694
79.4632	30.1297	-68.1085
78.6937	41.3165	-66.4093
80.6692	40.2308	-49.5266
81.1569	29.6429	-52.7344
7.7143	-106.921	38.254
5.11317	-107.068	39.1547
8.51917	-118.193	36.2919
10.8277	-106.402	36.7976
7.55663	-97.5596	41.2183
9.54317	-130.942	32.7052
10.4986	-142.017	29.2832
13.1685	-129.962	31.2287
6.2319	-131.181	33.8304
3.68596	-150.46	28.9792
7.37087	-150.071	28.2839
3.39267	-142.713	31.0453
0.0802322	-150.482	29.2925
3.95827	-156.078	27.6155
67.6675	-57.103	-36.6326
70.173	-51.0849	-35.5681
67.4564	-62.3095	-30.4723
65.1381	-63.0951	-37.9405
68.1357	-50.4155	-42.0835
68.7591	-45.5623	-46.2036
65.1922	-51.4947	-48.1412
69.7648	-41.4464	-49.8339
71.925	-40.7478	-44.4503
63.1037	-125.011	-31.1833
63.1551	-131.874	-32.5984
61.4033	-122.175	-37.9805
63.7525	-128.164	-24.6666
3.11127	-131.568	34.5704
2.81731	-118.909	38.0873
0.0601382	-131.609	34.9082
68.3149	-40.2973	21.0535
69.1898	-34.625	20.0455
66.9663	-39.0165	28.3492
67.4313	-45.6048	21.3669
64.8027	-59.6295	4.31272
62.9271	-63.614	3.40421
65.4363	-60.4805	-3.63865
66.5517	-55.4571	4.75414
10.9636	-63.8656	91.5807
6.78836	-63.9042	92.9918
10.8793	-68.1882	90.4296
15.5314	-63.7573	89.1793
10.9039	-59.3499	91.6444
20.2183	-63.1435	85.8938
20.142	-67.48	84.9958
25.0326	-62.5774	81.4776
20.1098	-58.7879	85.7091
3.27965	-55.1782	92.7884
6.74441	-55.0578	91.9732
3.26392	-50.9338	90.8594
0.0300961	-55.2281	93.0521
3.25131	-59.5999	93.8443
10.6574	-72.1134	87.9028
10.6243	-75.2658	83.7269
15.1742	-71.9805	85.7974
6.68566	-71.8877	89.1758
10.9674	-77.7125	78.2568
6.86665	-77.9721	79.3151
11.1384	-80.2516	72.0529
15.772	24.2629	57.9388
16.245	21.054	61.4256
18.321	22.0412	57.094
15.1579	27.1302	54.6469
13.2694	26.8522	58.7981
50.487	-5.32436	59.7545
56.8385	-7.80614	54.1237
49.9536	-0.0113947	58.5534
43.4772	-2.8019	63.5213
50.5757	-10.3669	60.4617
62.2189	1.02263	45.6595
66.5139	-0.357299	38.8909
60.9622	6.91343	44.902
56.1682	3.59199	51.8795
62.335	-4.68857	46.6319
70.0924	15.2274	20.8885
72.3481	12.8433	16.3869
68.8503	22.4261	17.8807
67.3454	17.9242	24.3191
50.5185	-15.3735	60.7331
50.1445	-20.4548	60.9334
55.9628	-18.0788	55.1379
44.5036	-12.7668	64.8304
2.18897	30.7251	73.438
1.99988	34.423	68.1669
0.113788	31.0575	73.482
2.29884	27.4343	78.1123
4.36042	29.8486	72.9067
30.6825	89.6973	26.5551
25.5194	91.106	28.1745
29.414	84.3443	31.4755
36.2509	87.4219	24.3928
32.0702	94.5418	21.3011
3.26855	-83.9495	66.1371
2.97955	-87.6704	57.9141
6.68212	-83.8699	65.4896
3.35245	-80.6634	73.6756
0.0223481	-83.9744	66.3411
65.0263	-37.2825	35.4359
62.346	-35.086	42.3888
63.789	-43.6352	36.5837
65.9646	-31.2275	34.4002
3.17888	-71.8513	89.7253
3.23138	-68.3086	92.3297
0.0502602	-71.8529	89.8483
3.23038	-75.2623	85.277
3.33699	-78.0073	79.7854
0.019966	-77.9994	79.944
40.2366	-68.194	61.0668
34.7091	-68.9167	67.2284
39.0435	-71.6528	58.7507
45.4836	-66.4244	55.7002
40.6168	-64.0112	63.4356
42.6405	-77.6898	36.4828
39.1163	-81.9109	31.8633
46.6932	-76.1747	30.8992
45.8902	-74.3095	40.5296
37.7016	-79.4487	41.9106
2.63415	-91.6724	49.4605
5.33548	-91.6768	48.6108
0.037505	-91.7321	49.6261
2.50008	-97.6713	42.6255
7.2582	22.5934	80.1582
7.63887	20.3892	83.2921
9.80664	20.6188	77.9357
6.98962	25.1874	76.1321
4.75526	23.99	81.5815
25.7077	3.33209	65.2784
29.8259	1.3716	65.5059
23.9824	7.98837	63.9409
22.0475	6.45947	66.0118
29.4515	-31.2593	71.7939
28.4483	-30.6766	71.9359
28.5298	-31.9949	72.0532
30.3128	-31.7753	71.6553
12.3164	0.681296	76.4563
13.9181	1.99814	76.5691
11.5965	-0.321722	76.0697
14.1405	0.183946	75.0624
11.4193	-4.04738	74.9468
12.1548	-5.46624	75.3453
13.8484	-4.49441	73.3845
11.263	-2.8339	74.8791
9.4296	-3.22979	76.1702
1.62224	1.05506	82.9279
1.70016	2.33875	84.4244
0.00690893	0.86405	83.3122
1.64553	-0.184751	81.7623
3.1854	1.26687	81.9552
16.2806	-4.04907	71.7344
18.5951	-2.90078	70.0104
15.9098	-2.7775	71.9984
16.9313	-5.60583	72.0519
8.2295	12.1207	88.14
5.64389	12.4182	90.603
7.85335	9.75676	87.5755
10.7935	11.367	84.9473
8.33639	14.1191	88.0928
26.1208	-44.4208	77.6042
29.3219	-42.757	74.7891
24.9223	-41.0183	77.9513
22.2703	-45.5099	80.6703
27.2767	-48.3335	77.2469
28.8987	-24.831	73.2852
28.2637	-20.5791	73.6932
26.6313	-23.6034	74.4573
30.9898	-25.885	72.4005
1.99407	-4.68202	80.6806
2.10944	-6.62122	81.02
3.69444	-4.49667	80.3453
1.82632	-2.86105	80.6902
0.00239862	-4.80187	80.812
6.63271	28.3136	71.7732
9.07686	26.1119	70.2166
6.42418	31.5854	67.0689
18.7102	7.3088	71.8017
17.6788	9.53863	73.1059
18.0062	8.53686	73.3322
18.8911	5.62352	71.5356
19.0537	7.42168	70.6083
4.5749	-1.13409	79.5202
4.64395	-2.75729	79.6043
5.92738	-1.66463	78.5644
4.55005	0.0484321	79.8568
3.2745	-1.16677	80.3187
4.45677	1.17667	80.76
4.55349	2.44876	82.0955
17.1088	9.91817	74.7387
16.7103	10.8429	74.6734
17.6421	8.05155	74.4114
18.5557	2.90371	71.2951
18.0879	4.58277	73.0322
17.5167	0.553332	71.7501
2.64224	-12.5289	84.2544
2.98271	-14.1609	85.4501
5.12263	-12.0026	83.9732
2.45783	-10.4765	82.7657
0.0279347	-13.0221	84.4127
23.517	-7.92205	70.3075
20.9266	-7.80956	71.4602
25.3483	-11.7889	71.7592
25.9863	-8.1638	69.4911
21.7793	-4.29823	69.0137
10.1063	-41.0346	86.8089
10.1519	-39.0945	87.3213
6.50619	-41.1823	87.5108
10.1135	-43.4836	86.6947
13.9173	-40.8841	85.5088
24.4923	-26.0156	75.9134
24.7559	-26.8957	75.3729
26.4786	-28.2212	73.5844
24.4125	-24.6716	76.0798
16.423	11.4207	74.3601
16.5069	11.8522	73.0079
14.89	13.1165	76.2329
17.5452	-40.6536	83.619
17.8072	-42.9686	83.389
20.8795	-39.8939	81.2116
17.3072	-38.8189	84.0443
3.38889	-41.3344	87.7276
0.435078	-41.3447	87.7242
3.43956	-43.6736	87.7374
3.26201	-39.5436	88.3795
60.4459	44.559	26.6108
59.6601	43.9934	28.5471
62.2421	37.844	24.0223
61.1025	45.3629	24.4511
40.0013	74.4832	31.1087
33.9079	77.0435	33.9103
39.8334	69.798	34.9407
46.464	70.6906	27.8264
41.0506	79.4569	26.4227
52.9969	65.7835	23.7989
52.3455	61.9294	28.0592
58.8884	59.6637	18.7888
54.1344	70.2514	18.518
41.198	62.8666	39.4884
40.5128	65.0006	38.3541
35.2971	64.7979	41.864
42.2179	60.5609	40.2967
62.1337	45.9047	21.1021
62.9172	48.1003	17.5876
57.7127	53.5237	26.4899
65.026	38.2321	17.49
23.6658	56.1151	46.4402
24.2789	53.8048	45.6722
27.5841	56.4664	45.5818
23.1697	58.0255	47.0474
20.2621	54.838	47.0513
6.14104	38.666	56.5743
8.52032	36.0485	55.5452
6.0634	40.2151	54.9593
3.72109	40.6712	57.4933
6.26336	36.8989	58.9481
30.1901	16.8181	55.6581
31.9795	13.1101	58.364
37.5605	15.4156	54.6157
28.4993	20.0473	53.4184
24.1376	18.4924	56.2933
58.9021	23.2214	32.0736
61.4637	21.3333	30.6053
59.2923	27.1018	29.0559
56.2545	25.2477	33.2101
57.2315	20.7925	36.7225
6.37953	34.5604	62.4409
8.74638	32.0495	61.4141
4.01109	36.4882	63.2367
42.6264	58.3536	40.8321
47.7698	55.9809	38.5676
37.0703	59.8109	42.9176
42.6448	56.1576	41.17
52.4422	52.6685	35.8837
51.8385	50.7609	36.8293
56.2296	48.2198	32.9403
55.7769	32.9168	31.8183
55.8256	36.9926	32.3969
53.9095	33.3147	33.4289
55.2066	29.5121	32.245
57.4382	32.528	30.2103
44.1416	40.6522	40.8187
45.7256	38.8504	39.6277
44.6107	41.3264	40.5094
42.3446	42.1134	41.9777
43.7702	40.0167	40.8127
40.3141	43.4235	42.747
40.523	44.3151	42.4286
38.0375	44.3654	43.1833
40.1217	42.6515	42.8132
40.6303	44.7627	42.2499
38.0464	45.7668	42.6455
42.9368	43.3778	41.4324
35.2358	44.8773	43.4684
35.0655	45.7882	43.1044
32.2663	44.7402	43.5353
35.4157	44.0754	43.5442
34.9521	46.2353	42.9087
31.5838	46.0599	42.8295
34.8621	46.5161	42.9412
29.2421	43.9379	43.6779
28.6782	44.7187	43.2417
26.4819	42.5658	43.8214
29.7942	43.2485	43.8216
23.4475	40.7664	43.8696
22.4315	41.3542	43.441
20.5926	38.7714	43.9585
21.7445	41.5839	43.1296
21.2099	41.7232	43.0817
18.8661	39.3683	43.423
25.0924	43.627	42.9959
18.5922	37.0562	44.1867
17.7014	37.3123	44.0416
20.5103	41.9522	43.3834
24.0291	44.0926	43.3012
19.8028	42.3081	43.7892
34.6899	46.9289	43.2693
34.5478	47.4096	43.679
31.141	46.7308	43.1741
49.1476	32.9412	36.8713
50.1178	31.629	36.3612
49.4273	33.7341	36.7727
48.1472	32.3686	37.8876
47.3013	34.7814	37.1839
46.984	35.4454	37.4314
47.9859	34.65	36.3976
46.74	34.3327	37.888
32.217	56.2476	44.473
37.3687	55.3619	43.0957
31.842	58.3605	44.6743
32.4833	53.9318	44.3355
48.552	45.2819	39.5206
47.1928	43.572	40.4634
49.8326	47.0662	38.4835
45.2275	47.4901	41.4122
38.5432	27.1828	47.2876
44.2337	27.2235	44.3241
38.0227	28.7077	47.0724
31.6607	27.7145	48.9667
39.0125	25.6504	47.5939
25.7847	28.7324	48.8778
26.0613	30.0604	48.3761
21.6369	29.8668	47.8912
25.8265	27.2597	49.3225
18.0421	32.5245	46.1347
18.5982	32.8484	45.443
17.3697	33.4104	45.5974
17.0052	32.504	46.9612
18.8286	31.7872	46.5379
37.7355	30.0065	46.7408
42.8881	30.3164	44.1509
37.5012	31.0833	46.4066
31.5665	30.3604	48.2575
20.3309	32.4424	45.6526
20.1741	31.7363	46.271
22.0423	31.9745	46.5768
20.3036	33.047	45.0969
19.401	32.8049	45.2844
18.6977	33.1043	45.0636
17.9744	33.6317	44.8577
18.6868	33.4226	44.6596
13.7238	42.4045	46.0561
13.0256	45.1394	46.9311
14.4933	39.507	45.1973
15.5646	44.5588	45.6122
16.4703	34.5113	45.2061
16.9989	34.4897	44.8054
15.7162	34.7316	45.6584
27.5076	45.6762	43.3141
27.0911	46.141	43.7716
27.9678	45.321	42.9534
15.1351	38.3037	44.7042
14.7405	36.6347	45.2848
16.4283	40.3079	44.399
37.3426	31.7671	46.1184
31.5329	31.9872	47.3841
37.2637	31.9734	45.6377
20.326	33.4592	44.7081
20.538	33.5807	43.9867
19.4639	33.5837	44.4187
22.3003	33.2204	45.4117
37.2825	31.6028	44.704
42.1188	32.0852	42.7567
37.3817	30.9879	43.5256
45.2477	33.3061	40.0553
45.6462	33.0037	39.021
21.0713	33.3032	42.5834
21.28	32.9541	41.2527
18.7479	33.6764	44.341
46.8132	36.9395	38.6297
47.2998	37.1914	38.4351
46.2106	36.8373	38.6674
2.83927	54.6563	51.3933
-0.121479	54.5073	51.6283
2.23718	51.573	52.1669
5.33567	54.0445	51.2066
3.70153	57.9741	50.6085
18.9686	25.8141	51.7945
18.7449	27.3717	50.3746
16.9699	27.2973	51.9707
19.6864	23.5134	53.7773
22.1621	24.2914	51.7537
15.0139	29.0053	52.4514
12.8373	31.015	53.167
15.3107	32.8068	48.2811
13.4014	33.8618	49.2917
15.2893	33.9528	46.9372
9.83113	42.4156	49.2412
10.8636	44.5438	48.3387
9.18185	43.6702	49.8533
19.6287	30.7787	47.1801
19.0919	29.8742	48.0849
18.8287	28.7334	49.1268
21.416	27.3489	49.4967
20.5492	-29.4819	75.7316
20.2791	-29.4648	75.2483
23.6212	-30.2678	73.5354
17.2359	-28.5105	78.0628
25.3135	-30.6577	72.4136
24.8864	-30.6089	72.1884
3.35582	-17.4983	86.9207
6.2614	-17.4125	86.2427
3.25963	-16.1323	86.5679
0.0109219	-17.7947	87.305
3.32214	-19.0541	87.0859
8.86075	-20.923	85.3574
8.87827	-19.3738	85.553
6.24222	-20.5852	86.1437
8.60409	-22.4378	85.0102
11.3775	-21.5455	84.4381
14.0642	-22.2894	83.136
14.1013	-20.8667	83.3839
14.052	-23.935	82.6409
17.1271	-23.6086	81.0643
8.77406	-17.7713	85.5519
11.2888	-18.5163	84.6705
8.6432	-16.3268	85.3515
12.9144	-17.0297	83.4818
13.6974	-18.1982	83.4625
12.4263	-15.9019	83.2063
10.3011	-15.9341	84.4919
20.5334	-26.1673	78.0265
20.4067	-24.487	78.8722
8.06718	-24.012	84.557
5.34354	-23.5357	85.37
7.63624	-25.0717	83.9808
11.1206	-24.6608	83.4216
14.2672	-25.7514	81.7413
14.1649	-26.8636	80.9631
27.0824	-29.8269	72.5072
27.5173	-30.2544	72.1943
27.2255	-29.6389	72.5442
26.3593	-29.1013	73.2519
20.923	-29.5601	76.3967
20.8267	-29.4575	76.0655
17.5948	-28.6671	79.1505
20.9577	-29.788	76.7821
21.4585	-31.0497	77.7391
21.2722	-30.5523	77.5295
18.4766	-30.9394	81.2345
15.4921	-30.6138	83.9905
15.2527	-29.7691	83.4947
12.4492	-30.1444	86.0626
15.9035	-31.53	84.2187
8.12891	-27.4725	86.204
8.55316	-28.6782	87.0604
11.6043	-28.0159	84.7738
7.80097	-26.3817	85.2322
4.96233	-27.3452	87.1228
2.65105	-30.1311	89.256
2.778	-31.3353	89.7364
5.52766	-29.8324	88.7318
2.50741	-28.8585	88.5735
0.0628972	-30.304	89.4057
25.5677	-31.8844	71.8467
25.3688	-31.1076	72.266
25.6488	-33.4334	71.7179
23.5125	-31.3532	72.9574
2.09382	-26.7664	81.9789
2.10221	-25.6987	83.2526
4.31819	-26.8857	81.5403
2.08316	-28.8425	81.1592
0.0928539	-26.7639	82.1208
2.91572	-32.5958	90.1174
0.111079	-32.8018	90.2329
3.05809	-33.797	90.3101
6.04594	-32.1661	89.6078
3.19065	-37.8545	89.2301
6.50428	-37.457	88.8573
3.19489	-36.3103	89.9656
0.255046	-38.0805	89.31
8.32045	-15.2969	85.1366
7.53241	-13.9077	84.7128
5.97035	-14.8588	85.6123
2.37961	-27.517	87.643
0.0354575	-27.5755	87.7458
2.23089	-26.2013	86.5444
2.14574	-25.4735	85.7716
4.62409	-25.4696	85.4374
2.18626	-25.212	85.1065
0.0389935	-25.5928	85.8555
7.65884	-25.744	84.5806
11.0247	-26.4775	83.2905
7.53677	-25.5107	83.992
2.20839	-25.2181	84.2861
4.4751	-25.2655	83.9517
0.0526361	-25.2946	84.3431
14.299	-27.4899	81.4529
14.1735	-27.2904	80.8818
14.525	-28.0024	81.999
16.7231	-34.4587	84.8145
16.9657	-35.6586	84.6826
16.4832	-33.4316	84.7568
13.6678	-34.4399	86.86
10.0539	-34.2759	88.6073
10.1728	-35.5797	88.3457
9.87363	-33.1403	88.6561
6.43767	-34.4981	89.7582
3.1347	-35.0125	90.2792
0.172104	-35.2593	90.4014
13.9171	-27.3079	80.1536
10.6384	-26.2732	81.8773
13.6494	-27.3134	79.3008
27.8891	-30.4448	72.0356
27.5166	-30.7593	72.2168
27.8081	-30.1089	72.1799
26.8915	-30.6641	72.1849
26.302	-30.7382	72.4251
26.8389	-30.8781	72.3369
25.4412	-30.7345	73.0073
23.8342	-30.5346	74.4212
7.14772	-27.1803	80.7808
7.21879	-26.1214	82.094
10.3618	-27.7068	79.6938
7.22401	-29.2274	79.9766
7.34978	-25.5897	83.1755
10.6384	-26.2732	81.8773
10.138	-37.2259	87.8995
13.8799	-37.2647	86.3479
16.1614	-32.4462	84.5612
13.1749	-32.2583	86.6884
17.1429	-37.1811	84.4166
20.0255	-36.5181	81.869
13.2356	-27.0085	78.5583
10.2964	-26.1307	79.7642
12.7235	-25.6191	77.3989
16.186	-27.9597	76.9303
7.32764	-25.5181	80.8088
4.89056	-25.1369	81.1434
7.76844	-24.3669	78.9563
7.26193	-25.6927	82.088
12.3667	-22.7027	75.844
10.0257	-22.0569	76.57
12.0345	-19.1081	74.1525
14.8338	-23.4522	74.8446
25.5693	-36.67	72.1018
25.3285	-40.5365	72.7367
23.4602	-36.1898	73.4935
2.11693	-32.3126	81.5273
4.38901	-32.393	81.1583
2.17758	-36.3297	82.3513
0.186161	-32.3006	81.6228
7.77382	-21.5655	77.0948
5.42006	-21.1894	77.3815
7.53212	-17.9772	75.2336
7.30345	-32.6286	80.4353
7.3278	-36.5822	81.4354
10.5407	-33.1087	79.4581
29.0723	-32.8791	66.5198
29.9345	-33.3967	64.7526
11.1992	35.7626	50.4505
10.7334	34.7328	52.3776
80.7215	-16.3963	-58.8695
79.9116	-20.2744	-56.9117
79.4391	-16.6789	-62.4628
81.3748	-12.168	-60.135
82.0395	-16.372	-56.6975
80.6692	9.89484	-28.6677
81.1016	11.6619	-33.4787
80.1408	13.2317	-24.3718
81.2515	12.4202	-39.1386
81.4825	17.4391	-41.8493
80.9442	7.17669	-38.8538
81.2968	10.1936	-45.8463
74.363	-37.41	-43.0235
76.6972	-34.7493	-41.9989
73.4159	-41.0881	-39.4119
75.5944	-33.9717	-45.8998
76.6463	-30.8429	-48.9486
74.3221	-33.3932	-51.1772
77.8451	-27.4539	-51.847
78.8033	-29.1238	-47.306
83.8675	-16.1083	-55.5464
85.8627	-15.7274	-55.5612
83.2673	-19.7475	-53.7767
84.2497	-11.753	-56.7607
86.4548	-32.5566	-42.3191
87.621	-28.9341	-45.4076
87.5474	-32.6793	-40.8056
85.1728	-36.2602	-38.8099
91.06	-22.5892	-44.7505
90.8747	-21.8374	-44.1951
78.6308	-42.7379	-27.8686
79.5308	-43.1464	-26.9317
78.3228	-42.5837	-25.4038
78.221	-41.3504	-29.9911
80.1658	-32.118	-17.8423
79.7533	-32.7549	-17.6502
79.1595	-33.7188	-17.6996
90.7796	-21.3833	-43.9065
90.2297	-21.7116	-42.8126
93.7849	-8.27768	-51.7654
93.4532	-7.97774	-53.3744
94.1434	-9.18813	-49.8127
93.9736	2.09868	-52.3214
94.2471	3.3863	-52.8308
94.2502	5.65652	-52.4596
94.0395	5.97286	-50.1808
94.3897	6.05664	-53.0566
93.9483	8.40257	-50.0441
84.2725	-9.76692	-25.0214
85.6346	-4.49807	-26.9665
83.6045	-8.65786	-23.9291
83.1572	-13.6149	-23.449
77.9279	-23.7834	-14.0274
76.998	-23.5351	-11.2428
77.2315	-27.5611	-13.3594
78.595	-19.4267	-14.8349
82.4751	-21.1439	-24.172
82.7284	-23.0929	-24.0101
82.7203	-19.376	-24.9294
81.0686	5.38372	-38.8194
81.7236	5.89865	-42.4967
81.6188	5.66141	-38.3876
90.0139	15.2437	-40.7772
91.5246	16.2605	-44.6158
88.7226	15.3508	-42.1808
88.306	12.611	-36.9852
91.1851	14.6307	-39.5187
90.2137	15.7262	-50.6861
89.0391	16.1692	-47.1242
91.3974	15.8085	-49.8824
91.027	13.2349	-54.2906
88.8836	13.702	-51.6058
91.8906	-3.932	-60.4022
90.4946	-4.40766	-60.5306
91.9946	2.8135	-59.7108
93.255	-3.6245	-59.6283
86.6511	-0.0340135	-28.6136
86.8833	-1.52248	-29.1524
94.4709	-3.905	-56.0276
95.0115	1.53461	-55.3525
93.8612	-6.5959	-55.7131
94.8239	-4.09407	-56.1594
93.3363	10.2644	-46.4521
92.3593	10.7596	-42.4233
93.4036	8.72606	-46.7171
93.4357	11.4493	-46.149
87.8579	-0.0637636	-31.9328
87.3403	-1.67052	-30.8783
88.37	2.05224	-33.2899
93.7245	-2.58371	-53.7449
93.6032	-4.96509	-54.9784
91.0316	2.70258	-43.4265
90.8149	1.57931	-42.2032
92.5409	1.22268	-47.2397
85.4315	-6.88391	-31.3998
85.5256	-6.75158	-32.1879
86.3102	-5.15608	-30.7482
90.3499	-9.39064	-45.135
92.7358	-7.29551	-47.4659
89.9477	-8.79277	-44.7244
90.2467	-10.492	-44.9516
79.2104	-15.5467	-15.9713
79.8641	-11.2908	-18.0925
78.3757	-15.1322	-13.4189
84.4629	-6.67429	-57.0546
82.8964	-7.34772	-58.4063
84.4247	-2.07196	-56.3091
86.2934	-4.22449	-56.6453
88.307	1.49654	-57.0982
87.9463	5.96612	-55.1273
90.1278	6.84039	-57.5938
88.6063	-3.05163	-58.5499
89.1962	-5.37288	-59.6551
88.3382	-10.9186	-58.4975
87.9088	-15.58	-56.6944
80.9223	-28.3416	-46.5696
79.7988	-30.9093	-43.8809
81.8915	-25.7335	-49.1779
82.6322	-22.9076	-51.6227
80.5619	-23.2543	-52.5587
89.4109	-21.4948	-42.004
78.6401	-33.4131	-41.4273
77.3627	-36.3827	-38.1555
80.2549	-33.1731	-41.0751
77.8905	-39.3644	-32.8234
77.1286	-39.4187	-33.1081
77.0935	-41.5618	-27.7079
78.2264	-41.2817	-22.9815
77.828	-40.9115	-23.0044
76.9463	-41.1369	-22.5982
90.5904	-11.314	-45.0863
92.9736	-10.4818	-47.2536
82.7559	-7.77086	-23.1779
81.6868	-7.15786	-22.3375
79.9872	-20.7458	-18.1041
80.3491	-21.0797	-18.6756
83.3072	-26.5617	-22.4127
84.2102	-28.8924	-23.2412
83.7859	-25.5276	-23.6003
82.3314	-16.4149	-22.2193
83.1407	-17.1664	-24.3019
87.4462	8.59453	-52.6549
85.8688	3.66257	-53.3966
86.6196	9.94595	-49.4298
84.2386	1.28871	-54.3086
83.0001	1.0351	-55.6337
83.8171	3.85286	-50.9825
81.8233	-17.6482	-27.0603
82.6594	-17.6621	-26.5199
93.3229	-0.267733	-49.1969
93.2683	-1.63886	-48.3982
86.0045	-6.42746	-33.7799
85.0816	-8.85125	-34.2609
87.1636	-5.92073	-36.6451
89.8932	-7.82397	-44.473
92.05	-4.68298	-46.4258
89.2556	-7.42914	-43.1593
7.77934	105.461	18.2268
7.55246	99.5019	25.3598
15.3639	104.456	17.9885
8.15174	110.95	9.36295
-0.0473979	105.762	18.3988
7.10619	93.1969	31.2435
-0.0345337	93.1118	31.686
6.87934	86.3019	36.3916
14.1271	92.7899	30.4498
28.5632	78.536	36.0422
28.3135	73.5904	39.7307
23.7622	79.2123	37.6883
1.74607	3.78888	86.3507
2.12282	5.4514	88.1765
0.0313758	3.72271	86.9008
3.61101	3.77385	84.9064
2.779	16.8602	91.227
5.56601	16.4978	89.9966
2.71389	18.687	89.9228
0.0324048	16.9673	91.5495
2.88006	14.851	92.0018
2.91274	12.5442	92.1164
0.0737062	12.5976	92.6508
2.82967	10.1477	91.4876
1.73333	-1.41948	81.0188
0.0020307	-1.58083	81.3319
2.25663	-8.56688	81.7464
4.31793	-8.21135	81.6293
0.0247449	-8.79437	81.7597
2.57625	7.74431	90.0557
4.83889	7.53897	88.4443
0.0712173	7.78012	90.7197
2.56983	20.4103	88.2622
5.2375	19.8219	87.3163
2.45813	22.3541	85.7974
-0.0302279	20.5897	88.4406
6.12972	69.5289	46.6548
-0.00885564	69.4273	46.7444
5.92956	66.2703	48.0734
12.2158	69.7653	46.1903
6.34811	73.286	44.5371
1.73297	41.6802	57.893
1.79434	39.9423	60.1421
1.71875	43.2107	56.25
-0.0493552	41.9491	57.9364
1.77541	44.8375	54.9397
3.68671	43.8764	54.6014
1.82681	46.7459	53.8544
-0.0338513	45.0766	54.9992
2.47831	-24.9433	81.1889
0.0706785	-24.9269	81.3138
2.76445	-23.778	79.3494
2.1991	-25.2244	83.043
2.20837	-25.2181	84.286
0.0526284	-25.2946	84.3431
4.4751	-25.2655	83.9517
2.3201	-24.6853	85.1531
